ply
format ascii 1.0
element vertex 1317
property float x
property float y
property float z
property uchar red
property uchar green
property uchar blue
end_header
-0.00644347 0.0698369 0.175741 41 16 35
-0.00552297 0.0698369 0.175741 43 18 38
-0.00468789 0.071133 0.179002 39 17 36
-0.00361387 0.0685451 0.17249 41 18 37
-0.00282257 0.0713817 0.179628 47 23 44
-0.00188171 0.0713817 0.179628 50 29 47
-0.000952861 0.0722925 0.18192 50 30 49
0 0.0686861 0.172845 49 30 49
0.000918404 0.0696783 0.175342 50 31 49
0.00180034 0.0682948 0.17186 49 28 48
0.00264688 0.0669386 0.168448 51 31 50
0.00363308 0.0689094 0.173407 49 30 49
0.00441515 0.0669944 0.168588 50 31 51
0.00550694 0.0696342 0.175231 49 33 51
0.00611669 0.0662952 0.166828 52 36 53
0.00710251 0.0673574 0.169501 47 29 49
0.00780972 0.0658349 0.16567 48 31 52
0.0088865 0.0674209 0.169661 50 34 53
0.00964647 0.0665333 0.167428 48 31 51
0.0107031 0.0676693 0.170286 48 30 51
0.0115739 0.0675462 0.169977 48 29 50
0.0124869 0.0676693 0.170286 49 31 51
0.0130615 0.0660638 0.166246 46 29 50
0.014205 0.0673574 0.169501 47 30 49
0.0143623 0.064097 0.161297 45 27 48
0.0157656 0.0664511 0.167221 45 28 50
0.0161515 0.0644945 0.162297 46 29 50
0.0166793 0.063272 0.159221 45 26 47
0.0176244 0.0636734 0.160231 46 27 48
0.0190153 0.0655758 0.165018 45 25 47
0.0207006 0.0682841 0.171833 45 26 47
0.0213306 0.0674304 0.169685 44 25 46
0.0218916 0.0664358 0.167182 45 26 47
0.0231668 0.0676015 0.170116 44 24 44
0.02462 0.0691811 0.174091 42 22 43
0.0246139 0.0666939 0.167832 43 24 44
0.0260285 0.0680949 0.171357 43 22 43
0.0267794 0.0677242 0.170424 42 21 42
0.0294489 0.0720727 0.181367 43 23 43
0.0328291 0.0778347 0.195867 43 22 43
0.0354048 0.0813976 0.204833 41 20 41
0.0384664 0.0858354 0.216 40 20 40
0.06483 0.140531 0.353638 41 21 41
0.0750841 0.158237 0.398196 44 22 43
0.0968992 0.198693 0.5 42 20 40
0.106181 0.211995 0.533475 43 20 41
0.102137 0.198693 0.5 41 20 39
0.155508 0.294955 0.742238 42 20 39
0.21475 0.397386 1 44 22 41
0.181012 0.32698 0.822829 44 22 40
0.225225 0.397386 1 43 20 39
0.277669 0.478783 1.20483 41 19 38
0.27246 0.459361 1.15596 42 19 38
0.33113 0.546141 1.37433 41 19 36
0.338329 0.546141 1.37433 40 18 35
0.345527 0.546141 1.37433 42 18 35
0.366898 0.568084 1.42955 39 16 32
0.355022 0.538702 1.35562 36 14 28
0.379544 0.564619 1.42083 39 15 30
0.392828 0.573143 1.44228 40 17 32
0.416405 0.596078 1.5 39 16 30
0.438085 0.6155 1.54887 38 15 29
0.432118 0.596078 1.5 37 14 27
0.439975 0.596078 1.5 35 14 25
0.498437 0.663436 1.6695 37 15 27
0.440841 0.576656 1.45113 35 14 27
0.478649 0.6155 1.54887 37 15 31
0.471402 0.596078 1.5 42 18 35
0.52539 0.653455 1.64438 43 18 36
0.521258 0.637858 1.60514 39 17 34
0.536439 0.646016 1.62567 43 18 37
0.502828 0.596078 1.5 45 20 39
0.553469 0.646016 1.62567 44 20 40
0.518542 0.596078 1.5 48 26 43
0.563294 0.637858 1.60514 47 23 41
0.534255 0.596078 1.5 45 21 40
0.559775 0.6155 1.54887 44 20 39
0.549969 0.596078 1.5 44 20 39
0.579289 0.619014 1.55772 46 24 42
0.605331 0.637858 1.60514 43 20 39
0.595607 0.619014 1.55772 45 23 42
0.647094 0.663436 1.6695 45 23 42
0.624738 0.631976 1.59033 43 20 38
0.647133 0.646016 1.62567 45 23 41
0.724009 0.713374 1.79517 44 21 40
0.664163 0.646016 1.62567 45 23 40
0.649829 0.624073 1.57045 45 23 40
0.65272 0.619014 1.55772 44 21 39
0.702559 0.658054 1.65596 44 21 39
0.674506 0.624073 1.57045 44 22 40
0.682731 0.624073 1.57045 45 23 40
0.72858 0.658054 1.65596 45 21 40
0.799231 0.713374 1.79517 44 20 38
0.675676 0.596078 1.5 42 20 37
0.754601 0.658054 1.65596 45 22 39
0.803043 0.69234 1.74224 46 23 39
0.732085 0.624073 1.57045 43 21 37
0.780621 0.658054 1.65596 43 20 36
0.812591 0.677476 1.70483 40 19 33
0.888602 0.732796 1.84404 45 23 39
0.913016 0.744833 1.87433 45 25 39
0.800401 0.646016 1.62567 44 23 37
0.848309 0.677476 1.70483 43 20 36
0.754243 0.596078 1.5 42 20 36
0.762099 0.596078 1.5 43 22 38
0.946554 0.732796 1.84404 47 27 41
0.930869 0.713374 1.79517 45 23 40
0.832985 0.631976 1.59033 46 24 41
0.793526 0.596078 1.5 48 28 43
0.801383 0.596078 1.5 47 26 42
0.877035 0.646016 1.62567 46 26 42
0.977883 0.713374 1.79517 47 28 42
0.755841 0.546141 1.37433 47 28 42
0.90258 0.646016 1.62567 48 29 43
0.840666 0.596078 1.5 46 27 41
0.681552 0.478783 1.20483 49 31 44
0.739437 0.514681 1.29517 47 30 44
0.791833 0.546141 1.37433 48 32 46
0.87995 0.596078 1.5 48 30 44
0.41717 0.28009 0.704833 47 28 42
0.597109 0.397386 1 48 30 43
0.90352 0.596078 1.5 48 29 42
1.04476 0.677476 1.70483 48 29 43
0.744659 0.478783 1.20483 49 30 44
-0.371046 0.237677 0.590334 60 57 61
-0.367954 0.237677 0.590334 62 59 62
-0.35796 0.233181 0.579167 64 61 64
-0.370841 0.243637 0.605137 62 61 63
-0.281065 0.186247 0.462595 62 58 61
-0.348859 0.233181 0.579167 60 55 59
-0.276219 0.186247 0.462595 62 58 62
-0.295935 0.201307 0.5 55 52 57
-0.311087 0.213503 0.530292 56 53 56
-0.271235 0.187829 0.466525 60 57 60
-0.209563 0.146441 0.363725 56 52 55
-0.19642 0.138516 0.344042 60 54 58
-0.194618 0.138516 0.344042 61 56 59
-0.165425 0.118839 0.295167 58 52 56
-0.163879 0.118839 0.295167 59 53 57
-0.140479 0.10284 0.25543 61 56 60
-0.127859 0.0945013 0.234719 59 52 57
-0.112165 0.0837068 0.207908 56 48 53
-0.108231 0.0815629 0.202583 58 52 55
-0.112123 0.0853323 0.211946 54 47 52
-0.110478 0.0849213 0.210925 55 47 54
-0.106214 0.0824686 0.204833 56 48 54
-0.100914 0.0791524 0.196596 55 46 52
-0.0960509 0.0761151 0.189052 61 52 57
-0.0991392 0.0793807 0.197163 56 46 52
-0.0988475 0.0799802 0.198652 58 48 54
-0.093756 0.0766676 0.190424 54 44 51
-0.0932777 0.0770966 0.19149 57 46 53
-0.0908216 0.0758826 0.188475 52 41 49
-0.0898699 0.0759126 0.188549 56 46 53
-0.0908369 0.0775819 0.192695 54 44 50
-0.0905296 0.0781882 0.194201 50 38 44
-0.0866137 0.0756562 0.187912 55 42 50
-0.0839282 0.0741531 0.184179 50 37 44
-0.0855992 0.0765089 0.19003 49 36 42
-0.0878134 0.0794114 0.197239 51 36 43
-0.0838002 0.0766843 0.190466 49 32 40
-0.0833374 0.0771796 0.191696 49 32 39
-0.0806825 0.0756321 0.187852 53 36 42
-0.0809016 0.0767737 0.190688 49 32 38
-0.0788724 0.0757837 0.188229 50 33 39
-0.0781727 0.0760621 0.188921 48 31 37
-0.0783768 0.0772385 0.191842 51 34 39
-0.0749584 0.074829 0.185858 52 35 41
-0.0733663 0.0742033 0.184304 48 32 38
-0.0733671 0.0751936 0.186763 49 33 39
-0.0717438 0.0745235 0.185099 47 30 36
-0.0730009 0.0768681 0.190922 49 33 40
-0.0708366 0.0756251 0.187835 54 40 47
-0.0688433 0.0745323 0.185121 57 44 50
-0.0689148 0.0756755 0.18796 54 42 49
-0.0681729 0.0759457 0.188631 56 46 51
-0.065389 0.0739156 0.183589 57 46 52
-0.0648614 0.0744135 0.184826 57 48 54
-0.0644469 0.0750583 0.186427 59 50 57
-0.0654874 0.0774435 0.192352 57 47 54
-0.0632995 0.0760258 0.18883 56 45 53
-0.0619243 0.0755546 0.18766 57 48 55
-0.0612922 0.0759896 0.18874 56 48 54
-0.0606296 0.0764004 0.189761 53 44 52
-0.0572965 0.0734036 0.182317 55 48 57
-0.0584196 0.076111 0.189042 56 48 56
-0.0539053 0.0714405 0.177441 55 47 55
-0.0563792 0.07603 0.188841 54 46 55
-0.0544825 0.0747842 0.185746 53 46 55
-0.0530444 0.074134 0.184132 53 45 55
-0.0534296 0.0760552 0.188903 55 47 58
-0.0506998 0.0735311 0.182634 54 46 57
-0.050142 0.0741205 0.184098 54 46 58
-0.049012 0.0738708 0.183478 50 43 56
-0.0526512 0.080943 0.201043 53 45 57
-0.0495402 0.0777146 0.193025 53 45 57
-0.0485998 0.0778276 0.193306 54 47 60
-0.0548593 0.0897208 0.222845 52 44 58
-0.0523426 0.0874657 0.217244 49 41 56
-0.0497267 0.084941 0.210974 52 44 59
-0.0584701 0.102146 0.253707 52 44 58
-0.0500078 0.0893943 0.222035 52 44 58
-0.0615992 0.112737 0.280012 49 40 55
-0.0607583 0.11391 0.282926 49 40 56
-0.0634479 0.121927 0.302837 48 39 56
-0.0695682 0.137116 0.340563 51 42 59
-0.0692838 0.140149 0.348097 51 42 57
-0.0740317 0.1538 0.382004 50 40 56
-0.0862894 0.184245 0.457621 47 36 54
-0.100621 0.220985 0.548874 45 35 54
-0.0845101 0.19106 0.474549 49 38 57
-0.100696 0.234552 0.582571 48 37 55
-0.0838047 0.201307 0.5 47 35 54
-0.0866213 0.214785 0.533475 48 35 54
-0.0785669 0.201307 0.5 44 30 51
-0.0663101 0.175761 0.436549 48 35 54
-0.0515056 0.141396 0.351194 48 34 54
-0.0502913 0.143176 0.355615 46 31 52
-0.0362586 0.107196 0.26625 46 31 51
-0.0303421 0.0932923 0.231716 46 29 51
-0.0230524 0.0738321 0.183382 44 27 49
-0.0223527 0.0747039 0.185547 47 33 51
-0.022954 0.0802004 0.199199 45 30 49
-0.0212874 0.0779192 0.193533 43 24 46
-0.0201443 0.0774215 0.192297 45 22 44
-0.0183346 0.0741752 0.184234 42 19 41
-0.0176449 0.0753507 0.187153 42 19 40
-0.0163133 0.0737623 0.183208 41 19 37
-0.0153029 0.0735181 0.182602 38 16 34
-0.0140291 0.0718917 0.178562 40 17 36
-0.0133218 0.0731434 0.181671 40 16 35
-0.0124642 0.0736991 0.183051 42 17 37
-0.0115979 0.0742912 0.184522 40 16 35
-0.0103766 0.072511 0.1801 40 16 34
-0.00948553 0.0729126 0.181098 41 17 35
-0.00868113 0.0741437 0.184156 43 18 37
-0.00768147 0.0738065 0.183318 42 17 36
-0.006707 0.0736497 0.182929 44 18 38
-0.00546206 0.0699755 0.173803 45 19 40
-0.00475888 0.0731603 0.181713 43 19 39
-0.00360068 0.0691934 0.17186 44 20 42
-0.00279124 0.0715181 0.177634 49 28 47
-0.0018657 0.0717055 0.1781 48 27 47
-0.000890151 0.0684234 0.169948 47 25 45
0 0.0682437 0.169501 49 29 49
0.000924263 0.0710454 0.17646 49 31 50
0.00183113 0.070377 0.1748 50 33 52
0.00268525 0.0688026 0.17089 49 30 50
0.0037687 0.0724223 0.17988 49 30 50
0.00460772 0.0708364 0.175941 50 33 52
0.00542691 0.0695252 0.172684 50 33 52
0.00630977 0.0692877 0.172094 48 29 49
0.00728275 0.0699755 0.173803 50 32 52
0.00794283 0.0678381 0.168494 48 32 52
0.00877322 0.0674372 0.167498 49 31 51
0.00990245 0.0691975 0.17187 48 29 50
0.0104432 0.0668947 0.166151 49 30 52
0.0112967 0.0667956 0.165905 49 30 52
0.0126636 0.0695296 0.172695 48 29 51
0.0134086 0.068712 0.170665 46 28 49
0.0138104 0.0663481 0.164793 44 26 48
0.0146489 0.0662364 0.164516 46 28 50
0.0154258 0.0658743 0.163616 45 28 50
0.0167132 0.0676156 0.167941 45 27 50
0.0171502 0.0659143 0.163716 46 27 49
0.0181905 0.0665835 0.165378 45 26 48
0.0187404 0.0654781 0.162632 46 28 49
0.0201213 0.0672463 0.167024 43 24 46
0.0221515 0.0709468 0.176215 43 24 46
0.0223639 0.0687618 0.170788 40 21 43
0.0234526 0.0693359 0.172214 43 24 45
0.0244572 0.0696281 0.17294 45 27 46
0.0253467 0.0695833 0.172829 44 24 44
0.0265979 0.0705001 0.175106 42 21 42
0.0281329 0.0720833 0.179038 44 24 43
0.0307836 0.0763306 0.189587 42 21 42
0.0411335 0.0988068 0.245413 40 19 40
0.0457829 0.106642 0.264875 43 23 43
0.0612687 0.138516 0.344042 43 23 42
0.068624 0.150712 0.374334 40 20 39
0.0833974 0.17807 0.442284 41 21 41
0.110552 0.22967 0.570447 43 21 41
0.117498 0.237677 0.590334 43 21 41
0.143979 0.283776 0.704833 42 20 40
0.176837 0.339823 0.844042 46 25 42
0.231751 0.434488 1.07917 39 18 36
0.219987 0.402614 1 41 19 37
0.245571 0.438984 1.09033 42 20 38
0.254693 0.444944 1.10514 42 20 38
0.323932 0.553327 1.37433 42 20 38
0.32662 0.54579 1.35562 39 17 33
0.28457 0.465405 1.15596 40 17 34
0.35941 0.575559 1.42955 39 16 32
0.361794 0.567552 1.40967 40 17 33
0.377719 0.580684 1.44228 39 15 30
0.387636 0.584244 1.45113 37 14 29
0.379912 0.561592 1.39486 36 14 27
0.432427 0.627159 1.55772 38 15 30
0.398711 0.567552 1.40967 38 15 30
0.432118 0.603922 1.5 36 13 27
0.470813 0.646251 1.60514 36 13 27
0.462423 0.623599 1.54887 40 16 32
0.440841 0.584244 1.45113 38 15 31
0.463545 0.603922 1.5 38 16 32
0.510894 0.654516 1.62567 38 15 29
0.52539 0.662053 1.64438 40 17 33
0.51645 0.640291 1.59033 41 18 36
0.550904 0.672165 1.6695 44 19 39
0.522176 0.627159 1.55772 43 18 38
0.530335 0.627159 1.55772 44 20 40
0.572456 0.666713 1.65596 45 22 41
0.570499 0.654516 1.62567 45 23 42
0.551663 0.623599 1.54887 43 20 39
0.587529 0.654516 1.62567 44 20 40
0.588517 0.646251 1.60514 43 20 39
0.604558 0.654516 1.62567 44 21 40
0.642929 0.68639 1.70483 42 20 39
0.600475 0.632284 1.57045 43 21 40
0.6087 0.632284 1.57045 43 20 40
0.684411 0.70145 1.74224 41 19 38
0.620084 0.627159 1.55772 43 20 39
0.655648 0.654516 1.62567 42 20 38
0.612822 0.603922 1.5 43 21 39
0.685212 0.666713 1.65596 44 21 39
0.693886 0.666713 1.65596 44 23 40
0.739164 0.70145 1.74224 42 20 38
0.732224 0.68639 1.70483 44 22 39
0.719906 0.666713 1.65596 45 24 41
0.789828 0.72276 1.79517 43 20 37
0.667819 0.603922 1.5 42 20 38
0.745927 0.666713 1.65596 42 19 37
0.854112 0.754634 1.87433 45 22 41
0.785802 0.68639 1.70483 44 22 38
0.771948 0.666713 1.65596 47 26 41
0.846245 0.72276 1.79517 43 21 38
0.748537 0.632284 1.57045 44 23 39
0.82152 0.68639 1.70483 46 26 40
0.791886 0.654516 1.62567 42 22 36
0.800401 0.654516 1.62567 43 21 37
0.808916 0.654516 1.62567 46 26 41
0.927237 0.742438 1.84404 45 24 39
0.936895 0.742438 1.84404 43 22 38
1.10666 0.86802 2.15596 46 26 41
0.777813 0.603922 1.5 47 26 42
0.832985 0.640291 1.59033 45 24 40
0.793526 0.603922 1.5 47 26 42
0.801383 0.603922 1.5 45 24 41
1.61848 1.20784 3 44 25 40
0.748642 0.553327 1.37433 47 29 43
0.824953 0.603922 1.5 47 29 43
0.555206 0.402614 1 49 32 45
1.00609 0.72276 1.79517 48 30 44
0.565682 0.402614 1 47 28 43
1.0249 0.72276 1.79517 47 29 44
0.864236 0.603922 1.5 48 30 45
0.586633 0.402614 1 47 28 44
0.591871 0.402614 1 51 34 46
0.895663 0.603922 1.5 48 29 43
0.301173 0.201307 0.5 49 32 44
1.82275 1.20784 3 49 33 45
0.793707 0.521453 1.29517 49 31 44
0.435629 0.283776 0.704833 47 28 43
-0.384161 0.249274 0.6112 67 62 62
-0.401643 0.262808 0.644385 64 61 63
-0.30903 0.203922 0.5 64 61 63
-0.383422 0.255174 0.625666 63 61 63
-0.324131 0.217574 0.533475 66 64 66
-0.348859 0.236209 0.579167 65 62 63
-0.298554 0.203922 0.5 62 60 61
-0.278006 0.191567 0.469708 62 60 62
-0.206022 0.143232 0.351194 61 59 61
-0.217636 0.15267 0.374334 62 60 62
-0.170063 0.120382 0.295167 57 54 57
-0.147161 0.105127 0.257762 62 59 62
-0.13703 0.0987951 0.242238 60 57 60
-0.121658 0.0885321 0.217074 60 56 60
-0.131509 0.096604 0.236866 60 54 59
-0.121627 0.0901956 0.221153 57 50 55
-0.115418 0.0864138 0.21188 55 48 53
-0.12284 0.092864 0.227695 56 50 55
-0.107671 0.0821944 0.201534 57 51 56
-0.109131 0.0841338 0.20629 57 51 56
-0.109284 0.0850943 0.208645 59 51 57
-0.102665 0.0807479 0.197988 57 48 54
-0.102485 0.0814288 0.199657 59 50 55
-0.100643 0.0807901 0.198091 53 43 49
-0.0953434 0.0773328 0.189614 57 48 51
-0.0968951 0.0794187 0.194729 57 47 51
-0.0996582 0.0825524 0.202412 55 44 51
-0.0912781 0.0764237 0.187385 58 48 53
-0.0930501 0.0787542 0.193099 52 41 47
-0.094054 0.0804786 0.197327 53 43 49
-0.0883299 0.0764205 0.187377 55 44 50
-0.0926948 0.0810979 0.198846 53 41 48
-0.0890457 0.0787906 0.193189 51 38 46
-0.0862513 0.0771953 0.189277 50 37 45
-0.0872469 0.0789944 0.193688 53 41 46
-0.086283 0.0790407 0.193802 53 37 44
-0.0839354 0.0778055 0.190773 50 33 41
-0.0850376 0.079777 0.195607 51 34 40
-0.0813204 0.07722 0.189338 47 28 35
-0.0791736 0.0761096 0.186615 50 32 38
-0.0785328 0.0764374 0.187419 50 34 39
-0.0773226 0.0762121 0.186866 47 31 36
-0.0768701 0.0767374 0.188154 50 34 38
-0.0745103 0.0753477 0.184747 48 32 37
-0.0755006 0.0773538 0.189666 48 32 37
-0.0724009 0.075167 0.184304 50 34 40
-0.0727463 0.0765462 0.187686 48 32 38
-0.0715865 0.0763577 0.187223 49 33 39
-0.0693472 0.0749965 0.183886 52 38 44
-0.069494 0.0762138 0.18687 55 44 48
-0.0704619 0.0783793 0.19218 56 46 50
-0.0688846 0.0777352 0.190601 57 46 51
-0.0647041 0.0740914 0.181666 56 45 50
-0.0668948 0.0777432 0.19062 56 46 52
-0.063537 0.0749596 0.183795 58 49 55
-0.0643518 0.0770889 0.189016 57 48 53
-0.0630745 0.0767394 0.188159 55 47 52
-0.0604035 0.0746562 0.183051 56 47 53
-0.0605561 0.0760521 0.186474 54 45 52
-0.0582551 0.0743617 0.182329 56 47 54
-0.0599091 0.0777474 0.190631 56 49 56
-0.0591583 0.0780743 0.191432 55 48 56
-0.059258 0.0795542 0.195061 55 47 55
-0.0557861 0.0762071 0.186854 54 48 56
-0.0541583 0.0753047 0.184641 54 47 55
-0.0560972 0.0794187 0.194729 54 47 56
-0.0532592 0.0767972 0.188301 55 49 58
-0.0536672 0.0788457 0.193324 53 45 56
-0.0517577 0.0775026 0.19003 55 48 59
-0.0538038 0.0821462 0.201416 53 46 57
-0.0508881 0.0792484 0.194311 53 45 57
-0.0542128 0.086149 0.211231 52 44 56
-0.0596986 0.0968429 0.237451 50 42 55
-0.062654 0.1038 0.254509 51 43 56
-0.0628021 0.106307 0.260656 51 43 57
-0.0611658 0.105838 0.259506 50 41 56
-0.0696923 0.123332 0.302401 49 40 55
-0.08192 0.148343 0.363725 49 40 55
-0.0851217 0.15781 0.386939 49 40 56
-0.0903738 0.171634 0.420833 49 40 56
-0.0731652 0.142426 0.349217 51 42 58
-0.0928638 0.185407 0.454604 49 40 56
-0.0951505 0.194972 0.478056 49 38 54
-0.10277 0.216276 0.530292 47 35 52
-0.105163 0.227461 0.557716 49 38 54
-0.103293 0.2298 0.563451 46 33 54
-0.0957038 0.219177 0.537405 49 37 56
-0.100107 0.236209 0.579167 50 38 56
-0.107137 0.260697 0.639209 47 34 52
-0.0940403 0.236209 0.579167 46 31 52
-0.0896365 0.232653 0.570447 45 30 52
-0.0810328 0.217574 0.533475 46 32 51
-0.0484704 0.134792 0.330499 45 29 51
-0.0371298 0.107079 0.262549 45 29 51
-0.0345505 0.103473 0.253707 46 30 51
-0.0277799 0.0865239 0.21215 45 27 49
-0.0263791 0.085584 0.209845 44 26 48
-0.0236255 0.0799831 0.196112 47 31 51
-0.0233761 0.0827358 0.202862 43 25 47
-0.0214436 0.0795101 0.194953 42 21 44
-0.0201993 0.0786413 0.192822 45 21 44
-0.0180257 0.0738727 0.18113 43 20 42
-0.0172223 0.0745011 0.182671 39 17 38
-0.0165607 0.0758532 0.185986 42 19 38
-0.0149671 0.0728389 0.178595 40 17 35
-0.0144297 0.0749051 0.183661 42 18 37
-0.0129729 0.0721528 0.176913 41 16 34
-0.0121157 0.0725687 0.177933 37 14 31
-0.0115542 0.074973 0.183828 39 15 33
-0.0106021 0.0750487 0.184014 39 16 34
-0.00927986 0.072258 0.177171 41 18 36
-0.00841065 0.0727665 0.178418 42 18 37
-0.00750871 0.0730836 0.179195 43 18 37
-0.00677103 0.0753185 0.184675 44 19 39
-0.00563022 0.0730665 0.179154 43 19 39
-0.00470242 0.0732312 0.179557 45 21 42
-0.00379687 0.0739111 0.181224 46 24 45
-0.00275407 0.0714824 0.175269 48 26 47
-0.00185095 0.0720626 0.176692 47 25 45
-0.000969243 0.0754705 0.185048 49 29 49
0 0.0736276 0.180529 48 30 50
0.000949646 0.0739446 0.181306 48 30 50
0.001882 0.0732714 0.179656 50 32 52
0.00278396 0.072258 0.177171 47 28 48
0.00369065 0.0718434 0.176154 48 29 49
0.00455172 0.0708843 0.173803 48 29 50
0.00532688 0.06913 0.169501 49 31 52
0.00632812 0.0703917 0.172595 47 28 50
0.00719677 0.0700474 0.171751 47 28 51
0.00783294 0.0677683 0.166163 48 30 52
0.00886876 0.069057 0.169322 50 32 53
0.00958925 0.0678792 0.166435 47 28 51
0.0105858 0.0686889 0.16842 48 29 52
0.0125119 0.0749418 0.183752 46 26 49
0.0125459 0.0697778 0.17109 46 27 50
0.0131067 0.0680375 0.166823 46 27 50
0.0141144 0.0686889 0.16842 44 26 48
0.0152891 0.0700289 0.171705 46 28 50
0.0155653 0.0673331 0.165096 45 28 50
0.0166464 0.06822 0.16727 45 27 50
0.0173943 0.0677206 0.166046 45 27 49
0.0186867 0.069288 0.169889 45 27 49
0.0193709 0.06856 0.168104 46 27 49
0.0205957 0.0697256 0.170962 44 25 48
0.02128 0.0690406 0.169282 44 27 48
0.0219498 0.0683652 0.167626 45 26 48
0.023512 0.0704142 0.17265 45 26 47
0.0236097 0.0680881 0.166947 45 27 46
0.0259836 0.072258 0.177171 42 22 42
0.0291987 0.0783989 0.192228 40 19 40
0.0305464 0.0792836 0.194397 43 23 43
0.0346621 0.087064 0.213474 41 20 41
0.043862 0.106729 0.261692 40 19 40
0.0566092 0.133573 0.32751 41 20 40
0.0682828 0.156378 0.383428 40 20 40
0.0810808 0.180383 0.442284 40 19 39
0.115248 0.249274 0.6112 43 22 42
0.127124 0.267528 0.655958 42 20 40
0.117498 0.240764 0.590334 41 19 38
0.188102 0.375555 0.920833 42 19 39
0.176837 0.344237 0.844042 42 20 38
0.237328 0.450722 1.10514 43 20 38
0.265048 0.491383 1.20483 42 19 37
0.245571 0.444685 1.09033 40 18 35
0.277669 0.491383 1.20483 40 18 35
0.316792 0.548158 1.34404 39 17 34
0.278515 0.47145 1.15596 44 20 38
0.309631 0.51297 1.25776 40 17 33
0.377121 0.611765 1.5 37 14 28
0.352726 0.560513 1.37433 36 14 28
0.377719 0.588226 1.44228 35 14 27
0.400691 0.611765 1.5 37 14 29
0.389361 0.583034 1.42955 38 15 30
0.387218 0.568885 1.39486 37 15 29
0.424261 0.611765 1.5 36 14 28
0.462406 0.654644 1.60514 34 13 26
0.409136 0.568885 1.39486 40 16 32
0.465063 0.635304 1.55772 39 16 30
0.499551 0.670651 1.64438 39 15 32
0.502379 0.663017 1.62567 43 19 37
0.453263 0.588226 1.44228 42 19 36
0.544704 0.695304 1.70483 39 17 34
0.502987 0.631698 1.54887 41 19 37
0.542616 0.670651 1.64438 40 18 36
0.601774 0.732147 1.79517 46 21 41
0.580422 0.695304 1.70483 44 21 41
0.518542 0.611765 1.5 45 23 41
0.585882 0.680895 1.6695 47 25 43
0.554812 0.635304 1.55772 44 21 40
0.542112 0.611765 1.5 44 21 40
0.57113 0.635304 1.55772 46 25 43
0.591419 0.648607 1.59033 45 23 42
0.587448 0.635304 1.55772 43 20 40
0.621588 0.663017 1.62567 42 21 40
0.660788 0.695304 1.70483 44 21 40
0.616926 0.640496 1.57045 45 23 42
0.647133 0.663017 1.62567 44 21 40
0.667865 0.675371 1.65596 45 23 41
0.676539 0.675371 1.65596 44 22 40
0.705436 0.695304 1.70483 42 20 38
0.693886 0.675371 1.65596 39 19 36
0.611906 0.588226 1.44228 43 23 40
0.613992 0.583034 1.42955 45 24 41
0.652106 0.611765 1.5 46 24 42
0.72858 0.675371 1.65596 43 20 38
0.627601 0.574922 1.40967 40 19 36
0.675676 0.611765 1.5 45 25 43
0.754601 0.675371 1.65596 44 22 40
0.733027 0.648607 1.59033 46 25 42
0.819405 0.716891 1.75776 45 24 41
0.803661 0.695304 1.70483 46 25 41
0.714959 0.611765 1.5 45 26 42
0.722816 0.611765 1.5 46 28 41
0.83045 0.695304 1.70483 43 24 38
0.839379 0.695304 1.70483 45 26 40
0.808916 0.663017 1.62567 47 27 42
0.691054 0.560513 1.37433 47 27 42
0.762099 0.611765 1.5 47 28 42
0.946554 0.75208 1.84404 47 28 43
0.824655 0.648607 1.59033 45 26 43
0.892957 0.695304 1.70483 48 32 45
0.685166 0.528225 1.29517 49 29 45
0.910816 0.695304 1.70483 50 31 46
0.877035 0.663017 1.62567 50 33 46
0.629686 0.47145 1.15596 48 30 44
0.824953 0.611765 1.5 48 31 45
1.11041 0.815686 2 48 31 45
0.840666 0.611765 1.5 48 30 45
0.398711 0.287461 0.704833 48 29 43
0.168517 0.120382 0.295167 48 30 44
0.288079 0.203922 0.5 49 31 46
0.581395 0.407843 1 48 30 46
0.586633 0.407843 1 49 32 47
0.591871 0.407843 1 50 33 47
0.301173 0.203922 0.5 50 34 47
0.30903 0.203922 0.5 49 32 46
0.623298 0.407843 1 48 28 45
-0.371046 0.243851 0.590334 73 69 66
-0.332514 0.220364 0.533475 66 64 65
-0.35796 0.239238 0.579167 66 64 66
-0.306411 0.206536 0.5 61 59 61
-0.303792 0.206536 0.5 62 61 62
-0.281009 0.192708 0.466525 64 63 63
-0.244615 0.169221 0.409665 66 64 65
-0.210478 0.146895 0.355615 63 61 63
-0.181838 0.12804 0.30997 64 62 64
-0.171609 0.121925 0.295167 59 58 60
-0.142433 0.102116 0.247211 63 62 65
-0.147161 0.106474 0.257762 62 60 62
-0.124116 0.0906318 0.219409 63 60 62
-0.13233 0.0975332 0.236117 65 63 65
-0.126809 0.0943458 0.2284 61 57 60
-0.108014 0.0811278 0.196401 59 54 58
-0.116604 0.0884215 0.214058 58 52 57
-0.108855 0.0833464 0.201772 59 53 57
-0.111599 0.0862856 0.208888 60 54 58
-0.0991535 0.0774219 0.18743 60 53 58
-0.107875 0.0850745 0.205956 59 52 57
-0.105143 0.0837569 0.202766 61 53 57
-0.101205 0.0814425 0.197163 59 50 55
-0.103165 0.0838761 0.203055 58 48 54
-0.10173 0.0835713 0.202316 59 51 53
-0.0950287 0.0788875 0.190978 58 49 53
-0.0973973 0.0817139 0.19782 54 42 50
-0.0921441 0.0781379 0.189163 61 52 58
-0.0922789 0.0791027 0.191499 59 49 55
-0.0920912 0.0798094 0.193209 55 45 51
-0.0890731 0.0780514 0.188954 51 40 46
-0.0887281 0.0786227 0.190337 54 42 49
-0.092908 0.0832621 0.201568 53 42 49
-0.0865257 0.0784338 0.189879 55 44 50
-0.0862936 0.0791329 0.191572 54 41 46
-0.0859025 0.079701 0.192947 54 39 45
-0.0823348 0.0773003 0.187135 54 37 44
-0.0832546 0.0791056 0.191506 51 35 40
-0.0784963 0.075494 0.182762 54 38 43
-0.0806225 0.0784962 0.19003 49 32 36
-0.0799679 0.078832 0.190843 52 36 40
-0.0789555 0.0788193 0.190813 51 35 38
-0.0769591 0.0778112 0.188372 49 33 37
-0.0780539 0.079943 0.193533 51 35 39
-0.0730231 0.0757747 0.183442 49 33 37
-0.0713149 0.0749888 0.181539 49 34 39
-0.0762693 0.0812821 0.196775 50 34 40
-0.0726598 0.0784962 0.19003 52 38 44
-0.0720371 0.0789044 0.191018 55 43 48
-0.0697134 0.0774346 0.18746 53 42 47
-0.0693151 0.0780921 0.189052 54 44 48
-0.0695781 0.0795244 0.19252 54 44 48
-0.0688615 0.0798628 0.193339 56 45 50
-0.0661349 0.0778454 0.188455 55 45 51
-0.0657396 0.0785525 0.190167 54 45 51
-0.0615892 0.0747254 0.180902 56 48 53
-0.0635533 0.0783132 0.189587 55 48 53
-0.0630577 0.0789359 0.191095 57 50 55
-0.0602552 0.0766443 0.185547 57 49 56
-0.0593493 0.0767296 0.185754 56 47 55
-0.0587222 0.0771841 0.186854 54 46 54
-0.0568515 0.0759918 0.183967 55 47 55
-0.05571 0.0757499 0.183382 54 46 53
-0.0578986 0.080107 0.19393 52 45 54
-0.057451 0.0809071 0.195867 53 46 55
-0.0564958 0.0810086 0.196112 57 51 59
-0.0530367 0.0774568 0.187514 54 48 57
-0.0544879 0.0810777 0.19628 53 46 56
-0.0541839 0.0821758 0.198938 54 47 57
-0.0571115 0.0883142 0.213799 53 45 56
-0.0613513 0.0967678 0.234264 53 45 56
-0.0594704 0.0957154 0.231716 52 43 55
-0.0685459 0.112621 0.272641 51 43 56
-0.0818715 0.137376 0.332572 52 44 57
-0.0928822 0.15924 0.385502 52 44 58
-0.0882308 0.154627 0.374334 52 43 58
-0.0917695 0.164484 0.398196 50 41 55
-0.0907253 0.166394 0.40282 48 40 55
-0.0944964 0.177436 0.429553 47 38 53
-0.0896427 0.172428 0.417429 49 40 55
-0.0977424 0.192708 0.466525 51 42 58
-0.108975 0.220364 0.533475 49 39 55
-0.112147 0.232746 0.563451 50 39 55
-0.11845 0.252469 0.6112 48 37 54
-0.123688 0.270958 0.655958 44 30 50
-0.136069 0.306598 0.742238 47 34 53
-0.12552 0.291147 0.704833 48 34 54
-0.121828 0.291147 0.704833 45 30 51
-0.104868 0.258445 0.625666 46 31 51
-0.0811858 0.206536 0.5 46 31 52
-0.0910067 0.239238 0.579167 45 29 52
-0.0608046 0.165354 0.400304 44 30 50
-0.0432887 0.121925 0.295167 47 31 51
-0.0342574 0.100062 0.242238 45 28 50
-0.0323368 0.0980845 0.237451 44 27 47
-0.0247207 0.0779826 0.188787 46 26 48
-0.025008 0.0821758 0.198938 45 25 48
-0.0227828 0.0781189 0.189117 44 23 46
-0.0211314 0.0757499 0.183382 42 22 44
-0.0208168 0.0781756 0.189254 43 20 44
-0.0184733 0.0728437 0.176346 43 20 40
-0.0179903 0.0746726 0.180774 41 18 40
-0.0184703 0.0809244 0.195909 41 18 39
-0.0162593 0.0754277 0.182602 40 18 36
-0.0158623 0.078185 0.189277 39 16 34
-0.0142733 0.0750432 0.181671 40 16 35
-0.0130489 0.0735059 0.177949 39 15 33
-0.0127546 0.0773748 0.187316 40 16 35
-0.0116841 0.0767879 0.185895 41 17 36
-0.0103672 0.0743268 0.179937 40 17 35
-0.00989824 0.0780612 0.188977 42 18 38
-0.00851676 0.0746293 0.180669 40 17 35
-0.0074345 0.073289 0.177424 44 20 40
-0.00671881 0.0756958 0.183251 46 22 42
-0.00573267 0.07535 0.182414 47 23 43
-0.004724 0.0745104 0.180381 46 24 43
-0.0037687 0.0743034 0.17988 46 25 46
-0.00289148 0.0760108 0.184014 49 28 48
-0.00187674 0.0740033 0.179154 47 27 48
-0.000909607 0.071735 0.173662 48 28 49
0 0.0740205 0.179195 48 29 49
0.000922661 0.0727645 0.176154 48 30 50
0.00181226 0.0714607 0.172998 47 28 49
0.00267662 0.0703627 0.17034 46 27 48
0.00362258 0.0714225 0.172906 48 29 50
0.00442537 0.0698002 0.168978 48 29 50
0.00561164 0.0737591 0.178562 49 31 52
0.00638383 0.0719218 0.174114 49 31 52
0.00719486 0.0709267 0.171705 45 25 49
0.00837892 0.0734214 0.177745 45 27 51
0.00882844 0.0696243 0.168553 47 29 52
0.00996517 0.0714445 0.172959 45 26 50
0.0111935 0.0735631 0.178088 46 26 50
0.0114621 0.069534 0.168334 46 27 51
0.012471 0.0702504 0.170068 44 24 49
0.0130902 0.0688227 0.166612 47 29 51
0.0141223 0.0696085 0.168514 44 26 49
0.0149527 0.0693661 0.167927 44 26 48
0.0162624 0.0712508 0.17249 44 24 47
0.0168077 0.0697643 0.168891 46 28 50
0.0180164 0.0710421 0.171985 48 30 52
0.019342 0.0726371 0.175846 44 25 48
0.0191544 0.0686631 0.166225 44 25 47
0.0205043 0.0703064 0.170204 42 23 46
0.0213389 0.0701192 0.169751 44 27 48
0.0214096 0.0675376 0.163501 44 26 47
0.0232089 0.0703975 0.170424 45 27 46
0.026184 0.0764802 0.18515 45 27 46
0.027584 0.077692 0.188083 43 22 43
0.0297418 0.0808808 0.195803 45 25 45
0.0380638 0.100062 0.242238 44 24 44
0.0467387 0.118903 0.28785 42 21 42
0.0661828 0.163107 0.394863 41 20 41
0.0662745 0.158383 0.383428 42 22 41
0.0993209 0.230377 0.557716 42 21 41
0.104576 0.235635 0.570447 40 19 39
0.117976 0.258445 0.625666 43 22 42
0.149535 0.318726 0.771599 43 20 40
0.185015 0.383972 0.929553 41 18 38
0.182797 0.369643 0.894863 42 19 38
0.224271 0.442171 1.07045 43 21 39
0.19535 0.375757 0.909666 44 20 38
0.276692 0.519546 1.25776 42 19 36
0.302712 0.555186 1.34404 38 17 33
0.277669 0.497683 1.20483 41 19 36
0.296456 0.519546 1.25776 40 17 33
0.33113 0.567699 1.37433 41 18 33
0.31884 0.534997 1.29517 41 17 32
0.334506 0.549592 1.3305 39 15 30
0.370165 0.595767 1.44228 37 14 28
0.348444 0.549592 1.3305 36 14 26
0.372606 0.576179 1.39486 36 13 25
0.408548 0.619608 1.5 36 13 26
0.459699 0.68403 1.65596 35 13 26
0.424261 0.619608 1.5 38 15 31
0.452412 0.648707 1.57045 37 15 31
0.476835 0.671517 1.62567 40 16 32
0.447832 0.619608 1.5 41 17 33
0.455688 0.619608 1.5 40 16 33
0.445709 0.595767 1.44228 41 19 37
0.486761 0.639796 1.54887 44 21 40
0.497699 0.643449 1.55772 42 19 37
0.505858 0.643449 1.55772 43 19 37
0.542616 0.679249 1.64438 44 20 38
0.486445 0.599419 1.45113 44 19 39
0.580422 0.704219 1.70483 41 19 38
0.538494 0.643449 1.55772 45 22 41
0.54355 0.639796 1.54887 44 21 40
0.551663 0.639796 1.54887 44 22 41
0.629659 0.719669 1.74224 44 22 41
0.612116 0.689624 1.6695 44 21 40
0.579289 0.643449 1.55772 45 22 42
0.565682 0.619608 1.5 45 23 43
0.705086 0.761722 1.84404 43 21 42
0.706523 0.752959 1.82283 43 21 41
0.589252 0.619608 1.5 42 20 39
0.597109 0.619608 1.5 43 20 39
0.667865 0.68403 1.65596 43 21 39
0.664163 0.671517 1.62567 41 20 36
0.649829 0.648707 1.57045 43 22 40
0.628536 0.619608 1.5 43 22 39
0.598067 0.582293 1.40967 43 21 39
0.683047 0.656922 1.59033 44 23 41
0.697812 0.663037 1.60514 44 23 41
0.659962 0.619608 1.5 44 22 40
0.759013 0.704219 1.70483 45 24 42
0.767943 0.704219 1.70483 48 29 46
0.642368 0.582293 1.40967 46 25 43
0.827439 0.741533 1.79517 46 24 42
0.741356 0.656922 1.59033 50 31 45
0.846245 0.741533 1.79517 45 25 41
0.714959 0.619608 1.5 45 27 42
0.766346 0.656922 1.59033 47 30 44
0.874453 0.741533 1.79517 44 27 41
0.694053 0.582293 1.40967 49 33 46
0.874646 0.726082 1.75776 49 31 44
0.754243 0.619608 1.5 47 27 43
0.807995 0.656922 1.59033 48 28 44
0.769956 0.619608 1.5 46 27 43
0.842976 0.671517 1.62567 47 29 45
0.851491 0.671517 1.62567 49 32 46
0.793526 0.619608 1.5 48 30 45
1.06851 0.826144 2 47 28 44
0.80924 0.619608 1.5 48 29 44
0.629686 0.477494 1.15596 48 31 44
0.635741 0.477494 1.15596 51 34 47
0.719085 0.534997 1.29517 49 33 46
1.40111 1.03268 2.5 49 31 45
0.732653 0.534997 1.29517 49 32 46
0.739437 0.534997 1.29517 49 31 45
0.581395 0.413072 1 48 29 46
1.17327 0.826144 2 47 29 45
1.77561 1.23922 3 48 31 46
2.21219 1.53036 3.70483 49 32 47
0.602347 0.413072 1 48 32 46
1.21517 0.826144 2 47 29 44
0.612822 0.413072 1 48 31 45
0.435629 0.291147 0.704833 50 34 47
0.623298 0.413072 1 48 29 45
-0.364027 0.242266 0.579167 71 67 64
-0.334963 0.224797 0.537405 68 66 65
-0.285911 0.193504 0.462595 67 66 66
-0.2294 0.156584 0.374334 68 67 68
-0.243219 0.167447 0.400304 65 64 64
-0.202498 0.140625 0.336183 66 65 66
-0.176247 0.123469 0.295167 65 64 64
-0.200352 0.141597 0.338506 65 64 65
-0.115662 0.0824734 0.197163 63 63 65
-0.135901 0.0977778 0.23375 64 64 65
-0.123931 0.0899764 0.2151 61 61 62
-0.134446 0.0985054 0.23549 63 62 64
-0.127377 0.0941906 0.225174 62 60 62
-0.121056 0.0903531 0.216 63 61 63
-0.119 0.089656 0.214334 60 56 60
-0.118298 0.0899764 0.2151 60 54 60
-0.117372 0.0901302 0.215467 62 58 61
-0.110506 0.0856817 0.204833 61 57 59
-0.10877 0.0851626 0.203592 61 56 59
-0.109554 0.086626 0.20709 61 55 59
-0.104576 0.0835167 0.199657 58 52 56
-0.101623 0.0819776 0.195978 58 51 55
-0.107014 0.0872077 0.208481 58 49 54
-0.102348 0.0842652 0.201447 59 50 55
-0.0975848 0.0811803 0.194072 56 46 51
-0.100748 0.0846942 0.202472 59 49 55
-0.0989731 0.0840871 0.201021 56 47 54
-0.0965206 0.0828852 0.198147 54 44 51
-0.0911734 0.0791444 0.189205 56 48 54
-0.0926574 0.0813165 0.194397 54 45 51
-0.0930947 0.0826081 0.197485 58 47 53
-0.0891723 0.0800166 0.19129 55 44 50
-0.0898042 0.0814993 0.194834 56 45 51
-0.0856294 0.0786038 0.187912 54 44 48
-0.0843203 0.0783022 0.187191 56 43 46
-0.0866956 0.0814551 0.194729 53 39 43
-0.0807491 0.0767712 0.183531 56 41 46
-0.0816924 0.0786038 0.187912 52 36 41
-0.0778334 0.075804 0.181219 53 37 42
-0.0794942 0.0783773 0.187371 53 37 40
-0.0823134 0.0821714 0.196441 49 33 36
-0.0756933 0.0765192 0.182929 49 33 37
-0.0761609 0.077979 0.186419 51 36 39
-0.0766941 0.0795447 0.190161 51 35 39
-0.074198 0.0779684 0.186393 49 32 37
-0.0754161 0.080305 0.191979 49 32 37
-0.0731551 0.0789502 0.18874 48 32 37
-0.068863 0.0753361 0.1801 51 37 42
-0.06978 0.0773995 0.185033 55 43 48
-0.0704728 0.0792689 0.189502 57 47 51
-0.0681575 0.0777599 0.185895 59 49 53
-0.068531 0.0793191 0.189622 56 45 49
-0.0669897 0.0786754 0.188083 53 42 47
-0.0677091 0.0807072 0.192941 51 41 47
-0.0665302 0.0805036 0.192454 54 44 51
-0.0625379 0.0768369 0.183688 56 48 53
-0.0649447 0.0810408 0.193738 54 48 53
-0.0619401 0.0785184 0.187708 54 46 53
-0.0612059 0.0788391 0.188475 54 46 54
-0.0634705 0.0830963 0.198652 54 46 54
-0.0610339 0.0812381 0.19421 56 49 56
-0.0568515 0.0769537 0.183967 56 49 57
-0.0573997 0.0790354 0.188944 54 48 54
-0.0589763 0.0826309 0.19754 53 46 55
-0.0553459 0.0789292 0.18869 53 46 56
-0.0555481 0.0806578 0.192822 55 49 56
-0.0620579 0.091779 0.219409 54 47 56
-0.0590851 0.0890312 0.21284 56 49 59
-0.0651335 0.100032 0.23914 53 45 56
-0.0630733 0.0987678 0.236117 53 45 56
-0.068972 0.110165 0.263363 54 46 56
-0.0668113 0.108892 0.260319 52 44 56
-0.0823406 0.136998 0.32751 52 43 56
-0.103599 0.176035 0.420833 52 43 56
-0.107717 0.18701 0.447071 52 43 57
-0.105375 0.18701 0.447071 51 43 57
-0.129855 0.235692 0.563451 50 41 55
-0.126903 0.235692 0.563451 50 41 55
-0.109994 0.20915 0.5 49 39 54
-0.128784 0.250853 0.599696 48 37 53
-0.133922 0.267381 0.639209 48 36 53
-0.12059 0.246937 0.590334 48 37 54
-0.115275 0.242266 0.579167 50 38 55
-0.149535 0.322761 0.771599 49 37 54
-0.156599 0.347398 0.830499 45 31 50
-0.157803 0.360069 0.860791 45 32 51
-0.13067 0.306928 0.73375 46 33 52
-0.126827 0.306928 0.73375 44 28 49
-0.122983 0.306928 0.73375 45 29 50
-0.0811858 0.20915 0.5 45 30 51
-0.0426775 0.11361 0.271599 44 27 50
-0.0311133 0.0856817 0.204833 45 30 49
-0.0355262 0.101328 0.242238 46 30 50
-0.0323005 0.0955401 0.2284 46 28 48
-0.0262591 0.0806578 0.192822 43 24 45
-0.0255652 0.0816674 0.195236 45 25 46
-0.0242852 0.0808109 0.193189 43 21 44
-0.0214971 0.0746434 0.178444 43 22 45
-0.0211018 0.0766014 0.183125 41 20 43
-0.0211491 0.0804291 0.192276 38 17 38
-0.0191403 0.076429 0.182713 41 18 38
-0.0188932 0.0794131 0.189847 41 18 38
-0.0179005 0.0794205 0.189865 38 16 35
-0.0163421 0.0767712 0.183531 40 18 36
-0.0155828 0.0777795 0.185942 38 16 35
-0.0148405 0.0790128 0.18889 38 15 34
-0.0138212 0.078842 0.188482 39 15 34
-0.0130235 0.0800061 0.191265 38 16 35
-0.0114851 0.0764355 0.182729 43 19 38
-0.0103245 0.0749575 0.179195 42 18 37
-0.00938588 0.0749575 0.179195 45 22 42
-0.00841189 0.0746434 0.178444 45 22 43
-0.00749879 0.0748585 0.178959 43 19 39
-0.00648644 0.0740029 0.176913 44 20 40
-0.00571307 0.0760428 0.18179 47 23 43
-0.00476381 0.0760895 0.181901 46 23 44
-0.00369612 0.0737948 0.176416 45 25 46
-0.00280396 0.0746434 0.178444 47 27 47
-0.00187217 0.0747577 0.178718 48 28 48
-0.000918404 0.0733455 0.175342 48 29 50
0 0.0746669 0.178501 48 30 51
0.000925198 0.0738881 0.176639 49 31 51
0.00188176 0.0751407 0.179633 47 28 49
0.00271886 0.0723778 0.173028 45 25 47
0.0035286 0.0704501 0.16842 46 27 49
0.00449127 0.0717363 0.171495 47 29 51
0.00546719 0.0727701 0.173966 47 29 51
0.00630344 0.071915 0.171922 46 28 51
0.00728625 0.0727368 0.173886 47 29 52
0.0080918 0.071803 0.171654 46 28 52
0.00889926 0.0710713 0.169905 46 27 51
0.0102444 0.0743761 0.177805 48 30 52
0.0104371 0.0694603 0.166054 50 33 54
0.0114847 0.070553 0.168666 46 27 51
0.012414 0.0708148 0.169292 46 27 51
0.0133007 0.0708148 0.169292 45 27 50
0.0145103 0.0724262 0.173144 44 26 50
0.0153825 0.0722635 0.172755 44 26 49
0.0157939 0.0700741 0.167521 46 28 50
0.0166904 0.070154 0.167712 42 22 46
0.0171883 0.0686346 0.16408 43 24 47
0.0191172 0.0727018 0.173803 45 27 49
0.0208188 0.0755739 0.180669 45 25 48
0.0201028 0.0698021 0.166871 45 27 48
0.0197057 0.0655724 0.156759 42 24 46
0.0238735 0.0762635 0.182317 44 26 47
0.0236216 0.0725565 0.173455 44 26 46
0.0257088 0.0760428 0.18179 44 25 45
0.0303901 0.086679 0.207217 45 26 45
0.0346931 0.0955401 0.2284 45 24 44
0.0390742 0.104018 0.248668 44 24 43
0.0656421 0.169107 0.404271 42 20 41
0.0627419 0.156584 0.374334 41 20 41
0.0864236 0.20915 0.5 43 22 40
0.0957038 0.224797 0.537405 41 20 39
0.129212 0.294832 0.704833 42 21 41
0.159153 0.353063 0.844042 42 20 41
0.176292 0.380514 0.909666 44 21 41
0.213058 0.447769 1.07045 42 20 39
0.222727 0.456088 1.09033 43 20 39
0.187484 0.374322 0.894863 42 19 37
0.244645 0.476532 1.13921 42 19 37
0.295672 0.562214 1.34404 42 19 36
0.321971 0.597983 1.42955 42 20 37
0.316733 0.574885 1.37433 38 15 29
0.374843 0.665238 1.59033 38 15 27
0.290291 0.503982 1.20483 40 16 30
0.351922 0.597983 1.42955 37 14 27
0.394833 0.656919 1.57045 37 14 26
0.366898 0.597983 1.42955 38 14 28
0.377719 0.603308 1.44228 34 12 22
0.400691 0.627451 1.5 41 16 31
0.408548 0.627451 1.5 36 13 24
0.400383 0.603308 1.44228 36 14 27
0.404336 0.597983 1.42955 39 15 30
0.46832 0.680017 1.62567 38 15 30
0.423046 0.603308 1.44228 36 14 28
0.465063 0.651594 1.55772 39 16 32
0.423748 0.583472 1.39486 41 17 34
0.463545 0.627451 1.5 43 19 38
0.547529 0.728779 1.74224 44 21 39
0.45675 0.597983 1.42955 47 24 41
0.502987 0.647895 1.54887 44 20 38
0.460279 0.583472 1.39486 44 20 36
0.53311 0.665238 1.59033 45 20 40
0.530335 0.651594 1.55772 44 22 42
0.561984 0.680017 1.62567 43 20 39
0.585882 0.698353 1.6695 44 22 40
0.579014 0.680017 1.62567 44 22 41
0.567572 0.656919 1.57045 42 20 39
0.532049 0.607007 1.45113 43 20 39
0.633999 0.713133 1.70483 44 21 42
0.539115 0.597983 1.42955 45 23 43
0.600475 0.656919 1.57045 44 21 42
0.616409 0.665238 1.59033 45 23 42
0.624738 0.665238 1.59033 46 24 43
0.693537 0.728779 1.74224 44 22 41
0.673327 0.698353 1.6695 44 23 40
0.676539 0.692688 1.65596 44 25 41
0.649829 0.656919 1.57045 43 24 41
0.599017 0.597983 1.42955 44 25 42
0.66628 0.656919 1.57045 43 21 39
0.644249 0.627451 1.5 43 22 40
0.652106 0.627451 1.5 45 24 42
0.750084 0.713133 1.70483 44 24 42
0.611871 0.574885 1.37433 46 27 44
0.808634 0.75092 1.79517 47 27 45
0.776872 0.713133 1.70483 46 26 44
0.849967 0.771364 1.84404 46 26 43
0.859626 0.771364 1.84404 48 29 44
0.749686 0.665238 1.59033 43 23 40
0.812591 0.713133 1.70483 46 27 43
0.766346 0.665238 1.59033 46 28 43
0.89826 0.771364 1.84404 47 30 44
0.839379 0.713133 1.70483 47 32 45
0.644463 0.541769 1.29517 47 29 43
0.857238 0.713133 1.70483 47 28 43
0.825946 0.680017 1.62567 47 28 44
0.875097 0.713133 1.70483 47 29 45
0.777813 0.627451 1.5 48 30 45
1.20216 0.96007 2.29517 48 31 46
0.901886 0.713133 1.70483 50 32 47
1.06851 0.836601 2 47 28 45
0.96848 0.75092 1.79517 47 29 44
0.755841 0.574885 1.37433 50 33 47
0.555206 0.418301 1 51 34 48
0.560444 0.418301 1 48 31 45
0.398711 0.294832 0.704833 48 30 45
0.85638 0.627451 1.5 50 32 47
0.864236 0.627451 1.5 48 30 46
0.581395 0.418301 1 47 28 45
0.87995 0.627451 1.5 47 28 44
0.591871 0.418301 1 48 31 46
0.597109 0.418301 1 47 29 44
0.607584 0.418301 1 49 32 47
0.306411 0.20915 0.5 48 32 47
0.30903 0.20915 0.5 47 30 45
1.86989 1.2549 3 47 27 44
-0.274386 0.184891 0.436549 76 75 68
-0.288334 0.195923 0.462595 75 75 68
-0.253198 0.173505 0.409665 71 71 67
-0.2294 0.158541 0.374334 70 68 66
-0.200806 0.139976 0.330499 75 73 71
-0.167432 0.117727 0.277965 69 68 66
-0.16816 0.119276 0.281624 69 68 68
-0.16293 0.116589 0.275279 65 64 65
-0.126713 0.0914825 0.216 68 68 69
-0.138053 0.100568 0.237451 67 67 68
-0.12696 0.0933277 0.220357 68 68 69
-0.122578 0.0909326 0.214702 64 64 64
-0.117083 0.0876605 0.206976 62 60 62
-0.121056 0.0914825 0.216 64 61 63
-0.113724 0.0867527 0.204833 64 61 64
-0.114303 0.0880245 0.207836 63 60 64
-0.110122 0.0856198 0.202158 63 62 63
-0.111158 0.0872643 0.206041 65 62 64
-0.105776 0.0838536 0.197988 61 56 59
-0.108934 0.087212 0.205917 64 60 63
-0.106239 0.0859048 0.202831 60 53 57
-0.105731 0.0863579 0.203901 63 56 61
-0.103778 0.0856277 0.202176 62 55 60
-0.0980477 0.0817336 0.192982 60 53 57
-0.0957401 0.0806413 0.190403 64 57 60
-0.0976371 0.0831048 0.19622 57 48 53
-0.0993431 0.0854564 0.201772 57 48 54
-0.0950843 0.0826725 0.195199 56 48 53
-0.0917333 0.0806259 0.190367 57 50 55
-0.0888483 0.0789483 0.186406 60 53 58
-0.0898157 0.0806947 0.190529 56 47 53
-0.0893375 0.0811669 0.191644 58 48 54
-0.0905264 0.0831817 0.196401 56 47 52
-0.0871021 0.0809552 0.191144 56 45 50
-0.0878653 0.082614 0.195061 58 46 49
-0.0865984 0.0823807 0.19451 53 40 43
-0.0871096 0.0838536 0.197988 54 37 43
-0.0829507 0.0808122 0.190807 51 33 38
-0.0805566 0.0794369 0.187559 52 35 40
-0.0790486 0.0789122 0.18632 50 34 37
-0.0805999 0.0814666 0.192352 50 34 38
-0.0802586 0.0821485 0.193962 48 32 36
-0.0767763 0.0795916 0.187925 50 34 37
-0.075856 0.0796589 0.188083 52 36 39
-0.076802 0.0817135 0.192935 48 30 35
-0.0755255 0.0814268 0.192258 49 33 38
-0.0752574 0.0822342 0.194164 47 32 37
-0.0721266 0.0798928 0.188636 49 35 40
-0.0715043 0.0803035 0.189606 56 46 51
-0.0687924 0.078346 0.184984 58 47 52
-0.06896 0.0796589 0.188083 56 46 49
-0.0693333 0.0812509 0.191842 56 46 51
-0.0669582 0.0796214 0.187995 59 49 54
-0.0667446 0.0805521 0.190192 55 45 51
-0.0652837 0.0799827 0.188848 53 44 50
-0.0637965 0.0793631 0.187385 52 43 50
-0.0625983 0.0790892 0.186738 56 48 53
-0.0601859 0.0772484 0.182392 52 44 53
-0.0600088 0.0782633 0.184788 52 45 53
-0.0596353 0.0790512 0.186649 56 48 56
-0.0603653 0.0813526 0.192082 55 47 55
-0.0595879 0.081666 0.192822 54 47 55
-0.0592167 0.0825565 0.194925 56 49 55
-0.0586083 0.0831418 0.196307 52 45 54
-0.0666213 0.0961967 0.227131 55 49 58
-0.0639634 0.0940382 0.222035 56 49 57
-0.0670549 0.100409 0.237076 53 47 55
-0.0724808 0.110581 0.261095 52 45 55
-0.084425 0.131281 0.30997 53 45 56
-0.0898037 0.142383 0.336183 53 44 55
-0.107287 0.173505 0.409665 53 44 56
-0.0984076 0.162393 0.383428 53 45 57
-0.106592 0.179563 0.423969 52 44 57
-0.129898 0.22348 0.527662 50 41 54
-0.120469 0.211765 0.5 52 43 56
-0.126667 0.227607 0.537405 51 41 54
-0.156063 0.286802 0.677171 51 41 54
-0.140916 0.264988 0.625666 49 38 53
-0.119316 0.229713 0.542379 48 36 52
-0.151363 0.298517 0.704833 47 35 52
-0.161659 0.326795 0.771599 47 36 52
-0.143979 0.298517 0.704833 45 33 50
-0.153576 0.326795 0.771599 48 35 52
-0.16682 0.36457 0.860791 44 29 48
-0.173633 0.39 0.920833 44 29 48
-0.170408 0.393693 0.929553 43 30 48
-0.132181 0.31436 0.742238 46 31 50
-0.0864236 0.211765 0.5 47 32 51
-0.0989456 0.250024 0.590334 45 30 48
-0.0607812 0.158541 0.374334 43 26 47
-0.0278396 0.0750372 0.177171 44 26 47
-0.0448347 0.125012 0.295167 44 27 46
-0.0372083 0.107452 0.253707 45 27 47
-0.0289675 0.0867527 0.204833 43 23 44
-0.0274209 0.0852793 0.201354 42 22 43
-0.0250853 0.0811363 0.191572 42 22 43
-0.024761 0.0834241 0.196974 44 23 44
-0.0235053 0.0826366 0.195114 43 21 43
-0.0219784 0.0807809 0.190733 40 19 40
-0.0200829 0.077329 0.182582 40 18 39
-0.0191819 0.0775528 0.183111 40 18 37
-0.0186687 0.0794501 0.18759 38 16 34
-0.0180683 0.0811669 0.191644 40 17 35
-0.0163955 0.0779851 0.184132 38 17 35
-0.01529 0.0772722 0.182448 42 19 38
-0.0144133 0.0776975 0.183452 39 16 36
-0.0142579 0.08235 0.194437 42 18 38
-0.0122403 0.076135 0.179763 40 17 37
-0.010974 0.0739469 0.174597 45 21 41
-0.0106078 0.0779772 0.184113 46 22 42
-0.00922546 0.0745973 0.176133 45 22 43
-0.00865402 0.0777518 0.183581 49 27 46
-0.00771477 0.0779772 0.184113 46 22 41
-0.00687587 0.0794263 0.187534 49 26 45
-0.00574633 0.0774415 0.182848 47 23 43
-0.00471553 0.0762597 0.180058 46 25 45
-0.00387203 0.0782734 0.184812 47 26 47
-0.00283406 0.0763875 0.180359 47 27 48
-0.00190651 0.0770806 0.181996 48 28 49
-0.000937986 0.0758458 0.17908 46 26 48
0 0.0794085 0.187492 48 28 49
0.000922031 0.0745557 0.176034 48 28 50
0.00184377 0.074544 0.176007 46 26 48
0.00274262 0.073923 0.17454 48 29 51
0.00385318 0.0778922 0.183912 47 29 50
0.00460788 0.0745189 0.175947 47 29 51
0.00558734 0.0752989 0.177789 47 29 52
0.00638199 0.0737213 0.174064 46 28 51
0.00718666 0.0726394 0.17151 45 27 51
0.00822786 0.073923 0.17454 45 26 51
0.00850374 0.0687614 0.162353 46 27 51
0.00970409 0.0713341 0.168428 46 28 51
0.0109422 0.0737325 0.174091 46 28 52
0.0116622 0.0725393 0.171273 46 28 51
0.012578 0.0726472 0.171528 45 25 49
0.0133886 0.0721737 0.17041 44 24 49
0.0144555 0.0730546 0.17249 45 27 50
0.0156432 0.0744064 0.175682 44 27 49
0.015958 0.0716869 0.169261 44 25 48
0.0172419 0.0733779 0.173253 47 29 51
0.0173193 0.0700222 0.16533 45 26 49
0.0191172 0.0736106 0.173803 43 24 47
0.0200563 0.0737164 0.174053 44 25 47
0.0203447 0.071525 0.168878 44 26 47
0.020953 0.0705944 0.166681 43 23 46
0.0244178 0.0789771 0.186474 43 24 46
0.0281598 0.0875772 0.20678 44 26 46
0.0282642 0.0846463 0.199859 42 23 43
0.0361814 0.104487 0.246705 45 27 45
0.0398801 0.111197 0.262549 44 23 42
0.0614875 0.16573 0.391307 43 21 41
0.0762672 0.198935 0.469708 42 21 41
0.0838047 0.211765 0.5 41 21 41
0.125902 0.308499 0.7284 44 23 42
0.12552 0.298517 0.704833 44 23 42
0.154732 0.357476 0.844042 43 21 41
0.173633 0.39 0.920833 43 20 40
0.193798 0.423529 1 42 19 38
0.217016 0.461789 1.09033 40 18 37
0.264569 0.548541 1.29517 42 19 38
0.271353 0.548541 1.29517 43 19 38
0.258737 0.510282 1.20483 42 19 36
0.258963 0.498567 1.17717 41 19 35
0.324839 0.61085 1.44228 40 18 33
0.345695 0.635294 1.5 40 17 30
0.336947 0.605458 1.42955 39 16 27
0.347502 0.61085 1.44228 39 15 26
0.369265 0.635294 1.5 35 12 22
0.325623 0.548541 1.29517 35 13 24
0.384978 0.635294 1.5 37 14 27
0.392835 0.635294 1.5 34 12 21
0.372606 0.590765 1.39486 36 13 24
0.424268 0.659738 1.55772 39 14 27
0.359542 0.548541 1.29517 42 17 32
0.444187 0.66513 1.57045 43 18 34
0.46832 0.688517 1.62567 36 14 27
0.425639 0.614594 1.45113 43 19 36
0.498437 0.707083 1.6695 42 18 34
0.470536 0.655994 1.54887 44 21 38
0.518296 0.710331 1.67717 43 19 37
0.504443 0.679823 1.60514 44 20 38
0.556655 0.737889 1.74224 47 24 42
0.502987 0.655994 1.54887 43 20 38
0.562563 0.722047 1.70483 44 20 38
0.502828 0.635294 1.5 45 21 40
0.510685 0.635294 1.5 43 21 39
0.577137 0.707083 1.6695 44 21 39
0.616856 0.744464 1.75776 42 19 38
0.649237 0.772022 1.82283 43 22 40
0.598476 0.701347 1.65596 42 21 39
0.668332 0.772022 1.82283 45 24 43
0.591419 0.673553 1.59033 42 20 40
0.613073 0.688517 1.62567 45 24 43
0.621588 0.688517 1.62567 43 22 41
0.616409 0.673553 1.59033 44 23 42
0.589252 0.635294 1.5 45 25 43
0.625152 0.66513 1.57045 46 27 42
0.687577 0.722047 1.70483 45 25 41
0.696506 0.722047 1.70483 46 28 43
0.658058 0.673553 1.59033 44 25 41
0.590683 0.597035 1.40967 45 26 42
0.66628 0.66513 1.57045 45 25 42
0.644249 0.635294 1.5 45 25 42
0.612834 0.597035 1.40967 46 26 43
0.773371 0.744464 1.75776 47 27 44
0.782578 0.744464 1.75776 45 24 43
0.767943 0.722047 1.70483 48 29 47
0.715634 0.66513 1.57045 48 28 45
0.849967 0.781006 1.84404 48 28 44
0.836842 0.760306 1.79517 45 25 42
0.803661 0.722047 1.70483 44 26 43
0.758016 0.673553 1.59033 46 30 45
0.688869 0.605458 1.42955 44 27 42
0.774676 0.673553 1.59033 45 27 42
0.839379 0.722047 1.70483 46 27 43
0.995181 0.847059 2 47 30 44
0.857238 0.722047 1.70483 48 31 45
0.762099 0.635294 1.5 47 30 44
0.769956 0.635294 1.5 48 30 45
0.777813 0.635294 1.5 48 31 46
0.631067 0.510282 1.20483 48 32 47
0.901886 0.722047 1.70483 48 32 47
1.06851 0.847059 2 49 31 47
0.80924 0.635294 1.5 48 32 46
0.544731 0.423529 1 48 31 45
0.824953 0.635294 1.5 47 30 44
1.11041 0.847059 2 48 32 45
0.840666 0.635294 1.5 50 34 47
1.13136 0.847059 2 50 33 47
0.57092 0.423529 1 49 31 47
0.581395 0.423529 1 46 27 44
0.706795 0.510282 1.20483 49 31 47
0.174701 0.125012 0.295167 48 29 45
0.773356 0.548541 1.29517 50 31 46
1.80704 1.27059 3 49 31 46
0.303792 0.211765 0.5 47 29 45
0.30903 0.211765 0.5 48 31 45
1.2466 0.847059 2 49 28 46
-0.22677 0.154692 0.360791 85 98 71
-0.218899 0.150578 0.351194 78 92 70
-0.194351 0.134824 0.314453 76 78 64
