ply
format ascii 1.0
element vertex 1294
property float x
property float y
property float z
property uchar red
property uchar green
property uchar blue
end_header
-0.075101 0.0664033 0.204833 47 25 36
-0.0740282 0.0664033 0.204833 48 26 36
-0.0767377 0.069846 0.215453 46 23 35
-0.0730988 0.067527 0.208299 46 24 35
-0.0708096 0.0664033 0.204833 45 23 35
-0.0709229 0.0675328 0.208317 45 22 35
-0.0691342 0.0668582 0.206236 46 25 38
-0.0675909 0.0664033 0.204833 46 26 39
-0.065396 0.0652832 0.201378 51 34 47
-0.0653116 0.0662678 0.204415 54 40 52
-0.0627991 0.0647804 0.199827 55 42 54
-0.0627924 0.0658714 0.203192 55 42 55
-0.0590403 0.0630032 0.194344 55 41 55
-0.0600758 0.0652329 0.201222 54 43 57
-0.0585435 0.0647042 0.199592 54 44 57
-0.0577336 0.0649692 0.200409 55 44 58
-0.056086 0.0642839 0.198295 54 44 59
-0.0542978 0.0634085 0.195595 54 45 60
-0.0542956 0.0646254 0.199348 55 46 61
-0.0535675 0.0650088 0.200531 54 45 60
-0.051982 0.0643464 0.198488 55 46 61
-0.0498267 0.0629373 0.194141 54 45 61
-0.0492917 0.0635586 0.196058 54 46 62
-0.0474683 0.0625098 0.192822 55 47 62
-0.0467713 0.0629309 0.194121 55 47 63
-0.0458836 0.0631083 0.194669 56 47 63
-0.043795 0.0616046 0.19003 56 47 63
-0.0433029 0.0623289 0.192265 55 47 63
-0.0420148 0.0619148 0.190987 56 47 63
-0.0413011 0.0623475 0.192322 56 48 64
-0.0405334 0.0627183 0.193466 55 48 64
-0.0390357 0.0619497 0.191095 55 47 64
-0.0375754 0.0612015 0.188787 55 46 63
-0.0374396 0.0626285 0.193189 54 46 62
-0.0366946 0.0630872 0.194604 53 45 63
-0.0347187 0.0613956 0.189386 54 47 63
-0.0341613 0.0621866 0.191826 54 45 63
-0.0339169 0.0636127 0.196225 53 43 62
-0.0323319 0.0625349 0.1929 53 44 62
-0.0307283 0.0613506 0.189247 54 44 62
-0.0299221 0.0617323 0.190424 55 44 62
-0.0283992 0.0606107 0.186964 53 44 61
-0.0275346 0.0608642 0.187746 53 43 61
-0.0268742 0.0616046 0.19003 51 42 60
-0.0255653 0.0608583 0.187728 51 41 60
-0.0245499 0.0607788 0.187483 52 42 60
-0.0238086 0.0613993 0.189397 52 42 60
-0.0232716 0.0626238 0.193174 52 41 60
-0.0218222 0.0613928 0.189377 50 40 59
-0.0211206 0.0622485 0.192017 51 40 60
-0.0199973 0.0618847 0.190894 51 40 59
-0.0188786 0.0614977 0.189701 52 40 60
-0.0177502 0.061034 0.18827 51 39 59
-0.0170218 0.0619725 0.191165 52 40 60
-0.0160117 0.0619382 0.19106 52 39 59
-0.0151344 0.0624476 0.192631 51 38 58
-0.0139171 0.0615264 0.189789 50 36 56
-0.0130406 0.0620863 0.191516 49 36 56
-0.0120085 0.0619369 0.191055 51 38 58
-0.0107202 0.0603187 0.186064 50 36 57
-0.0098832 0.0611701 0.18869 51 37 57
-0.00903072 0.0621043 0.191572 50 36 56
-0.00808467 0.062548 0.192941 49 34 55
-0.00706975 0.0625098 0.192822 49 33 54
-0.00598772 0.0617663 0.190529 48 33 54
-0.005013 0.062054 0.191417 49 33 53
-0.00411287 0.0636394 0.196307 48 31 51
-0.00298375 0.0615577 0.189886 48 31 51
-0.00197965 0.0612632 0.188977 48 29 50
-0.000952401 0.058947 0.181832 47 28 49
0 0.0601047 0.185404 47 28 49
0.0009581 0.0592997 0.182921 47 27 46
0.00187209 0.0579345 0.178709 45 22 43
0.00270813 0.0558715 0.172345 45 21 42
0.00360038 0.0557096 0.171846 45 20 42
0.00465937 0.0576765 0.177913 45 20 40
0.005723 0.0590357 0.182106 43 19 37
0.00655514 0.0579597 0.178787 40 15 32
0.00751921 0.0581733 0.179446 40 16 32
0.00834385 0.0573807 0.177001 39 16 31
0.00914016 0.0565712 0.174504 42 17 32
0.0104806 0.0589705 0.181905 42 16 32
0.0109948 0.0567082 0.174927 43 18 35
0.0120314 0.0572815 0.176695 45 20 39
0.0128294 0.0567178 0.174956 47 26 42
0.013466 0.0555634 0.171395 47 26 43
0.0144961 0.0560754 0.172975 49 29 45
0.0152646 0.0555748 0.17143 51 34 47
0.015881 0.0546069 0.168445 51 35 48
0.0176764 0.0575813 0.17762 52 36 49
0.0181493 0.0561658 0.173253 51 34 48
0.0191911 0.0565618 0.174475 51 36 49
0.0193211 0.0543565 0.167672 52 36 50
0.0212343 0.0571416 0.176263 51 36 49
0.0224461 0.0578857 0.178559 52 37 50
0.0228772 0.0566377 0.174709 51 37 49
0.0234986 0.0559385 0.172552 50 34 47
0.0239268 0.0548483 0.169189 50 35 48
0.0252494 0.055813 0.172165 50 35 48
0.0274207 0.0585223 0.180523 48 33 46
0.0271357 0.0559837 0.172692 48 33 46
0.0283221 0.0565465 0.174428 48 32 45
0.0283362 0.0548066 0.169061 49 33 47
0.0306235 0.0574358 0.177171 46 29 44
0.0317716 0.0578365 0.178407 45 28 44
0.0314137 0.0555511 0.171357 47 30 44
0.0328328 0.0564478 0.174123 44 25 43
0.0334722 0.0559918 0.172717 44 26 43
0.0350637 0.0571104 0.176167 46 29 44
0.0354676 0.056287 0.173627 45 26 43
0.0363881 0.0563042 0.17368 44 25 42
0.0376546 0.0568428 0.175342 45 27 44
0.038491 0.056722 0.174969 45 26 44
0.0400214 0.0576056 0.177695 46 27 43
0.0413654 0.058187 0.179488 46 26 42
0.0413643 0.0568925 0.175495 45 25 42
0.0445675 0.0599656 0.184974 46 26 42
0.0476433 0.0627401 0.193533 45 26 42
0.0510569 0.0658348 0.203079 46 26 43
0.0609424 0.0769777 0.237451 46 27 44
0.0826205 0.102273 0.315478 46 26 43
0.120508 0.146247 0.451125 46 27 43
0.162651 0.193595 0.59718 45 26 43
0.185856 0.217041 0.669501 45 25 42
0.23873 0.273624 0.844042 46 27 43
0.288079 0.324183 1 46 27 43
0.334149 0.369312 1.13921 47 27 43
0.359708 0.390586 1.20483 46 25 41
0.377382 0.402712 1.24224 45 24 41
0.431054 0.452191 1.39486 45 25 42
0.386047 0.398227 1.2284 43 23 40
0.465718 0.472536 1.45762 46 25 40
0.461406 0.46061 1.42083 43 20 37
0.453504 0.445536 1.37433 42 20 36
0.502828 0.486275 1.5 43 20 37
0.49795 0.474148 1.46259 43 21 38
0.535437 0.502119 1.54887 44 23 39
0.570499 0.527013 1.62567 44 22 38
0.534255 0.486275 1.5 45 24 38
0.567572 0.509112 1.57045 44 20 34
0.549969 0.486275 1.5 43 19 34
0.615824 0.536833 1.65596 42 18 33
0.581664 0.500013 1.54238 43 19 34
0.573539 0.486275 1.5 42 18 32
0.630103 0.527013 1.62567 46 21 36
0.638618 0.527013 1.62567 45 20 34
0.633068 0.515559 1.59033 40 17 28
0.67642 0.54371 1.67717 41 16 28
0.685205 0.54371 1.67717 41 16 28
0.680423 0.533081 1.64438 41 16 28
0.681192 0.527013 1.62567 40 17 29
0.697649 0.533081 1.64438 44 19 33
0.706262 0.533081 1.64438 44 18 32
0.757415 0.564804 1.74224 44 19 33
0.779459 0.574322 1.7716 45 20 34
0.759013 0.552678 1.70483 44 19 32
0.675676 0.486275 1.5 47 21 36
0.683532 0.486275 1.5 48 24 37
0.803043 0.564804 1.74224 48 23 37
0.794731 0.552678 1.70483 48 23 37
0.821294 0.564804 1.74224 48 23 36
0.79575 0.541224 1.6695 49 24 37
0.792391 0.533081 1.64438 48 24 37
0.791886 0.527013 1.62567 50 26 39
0.839379 0.552678 1.70483 48 24 37
0.874646 0.569837 1.75776 48 25 39
0.789665 0.509112 1.57045 48 24 37
0.841336 0.536833 1.65596 48 24 38
0.980239 0.619081 1.90967 49 24 39
0.777813 0.486275 1.5 48 24 38
0.981738 0.607627 1.87433 47 23 37
0.727047 0.445536 1.37433 47 22 37
0.939093 0.569837 1.75776 47 23 37
0.893378 0.536833 1.65596 47 23 37
0.902051 0.536833 1.65596 45 20 35
0.874634 0.515559 1.59033 47 23 38
1.02382 0.597807 1.84404 46 23 37
1.00609 0.581963 1.79517 46 23 37
0.964393 0.552678 1.70483 45 21 36
0.928125 0.527013 1.62567 45 23 37
1.15232 0.648366 2 47 25 40
0.991182 0.552678 1.70483 47 25 39
0.95367 0.527013 1.62567 47 25 39
0.962184 0.527013 1.62567 47 25 40
1.01797 0.552678 1.70483 46 24 39
0.90352 0.486275 1.5 47 25 41
0.607584 0.324183 1 47 26 41
1.04476 0.552678 1.70483 48 27 42
1.10952 0.581963 1.79517 48 28 41
1.06262 0.552678 1.70483 48 28 42
-0.461188 0.241706 0.73375 52 38 43
-0.526089 0.278037 0.844042 53 42 48
-0.503381 0.26829 0.814453 54 44 49
-0.464373 0.249616 0.757762 55 44 48
-0.543705 0.294778 0.894863 55 43 47
-0.424554 0.23218 0.704833 56 44 48
-0.452466 0.249616 0.757762 57 45 50
-0.448497 0.249616 0.757762 56 44 49
-0.495143 0.278037 0.844042 56 45 51
-0.514827 0.291695 0.885502 55 45 52
-0.422756 0.241706 0.73375 55 45 51
-0.464987 0.26829 0.814453 55 46 51
-0.428652 0.249616 0.757762 56 46 52
-0.445647 0.261937 0.795167 56 47 54
-0.391328 0.23218 0.704833 55 46 53
-0.456748 0.273576 0.830499 55 47 55
-0.399696 0.241706 0.73375 58 50 58
-0.455355 0.278037 0.844042 55 46 55
-0.424822 0.261937 0.795167 57 48 57
-0.446513 0.278037 0.844042 57 49 57
-0.384323 0.241706 0.73375 56 47 56
-0.412327 0.261937 0.795167 56 49 58
-0.361794 0.23218 0.704833 58 50 58
-0.344048 0.223068 0.677171 56 47 56
-0.399833 0.261937 0.795167 55 45 55
-0.383941 0.254174 0.771599 56 48 56
-0.329631 0.220542 0.669501 55 46 55
-0.357421 0.241706 0.73375 55 47 55
-0.339643 0.23218 0.704833 55 47 55
-0.288432 0.199339 0.605137 54 44 53
-0.208493 0.145694 0.442284 54 43 53
-0.291663 0.206102 0.625666 52 41 51
-0.288386 0.206102 0.625666 52 41 51
-0.247156 0.178666 0.542379 53 42 52
-0.208376 0.152384 0.462595 52 39 49
-0.207703 0.153679 0.466525 51 39 48
-0.176124 0.131865 0.400304 54 41 50
-0.184315 0.13966 0.423969 53 39 48
-0.120265 0.0922394 0.280012 53 39 48
-0.130854 0.1016 0.308428 51 36 45
-0.0979468 0.077 0.23375 50 33 43
-0.0962029 0.0765864 0.232494 53 36 45
-0.110961 0.0894681 0.271599 51 34 42
-0.101952 0.0832715 0.252789 50 31 40
-0.0906146 0.0749851 0.227633 49 29 40
-0.0892883 0.0748728 0.227292 49 28 39
-0.083408 0.070887 0.215193 49 29 39
-0.0840293 0.0723933 0.219765 50 30 40
-0.078169 0.0682799 0.207278 49 28 38
-0.0777664 0.0688849 0.209115 48 27 36
-0.0741503 0.0666201 0.20224 48 27 37
-0.0755635 0.0688737 0.209081 47 25 35
-0.072147 0.0667267 0.202563 47 24 36
-0.0711511 0.0667879 0.202749 47 25 36
-0.072014 0.0686221 0.208317 47 25 36
-0.0678187 0.0656185 0.199199 47 25 37
-0.067915 0.0667385 0.202599 46 25 38
-0.0651797 0.0650672 0.197526 47 28 40
-0.0647718 0.0657029 0.199455 54 36 48
-0.0651804 0.0672012 0.204004 51 36 49
-0.0642451 0.067341 0.204428 53 40 52
-0.0620699 0.0661637 0.200854 52 38 52
-0.0616278 0.0668251 0.202862 53 40 54
-0.0590472 0.06515 0.197777 54 43 57
-0.0590479 0.0663143 0.201311 54 43 57
-0.0570728 0.0652614 0.198115 54 43 58
-0.0575973 0.0670809 0.203638 53 45 59
-0.0541118 0.0642106 0.194925 54 45 60
-0.0538514 0.0651305 0.197718 53 44 59
-0.0522324 0.064411 0.195534 54 45 60
-0.051192 0.0643906 0.195471 54 46 60
-0.0502307 0.0644709 0.195715 54 46 61
-0.0501718 0.0657368 0.199558 54 46 62
-0.0480625 0.0643131 0.195236 55 47 62
-0.0466748 0.0638139 0.193721 55 47 62
-0.0462491 0.0646371 0.19622 56 48 63
-0.0452214 0.0646371 0.19622 56 48 63
-0.0440967 0.0644953 0.195789 56 47 63
-0.0421887 0.0631738 0.191778 55 46 62
-0.0412015 0.0632004 0.191858 55 47 63
-0.0400845 0.0630242 0.191323 55 47 63
-0.0389128 0.0627507 0.190493 53 45 63
-0.0376754 0.0623541 0.189289 54 46 62
-0.0370851 0.063036 0.191359 55 47 63
-0.0363734 0.0635436 0.1929 53 45 62
-0.0347489 0.0624401 0.18955 53 44 62
-0.0343388 0.063518 0.192822 52 43 61
-0.0332298 0.0633293 0.19225 54 45 63
-0.0324293 0.063735 0.193481 53 44 62
-0.0306536 0.0621886 0.188787 55 45 62
-0.0297123 0.0622882 0.189089 54 44 62
-0.0289921 0.0628742 0.190868 53 43 61
-0.0274714 0.0617039 0.187316 54 44 61
-0.0269351 0.0627402 0.190461 52 43 61
-0.0256987 0.0621624 0.188707 51 41 60
-0.0247639 0.0622973 0.189117 52 42 60
-0.0243211 0.0637328 0.193475 53 43 61
-0.022794 0.0623281 0.18921 51 42 59
-0.0220628 0.0630707 0.191465 52 42 60
-0.0203233 0.0608648 0.184768 51 40 59
-0.0201893 0.0634867 0.192727 52 41 60
-0.0184653 0.0611214 0.185547 50 38 58
-0.0179161 0.0625982 0.19003 52 40 60
-0.016576 0.0613228 0.186159 52 39 58
-0.0162574 0.063903 0.193991 49 37 56
-0.014515 0.0608578 0.184747 51 38 58
-0.0143367 0.0644038 0.195512 49 36 56
-0.0130365 0.0630677 0.191456 49 35 56
-0.0122914 0.0644187 0.195557 48 35 55
-0.0112572 0.064362 0.195385 50 36 57
-0.0103737 0.0652413 0.198054 50 36 56
-0.00895123 0.0625505 0.189886 49 34 54
-0.00819479 0.0644226 0.195569 48 33 53
-0.00712749 0.0640368 0.194397 47 32 52
-0.00596657 0.0625409 0.189856 48 32 53
-0.00508717 0.0639878 0.194249 48 32 52
-0.00410075 0.0644754 0.195729 48 31 51
-0.00299063 0.0626948 0.190324 47 29 49
-0.00195087 0.0613464 0.18623 46 27 48
-0.000985143 0.0619569 0.188083 44 23 45
0 0.0612698 0.185997 44 22 45
0.00093877 0.0590405 0.17923 45 23 44
0.00186864 0.0587605 0.17838 42 19 39
0.00287182 0.0602041 0.182762 40 18 37
0.00383045 0.0602254 0.182827 40 16 35
0.0047446 0.0596788 0.181168 40 17 34
0.00566917 0.0594236 0.180393 42 17 35
0.0066991 0.0601879 0.182713 40 15 32
0.0077058 0.0605785 0.183899 39 15 32
0.0086121 0.0601806 0.182691 41 17 34
0.00927986 0.0583622 0.177171 41 16 32
0.0104603 0.0598054 0.181552 41 16 33
0.0111672 0.0585264 0.177669 42 17 34
0.0119513 0.0578177 0.175518 46 22 39
0.0126578 0.056862 0.172617 47 25 42
0.0139703 0.058574 0.177814 49 28 45
0.0146215 0.0574727 0.174471 51 33 47
0.015468 0.0572236 0.173715 52 35 48
0.0164108 0.0573388 0.174064 52 35 48
0.0172793 0.0571958 0.17363 51 35 48
0.0179312 0.0563858 0.171171 52 35 49
0.0187532 0.0561624 0.170493 51 36 49
0.0204878 0.0585685 0.177797 51 37 49
0.0209594 0.0573116 0.173982 50 36 48
0.0217462 0.0569854 0.172991 51 36 48
0.0221413 0.0556997 0.169088 51 36 48
0.0230974 0.0558703 0.169606 48 33 46
0.0242912 0.0565818 0.171766 49 35 48
0.024534 0.0551063 0.167287 49 34 47
0.0254896 0.0552785 0.16781 49 33 47
0.027072 0.0567531 0.172286 48 33 47
0.0278725 0.0565463 0.171659 48 32 46
0.0297853 0.0585386 0.177706 48 32 47
0.029911 0.0570043 0.173049 47 30 46
0.0305789 0.0565632 0.17171 46 29 44
0.0312482 0.0561497 0.170454 43 25 41
0.0336631 0.0588087 0.178526 44 25 42
0.0330483 0.0561744 0.170529 46 28 44
0.033924 0.0561454 0.170441 46 28 43
0.0357027 0.0575741 0.174779 45 25 43
0.0355742 0.0559327 0.169796 44 24 41
0.0383097 0.0587646 0.178392 45 27 44
0.0378781 0.0567192 0.172183 44 25 42
0.0391987 0.0573315 0.174042 45 25 42
0.0401411 0.0573756 0.174176 46 27 44
0.0417594 0.0583622 0.177171 45 25 43
0.0472511 0.0646018 0.196112 46 26 43
0.0512631 0.0685958 0.208237 45 26 43
0.0586211 0.0768075 0.233166 46 27 44
0.0828547 0.106344 0.322829 45 26 43
0.118145 0.148606 0.451125 47 27 44
0.139859 0.172469 0.523568 46 27 43
0.197389 0.238731 0.724721 46 27 44
0.22485 0.266814 0.80997 46 27 44
0.255355 0.2974 0.90282 46 27 44
0.288079 0.329412 1 45 25 42
0.334149 0.375269 1.13921 45 25 41
0.336072 0.370808 1.12567 46 26 42
0.36016 0.390533 1.18555 45 24 40
0.415349 0.442743 1.34404 45 25 41
0.407029 0.426643 1.29517 46 25 42
0.450396 0.46436 1.40967 44 21 39
0.45778 0.46436 1.40967 43 21 38
0.465163 0.46436 1.40967 41 19 36
0.490289 0.481796 1.46259 43 21 38
0.527325 0.510217 1.54887 44 23 39
0.579789 0.55248 1.67717 43 21 37
0.5581 0.523875 1.59033 44 21 37
0.571702 0.528751 1.60514 46 24 38
0.574759 0.523875 1.59033 44 20 34
0.596043 0.535513 1.62567 43 19 33
0.557825 0.494118 1.5 42 18 32
0.599749 0.523875 1.59033 44 20 34
0.628745 0.54168 1.64438 41 17 30
0.660788 0.561592 1.70483 40 16 28
0.638618 0.535513 1.62567 39 16 27
0.652524 0.539975 1.63921 38 15 25
0.67642 0.55248 1.67717 40 16 29
0.696506 0.561592 1.70483 40 16 27
0.664183 0.528751 1.60514 43 18 32
0.702774 0.55248 1.67717 41 16 28
0.689707 0.535513 1.62567 43 18 31
0.706262 0.54168 1.64438 45 19 34
0.757415 0.573914 1.74224 45 19 34
0.70622 0.528751 1.60514 47 21 36
0.708037 0.523875 1.59033 47 22 36
0.732282 0.535513 1.62567 45 20 34
0.740797 0.535513 1.62567 47 22 36
0.769517 0.549953 1.6695 46 21 35
0.794731 0.561592 1.70483 47 23 37
0.803661 0.561592 1.70483 47 23 36
0.79575 0.549953 1.6695 46 21 35
0.804495 0.549953 1.6695 49 25 38
0.887927 0.600461 1.82283 48 24 38
0.738529 0.494118 1.5 47 24 38
0.746386 0.494118 1.5 46 22 37
0.789665 0.517324 1.57045 48 24 37
0.841336 0.545492 1.65596 48 24 37
0.875097 0.561592 1.70483 48 24 38
0.884027 0.561592 1.70483 46 22 36
0.892957 0.561592 1.70483 47 23 37
0.793526 0.494118 1.5 48 24 39
0.884704 0.545492 1.65596 47 23 37
0.9483 0.579027 1.75776 47 24 38
0.866304 0.523875 1.59033 47 24 38
0.775272 0.46436 1.40967 46 23 37
0.83281 0.494118 1.5 48 26 39
0.911095 0.535513 1.62567 45 22 35
1.04314 0.607449 1.84404 46 25 38
0.973323 0.561592 1.70483 47 25 38
0.93664 0.535513 1.62567 46 24 38
0.991182 0.561592 1.70483 47 26 40
1.00011 0.561592 1.70483 48 26 40
0.713105 0.396886 1.20483 48 26 41
0.820627 0.452722 1.37433 49 27 41
1.20469 0.658824 2 50 28 42
1.03583 0.561592 1.70483 48 26 41
1.22564 0.658824 2 47 25 41
0.800491 0.426643 1.29517 48 26 40
0.623298 0.329412 1 48 29 43
-0.541038 0.288056 0.860791 53 40 46
-0.517648 0.277919 0.830499 55 45 50
-0.480829 0.260339 0.777965 55 46 51
-0.449658 0.245543 0.73375 56 45 49
-0.483131 0.266095 0.795167 57 45 49
-0.526652 0.292588 0.874334 56 43 48
-0.474801 0.266095 0.795167 58 46 51
-0.434285 0.245543 0.73375 58 47 52
-0.477785 0.272549 0.814453 57 46 52
-0.508334 0.292588 0.874334 59 49 54
-0.469253 0.272549 0.814453 56 47 52
-0.432621 0.253578 0.757762 56 47 52
-0.469798 0.277919 0.830499 56 46 52
-0.375218 0.224042 0.669501 57 48 54
-0.485436 0.292588 0.874334 55 47 54
-0.480856 0.292588 0.874334 56 47 55
-0.452398 0.277919 0.830499 55 46 54
-0.380252 0.235866 0.704833 55 46 55
-0.389152 0.243752 0.7284 57 49 57
-0.388167 0.245543 0.73375 59 50 58
-0.384323 0.245543 0.73375 58 49 58
-0.412327 0.266095 0.795167 56 49 58
-0.347595 0.226609 0.677171 57 49 57
-0.32739 0.215637 0.644385 56 48 56
-0.36895 0.245543 0.73375 56 47 56
-0.293745 0.19755 0.590334 57 48 56
-0.290653 0.19755 0.590334 55 46 55
-0.313889 0.215637 0.644385 56 47 56
-0.339643 0.235866 0.704833 54 46 54
-0.298217 0.209373 0.625666 55 45 54
-0.235701 0.16732 0.5 52 42 51
-0.252837 0.181502 0.542379 51 40 50
-0.245893 0.178522 0.533475 53 41 51
-0.244889 0.179838 0.537405 53 42 51
-0.162518 0.120735 0.360791 52 40 50
-0.161935 0.121717 0.363725 52 40 49
-0.113409 0.0862576 0.257762 53 41 49
-0.10531 0.0810626 0.242238 53 39 48
-0.131933 0.102794 0.307178 51 37 46
-0.105968 0.0835837 0.249771 51 36 45
-0.103854 0.0829396 0.247847 50 34 44
-0.0977018 0.0790142 0.236117 50 32 42
-0.0984251 0.0806197 0.240914 50 32 40
-0.0930851 0.077236 0.230803 49 31 40
-0.0815383 0.0685453 0.204833 49 30 40
-0.0843727 0.0718738 0.214779 49 30 40
-0.0813613 0.0702451 0.209912 49 29 40
-0.0797772 0.069821 0.208645 50 30 40
-0.0798282 0.070836 0.211678 48 28 37
-0.0799167 0.0719133 0.214897 48 26 36
-0.0738019 0.0673596 0.201289 48 26 36
-0.0736301 0.0681768 0.203731 47 25 35
-0.074447 0.0699469 0.209021 46 23 35
-0.0729363 0.0695502 0.207836 46 25 36
-0.0704826 0.0682288 0.203887 46 24 35
-0.0694327 0.0682466 0.20394 46 24 36
-0.0680839 0.0679664 0.203103 48 27 40
-0.0659281 0.0668591 0.199794 51 33 44
-0.0650538 0.0670364 0.200324 52 34 46
-0.0654452 0.0685453 0.204833 54 39 50
-0.0626018 0.0666601 0.199199 54 40 51
-0.063179 0.0684149 0.204443 53 39 53
-0.0601091 0.0662129 0.197863 53 40 54
-0.0598812 0.067119 0.200571 54 43 56
-0.0586088 0.0668659 0.199814 55 45 58
-0.0564345 0.065556 0.1959 54 44 58
-0.0566062 0.0669731 0.200135 54 45 59
-0.0554254 0.0668134 0.199657 53 44 59
-0.0543435 0.0667689 0.199524 54 45 60
-0.0531523 0.0665858 0.198977 54 46 60
-0.0515276 0.0658416 0.196753 54 46 61
-0.0504971 0.0658416 0.196753 54 46 61
-0.0496075 0.0660293 0.197314 55 47 62
-0.0477759 0.0649442 0.194072 56 47 62
-0.0466993 0.0648609 0.193822 56 48 63
-0.0472232 0.0670461 0.200352 56 47 63
-0.0446689 0.0648609 0.193822 57 48 64
-0.0432718 0.0642934 0.192127 53 45 62
-0.0433407 0.065929 0.197014 54 47 62
-0.0410756 0.0640074 0.191272 55 47 63
-0.039713 0.0634312 0.18955 55 47 63
-0.0387986 0.0635597 0.189934 53 46 63
-0.0380168 0.0639178 0.191004 55 48 63
-0.0370751 0.0640193 0.191308 52 45 62
-0.0360388 0.0639584 0.191126 53 45 62
-0.0344696 0.0629214 0.188027 53 45 62
-0.033713 0.0633503 0.189309 53 44 62
-0.0337695 0.0653794 0.195372 54 45 62
-0.0324519 0.0647917 0.193616 54 45 62
-0.031739 0.0654126 0.195471 54 44 62
-0.030257 0.0644368 0.192555 54 44 62
-0.0290686 0.0640407 0.191372 53 43 60
-0.0281178 0.0641584 0.191723 54 44 61
-0.0270553 0.0640204 0.191311 53 44 61
-0.0256046 0.0629179 0.188016 52 42 60
-0.0254664 0.0650816 0.194482 51 41 60
-0.0236523 0.062964 0.188154 51 41 60
-0.0235532 0.0654261 0.195512 50 40 59
-0.0222933 0.0647415 0.193466 52 42 60
-0.0214589 0.0652858 0.195092 51 40 59
-0.019617 0.062666 0.187264 52 41 60
-0.0189623 0.0637629 0.190541 50 39 58
-0.0182858 0.064904 0.193951 51 40 59
-0.0168542 0.0633416 0.189282 51 39 57
-0.0158938 0.0634653 0.189652 50 38 57
-0.0144858 0.0616994 0.184375 49 36 55
-0.0142591 0.0650722 0.194454 50 37 56
-0.013006 0.0639192 0.191008 50 37 56
-0.0118268 0.0629675 0.188165 49 36 56
-0.0110754 0.0643273 0.192228 49 35 55
-0.0101833 0.0650604 0.194419 48 34 54
-0.00895061 0.0635389 0.189872 47 32 53
-0.00858298 0.0685453 0.204833 47 32 52
-0.0075101 0.0685453 0.204833 47 32 52
-0.00617305 0.0657323 0.196426 46 28 50
-0.00526909 0.067328 0.201195 46 27 49
-0.00405309 0.0647375 0.193454 47 28 50
-0.00291268 0.0620299 0.185363 46 27 47
-0.00190663 0.0609068 0.182007 47 28 48
-0.000992103 0.063385 0.189412 47 26 46
0 0.0625579 0.186941 43 20 42
0.000978066 0.0624882 0.186732 43 21 41
0.00188879 0.060337 0.180304 41 19 38
0.00282946 0.0602576 0.180067 40 17 36
0.00383986 0.0613318 0.183277 40 17 35
0.004767 0.0609123 0.182023 42 17 36
0.00558032 0.0594207 0.177566 41 17 34
0.00676805 0.0617725 0.184594 38 15 30
0.00726739 0.0580388 0.173436 40 16 33
0.00840446 0.0596619 0.178287 42 17 35
0.00949589 0.0606689 0.181296 44 19 36
0.0103616 0.0601817 0.17984 46 20 38
0.0109609 0.0583573 0.174388 42 18 34
0.0120405 0.059174 0.176829 45 22 39
0.0126582 0.0577661 0.172621 49 29 45
0.0137245 0.0584569 0.174686 49 30 46
0.0144282 0.0576134 0.172165 52 35 49
0.0155288 0.0583605 0.174397 52 36 48
0.0164591 0.0584202 0.174576 51 35 48
0.0172701 0.0580725 0.173537 51 35 48
0.0176485 0.0563778 0.168473 51 35 49
0.0191714 0.0583263 0.174296 51 35 49
0.0198763 0.0577222 0.17249 51 36 49
0.0203945 0.0566519 0.169292 51 37 50
0.0218366 0.0581305 0.17371 51 36 49
0.0234891 0.0600283 0.179382 50 34 47
0.023754 0.0583706 0.174428 51 36 48
0.0244612 0.0578821 0.172968 50 35 48
0.0248252 0.0566453 0.169272 50 34 48
0.0259558 0.057183 0.170879 49 34 47
0.0274388 0.058435 0.17462 48 33 47
0.0288277 0.0594126 0.177541 47 31 46
0.02841 0.056722 0.169501 46 29 45
0.030233 0.0585325 0.174912 47 29 45
0.0296881 0.0557871 0.166708 45 26 43
0.0317909 0.0580316 0.173415 45 28 44
0.0315912 0.0560652 0.167538 45 27 43
0.0345391 0.0596402 0.178222 45 26 42
0.034959 0.0587767 0.175641 45 25 42
0.034744 0.0569174 0.170085 44 24 42
0.0369151 0.0589622 0.176196 45 25 42
0.0373715 0.0582353 0.174023 45 27 44
0.0382167 0.0581345 0.173722 44 24 42
0.040198 0.0597263 0.178479 44 24 42
0.0412038 0.0598293 0.178787 44 25 43
0.0437336 0.0620916 0.185547 46 26 43
0.0497485 0.0690958 0.206478 46 26 43
0.0553209 0.0752006 0.224721 45 26 43
0.0662131 0.0881318 0.263363 44 26 43
0.0912694 0.119003 0.355615 45 25 43
0.137117 0.175207 0.523568 46 26 43
0.160195 0.200683 0.599696 45 25 42
0.206388 0.253578 0.757762 45 24 42
0.259989 0.313407 0.936549 46 26 43
0.300788 0.355874 1.06345 46 26 43
0.36478 0.423739 1.26625 46 26 43
0.388008 0.442672 1.32283 45 25 41
0.397226 0.445239 1.3305 47 26 42
0.373178 0.411073 1.2284 46 24 41
0.435629 0.471731 1.40967 43 21 38
0.471402 0.501961 1.5 43 21 38
0.463643 0.485605 1.45113 44 22 39
0.521258 0.537144 1.60514 42 20 37
0.480988 0.487779 1.45762 42 20 37
0.519212 0.518316 1.54887 45 23 39
0.483732 0.475468 1.42083 44 23 39
0.531473 0.514478 1.53741 44 22 37
0.54127 0.516142 1.54238 44 20 35
0.534255 0.501961 1.5 44 20 36
0.598476 0.554151 1.65596 42 18 33
0.578995 0.528453 1.57917 43 19 33
0.623712 0.561249 1.67717 43 19 32
0.599749 0.53219 1.59033 42 18 31
0.621588 0.544014 1.62567 40 16 28
0.630103 0.544014 1.62567 39 16 28
0.632935 0.539173 1.6112 39 16 27
0.659191 0.554151 1.65596 42 17 30
0.67642 0.561249 1.67717 39 16 26
0.664163 0.544014 1.62567 40 16 28
0.705436 0.570506 1.70483 40 16 27
0.628536 0.501961 1.5 43 17 31
0.697649 0.550278 1.64438 46 20 35
0.706262 0.550278 1.64438 46 20 35
0.706737 0.544014 1.62567 47 21 36
0.70622 0.537144 1.60514 47 22 36
0.743283 0.558683 1.6695 46 21 36
0.732282 0.544014 1.62567 46 21 36
0.776872 0.570506 1.70483 46 21 35
0.816576 0.592849 1.7716 47 22 36
0.732085 0.525535 1.57045 47 23 36
0.835135 0.592849 1.7716 48 23 37
0.774856 0.544014 1.62567 48 23 37
0.766346 0.53219 1.59033 48 24 38
0.83045 0.570506 1.70483 48 24 38
0.783006 0.53219 1.59033 48 24 39
0.848309 0.570506 1.70483 47 24 38
0.857238 0.570506 1.70483 47 24 36
0.893059 0.588218 1.75776 47 22 36
0.769956 0.501961 1.5 46 22 36
0.911473 0.588218 1.75776 47 22 37
0.832985 0.53219 1.59033 45 20 35
0.830793 0.525535 1.57045 46 23 38
0.839019 0.525535 1.57045 46 23 38
0.741444 0.459908 1.37433 47 24 38
0.928675 0.570506 1.70483 47 25 38
0.966714 0.588218 1.75776 49 26 40
0.871922 0.525535 1.57045 46 23 37
0.928072 0.554151 1.65596 46 23 37
0.964393 0.570506 1.70483 46 25 38
0.85638 0.501961 1.5 47 26 39
0.74622 0.433415 1.29517 46 24 39
0.872093 0.501961 1.5 48 26 40
1.17327 0.669281 2 48 26 40
0.980114 0.554151 1.65596 48 26 40
1.19422 0.669281 2 49 25 39
1.11075 0.617091 1.84404 49 24 39
0.911376 0.501961 1.5 47 24 40
0.793707 0.433415 1.29517 47 24 38
0.800491 0.433415 1.29517 47 24 38
1.11892 0.600736 1.79517 47 26 40
-0.521998 0.282261 0.830499 55 44 49
-0.472311 0.25754 0.757762 55 45 50
-0.547293 0.300955 0.885502 56 47 51
-0.431937 0.239551 0.704833 56 45 50
-0.494849 0.276807 0.814453 57 46 51
-0.559913 0.315927 0.929553 57 46 51
-0.513986 0.292556 0.860791 56 44 49
-0.470636 0.270253 0.795167 57 47 52
-0.477785 0.276807 0.814453 57 48 52
-0.482848 0.282261 0.830499 57 48 53
-0.43659 0.25754 0.757762 56 47 52
-0.432621 0.25754 0.757762 55 46 52
-0.469798 0.282261 0.830499 56 48 54
-0.424683 0.25754 0.757762 56 48 54
-0.461098 0.282261 0.830499 57 49 55
-0.424355 0.262243 0.771599 56 48 55
-0.433152 0.270253 0.795167 56 47 56
-0.408807 0.25754 0.757762 57 49 57
-0.424822 0.270253 0.795167 58 50 58
-0.388167 0.249379 0.73375 58 50 57
-0.450865 0.292556 0.860791 58 49 57
-0.347164 0.227543 0.669501 57 49 57
-0.343658 0.227543 0.669501 58 50 58
-0.358102 0.239551 0.704833 55 47 55
-0.373218 0.252264 0.742238 55 46 54
-0.350718 0.239551 0.704833 55 46 54
-0.308048 0.212645 0.625666 55 46 55
-0.243558 0.169935 0.5 55 47 56
-0.284469 0.200637 0.590334 54 45 54
-0.178422 0.127225 0.374334 56 45 54
-0.235701 0.169935 0.5 54 43 52
-0.196177 0.143028 0.420833 52 41 50
-0.184511 0.136051 0.400304 50 40 50
-0.17058 0.127225 0.374334 50 39 48
-0.160187 0.120863 0.355615 51 39 48
-0.143728 0.10972 0.322829 52 41 50
-0.114875 0.0887382 0.261095 51 39 47
-0.103601 0.0809936 0.238308 51 37 46
-0.111599 0.0883102 0.259836 53 39 47
-0.111956 0.0896858 0.263883 52 37 46
-0.104014 0.0843655 0.248229 50 34 43
-0.094239 0.0774046 0.227748 52 35 44
-0.0912995 0.0759517 0.223473 51 34 43
-0.0860573 0.0725204 0.213377 52 35 44
-0.0815383 0.0696164 0.204833 50 31 41
-0.0830107 0.0718185 0.211312 50 29 40
-0.0816459 0.0715923 0.210646 50 30 40
-0.0803355 0.0714082 0.210105 48 28 37
-0.0779522 0.0702521 0.206703 49 28 37
-0.0772751 0.0706227 0.207794 47 26 36
-0.0769389 0.07132 0.209845 47 26 36
-0.0734573 0.0690795 0.203253 48 27 37
-0.0700716 0.0668646 0.196736 47 25 35
-0.0717161 0.0694553 0.204359 48 27 37
-0.0719187 0.0707068 0.208041 46 25 36
-0.0673419 0.0672257 0.197799 46 24 36
-0.0679548 0.0688975 0.202718 49 29 40
-0.0649942 0.0669418 0.196963 50 31 41
-0.0654673 0.0685167 0.201597 53 35 45
-0.0648076 0.0689381 0.202837 53 38 49
-0.062036 0.0670898 0.197399 51 37 48
-0.0618564 0.0680293 0.200163 55 43 55
-0.0597697 0.0668677 0.196745 54 43 55
-0.060343 0.0686934 0.202117 53 42 54
-0.0587439 0.0680672 0.200275 54 43 57
-0.0564501 0.0665987 0.195954 54 45 57
-0.0550239 0.0661182 0.19454 52 43 57
-0.0547465 0.0670261 0.197211 53 44 59
-0.0540087 0.0673944 0.198295 55 46 60
-0.0513158 0.0652896 0.192102 53 45 60
-0.0512987 0.0665732 0.195879 54 46 61
-0.0509204 0.0674309 0.198402 55 48 62
-0.0478265 0.0646533 0.19023 55 47 62
-0.0467566 0.0645518 0.189931 53 45 61
-0.0458573 0.0646866 0.190328 57 48 63
-0.0445564 0.0642482 0.189038 55 46 62
-0.044326 0.0653687 0.192335 55 47 63
-0.0428223 0.0646196 0.190131 54 46 62
-0.0423824 0.0654787 0.192658 55 47 63
-0.04155 0.0657584 0.193481 53 45 62
-0.0399637 0.0648289 0.190747 54 46 62
-0.0384206 0.0639238 0.188083 54 47 63
-0.0393787 0.0672421 0.197847 53 46 63
-0.0378757 0.0664235 0.195438 53 45 62
-0.036438 0.0656773 0.193243 53 45 62
-0.0353803 0.0655928 0.192994 53 45 62
-0.034731 0.066283 0.195025 54 45 62
-0.0334862 0.0658439 0.193733 54 45 62
-0.0321006 0.0650919 0.19152 54 45 62
-0.0310635 0.0650207 0.191311 53 42 61
-0.029935 0.0647472 0.190506 52 42 60
-0.0275626 0.0616717 0.181457 53 43 60
-0.0275636 0.0638766 0.187945 52 42 60
-0.0266089 0.0639478 0.188154 53 42 60
-0.0254054 0.0634039 0.186554 53 42 60
-0.0257104 0.0667316 0.196345 53 41 60
-0.0236338 0.0638979 0.188007 50 40 59
-0.0236555 0.0667371 0.196361 51 42 59
-0.0221507 0.0653324 0.192228 51 41 60
-0.0209021 0.0645855 0.19003 51 40 59
-0.0197204 0.0639808 0.188251 50 39 58
-0.0186761 0.0637817 0.187665 49 38 57
-0.0180798 0.0651754 0.191766 51 39 58
-0.016473 0.0628762 0.185001 51 39 58
-0.0162863 0.066049 0.194337 50 36 56
-0.0151495 0.0655344 0.192822 50 37 56
-0.0141125 0.0654091 0.192454 48 35 55
-0.0132234 0.066003 0.194201 49 36 55
-0.0120544 0.0651823 0.191786 48 34 54
-0.0108038 0.0637303 0.187514 49 35 54
-0.0101572 0.0659076 0.19392 48 34 54
-0.00900824 0.0649473 0.191095 48 33 53
-0.00800975 0.064967 0.191153 46 31 51
-0.00724654 0.0671732 0.197644 48 32 52
-0.00641378 0.0693627 0.204086 48 31 51
-0.00512853 0.0665559 0.195828 45 26 48
-0.00397208 0.0644349 0.189587 44 24 45
-0.00290145 0.0627563 0.184648 45 25 46
-0.00200561 0.0650699 0.191456 44 24 45
-0.000983677 0.0638286 0.187804 44 22 43
0 0.0636947 0.18741 44 20 41
0.00097506 0.0632696 0.186159 43 20 40
0.00189925 0.061619 0.181302 44 20 39
0.00292494 0.0632643 0.186143 42 18 37
0.0036898 0.0598558 0.176114 41 18 36
0.00454712 0.0590106 0.173627 37 15 30
0.00563262 0.0609148 0.17923 38 15 32
0.00675631 0.062629 0.184274 40 16 33
0.00745703 0.0604839 0.177962 42 18 35
0.00832434 0.0600165 0.176587 42 18 36
0.00931997 0.0604753 0.177937 41 17 33
0.0102292 0.0603409 0.177541 47 22 40
0.0109755 0.059348 0.17462 46 22 40
0.011692 0.0583589 0.17171 47 25 42
0.0125623 0.0582245 0.171314 50 31 46
0.0135033 0.0584135 0.17187 50 32 47
0.0154585 0.0626917 0.184458 52 36 49
0.0152876 0.0583518 0.171689 52 37 49
0.0161518 0.0582253 0.171317 52 36 49
0.017682 0.0603868 0.177676 51 35 48
0.0180014 0.0584035 0.171841 51 35 49
0.0188438 0.0582253 0.171317 50 35 49
0.0199139 0.058735 0.172816 49 33 48
0.0207718 0.0586016 0.172424 51 36 50
0.0219457 0.0593338 0.174578 50 35 48
0.02193 0.0569197 0.167475 52 36 49
0.0240071 0.0599141 0.176286 51 35 48
0.0244232 0.0586952 0.172699 49 34 47
0.0246503 0.0571251 0.16808 48 32 46
0.0258752 0.0578962 0.170348 47 32 46
0.0268086 0.0579852 0.17061 45 29 44
0.0278236 0.0582391 0.171357 46 29 44
0.02841 0.0576083 0.169501 46 28 44
0.0291237 0.0572659 0.168494 46 27 44
0.0302547 0.05774 0.169889 45 25 42
0.0325569 0.0603586 0.177593 45 28 44
0.0330812 0.0596269 0.175441 45 27 43
0.0332406 0.0582949 0.171521 46 26 42
0.0347915 0.0594092 0.1748 45 24 42
0.0360895 0.0600454 0.176672 43 22 40
0.0366172 0.0594002 0.174774 44 23 41
0.0364003 0.0576083 0.169501 43 23 42
0.0374292 0.0578262 0.170142 45 25 44
0.0378828 0.0571658 0.168199 45 26 43
0.0430156 0.0634361 0.186649 45 26 43
0.0502279 0.0724262 0.2131 46 26 44
0.0481538 0.067926 0.199859 46 26 43
0.0741143 0.102322 0.301062 45 27 43
0.0941129 0.127225 0.374334 44 26 43
0.128326 0.169935 0.5 45 25 42
0.147562 0.1915 0.563451 46 26 43
0.207816 0.264407 0.777965 47 27 44
0.272365 0.339869 1 46 26 43
0.295217 0.361434 1.06345 46 25 43
0.322215 0.387182 1.13921 46 26 43
0.333007 0.392875 1.15596 45 25 42
0.358443 0.415332 1.22203 46 25 42
0.404725 0.460732 1.35562 45 24 40
0.428245 0.479102 1.40967 45 23 39
0.448441 0.493193 1.45113 43 20 38
0.446522 0.482897 1.42083 41 19 35
0.465718 0.495401 1.45762 42 19 36
0.509992 0.533747 1.57045 42 20 37
0.482629 0.497091 1.46259 42 20 37
0.51405 0.521181 1.53348 45 22 38
0.494045 0.493193 1.45113 45 21 37
0.545909 0.53671 1.57917 44 20 37
0.5581 0.540506 1.59033 45 22 36
0.549349 0.524207 1.54238 42 18 32
0.567572 0.533747 1.57045 39 16 28
0.60715 0.562809 1.65596 39 16 27
0.587266 0.53671 1.57917 40 16 29
0.584114 0.526415 1.54887 36 14 25
0.573539 0.509804 1.5 38 15 27
0.641844 0.562809 1.65596 40 17 30
0.638618 0.552514 1.62567 41 17 30
0.667636 0.570019 1.67717 43 18 33
0.641398 0.540506 1.59033 40 16 29
0.685205 0.570019 1.67717 45 19 35
0.672678 0.552514 1.62567 44 19 34
0.714365 0.57942 1.70483 47 21 37
0.680998 0.545537 1.60514 45 19 34
0.706262 0.558876 1.64438 47 20 35
0.741154 0.57942 1.70483 47 21 36
0.750084 0.57942 1.70483 48 22 36
0.667819 0.509804 1.5 46 21 36
0.723035 0.545537 1.60514 45 21 36
0.740797 0.552514 1.62567 48 26 38
0.717992 0.52942 1.55772 47 23 36
0.748257 0.545537 1.60514 47 21 35
0.740311 0.533747 1.57045 47 21 35
0.830419 0.592133 1.74224 47 23 36
0.839545 0.592133 1.74224 48 23 37
0.813239 0.567412 1.6695 49 25 39
0.783006 0.540506 1.59033 47 22 38
0.848309 0.57942 1.70483 47 23 38
0.839473 0.567412 1.6695 48 25 38
0.885172 0.592133 1.74224 46 22 36
0.875097 0.57942 1.70483 46 23 37
0.777813 0.509804 1.5 46 21 36
0.832985 0.540506 1.59033 45 21 36
0.876031 0.562809 1.65596 46 24 38
0.910816 0.57942 1.70483 46 24 37
0.919745 0.57942 1.70483 47 25 38
0.748642 0.467094 1.37433 46 24 37
1.03082 0.637029 1.87433 48 25 38
0.996688 0.610122 1.79517 47 24 38
1.00609 0.610122 1.79517 47 25 39
0.899623 0.540506 1.59033 47 26 39
1.0249 0.610122 1.79517 47 25 38
1.01275 0.597409 1.75776 48 26 40
0.799031 0.467094 1.37433 47 24 39
0.80623 0.467094 1.37433 48 25 39
1.00904 0.57942 1.70483 47 24 38
0.895663 0.509804 1.5 48 23 38
0.780139 0.440188 1.29517 47 22 37
1.03583 0.57942 1.70483 47 23 39
0.919233 0.509804 1.5 48 27 40
0.800491 0.440188 1.29517 47 25 39
0.623298 0.339869 1 47 24 38
-0.461188 0.253216 0.73375 56 45 49
-0.517648 0.286603 0.830499 56 46 50
-0.503381 0.281066 0.814453 56 46 50
-0.535811 0.301731 0.874334 57 46 50
-0.494849 0.281066 0.814453 58 46 51
-0.478966 0.274411 0.795167 55 44 49
-0.46453 0.268474 0.777965 56 45 51
-0.524103 0.305585 0.885502 56 47 52
-0.477785 0.281066 0.814453 59 50 53
-0.462306 0.274411 0.795167 56 47 51
-0.478498 0.286603 0.830499 57 48 53
-0.38661 0.23369 0.677171 57 48 53
-0.415069 0.253216 0.73375 59 51 56
-0.465448 0.286603 0.830499 57 49 54
-0.37597 0.23369 0.677171 57 49 54
-0.387636 0.243236 0.704833 57 48 56
-0.329637 0.208832 0.605137 56 47 56
-0.464391 0.297057 0.860791 58 50 58
-0.450934 0.291277 0.844042 57 49 56
-0.354178 0.231044 0.669501 57 48 56
-0.384323 0.253216 0.73375 57 48 56
-0.400107 0.266277 0.771599 57 49 56
-0.388962 0.261502 0.757762 57 48 56
-0.33327 0.22637 0.655958 57 49 56
-0.324015 0.222376 0.644385 56 48 56
-0.336954 0.23369 0.677171 54 45 53
-0.246176 0.172549 0.5 55 47 54
-0.243558 0.172549 0.5 53 45 53
-0.301494 0.215916 0.625666 54 45 53
-0.208076 0.150652 0.436549 54 44 52
-0.21992 0.160997 0.466525 54 44 52
-0.184071 0.136266 0.394863 52 41 50
-0.17254 0.129182 0.374334 54 44 53
-0.134504 0.101862 0.295167 51 40 49
-0.143195 0.109705 0.317894 51 39 48
-0.131412 0.101862 0.295167 50 38 47
-0.106579 0.0835958 0.242238 51 38 47
-0.118527 0.094088 0.272641 52 38 46
-0.108236 0.0869668 0.252006 53 38 47
-0.0962712 0.0783079 0.226915 53 39 47
-0.0918914 0.0756796 0.219299 52 37 45
-0.090462 0.0754454 0.21862 52 36 45
-0.0856396 0.0723392 0.209619 51 34 43
-0.0829595 0.0709855 0.205697 50 32 42
-0.0848686 0.0735745 0.213199 51 32 42
-0.0801854 0.0704414 0.20412 51 31 42
-0.0824016 0.0733665 0.212596 52 33 42
-0.079028 0.0713266 0.206685 49 28 37
-0.0763832 0.0698971 0.202543 48 28 37
-0.0751579 0.0697445 0.202101 48 27 36
-0.0731721 0.0688718 0.199572 45 24 33
-0.0734885 0.0701721 0.20334 45 23 33
-0.0724396 0.0701877 0.203385 45 24 33
-0.0704116 0.069241 0.200641 46 25 34
-0.0689576 0.0688386 0.199476 47 26 36
-0.0692971 0.0702417 0.203541 45 24 35
-0.0658743 0.0678157 0.196511 48 28 37
-0.0663609 0.069401 0.201105 52 32 42
-0.0649339 0.0690039 0.199955 54 36 47
-0.0651887 0.0704103 0.20403 54 39 49
-0.062394 0.0685149 0.198538 51 36 49
-0.0608002 0.0678965 0.196745 53 40 52
-0.0602353 0.0684253 0.198278 53 41 53
-0.0594415 0.0687082 0.199098 53 42 55
-0.0581925 0.0684657 0.198395 54 43 56
-0.0573458 0.0686962 0.199063 54 44 56
-0.056187 0.0685545 0.198652 53 44 57
-0.0547985 0.0681219 0.197399 54 45 59
-0.0546919 0.0692969 0.200804 54 45 60
-0.0523406 0.067618 0.195938 54 46 60
-0.050818 0.0669641 0.194044 55 47 61
-0.0509954 0.0685692 0.198695 55 48 61
-0.0498131 0.0683749 0.198132 55 47 61
-0.0477986 0.0670057 0.194164 54 47 61
-0.0456331 0.0653606 0.189397 56 47 62
-0.0448888 0.0657233 0.190448 55 46 62
-0.0446951 0.0669269 0.193936 55 46 62
-0.0432744 0.0663066 0.192138 56 48 63
-0.0430163 0.0674804 0.19554 54 47 62
-0.0404169 0.0649492 0.188205 54 47 62
-0.04086 0.0673027 0.195025 54 46 62
-0.0402057 0.067923 0.196822 54 46 62
-0.0378448 0.0656171 0.19014 54 46 63
-0.0380316 0.0677231 0.196243 53 45 62
-0.0370903 0.0678815 0.196702 52 45 61
-0.0357689 0.0673335 0.195114 52 44 61
-0.033821 0.0655392 0.189915 52 43 60
-0.0336443 0.0671725 0.194648 53 44 61
-0.0332789 0.0685194 0.198551 54 45 62
-0.0315072 0.0669641 0.194044 53 44 61
-0.0310642 0.0682232 0.197692 53 43 60
-0.0278453 0.0632628 0.183318 52 41 59
-0.0282631 0.0665051 0.192714 52 41 59
-0.0273794 0.066812 0.193603 51 40 59
-0.0265057 0.0671676 0.194633 52 41 59
-0.0254606 0.0671 0.194437 52 41 59
-0.0239068 0.0656302 0.190178 53 42 60
-0.0232139 0.0664988 0.192695 51 41 59
-0.0222963 0.0667734 0.193491 51 41 59
-0.0214062 0.0671604 0.194613 51 40 58
-0.0204482 0.0673628 0.195199 50 39 58
-0.0189636 0.06576 0.190554 51 39 59
-0.0177512 0.0649755 0.188281 51 38 57
-0.0169823 0.0658174 0.190721 51 38 57
-0.0160147 0.0659465 0.191095 48 35 54
-0.0148324 0.06515 0.188787 49 36 55
-0.0135527 0.063781 0.18482 49 36 55
-0.0126002 0.0638596 0.185048 49 37 55
-0.0121296 0.0665978 0.192982 48 34 53
-0.0109844 0.0657925 0.190649 50 35 54
-0.0101086 0.0666019 0.192994 48 33 53
-0.00884252 0.0647332 0.187579 47 31 52
-0.0083047 0.0683956 0.198192 47 30 51
-0.00717362 0.0675203 0.195655 46 29 49
-0.00602048 0.066111 0.191572 45 26 48
-0.0051192 0.0674568 0.195471 45 26 47
-0.00398136 0.0655791 0.19003 46 27 46
-0.00299436 0.0657623 0.190561 45 24 44
-0.00201566 0.0664021 0.192415 44 23 44
-0.000966785 0.0636977 0.184579 41 20 40
0 0.0645763 0.187125 42 19 39
0.000997832 0.0657433 0.190506 41 18 35
0.00192933 0.063558 0.184174 38 16 32
0.00295438 0.0648841 0.188016 39 16 32
0.00376664 0.0620424 0.179782 38 15 30
0.00479963 0.0632458 0.183269 39 15 32
0.0058073 0.0637701 0.184788 40 16 33
0.0066128 0.0622417 0.180359 42 17 35
0.00743265 0.0612136 0.17738 41 18 35
0.00848606 0.0621237 0.180018 44 19 37
0.009581 0.0631255 0.182921 44 19 37
0.0100734 0.0603364 0.174838 44 19 37
0.0111238 0.0610751 0.176979 47 24 42
0.011896 0.0602909 0.174707 48 27 43
0.0128556 0.0605003 0.175313 50 33 47
0.0138345 0.0607668 0.176086 51 34 48
0.0143018 0.0588933 0.170657 51 34 48
0.0155381 0.0602201 0.174501 51 34 48
0.0163908 0.0599959 0.173852 52 36 50
0.0174418 0.0604827 0.175262 51 35 49
0.017837 0.0587606 0.170272 51 35 49
0.0193536 0.0607206 0.175952 52 36 51
0.0202541 0.0606575 0.175769 50 35 49
0.0205557 0.0588841 0.17063 51 36 50
0.0218231 0.0599099 0.173603 51 36 49
0.0231521 0.061016 0.176808 48 33 47
0.0237472 0.0601772 0.174377 48 32 47
0.0245191 0.0598321 0.173377 48 33 47
0.0261253 0.0614748 0.178137 48 33 47
0.0269116 0.0611414 0.177171 48 32 47
0.0271412 0.0596075 0.172726 47 30 46
0.0266603 0.0566627 0.164193 47 30 46
0.0276766 0.0569845 0.165126 46 27 44
0.0297861 0.0594693 0.172326 46 27 43
0.0313967 0.0608414 0.176302 44 24 41
0.0313843 0.0590796 0.171197 44 25 42
0.0332761 0.0609008 0.176474 44 26 43
0.0340971 0.0607169 0.175941 47 27 44
0.0349543 0.0606053 0.175618 45 24 42
0.0365905 0.0618156 0.179125 45 24 42
0.0378154 0.0622878 0.180493 45 24 42
0.0373241 0.059979 0.173803 44 23 42
0.0389754 0.0611414 0.177171 44 24 42
0.0412101 0.0631435 0.182973 45 26 43
0.0449377 0.0672903 0.194989 45 26 43
0.0564136 0.0825972 0.239344 45 24 42
0.0711172 0.101862 0.295167 45 26 42
0.084695 0.118728 0.344042 45 26 43
0.114294 0.156883 0.454604 45 25 42
0.160578 0.215916 0.625666 44 23 41
0.160067 0.210924 0.6112 45 24 41
0.236542 0.305585 0.885502 44 23 40
0.250803 0.317778 0.920833 46 25 41
0.277603 0.345098 1 47 27 42
0.340776 0.415785 1.20483 45 24 41
0.390524 0.46782 1.35562 45 24 41
0.416754 0.490327 1.42083 44 22 40
0.43324 0.500781 1.45113 45 23 39
0.440841 0.500781 1.45113 45 22 39
0.448441 0.500781 1.45113 44 22 39
0.486761 0.534514 1.54887 41 19 36
0.492799 0.532272 1.54238 40 18 34
0.500877 0.532272 1.54238 40 18 33
0.482629 0.504739 1.46259 42 19 35
0.490289 0.504739 1.46259 44 20 37
0.553469 0.561014 1.62567 45 21 36
0.568455 0.567474 1.64438 43 19 34
0.5581 0.548821 1.59033 43 18 32
0.56643 0.548821 1.59033 44 19 33
0.606143 0.578788 1.67717 40 16 29
0.590739 0.556022 1.6112 40 16 29
0.611519 0.567474 1.64438 37 15 27
0.599749 0.548821 1.59033 39 16 29
0.662915 0.598314 1.73375 40 17 30
0.562452 0.500781 1.45113 40 17 30
0.645971 0.567474 1.64438 40 16 29
0.693537 0.601243 1.74224 42 17 31
0.624677 0.534514 1.54887 43 18 33
0.70832 0.598314 1.73375 44 19 34
0.620679 0.517647 1.5 47 21 37
0.628536 0.517647 1.5 48 21 36
0.674718 0.548821 1.59033 47 21 36
0.720344 0.578788 1.67717 46 20 35
0.677197 0.537565 1.55772 48 22 36
0.734539 0.576142 1.6695 47 21 35
0.759013 0.588334 1.70483 45 20 35
0.701674 0.537565 1.55772 45 20 35
0.709833 0.537565 1.55772 47 23 37
0.717992 0.537565 1.55772 47 22 36
0.794731 0.588334 1.70483 46 20 35
0.821294 0.601243 1.74224 46 21 36
0.812591 0.588334 1.70483 47 22 36
0.804495 0.576142 1.6695 47 23 37
0.887927 0.629055 1.82283 47 23 37
0.893351 0.626164 1.81445 47 22 38
0.791335 0.548821 1.59033 47 22 38
0.927237 0.636375 1.84404 46 22 36
0.841336 0.571468 1.65596 45 20 35
0.972641 0.653913 1.89486 45 21 36
0.945213 0.629055 1.82283 46 22 36
0.981738 0.646829 1.87433 46 23 37
0.793526 0.517647 1.5 44 20 34
0.86852 0.561014 1.62567 45 23 36
0.893378 0.571468 1.65596 47 25 38
0.855471 0.541958 1.57045 45 22 35
0.966714 0.6066 1.75776 47 24 38
1.04064 0.646829 1.87433 46 22 36
0.955464 0.588334 1.70483 46 23 36
0.964393 0.588334 1.70483 45 23 36
1.14184 0.690196 2 45 23 36
1.15232 0.690196 2 48 26 40
0.945155 0.561014 1.62567 47 26 38
1.0531 0.619509 1.79517 46 23 37
1.18374 0.690196 2 45 22 36
0.895663 0.517647 1.5 47 23 37
0.90352 0.517647 1.5 46 21 36
0.911376 0.517647 1.5 47 24 39
0.919233 0.517647 1.5 45 23 38
1.05369 0.588334 1.70483 46 23 38
1.2466 0.690196 2 45 22 37
-0.499791 0.278568 0.795167 59 48 52
-0.484904 0.272542 0.777965 58 47 51
-0.453502 0.257052 0.73375 56 45 49
-0.449658 0.257052 0.73375 59 48 52
-0.538017 0.310215 0.885502 59 48 52
-0.478966 0.278568 0.795167 56 46 50
-0.486317 0.285325 0.814453 57 47 52
-0.499564 0.29569 0.844042 57 48 53
-0.444528 0.265464 0.757762 57 48 52
-0.393704 0.237231 0.677171 56 47 51
-0.486301 0.29569 0.844042 56 47 52
-0.402403 0.246922 0.704833 56 47 53
-0.460721 0.285325 0.814453 58 51 55
-0.490015 0.306303 0.874334 58 50 55
-0.309647 0.195383 0.557716 57 48 53
-0.437317 0.278568 0.795167 57 49 56
-0.399696 0.257052 0.73375 57 49 57
-0.395853 0.257052 0.73375 57 49 56
-0.412231 0.270312 0.771599 57 49 56
-0.372869 0.246922 0.704833 57 49 56
-0.337516 0.225745 0.644385 57 50 57
-0.33414 0.225745 0.644385 57 49 57
-0.310619 0.211996 0.605137 56 48 56
-0.31788 0.219188 0.625666 55 48 55
-0.329834 0.2298 0.655958 55 47 54
-0.293745 0.20681 0.590334 56 48 55
-0.267042 0.19001 0.542379 55 46 54
-0.271672 0.195383 0.557716 53 45 53
-0.240939 0.175163 0.5 54 45 53
-0.198963 0.146236 0.417429 53 43 52
-0.131998 0.0980959 0.280012 53 43 51
-0.155743 0.117043 0.334095 53 42 51
-0.0982234 0.0746547 0.2131 53 43 51
-0.121327 0.0932745 0.26625 50 39 48
-0.103732 0.0806746 0.230284 52 40 49
-0.111896 0.0880483 0.251332 52 41 50
-0.109408 0.0871151 0.248668 53 41 49
-0.0999675 0.0805575 0.229949 53 40 48
-0.0980979 0.0800148 0.2284 52 38 46
-0.0895768 0.0739665 0.211136 52 37 45
-0.0893511 0.0747025 0.213236 52 37 45
-0.0858843 0.0727129 0.207557 51 35 44
-0.0823537 0.0706176 0.201576 50 33 42
-0.0835058 0.0725355 0.207051 53 34 44
-0.0834685 0.0734571 0.209682 53 33 43
-0.0812149 0.0724268 0.206741 51 31 41
-0.0796282 0.0719714 0.205441 51 31 41
-0.078977 0.0723606 0.206552 50 31 40
-0.0774525 0.0719495 0.205378 48 28 37
-0.0775447 0.0730497 0.208519 48 28 37
-0.0754733 0.0721141 0.205848 47 25 35
-0.0736785 0.0714195 0.203865 45 23 33
-0.0707703 0.0696092 0.198698 47 25 34
-0.0704432 0.0703216 0.200731 48 28 36
-0.0682489 0.0691634 0.197425 45 23 34
-0.0670222 0.0689652 0.19686 46 24 35
-0.0675509 0.0705953 0.201513 48 28 38
-0.0647321 0.0687233 0.196169 51 31 41
-0.0654673 0.0706249 0.201597 51 33 43
-0.0633959 0.0695114 0.198419 51 35 45
-0.0619922 0.0691051 0.197259 53 39 51
-0.0612363 0.0694196 0.198157 53 41 53
-0.0592696 0.0683485 0.195099 53 41 54
-0.0600156 0.0704229 0.201021 53 43 55
-0.056516 0.0675007 0.192679 54 44 57
-0.0568117 0.0690876 0.197209 55 46 58
-0.0568236 0.0703817 0.200903 53 44 57
-0.0548666 0.06924 0.197644 53 44 58
-0.0536599 0.0690194 0.197014 54 45 59
-0.0519994 0.0681951 0.194661 54 46 60
-0.0514239 0.0687891 0.196357 54 47 60
-0.049754 0.0679135 0.193858 54 45 59
-0.049626 0.06915 0.197387 54 45 60
-0.04738 0.0674251 0.192464 55 47 61
-0.0456512 0.0663772 0.189472 56 48 62
-0.0458977 0.0682186 0.194729 55 46 62
-0.0441041 0.0670426 0.191372 55 46 62
-0.0439446 0.0683537 0.195114 55 47 63
-0.042562 0.0677793 0.193475 54 46 62
-0.0413488 0.0674534 0.192544 55 47 63
-0.040104 0.0670583 0.191417 53 46 62
-0.0392723 0.0673514 0.192253 53 46 62
-0.0386286 0.0679908 0.194078 53 45 61
-0.0361722 0.065388 0.186649 51 43 61
-0.0360822 0.0670371 0.191356 52 44 61
-0.0349489 0.0667867 0.190641 51 43 60
-0.0340862 0.0670539 0.191404 52 44 61
-0.0332214 0.0673331 0.192201 52 44 61
-0.0320498 0.0669886 0.191217 54 44 61
-0.0305896 0.0659989 0.188392 54 44 61
-0.0297935 0.0664239 0.189606 54 44 61
-0.0295034 0.0680453 0.194234 52 41 59
-0.0275589 0.0658307 0.187912 51 40 58
-0.0279392 0.069211 0.197561 51 42 59
-0.0263118 0.0676864 0.193209 54 44 60
-0.0260841 0.0697848 0.199199 52 41 59
-0.0241872 0.067406 0.192409 53 42 60
-0.0230486 0.0670257 0.191323 52 41 59
-0.0222555 0.0676613 0.193138 52 41 59
-0.0209021 0.0665727 0.19003 50 39 58
-0.0200473 0.0670426 0.191372 50 38 57
-0.0195033 0.0686563 0.195978 50 38 57
-0.019123 0.0710571 0.202831 49 36 55
-0.0168786 0.0664068 0.189557 50 37 56
-0.016725 0.0699153 0.199572 50 37 56
-0.0149893 0.0668368 0.190784 50 37 55
-0.0145356 0.0694433 0.198224 49 37 55
-0.0132712 0.06828 0.194904 48 35 54
-0.0122394 0.0682186 0.194729 48 32 52
-0.0109332 0.0664783 0.189761 47 31 51
-0.0106662 0.07134 0.203638 48 32 52
-0.00971173 0.0721737 0.206018 48 32 52
-0.00854016 0.0714004 0.203811 48 31 50
-0.00728961 0.0696516 0.198819 47 30 49
-0.00627645 0.069966 0.199717 44 24 45
-0.0048852 0.0653488 0.186537 44 24 45
-0.00394891 0.0660302 0.188482 47 27 46
-0.00296724 0.0661539 0.188835 44 22 43
-0.00194026 0.0648865 0.185217 41 19 39
-0.000997921 0.0667454 0.190523 44 21 41
0 0.0660599 0.188567 41 18 36
0.000966922 0.064672 0.184605 41 18 35
0.00191439 0.0640213 0.182747 39 17 33
0.0028297 0.0630876 0.180082 39 16 31
0.00384451 0.0642845 0.183499 38 15 30
0.0047906 0.0640832 0.182924 38 15 30
0.00574316 0.0640213 0.182747 39 16 32
0.00669014 0.0639237 0.182469 41 17 34
0.00745169 0.0623003 0.177835 45 20 39
0.00853449 0.0634249 0.181045 44 19 38
0.00933488 0.0624358 0.178222 46 21 40
0.0100666 0.0612089 0.174719 48 26 44
0.011174 0.0622807 0.177779 48 27 43
0.0116975 0.0601831 0.171791 50 30 46
0.0125759 0.0600808 0.171499 50 33 48
0.0137394 0.0612636 0.174876 50 33 48
0.0149561 0.0625207 0.178464 52 35 50
0.0157102 0.0618099 0.176435 51 34 49
0.0167211 0.0621321 0.177355 52 36 50
0.0172507 0.0607266 0.173343 52 36 50
0.0181062 0.060551 0.172842 50 35 49
0.0185029 0.0589313 0.168218 51 36 50
0.0200393 0.0609234 0.173905 50 35 49
0.0212338 0.0617482 0.176259 50 34 49
