ply
format ascii 1.0
element vertex 1222
property float x
property float y
property float z
property uchar red
property uchar green
property uchar blue
end_header
-0.214262 -0.564675 1.63628 172 219 186
-0.219012 -0.601243 1.74224 163 215 177
-0.192714 -0.552052 1.5997 168 216 184
-0.200209 -0.599591 1.73745 193 232 210
-0.187521 -0.588334 1.70483 197 234 212
-0.174295 -0.57418 1.66382 177 226 197
-0.167995 -0.582554 1.68808 171 222 190
-0.157807 -0.577626 1.6738 182 225 196
-0.150085 -0.581679 1.68555 186 225 197
-0.146008 -0.601243 1.74224 176 218 187
-0.136882 -0.601243 1.74224 172 216 184
-0.1236 -0.581679 1.68555 167 214 180
-0.117256 -0.594271 1.72203 184 224 195
-0.105943 -0.581679 1.68555 174 219 185
-0.0949972 -0.569 1.64881 162 213 175
-0.0884184 -0.582554 1.68808 183 224 192
-0.0787006 -0.576142 1.6695 193 226 199
-0.0714365 -0.588334 1.70483 168 213 177
-0.0632361 -0.595198 1.72472 193 227 202
-0.0520414 -0.571468 1.65596 186 228 203
-0.0431805 -0.569 1.64881 169 221 190
-0.0342819 -0.564675 1.63628 187 227 201
-0.0259083 -0.569 1.64881 173 220 185
-0.0172722 -0.569 1.64881 171 219 185
-0.00863611 -0.569 1.64881 191 228 204
0 -0.569 1.64881 174 218 180
0.00882855 -0.581679 1.68555 207 234 211
0.017141 -0.564675 1.63628 197 229 205
0.0259083 -0.569 1.64881 185 226 201
0.0345444 -0.569 1.64881 192 230 206
0.0442092 -0.582554 1.68808 180 224 195
0.0510894 -0.561014 1.62567 197 230 207
0.0561075 -0.528101 1.53029 175 219 187
0.0666388 -0.548821 1.59033 192 227 202
0.0813036 -0.595198 1.72472 168 214 182
0.0845641 -0.55716 1.6145 201 231 209
0.0964374 -0.577626 1.6738 201 231 210
0.104934 -0.576142 1.6695 160 212 177
0.116084 -0.588334 1.70483 169 216 181
0.120905 -0.569 1.64881 197 232 209
0.126111 -0.55393 1.60514 163 216 181
0.145607 -0.599591 1.73745 171 216 182
0.146814 -0.569 1.64881 174 219 188
0.160732 -0.588334 1.70483 173 218 186
0.15974 -0.55393 1.60514 189 225 196
0.170298 -0.561014 1.62567 174 218 183
0.187521 -0.588334 1.70483 206 236 213
0.190819 -0.571468 1.65596 207 236 215
0.199492 -0.571468 1.65596 184 223 192
0.21431 -0.588334 1.70483 188 225 197
0.223239 -0.588334 1.70483 210 238 218
0.232169 -0.588334 1.70483 171 222 188
0.229902 -0.561014 1.62567 194 232 205
0.244846 -0.576142 1.6695 197 232 207
0.26157 -0.594271 1.72203 175 220 183
0.273012 -0.599591 1.73745 183 225 192
0.280046 -0.595198 1.72472 188 228 198
0.279824 -0.576142 1.6695 219 244 227
0.294676 -0.588334 1.70483 182 226 199
0.300171 -0.581679 1.68555 194 231 207
0.299967 -0.564675 1.63628 202 235 214
0.331445 -0.6066 1.75776 192 230 207
0.326656 -0.581679 1.68555 184 226 198
0.342747 -0.594271 1.72203 179 224 194
0.352316 -0.595198 1.72472 174 221 189
0.365019 -0.601243 1.74224 185 227 199
0.349111 -0.561014 1.62567 189 228 202
0.375042 -0.588334 1.70483 179 222 193
0.363626 -0.55716 1.6145 207 236 215
0.379989 -0.569 1.64881 189 231 203
0.405885 -0.594271 1.72203 200 235 211
0.402247 -0.576142 1.6695 203 235 211
0.41969 -0.588334 1.70483 195 232 206
0.428619 -0.588334 1.70483 178 221 193
0.442653 -0.595198 1.72472 185 224 198
0.455021 -0.599591 1.73745 187 227 199
0.442352 -0.571468 1.65596 173 220 187
0.478754 -0.6066 1.75776 190 228 200
0.478042 -0.594271 1.72203 171 219 183
0.491422 -0.599591 1.73745 194 230 203
0.480948 -0.576142 1.6695 165 215 176
0.534666 -0.629055 1.82283 177 220 187
0.518724 -0.599591 1.73745 188 227 200
0.523141 -0.594271 1.72203 174 218 184
0.547477 -0.611375 1.7716 177 218 180
0.547529 -0.601243 1.74224 197 231 203
0.5502 -0.594271 1.72203 207 235 219
0.540314 -0.57418 1.66382 173 220 187
0.592371 -0.619509 1.79517 179 223 186
0.597234 -0.614835 1.78162 205 236 213
0.580422 -0.588334 1.70483 209 239 221
0.610583 -0.609529 1.76625 183 226 198
0.598281 -0.588334 1.70483 192 229 202
0.607211 -0.588334 1.70483 179 221 189
0.648788 -0.619509 1.79517 209 235 216
0.65819 -0.619509 1.79517 199 230 208
0.656839 -0.609529 1.76625 187 225 198
0.651817 -0.596468 1.7284 201 232 209
0.668619 -0.603462 1.74867 176 222 193
0.695801 -0.619509 1.79517 204 235 214
0.693844 -0.609529 1.76625 166 214 174
0.696097 -0.603462 1.74867 198 230 203
0.705256 -0.603462 1.74867 178 221 186
0.706135 -0.596468 1.7284 186 225 194
0.742815 -0.619509 1.79517 191 228 198
0.75842 -0.624617 1.80997 191 229 200
0.754322 -0.613572 1.77797 191 229 201
0.763635 -0.613572 1.77797 180 224 192
0.7514 -0.596468 1.7284 202 237 214
0.773371 -0.6066 1.75776 180 226 197
0.782578 -0.6066 1.75776 172 219 185
0.869168 -0.665885 1.92955 200 233 208
0.776872 -0.588334 1.70483 180 223 189
0.773052 -0.578788 1.67717 199 233 207
0.808212 -0.598314 1.73375 188 229 199
0.828612 -0.6066 1.75776 183 226 196
0.783778 -0.567474 1.64438 185 225 197
0.835455 -0.598314 1.73375 188 226 198
0.84867 -0.601243 1.74224 189 228 199
0.872252 -0.611375 1.7716 196 231 206
0.848309 -0.588334 1.70483 174 220 189
0.876047 -0.601243 1.74224 194 230 205
0.893059 -0.6066 1.75776 187 227 200
0.769956 -0.517647 1.5 198 233 208
0.945213 -0.629055 1.82283 199 235 211
1.00024 -0.659022 1.90967 192 232 207
0.901886 -0.588334 1.70483 179 226 198
0.959077 -0.619509 1.79517 192 231 210
0.919745 -0.588334 1.70483 186 227 203
0.902051 -0.571468 1.65596 195 230 207
1.05026 -0.659022 1.90967 186 226 199
0.946534 -0.588334 1.70483 210 238 217
1.05046 -0.646829 1.87433 188 226 199
0.899623 -0.548821 1.59033 208 236 216
1.0528 -0.636375 1.84404 206 235 214
0.916283 -0.548821 1.59033 179 221 188
0.991182 -0.588334 1.70483 182 223 194
1.0531 -0.619509 1.79517 192 229 206
1.10936 -0.646829 1.87433 198 231 209
0.820627 -0.47428 1.37433 177 219 190
1.20469 -0.690196 2 187 228 202
1.03583 -0.588334 1.70483 197 234 210
0.919233 -0.517647 1.5 174 222 189
0.92709 -0.517647 1.5 184 225 195
0.807275 -0.44696 1.29517 203 237 213
-0.434677 -0.235044 0.691572 194 225 190
-0.446951 -0.243711 0.717074 192 224 188
-0.458747 -0.252264 0.742238 193 224 189
-0.487296 -0.270253 0.795167 195 225 190
-0.477358 -0.267024 0.785666 195 225 191
-0.450958 -0.254449 0.748668 193 224 189
-0.436369 -0.248377 0.730803 195 225 191
-0.48055 -0.275945 0.811916 194 225 190
-0.466471 -0.270253 0.795167 194 224 190
-0.467376 -0.273217 0.803887 194 224 191
-0.462561 -0.27286 0.802837 195 225 192
-0.449257 -0.267443 0.7869 194 225 192
-0.473785 -0.284656 0.837546 194 225 191
-0.479525 -0.290797 0.855615 194 225 192
-0.45871 -0.280799 0.826197 194 225 192
-0.450606 -0.278465 0.819331 191 224 190
-0.476277 -0.297159 0.874334 191 224 190
-0.455355 -0.286864 0.844042 193 224 191
-0.424822 -0.270253 0.795167 194 225 193
-0.420657 -0.270253 0.795167 194 225 194
-0.430981 -0.279654 0.822829 193 225 193
-0.447877 -0.293553 0.863725 194 225 193
-0.443353 -0.293553 0.863725 191 225 192
-0.46423 -0.310545 0.91372 194 226 196
-0.404217 -0.273217 0.803887 194 225 194
-0.454659 -0.310545 0.91372 194 226 194
-0.453375 -0.312963 0.920833 194 226 195
-0.448552 -0.312963 0.920833 194 226 194
-0.413321 -0.291516 0.85773 194 226 195
-0.451411 -0.32188 0.947071 194 226 194
-0.419727 -0.302613 0.89038 196 227 195
-0.412789 -0.300955 0.885502 193 225 193
-0.408151 -0.300955 0.885502 193 225 193
-0.418062 -0.311806 0.917429 195 226 194
-0.409759 -0.309167 0.909666 194 226 194
-0.404995 -0.309167 0.909666 196 227 195
-0.425982 -0.32906 0.968195 197 228 196
-0.421568 -0.329574 0.969708 197 228 196
-0.402247 -0.318304 0.936549 196 227 195
-0.410059 -0.328492 0.966525 193 226 192
-0.404997 -0.328492 0.966525 196 228 196
-0.427638 -0.351247 1.03348 197 228 196
-0.435825 -0.362561 1.06677 196 228 196
-0.389061 -0.327861 0.964669 196 228 196
-0.398072 -0.339869 1 197 228 195
-0.378955 -0.327861 0.964669 198 228 196
-0.387597 -0.339869 1 197 228 196
-0.368057 -0.327156 0.962595 199 229 197
-0.377121 -0.339869 1 196 228 195
-0.399609 -0.365208 1.07455 197 229 196
-0.366646 -0.339869 1 197 229 197
-0.347047 -0.326364 0.960263 197 229 197
-0.386225 -0.368549 1.08438 198 229 197
-0.380546 -0.368549 1.08438 198 229 197
-0.374866 -0.368549 1.08438 197 229 196
-0.325001 -0.324441 0.954604 198 230 197
-0.367795 -0.372898 1.09718 197 230 196
-0.346109 -0.35648 1.04887 196 230 196
-0.361926 -0.378784 1.1145 196 230 196
-0.365637 -0.388941 1.14438 199 231 197
-0.353761 -0.382579 1.12567 198 230 196
-0.344413 -0.378784 1.1145 196 230 195
-0.366019 -0.409486 1.20483 197 230 195
-0.370876 -0.422198 1.24224 198 230 196
-0.334149 -0.387182 1.13921 197 230 196
-0.362335 -0.427475 1.25776 198 231 197
-0.347442 -0.417496 1.2284 196 230 196
-0.316248 -0.387182 1.13921 196 230 195
-0.296969 -0.370571 1.09033 196 230 196
-0.345975 -0.440188 1.29517 197 230 196
-0.321706 -0.417496 1.2284 196 230 196
-0.352726 -0.467094 1.37433 196 230 198
-0.334506 -0.452196 1.3305 196 230 199
-0.31884 -0.440188 1.29517 198 231 198
-0.33113 -0.467094 1.37433 195 230 197
-0.323932 -0.467094 1.37433 196 230 197
-0.358996 -0.52942 1.55772 195 230 198
-0.309535 -0.467094 1.37433 193 229 196
-0.345479 -0.533747 1.57045 193 229 196
-0.288632 -0.456798 1.34404 192 229 196
-0.329027 -0.533747 1.57045 191 229 195
-0.332081 -0.552514 1.62567 191 228 193
-0.316534 -0.540506 1.59033 193 229 196
-0.290698 -0.509804 1.5 181 220 186
-0.314802 -0.567412 1.6695 165 207 165
-0.306058 -0.567412 1.6695 198 224 198
-0.323127 -0.616677 1.81445 186 221 194
-0.294676 -0.57942 1.70483 152 208 169
-0.283265 -0.574389 1.69003 163 213 181
-0.28289 -0.592133 1.74224 155 208 173
-0.267887 -0.57942 1.70483 165 214 183
-0.256413 -0.573728 1.68808 189 227 204
-0.239973 -0.55612 1.63628 192 230 206
-0.241098 -0.57942 1.70483 190 228 203
-0.232169 -0.57942 1.70483 183 225 197
-0.218613 -0.567412 1.6695 191 228 203
-0.205691 -0.55612 1.63628 175 221 189
-0.211756 -0.597409 1.75776 164 214 179
-0.200209 -0.590506 1.73745 163 217 183
-0.1854 -0.572866 1.68555 190 231 206
-0.176571 -0.572866 1.68555 183 228 202
-0.166146 -0.567412 1.6695 172 223 192
-0.160732 -0.57942 1.70483 179 222 191
-0.147451 -0.562809 1.65596 185 225 196
-0.139912 -0.567412 1.6695 163 212 176
-0.129542 -0.560378 1.64881 193 227 203
-0.119209 -0.552514 1.62567 188 226 199
-0.117256 -0.585267 1.72203 184 225 196
-0.110482 -0.597409 1.75776 187 226 198
-0.0961896 -0.567412 1.6695 177 220 189
-0.0845641 -0.548718 1.6145 168 215 180
-0.0803661 -0.57942 1.70483 192 227 201
-0.0686867 -0.557117 1.63921 169 216 181
-0.0604527 -0.560378 1.64881 166 213 178
-0.052467 -0.567412 1.6695 166 218 184
-0.0441428 -0.572866 1.68555 198 234 212
-0.0353673 -0.573728 1.68808 207 235 216
-0.0257114 -0.55612 1.63628 172 219 187
-0.0178591 -0.57942 1.70483 186 226 198
-0.00892957 -0.57942 1.70483 171 218 185
0 -0.560378 1.64881 171 216 178
0.00874451 -0.567412 1.6695 185 224 192
0.017141 -0.55612 1.63628 196 229 204
0.0253692 -0.548718 1.6145 179 224 196
0.0321281 -0.521181 1.53348 193 230 207
0.0437225 -0.567412 1.6695 181 225 197
0.0518166 -0.560378 1.64881 170 215 184
0.0612116 -0.567412 1.6695 161 209 173
0.0690889 -0.560378 1.64881 179 220 188
0.0787006 -0.567412 1.6695 169 215 180
0.0884184 -0.573728 1.68808 186 225 196
0.0930205 -0.548718 1.6145 178 222 192
0.102179 -0.552514 1.62567 167 217 182
0.110694 -0.552514 1.62567 199 233 209
0.11839 -0.548718 1.6145 204 235 213
0.129542 -0.560378 1.64881 191 229 202
0.141257 -0.572866 1.68555 202 233 211
0.148657 -0.567412 1.6695 191 228 201
0.15545 -0.560378 1.64881 182 223 193
0.162839 -0.55612 1.63628 180 220 190
0.17141 -0.55612 1.63628 170 216 183
0.184108 -0.568874 1.6738 178 222 193
0.19452 -0.573728 1.68808 178 223 191
0.203362 -0.573728 1.68808 173 220 185
0.21431 -0.57942 1.70483 172 216 180
0.219176 -0.568874 1.6738 198 231 206
0.229888 -0.573728 1.68808 184 230 202
0.23255 -0.558876 1.64438 181 228 195
0.244846 -0.567412 1.6695 188 229 197
0.248544 -0.55612 1.63628 180 218 180
0.267887 -0.57942 1.70483 187 224 193
0.27108 -0.567412 1.6695 198 231 206
0.285746 -0.57942 1.70483 201 234 212
0.294676 -0.57942 1.70483 175 220 188
0.296301 -0.56548 1.66382 205 235 212
0.302264 -0.560378 1.64881 207 241 221
0.336392 -0.606327 1.784 178 226 199
0.319536 -0.560378 1.64881 193 231 205
0.342747 -0.585267 1.72203 188 227 198
0.338269 -0.562809 1.65596 192 228 202
0.353142 -0.572866 1.68555 189 226 199
0.366112 -0.57942 1.70483 196 230 205
0.375042 -0.57942 1.70483 174 219 184
0.387846 -0.585267 1.72203 181 223 191
0.392901 -0.57942 1.70483 167 222 188
0.41993 -0.605519 1.78162 176 226 194
0.423513 -0.597409 1.75776 203 236 213
0.424586 -0.58618 1.72472 189 229 202
0.419736 -0.567412 1.6695 195 231 206
0.441964 -0.585267 1.72203 184 225 197
0.461943 -0.59949 1.76388 193 230 206
0.455408 -0.57942 1.70483 172 221 189
0.445665 -0.55612 1.63628 161 215 176
0.468617 -0.573728 1.68808 179 223 190
0.492776 -0.592133 1.74224 197 231 204
0.501902 -0.592133 1.74224 201 232 208
0.505101 -0.585267 1.72203 187 226 197
0.518724 -0.590506 1.73745 185 225 194
0.500894 -0.560378 1.64881 189 226 198
0.526844 -0.57942 1.70483 173 215 176
0.547529 -0.592133 1.74224 194 228 197
0.539352 -0.573728 1.68808 198 231 209
0.559219 -0.585267 1.72203 163 215 182
0.574906 -0.592133 1.74224 169 218 179
0.578159 -0.58618 1.72472 192 232 204
0.587193 -0.58618 1.72472 188 230 205
0.615898 -0.605519 1.78162 208 239 219
0.629982 -0.610122 1.79517 173 221 186
0.614294 -0.58618 1.72472 169 217 180
0.631983 -0.594319 1.74867 187 226 195
0.65819 -0.610122 1.79517 198 232 207
0.641395 -0.58618 1.72472 189 228 201
0.676996 -0.610122 1.79517 183 225 196
0.692058 -0.615153 1.80997 192 230 204
0.689134 -0.604276 1.77797 193 230 204
0.698447 -0.604276 1.77797 185 224 192
0.652524 -0.557117 1.63921 184 223 191
0.705256 -0.594319 1.74867 170 220 185
0.704631 -0.58618 1.72472 194 233 207
0.723574 -0.594319 1.74867 198 235 210
0.74501 -0.604276 1.77797 205 237 214
0.702559 -0.562809 1.65596 187 228 200
0.732224 -0.57942 1.70483 188 230 203
0.7514 -0.58743 1.7284 204 237 215
0.82466 -0.637029 1.87433 202 235 212
0.791573 -0.604276 1.77797 186 226 196
0.778559 -0.58743 1.7284 197 231 204
0.796848 -0.594319 1.74867 175 222 187
0.810198 -0.597409 1.75776 194 232 205
0.859626 -0.626733 1.84404 190 230 203
0.838136 -0.604276 1.77797 185 227 199
0.86484 -0.616677 1.81445 191 229 203
0.82152 -0.57942 1.70483 172 219 185
0.83045 -0.57942 1.70483 197 232 207
0.897475 -0.619524 1.82283 187 228 200
0.808916 -0.552514 1.62567 177 223 191
0.927237 -0.626733 1.84404 210 238 219
0.866168 -0.57942 1.70483 204 235 214
0.902266 -0.597409 1.75776 189 228 201
0.911473 -0.597409 1.75776 204 237 216
0.867357 -0.562809 1.65596 210 242 224
0.97553 -0.626733 1.84404 212 242 225
1.06851 -0.679739 2 196 234 213
1.01119 -0.637029 1.87433 190 229 206
0.767888 -0.479102 1.40967 175 221 193
0.937604 -0.57942 1.70483 186 227 201
0.975921 -0.597409 1.75776 203 234 211
0.955464 -0.57942 1.70483 184 225 195
0.994334 -0.597409 1.75776 189 227 199
1.0528 -0.626733 1.84404 190 229 200
1.07991 -0.637029 1.87433 185 227 197
0.945155 -0.552514 1.62567 189 228 202
0.95367 -0.552514 1.62567 181 223 194
1.00904 -0.57942 1.70483 178 220 191
1.01797 -0.57942 1.70483 205 235 216
0.90352 -0.509804 1.5 205 238 219
1.21517 -0.679739 2 206 238 217
0.612822 -0.339869 1 208 237 216
0.800491 -0.440188 1.29517 188 226 199
0.623298 -0.339869 1 192 229 205
-0.482894 -0.257099 0.768284 192 224 188
-0.47887 -0.257099 0.768284 193 224 189
-0.485589 -0.262916 0.785666 193 224 189
-0.49264 -0.269013 0.803887 193 224 188
-0.448947 -0.247267 0.738905 192 223 188
-0.45344 -0.251914 0.752789 192 223 187
-0.48923 -0.274181 0.819331 195 225 191
-0.484938 -0.274181 0.819331 193 224 189
-0.457581 -0.261024 0.780012 192 223 188
-0.437668 -0.251914 0.752789 194 224 190
-0.44941 -0.261024 0.780012 192 224 190
-0.467772 -0.274181 0.819331 193 225 191
-0.467365 -0.276479 0.826197 194 225 192
-0.445647 -0.266095 0.795167 193 225 191
-0.454898 -0.274181 0.819331 194 225 192
-0.437317 -0.266095 0.795167 194 225 192
-0.459775 -0.282451 0.844042 192 224 191
-0.449167 -0.278612 0.832572 192 224 190
-0.458247 -0.287031 0.85773 192 220 187
-0.483374 -0.305768 0.91372 198 226 197
-0.438689 -0.280277 0.837546 195 225 195
-0.444769 -0.287031 0.85773 192 224 192
-0.43325 -0.282451 0.844042 192 224 193
-0.449893 -0.296325 0.885502 192 225 193
-0.464598 -0.309198 0.923969 194 225 194
-0.426799 -0.287031 0.85773 193 224 193
-0.440588 -0.299457 0.894863 193 225 193
-0.417813 -0.287031 0.85773 193 226 194
-0.424136 -0.294542 0.880174 194 226 195
-0.44913 -0.315326 0.942284 194 226 194
-0.432477 -0.307009 0.917429 195 226 195
-0.399843 -0.287031 0.85773 194 225 194
-0.408151 -0.296325 0.885502 194 225 194
-0.430525 -0.316162 0.944781 194 225 194
-0.41479 -0.308148 0.920833 195 226 195
-0.4068 -0.305768 0.91372 193 225 193
-0.41568 -0.316162 0.944781 196 227 195
-0.408458 -0.314412 0.939552 195 227 195
-0.402247 -0.313407 0.936549 196 226 195
-0.398616 -0.314412 0.939552 194 226 194
-0.431717 -0.344778 1.03029 195 227 195
-0.401251 -0.324503 0.969708 196 228 196
-0.394872 -0.323438 0.966525 194 227 194
-0.373242 -0.309692 0.925446 198 228 197
-0.398072 -0.334641 1 196 228 195
-0.379684 -0.323438 0.966525 196 228 196
-0.400572 -0.345843 1.03348 196 228 197
-0.397553 -0.347938 1.03974 198 228 198
-0.377121 -0.334641 1 196 228 196
-0.371884 -0.334641 1 197 228 196
-0.381215 -0.347938 1.03974 197 229 197
-0.375769 -0.347938 1.03974 197 229 197
-0.35617 -0.334641 1 197 229 196
-0.366863 -0.349832 1.0454 198 229 197
-0.345695 -0.334641 1 198 230 197
-0.398165 -0.391363 1.1695 196 230 196
-0.367795 -0.367161 1.09718 196 229 196
-0.381444 -0.38683 1.15596 197 230 197
-0.343486 -0.353955 1.05772 198 230 197
-0.356088 -0.372956 1.1145 196 230 195
-0.347309 -0.369824 1.10514 195 229 195
-0.344413 -0.372956 1.1145 196 230 196
-0.321326 -0.353955 1.05772 197 230 195
-0.35395 -0.396732 1.18555 197 230 195
-0.339062 -0.38683 1.15596 197 230 196
-0.333007 -0.38683 1.15596 196 230 195
-0.322215 -0.381225 1.13921 196 230 196
-0.316248 -0.381225 1.13921 196 230 196
-0.314843 -0.38683 1.15596 195 230 195
-0.33825 -0.423739 1.26625 196 230 196
-0.329395 -0.420898 1.25776 195 230 197
-0.332407 -0.433415 1.29517 194 229 197
-0.302912 -0.403186 1.20483 195 230 198
-0.338329 -0.459908 1.37433 195 230 196
-0.312056 -0.433415 1.29517 195 230 197
-0.353551 -0.501961 1.5 195 230 198
-0.298488 -0.433415 1.29517 194 229 197
-0.353704 -0.525535 1.57045 194 229 197
-0.329981 -0.501961 1.5 190 228 194
-0.288632 -0.449771 1.34404 192 228 195
-0.299508 -0.478386 1.42955 194 230 198
-0.320801 -0.525535 1.57045 190 228 193
-0.298554 -0.501961 1.5 185 225 191
-0.300169 -0.518316 1.54887 164 211 172
-0.293724 -0.521275 1.55772 163 209 169
-0.294258 -0.537144 1.60514 165 216 183
-0.286931 -0.539173 1.6112 175 222 194
-0.291781 -0.564901 1.68808 177 221 192
-0.296937 -0.592849 1.7716 166 216 186
-0.26978 -0.556003 1.66149 176 222 195
-0.273012 -0.581422 1.73745 171 220 192
-0.248544 -0.547564 1.63628 158 213 181
-0.244846 -0.558683 1.6695 178 223 196
-0.247674 -0.586067 1.75133 177 223 196
-0.232169 -0.570506 1.70483 162 217 185
-0.221046 -0.564901 1.68808 179 224 199
-0.21431 -0.570506 1.70483 178 223 197
-0.199492 -0.554151 1.65596 187 226 203
-0.189994 -0.551757 1.64881 161 214 184
-0.187521 -0.570506 1.70483 192 229 205
-0.182008 -0.581422 1.73745 179 226 197
-0.166574 -0.560122 1.6738 184 228 201
-0.157401 -0.558683 1.6695 175 220 187
-0.151803 -0.570506 1.70483 181 223 193
-0.141469 -0.564901 1.68808 165 214 178
-0.133943 -0.570506 1.70483 180 223 191
-0.120905 -0.551757 1.64881 184 225 195
-0.108288 -0.53219 1.59033 181 224 194
-0.105943 -0.564052 1.68555 198 230 207
-0.0916283 -0.53219 1.59033 193 228 202
-0.0863611 -0.551757 1.64881 173 218 184
-0.0732053 -0.519673 1.55293 169 215 182
-0.0707347 -0.564901 1.68808 168 215 179
-0.0604527 -0.551757 1.64881 167 212 176
-0.0518166 -0.551757 1.64881 162 213 172
-0.0437225 -0.558683 1.6695 204 234 212
-0.0353673 -0.564901 1.68808 179 220 190
-0.0258389 -0.550278 1.64438 170 216 182
-0.0173471 -0.554151 1.65596 201 232 210
-0.00840738 -0.537144 1.60514 197 231 207
0 -0.564901 1.68808 165 214 181
0.00874451 -0.558683 1.6695 177 220 189
0.0173471 -0.554151 1.65596 175 219 184
0.027059 -0.576263 1.72203 188 228 201
0.0336295 -0.537144 1.60514 209 238 219
0.0450983 -0.576263 1.72203 179 224 195
0.0502733 -0.535323 1.5997 179 221 191
0.0612116 -0.558683 1.6695 171 215 181
0.0699561 -0.558683 1.6695 174 217 184
0.0803661 -0.570506 1.70483 185 224 194
0.0882855 -0.564052 1.68555 176 219 188
0.0949972 -0.551757 1.64881 179 225 197
0.108236 -0.576263 1.72203 174 221 193
0.116084 -0.570506 1.70483 184 227 199
0.119987 -0.547564 1.63628 180 223 193
0.128557 -0.547564 1.63628 173 219 187
0.132627 -0.529592 1.58257 199 232 208
0.148657 -0.558683 1.6695 183 225 196
0.158914 -0.564052 1.68555 187 226 199
0.162839 -0.547564 1.63628 180 222 193
0.170298 -0.544014 1.62567 186 225 199
0.17998 -0.547564 1.63628 187 226 199
0.19452 -0.564901 1.68808 189 227 201
0.201124 -0.558683 1.6695 197 231 207
0.21431 -0.570506 1.70483 173 218 182
0.214262 -0.547564 1.63628 172 216 178
0.219867 -0.540277 1.6145 194 233 209
0.234186 -0.554151 1.65596 196 232 207
0.250028 -0.570506 1.70483 189 226 195
0.256413 -0.564901 1.68808 165 212 171
0.273765 -0.583023 1.74224 177 218 181
0.27108 -0.558683 1.6695 214 238 220
0.291213 -0.581422 1.73745 184 223 196
0.288569 -0.558683 1.6695 175 215 183
0.293628 -0.551757 1.64881 192 225 193
0.309464 -0.564901 1.68808 213 244 226
0.3109 -0.551757 1.64881 184 230 204
0.333331 -0.575577 1.71999 210 238 218
0.342747 -0.576263 1.72203 206 235 213
0.344832 -0.564901 1.68808 198 231 208
0.34978 -0.558683 1.6695 177 221 190
0.35139 -0.547564 1.63628 193 229 202
0.35996 -0.547564 1.63628 203 233 210
0.383971 -0.570506 1.70483 185 225 196
0.377101 -0.547564 1.63628 182 229 201
0.406518 -0.577161 1.72472 191 232 206
0.406113 -0.564052 1.68555 188 230 203
0.43272 -0.588218 1.75776 175 222 190
0.428619 -0.570506 1.70483 190 229 203
0.451133 -0.588218 1.75776 206 236 215
0.450983 -0.576263 1.72203 179 224 195
0.440441 -0.551757 1.64881 205 235 214
0.474525 -0.583023 1.74224 204 234 212
0.457714 -0.551757 1.64881 186 226 197
0.46635 -0.551757 1.64881 194 230 202
0.496082 -0.576263 1.72203 208 238 216
0.519639 -0.592849 1.7716 185 227 200
0.514121 -0.576263 1.72203 195 229 204
0.512827 -0.564901 1.68808 189 225 199
0.538404 -0.583023 1.74224 173 216 183
0.529713 -0.564052 1.68555 181 219 189
0.515841 -0.540277 1.6145 209 236 217
0.548194 -0.564901 1.68808 186 226 201
0.536439 -0.544014 1.62567 170 219 185
0.571492 -0.570506 1.70483 200 234 212
0.601332 -0.591059 1.76625 182 227 199
0.620579 -0.600736 1.79517 216 242 223
0.604318 -0.576263 1.72203 207 235 212
0.607211 -0.570506 1.70483 191 229 200
0.624658 -0.578393 1.7284 212 240 220
0.641142 -0.585175 1.74867 193 230 203
0.685769 -0.617091 1.84404 180 224 193
0.671888 -0.596204 1.78162 195 231 206
0.643169 -0.562901 1.68211 195 230 204
0.64489 -0.556781 1.66382 173 218 182
0.66079 -0.562901 1.68211 207 234 212
0.688029 -0.578393 1.7284 197 233 208
0.705256 -0.585175 1.74867 195 232 208
0.696506 -0.570506 1.70483 194 233 209
0.697456 -0.564052 1.68555 182 228 201
0.752218 -0.600736 1.79517 185 230 205
0.77661 -0.612559 1.8305 184 230 204
0.742347 -0.578393 1.7284 189 232 206
0.823767 -0.634098 1.89486 184 229 202
0.740084 -0.562901 1.68211 194 232 208
0.799231 -0.600736 1.79517 182 223 193
0.780969 -0.580183 1.73375 195 229 202
0.79005 -0.580183 1.73375 204 236 214
0.836329 -0.607189 1.81445 194 232 207
0.819405 -0.588218 1.75776 199 235 211
0.803661 -0.570506 1.70483 180 225 197
0.855647 -0.600736 1.79517 192 229 206
0.804495 -0.558683 1.6695 193 229 205
0.813239 -0.558683 1.6695 197 232 208
0.839379 -0.570506 1.70483 172 221 189
0.907022 -0.609992 1.82283 169 220 187
0.857238 -0.570506 1.70483 204 235 214
0.912064 -0.600736 1.79517 181 224 197
0.921467 -0.600736 1.79517 174 221 190
0.918648 -0.592849 1.7716 193 230 207
1.04756 -0.669281 2 167 222 192
0.949675 -0.600736 1.79517 193 232 211
0.910816 -0.570506 1.70483 209 241 224
1.02227 -0.634098 1.89486 208 240 222
0.957507 -0.588218 1.75776 200 233 212
1.03082 -0.627228 1.87433 181 224 195
0.996688 -0.600736 1.79517 198 232 207
0.955464 -0.570506 1.70483 212 239 219
1.04314 -0.617091 1.84404 196 231 205
0.907953 -0.53219 1.59033 204 236 214
1.01275 -0.588218 1.75776 211 241 223
0.991182 -0.570506 1.70483 175 222 191
1.00011 -0.570506 1.70483 178 220 189
0.83434 -0.471731 1.40967 187 225 196
0.820627 -0.459908 1.37433 213 240 223
0.827825 -0.459908 1.37433 176 226 201
0.786923 -0.433415 1.29517 201 235 215
0.919233 -0.501961 1.5 189 229 200
0.61806 -0.334641 1 208 234 212
0.439321 -0.235866 0.704833 183 220 185
-0.466523 -0.244502 0.742238 192 224 189
-0.512867 -0.271049 0.822829 192 224 188
-0.474845 -0.253082 0.768284 191 223 187
-0.49264 -0.26481 0.803887 194 225 190
-0.442565 -0.239944 0.7284 194 224 189
-0.483586 -0.264464 0.802837 193 224 189
-0.452466 -0.249616 0.757762 194 225 190
-0.470636 -0.261937 0.795167 194 225 190
-0.439194 -0.24662 0.748668 193 224 189
-0.4575 -0.259214 0.7869 194 224 191
-0.439348 -0.251192 0.762549 193 224 190
-0.458356 -0.264464 0.802837 194 225 192
-0.449812 -0.261937 0.795167 193 225 191
-0.449945 -0.264464 0.802837 192 224 191
-0.454898 -0.269897 0.819331 193 225 192
-0.445458 -0.266814 0.80997 192 224 191
-0.463047 -0.280016 0.850047 193 224 191
-0.448048 -0.273576 0.830499 193 225 192
-0.480294 -0.29614 0.898997 195 222 191
-0.443076 -0.275897 0.837546 190 222 190
-0.455291 -0.286338 0.869241 190 223 192
-0.447877 -0.284521 0.863725 190 224 192
-0.443353 -0.284521 0.863725 193 225 194
-0.45465 -0.294778 0.894863 191 224 192
-0.417598 -0.273576 0.830499 195 225 195
-0.426799 -0.282546 0.85773 194 225 194
-0.435979 -0.291695 0.885502 193 225 193
-0.443112 -0.299655 0.909666 192 225 193
-0.440301 -0.30099 0.91372 193 225 193
-0.422065 -0.291695 0.885502 191 224 191
-0.444194 -0.310399 0.942284 192 225 193
-0.425943 -0.30099 0.91372 194 225 194
-0.422867 -0.302212 0.917429 198 227 198
-0.407779 -0.294778 0.894863 195 226 194
-0.411586 -0.30099 0.91372 194 225 194
-0.420628 -0.311222 0.944781 196 226 196
-0.41568 -0.311222 0.944781 194 225 195
-0.408458 -0.309499 0.939552 193 225 194
-0.392442 -0.30099 0.91372 195 226 195
-0.410768 -0.318935 0.968195 194 226 194
-0.405697 -0.318935 0.968195 194 227 195
-0.401251 -0.319433 0.969708 194 227 195
-0.379767 -0.306206 0.929553 195 228 196
-0.40331 -0.329412 1 196 228 196
-0.385412 -0.318935 0.968195 195 228 195
-0.378141 -0.31709 0.962595 197 228 197
-0.402095 -0.341733 1.03741 194 227 194
-0.382359 -0.329412 1 199 229 199
-0.363015 -0.31709 0.962595 196 227 196
-0.371884 -0.329412 1 196 227 195
-0.38329 -0.344366 1.0454 197 229 198
-0.391905 -0.357209 1.08438 196 229 196
-0.371264 -0.343372 1.04238 197 229 197
-0.378715 -0.35549 1.07917 196 228 195
-0.360345 -0.343372 1.04238 198 230 197
-0.373542 -0.361424 1.09718 196 230 196
-0.383619 -0.376974 1.14438 195 229 195
-0.357827 -0.357209 1.08438 195 229 196
-0.324743 -0.329412 1 195 229 195
-0.406283 -0.41888 1.2716 196 229 196
-0.353761 -0.370808 1.12567 196 230 196
-0.344413 -0.367129 1.1145 196 230 196
-0.335732 -0.364045 1.10514 196 230 195
-0.340116 -0.375269 1.13921 196 230 195
-0.379894 -0.426643 1.29517 197 230 196
-0.353876 -0.40465 1.2284 195 230 195
-0.394524 -0.459484 1.39486 194 229 195
-0.341008 -0.40465 1.2284 194 229 195
-0.320621 -0.387774 1.17717 195 230 196
-0.345975 -0.426643 1.29517 194 229 195
-0.339191 -0.426643 1.29517 195 230 197
-0.352726 -0.452722 1.37433 193 229 197
-0.334506 -0.438282 1.3305 194 230 198
-0.327537 -0.438282 1.3305 194 230 197
-0.33113 -0.452722 1.37433 191 229 195
-0.336947 -0.470912 1.42955 192 229 197
-0.345695 -0.494118 1.5 194 229 197
-0.321971 -0.470912 1.42955 193 229 196
-0.295672 -0.442743 1.34404 193 229 196
-0.299546 -0.459484 1.39486 192 229 196
-0.314268 -0.494118 1.5 193 229 197
-0.294621 -0.475105 1.44228 192 228 197
-0.298554 -0.494118 1.5 191 227 199
-0.290698 -0.494118 1.5 177 219 189
-0.321464 -0.561592 1.70483 169 212 176
-0.283944 -0.510217 1.54887 184 223 199
-0.307802 -0.569355 1.7284 193 230 211
-0.284992 -0.543136 1.64881 172 220 196
-0.277554 -0.545492 1.65596 172 219 193
-0.271778 -0.55137 1.6738 176 222 194
-0.270268 -0.566584 1.71999 186 226 202
-0.254244 -0.55137 1.6738 161 214 182
-0.247571 -0.556075 1.68808 192 230 208
-0.23873 -0.556075 1.68808 176 224 198
-0.229888 -0.556075 1.68808 175 223 196
-0.218613 -0.549953 1.6695 174 222 192
-0.216472 -0.567258 1.72203 184 227 200
-0.201124 -0.549953 1.6695 181 224 200
-0.200209 -0.572337 1.73745 161 213 183
-0.191109 -0.572337 1.73745 171 217 184
-0.175341 -0.55137 1.6738 194 230 202
-0.163646 -0.54168 1.64438 183 226 195
-0.159153 -0.556075 1.68808 181 225 194
-0.14642 -0.54168 1.64438 187 226 198
-0.141469 -0.556075 1.68808 192 229 203
-0.128557 -0.539008 1.63628 183 226 196
-0.11839 -0.531835 1.6145 176 223 189
-0.112756 -0.545492 1.65596 178 223 192
-0.103633 -0.543136 1.64881 174 219 190
-0.093664 -0.535513 1.62567 180 223 194
-0.0863611 -0.543136 1.64881 191 228 202
-0.0771343 -0.539008 1.63628 187 225 198
-0.0685638 -0.539008 1.63628 171 214 181
-0.0612116 -0.549953 1.6695 168 213 178
-0.052467 -0.549953 1.6695 168 215 178
-0.0431805 -0.543136 1.64881 186 224 195
-0.0353673 -0.556075 1.68808 192 225 198
-0.0267887 -0.561592 1.70483 179 219 187
-0.0178591 -0.561592 1.70483 209 236 216
-0.00876704 -0.55137 1.6738 179 223 193
0 -0.543136 1.64881 190 227 201
0.00892957 -0.561592 1.70483 187 227 199
0.0170298 -0.535513 1.62567 179 224 192
0.0257114 -0.539008 1.63628 171 222 188
0.0346943 -0.545492 1.65596 194 232 207
0.0446478 -0.561592 1.70483 179 224 195
0.0504443 -0.528751 1.60514 187 223 196
0.062507 -0.561592 1.70483 202 232 208
0.0685638 -0.539008 1.63628 200 231 208
0.0803661 -0.561592 1.70483 181 222 193
0.0857048 -0.539008 1.63628 173 216 184
0.0949972 -0.543136 1.64881 208 236 219
0.104083 -0.545492 1.65596 182 224 199
0.108288 -0.523875 1.59033 184 227 199
0.11839 -0.531835 1.6145 183 223 193
0.135295 -0.567258 1.72203 185 225 197
0.138777 -0.545492 1.65596 207 235 213
0.150085 -0.555239 1.68555 192 228 202
0.152215 -0.531835 1.6145 176 220 189
0.169662 -0.561592 1.70483 188 226 197
0.170298 -0.535513 1.62567 193 230 203
0.189413 -0.567258 1.72203 175 222 191
0.18855 -0.539008 1.63628 195 230 206
0.197121 -0.539008 1.63628 192 229 204
0.201777 -0.528751 1.60514 166 217 179
0.225492 -0.567258 1.72203 173 219 183
0.224539 -0.543136 1.64881 196 232 207
0.23671 -0.55137 1.6738 175 219 189
0.244846 -0.549953 1.6695 177 218 186
0.258957 -0.561592 1.70483 188 224 193
0.257114 -0.539008 1.63628 172 216 174
0.265685 -0.539008 1.63628 212 238 217
0.279824 -0.549953 1.6695 200 231 211
0.294676 -0.561592 1.70483 170 212 180
0.300622 -0.556075 1.68808 188 220 188
0.303575 -0.545492 1.65596 203 237 216
0.318306 -0.556075 1.68808 176 225 196
0.315052 -0.535513 1.62567 175 222 192
0.325678 -0.539008 1.63628 189 227 200
0.338269 -0.545492 1.65596 200 232 209
0.353142 -0.555239 1.68555 187 227 199
0.355616 -0.545492 1.65596 182 227 197
0.370799 -0.555239 1.68555 197 234 211
0.371353 -0.543136 1.64881 179 227 197
0.397484 -0.568143 1.72472 172 224 192
0.410647 -0.573914 1.74224 199 235 211
0.41076 -0.561592 1.70483 188 229 203
0.41969 -0.561592 1.70483 176 221 189
0.414533 -0.543136 1.64881 178 222 192
0.441964 -0.567258 1.72203 191 230 204
0.450983 -0.567258 1.72203 185 227 197
0.460003 -0.567258 1.72203 171 221 182
0.473222 -0.572337 1.73745 197 232 205
0.467913 -0.555239 1.68555 185 226 199
0.456646 -0.531835 1.6145 185 227 197
0.491126 -0.561592 1.70483 195 233 207
0.505101 -0.567258 1.72203 174 223 193
0.514121 -0.567258 1.72203 169 214 178
0.507181 -0.549953 1.6695 179 220 188
0.536925 -0.572337 1.73745 199 230 207
0.514229 -0.539008 1.63628 195 227 204
0.556655 -0.573914 1.74224 199 231 209
0.564226 -0.572337 1.73745 199 231 210
0.562563 -0.561592 1.70483 175 221 190
0.577259 -0.567258 1.72203 201 237 215
0.573856 -0.555239 1.68555 198 235 215
0.577137 -0.549953 1.6695 189 228 201
0.629982 -0.591349 1.79517 176 221 188
0.607211 -0.561592 1.70483 178 222 192
0.624658 -0.569355 1.7284 201 234 211
0.647588 -0.581823 1.76625 193 230 205
0.642764 -0.569355 1.7284 192 229 204
0.687428 -0.600461 1.82283 178 221 195
0.686399 -0.591349 1.79517 197 230 209
0.684593 -0.581823 1.76625 174 219 186
0.699884 -0.586888 1.78162 200 232 208
0.678647 -0.561592 1.70483 213 241 223
0.729979 -0.596225 1.80997 184 228 203
0.75338 -0.607449 1.84404 192 231 208
0.715188 -0.569355 1.7284 196 233 211
0.746543 -0.586888 1.78162 200 236 216
0.733294 -0.569355 1.7284 202 237 217
0.742347 -0.569355 1.7284 181 228 198
0.731274 -0.554105 1.68211 200 236 214
0.723488 -0.54168 1.64438 193 232 209
0.771887 -0.571118 1.73375 184 228 201
0.787688 -0.576032 1.74867 180 226 196
0.776872 -0.561592 1.70483 205 236 214
0.785802 -0.561592 1.70483 183 228 199
0.766553 -0.54168 1.64438 208 239 218
0.828612 -0.579027 1.75776 184 227 204
0.86484 -0.597702 1.81445 206 236 218
0.87838 -0.600461 1.82283 182 225 198
0.89826 -0.607449 1.84404 189 229 203
0.883856 -0.591349 1.79517 184 226 200
0.848309 -0.561592 1.70483 204 235 215
0.883853 -0.579027 1.75776 204 235 215
0.912064 -0.591349 1.79517 177 223 195
0.972641 -0.62419 1.89486 172 220 190
0.842976 -0.535513 1.62567 202 236 217
0.912549 -0.573914 1.74224 170 220 189
1.00242 -0.62419 1.89486 170 219 187
0.884704 -0.545492 1.65596 179 229 206
1.01119 -0.617428 1.87433 183 231 208
0.88555 -0.535513 1.62567 205 238 219
0.910725 -0.545492 1.65596 182 226 198
0.975921 -0.579027 1.75776 188 228 201
0.985127 -0.579027 1.75776 205 236 214
0.964393 -0.561592 1.70483 181 223 193
0.928125 -0.535513 1.62567 197 233 210
0.982252 -0.561592 1.70483 211 241 223
1.0437 -0.591349 1.79517 172 221 189
1.0531 -0.591349 1.79517 187 226 198
0.813428 -0.452722 1.37433 189 228 200
1.01797 -0.561592 1.70483 204 237 215
0.602347 -0.329412 1 177 226 196
0.786923 -0.426643 1.29517 174 223 190
0.612822 -0.329412 1 187 228 199
0.92709 -0.494118 1.5 186 226 195
0.495626 -0.261937 0.795167 186 227 193
-0.47628 -0.245654 0.757762 192 224 189
-0.465163 -0.241935 0.746293 194 224 190
-0.458747 -0.240621 0.742238 192 224 189
-0.48223 -0.2551 0.7869 192 224 189
-0.488429 -0.260607 0.803887 194 224 190
-0.46477 -0.250139 0.771599 193 224 189
-0.465752 -0.252867 0.780012 193 224 189
-0.499564 -0.273624 0.844042 193 224 189
-0.466471 -0.25778 0.795167 194 225 191
-0.453496 -0.252867 0.780012 194 224 191
-0.462561 -0.260266 0.802837 191 222 188
-0.445325 -0.252867 0.780012 194 225 193
-0.43648 -0.250139 0.771599 193 225 192
-0.473038 -0.273624 0.844042 191 224 191
-0.465544 -0.271829 0.838506 192 224 191
-0.450606 -0.265613 0.819331 192 224 192
-0.433152 -0.25778 0.795167 192 224 191
-0.442023 -0.265613 0.819331 193 225 192
-0.447463 -0.271518 0.837546 194 224 192
-0.429518 -0.26321 0.811916 196 225 194
-0.434998 -0.269234 0.830499 192 223 193
-0.434303 -0.271518 0.837546 189 223 191
-0.422361 -0.266747 0.822829 195 226 196
-0.428829 -0.273624 0.844042 193 225 194
-0.434305 -0.280005 0.863725 193 224 194
-0.426799 -0.278062 0.85773 192 225 194
-0.438381 -0.288646 0.89038 193 225 194
-0.472359 -0.314363 0.969708 191 224 191
-0.403594 -0.271518 0.837546 193 225 194
-0.42439 -0.288646 0.89038 194 226 195
-0.445371 -0.306282 0.944781 190 223 191
-0.415063 -0.288646 0.89038 193 225 195
-0.422867 -0.297415 0.917429 193 226 193
-0.442511 -0.314808 0.971083 193 225 192
-0.437425 -0.314808 0.971083 192 224 191
-0.420628 -0.306282 0.944781 196 226 195
-0.387255 -0.285338 0.880174 194 226 195
-0.422711 -0.315216 0.972338 194 225 196
-0.375526 -0.283444 0.874334 194 226 196
-0.387656 -0.296213 0.91372 195 227 196
-0.404997 -0.313331 0.966525 195 227 196
-0.399934 -0.313331 0.966525 194 227 196
-0.434471 -0.344753 1.06345 194 227 196
-0.40331 -0.324183 1 195 227 196
-0.398072 -0.324183 1 195 228 196
-0.392835 -0.324183 1 196 228 196
-0.387597 -0.324183 1 195 228 196
-0.396661 -0.336309 1.03741 195 228 196
-0.377121 -0.324183 1 195 228 196
-0.399609 -0.348352 1.07455 197 228 196
-0.397585 -0.351539 1.08438 195 228 197
-0.332796 -0.298518 0.920833 195 228 196
-0.384367 -0.349848 1.07917 197 229 197
-0.395033 -0.364922 1.12567 197 229 197
-0.345695 -0.324183 1 196 229 196
-0.371212 -0.353468 1.09033 195 229 196
-0.352962 -0.341342 1.05293 196 229 196
-0.346109 -0.340027 1.04887 196 229 196
-0.386454 -0.385788 1.19003 196 229 196
-0.319506 -0.324183 1 195 229 195
-0.367537 -0.379132 1.1695 196 229 196
-0.357226 -0.374742 1.15596 197 230 197
-0.351171 -0.374742 1.15596 196 230 196
-0.35395 -0.384334 1.18555 196 230 196
-0.334149 -0.369312 1.13921 196 230 196
-0.310885 -0.349848 1.07917 196 230 196
-0.358147 -0.410497 1.26625 196 230 197
-0.376323 -0.439467 1.35562 196 230 196
-0.334574 -0.398227 1.2284 195 229 196
-0.335983 -0.407745 1.25776 195 230 196
-0.315533 -0.390586 1.20483 195 230 196
-0.309223 -0.390586 1.20483 195 230 198
-0.345527 -0.445536 1.37433 192 229 196
-0.302403 -0.398227 1.2284 192 229 196
-0.361408 -0.486275 1.5 194 230 198
-0.305272 -0.419871 1.29517 194 230 198
-0.345695 -0.486275 1.5 193 229 197
-0.302712 -0.435715 1.34404 193 229 196
-0.357626 -0.527013 1.62567 192 229 196
-0.306996 -0.463437 1.42955 193 229 197
-0.302176 -0.467564 1.44228 192 228 194
-0.306411 -0.486275 1.5 197 229 203
-0.308282 -0.502119 1.54887 201 233 211
-0.315052 -0.527013 1.62567 173 221 191
-0.310066 -0.533081 1.64438 164 211 177
-0.283944 -0.502119 1.54887 159 213 182
-0.300171 -0.546426 1.68555 179 223 199
-0.276068 -0.517778 1.59718 171 219 190
-0.291213 -0.563252 1.73745 181 223 197
-0.27961 -0.558254 1.72203 167 216 186
-0.255447 -0.527013 1.62567 192 228 205
-0.249776 -0.533081 1.64438 157 211 176
-0.247571 -0.547248 1.68808 195 232 210
-0.231403 -0.530453 1.63628 192 231 209
-0.236611 -0.563252 1.73745 185 227 203
-0.216839 -0.536833 1.65596 160 216 180
-0.216472 -0.558254 1.72203 216 241 224
-0.197121 -0.530453 1.63628 192 229 204
-0.190819 -0.536833 1.65596 174 221 190
-0.185679 -0.547248 1.68808 180 224 193
-0.170298 -0.527013 1.62567 174 221 186
-0.166146 -0.541224 1.6695 186 228 197
-0.15545 -0.534515 1.64881 172 221 186
-0.144753 -0.527013 1.62567 168 218 180
-0.142873 -0.552678 1.70483 187 228 199
-0.128557 -0.530453 1.63628 184 227 198
-0.122739 -0.542618 1.6738 180 224 194
-0.112269 -0.534515 1.64881 196 229 204
-0.110482 -0.569837 1.75776 177 220 190
-0.0982252 -0.552678 1.70483 189 227 201
-0.092068 -0.569837 1.75776 170 218 186
-0.0771343 -0.530453 1.63628 181 223 193
-0.067259 -0.520358 1.60514 158 211 176
-0.062507 -0.552678 1.70483 183 224 196
-0.0514229 -0.530453 1.63628 178 221 191
-0.0446478 -0.552678 1.70483 160 213 175
-0.0342819 -0.530453 1.63628 172 216 180
-0.0255447 -0.527013 1.62567 178 219 186
-0.017489 -0.541224 1.6695 200 232 209
-0.00863611 -0.534515 1.64881 181 225 196
0 -0.536833 1.65596 160 215 179
0.00867357 -0.536833 1.65596 162 216 182
0.0172722 -0.534515 1.64881 205 236 216
0.0260207 -0.536833 1.65596 203 235 214
0.0340596 -0.527013 1.62567 193 231 206
0.0431805 -0.534515 1.64881 183 225 197
0.0535774 -0.552678 1.70483 182 222 194
0.060715 -0.536833 1.65596 190 226 199
0.0693886 -0.536833 1.65596 174 218 187
0.0771343 -0.530453 1.63628 175 219 189
0.0867357 -0.536833 1.65596 164 214 180
0.0954093 -0.536833 1.65596 183 223 196
0.102846 -0.530453 1.63628 193 229 204
0.113679 -0.541224 1.6695 185 225 196
0.11839 -0.523393 1.6145 181 220 188
0.130104 -0.536833 1.65596 175 220 185
0.139912 -0.541224 1.6695 205 235 212
0.150311 -0.547248 1.68808 183 224 195
0.159153 -0.547248 1.68808 181 223 193
0.164086 -0.534515 1.64881 181 223 188
0.173471 -0.536833 1.65596 186 226 194
0.181358 -0.534515 1.64881 183 226 198
0.192379 -0.541224 1.6695 178 224 195
0.190651 -0.513043 1.58257 204 237 216
0.205691 -0.530453 1.63628 176 225 194
0.212873 -0.527013 1.62567 177 223 192
0.225513 -0.536833 1.65596 183 225 195
0.236102 -0.541224 1.6695 191 227 204
0.250028 -0.552678 1.70483 177 219 187
0.256413 -0.547248 1.68808 193 226 198
0.257114 -0.530453 1.63628 182 221 184
0.267001 -0.533081 1.64438 180 223 188
0.279824 -0.541224 1.6695 189 226 201
0.279062 -0.523393 1.6145 166 214 181
0.311886 -0.567752 1.75133 167 214 177
0.312535 -0.552678 1.70483 206 235 214
0.312249 -0.536833 1.65596 186 227 201
0.327148 -0.547248 1.68808 186 228 201
0.328172 -0.534515 1.64881 193 231 206
0.344832 -0.547248 1.68808 194 230 203
0.353673 -0.547248 1.68808 183 225 192
0.344703 -0.520358 1.60514 207 239 218
0.38327 -0.564804 1.74224 198 235 213
0.36853 -0.530453 1.63628 204 237 216
0.392901 -0.552678 1.70483 194 231 207
0.414306 -0.569837 1.75776 182 227 198
0.398984 -0.536833 1.65596 200 234 212
0.42772 -0.563252 1.73745 193 231 207
0.428619 -0.552678 1.70483 184 227 200
0.423169 -0.534515 1.64881 190 229 203
0.442092 -0.547248 1.68808 197 231 206
0.442352 -0.536833 1.65596 208 236 212
0.473222 -0.563252 1.73745 192 229 202
0.473267 -0.552678 1.70483 190 228 203
0.487062 -0.558254 1.72203 206 238 215
0.496082 -0.558254 1.72203 204 237 213
0.519639 -0.574322 1.7716 176 224 195
0.524787 -0.569837 1.75776 177 220 189
0.507181 -0.541224 1.6695 167 213 177
0.547477 -0.574322 1.7716 169 214 179
0.54118 -0.558254 1.72203 171 215 184
0.555125 -0.563252 1.73745 159 211 176
0.553633 -0.552678 1.70483 179 221 192
0.574906 -0.564804 1.74224 177 221 191
0.584031 -0.564804 1.74224 203 238 219
0.593157 -0.564804 1.74224 208 240 224
0.612432 -0.574322 1.7716 206 235 216
0.616856 -0.569837 1.75776 191 227 200
0.600341 -0.546426 1.68555 206 236 216
0.643893 -0.577572 1.78162 182 224 196
0.644476 -0.569837 1.75776 186 226 199
0.650301 -0.566889 1.74867 188 227 201
0.650429 -0.559125 1.72472 197 230 208
0.643169 -0.54531 1.68211 187 226 200
0.64489 -0.539381 1.66382 175 219 187
0.638618 -0.527013 1.62567 170 217 182
0.66232 -0.539381 1.66382 197 232 208
0.687577 -0.552678 1.70483 202 234 214
0.679749 -0.539381 1.66382 180 225 199
0.723574 -0.566889 1.74867 184 227 203
0.714365 -0.552678 1.70483 195 233 212
0.754322 -0.576386 1.77797 199 235 214
0.763635 -0.576386 1.77797 203 238 214
0.741154 -0.552678 1.70483 208 240 218
0.798314 -0.588215 1.81445 186 230 206
0.786357 -0.572588 1.76625 195 234 209
0.817321 -0.588215 1.81445 193 232 206
0.787612 -0.560318 1.7284 198 233 209
0.785802 -0.552678 1.70483 178 225 193
0.794731 -0.552678 1.70483 206 237 215
0.846245 -0.581963 1.79517 181 225 202
0.915545 -0.622701 1.92083 190 230 206
0.835455 -0.562052 1.73375 184 227 200
0.813239 -0.541224 1.6695 193 231 206
0.916166 -0.603237 1.86079 177 223 191
0.907022 -0.59093 1.82283 182 225 194
0.890811 -0.574322 1.7716 192 228 202
0.90009 -0.574322 1.7716 165 214 177
0.902266 -0.569837 1.75776 183 225 197
0.918648 -0.574322 1.7716 217 243 228
0.892957 -0.552678 1.70483 191 230 206
0.949675 -0.581963 1.79517 195 231 206
0.910816 -0.552678 1.70483 210 241 222
1.02227 -0.614282 1.89486 203 239 219
0.855471 -0.509112 1.57045 204 239 218
0.874634 -0.515559 1.59033 186 229 202
0.996688 -0.581963 1.79517 191 230 202
1.05046 -0.607627 1.87433 185 227 197
1.04314 -0.597807 1.84404 180 220 187
0.973323 -0.552678 1.70483 203 236 213
1.01275 -0.569837 1.75776 201 236 214
0.991182 -0.552678 1.70483 170 220 188
0.80623 -0.445536 1.37433 197 232 208
1.04037 -0.569837 1.75776 204 235 214
0.597109 -0.324183 1 188 227 201
0.90352 -0.486275 1.5 197 231 207
0.607584 -0.324183 1 190 229 203
0.487296 -0.25778 0.795167 193 231 205
0.61806 -0.324183 1 183 227 200
0.233322 -0.121353 0.374334 199 233 214
-0.450706 -0.228714 0.717074 190 223 186
-0.472311 -0.241691 0.757762 192 224 188
-0.443195 -0.228714 0.717074 193 224 190
-0.467307 -0.243218 0.762549 194 225 191
-0.473923 -0.248788 0.780012 192 224 188
-0.473986 -0.250985 0.7869 191 223 188
-0.455324 -0.243218 0.762549 191 224 188
-0.470636 -0.253622 0.795167 192 224 189
-0.466471 -0.253622 0.795167 192 224 190
-0.462306 -0.253622 0.795167 195 225 191
-0.453378 -0.250985 0.7869 190 222 188
-0.478171 -0.267139 0.837546 190 223 190
-0.480856 -0.271126 0.850047 189 223 189
-0.445647 -0.253622 0.795167 189 222 188
-0.436892 -0.250985 0.7869 189 223 189
-0.454383 -0.263519 0.826197 192 224 192
-0.450055 -0.263519 0.826197 191 224 191
-0.465973 -0.275489 0.863725 191 224 190
-0.437732 -0.261329 0.819331 194 224 191
-0.44969 -0.271126 0.850047 194 223 192
-0.434998 -0.264891 0.830499 192 223 192
-0.46815 -0.287958 0.90282 190 224 193
-0.41676 -0.258964 0.811916 190 224 191
-0.428829 -0.269211 0.844042 188 222 189
-0.437079 -0.277248 0.869241 192 224 193
-0.447332 -0.286739 0.898997 191 224 193
-0.422306 -0.273577 0.85773 191 225 193
-0.420733 -0.275489 0.863725 191 225 193
-0.403594 -0.267139 0.837546 192 225 194
-0.428497 -0.286739 0.898997 193 225 195
-0.434082 -0.293704 0.920833 189 224 192
-0.41908 -0.286739 0.898997 191 224 193
-0.435474 -0.301342 0.944781 193 225 194
-0.430525 -0.301342 0.944781 194 225 194
-0.389065 -0.275489 0.863725 194 225 194
-0.432897 -0.310131 0.972338 194 226 194
-0.427252 -0.309731 0.971083 194 226 195
-0.395465 -0.290142 0.909666 194 226 196
-0.403537 -0.299674 0.939552 192 224 193
-0.410768 -0.30881 0.968195 193 226 193
-0.392436 -0.298716 0.936549 194 227 195
-0.400626 -0.30881 0.968195 194 228 197
-0.394872 -0.308277 0.966525 193 226 195
-0.37772 -0.298716 0.936549 192 226 195
-0.398072 -0.318954 1 194 227 196
-0.366606 -0.297659 0.933233 193 227 193
-0.356912 -0.293704 0.920833 192 227 194
-0.395868 -0.330223 1.03533 193 227 194
-0.390446 -0.330223 1.03533 194 227 195
-0.399609 -0.342733 1.07455 195 227 195
-0.381215 -0.331629 1.03974 195 228 197
-0.347047 -0.30628 0.960263 193 227 195
-0.372339 -0.333433 1.0454 194 228 195
-0.350932 -0.318954 1 195 228 195
-0.361388 -0.333433 1.0454 195 228 195
-0.358477 -0.335836 1.05293 194 228 195
-0.335219 -0.318954 1 195 229 196
-0.371449 -0.359036 1.12567 195 229 196
-0.396848 -0.389773 1.22203 195 229 196
-0.373662 -0.373017 1.1695 196 229 196
-0.347309 -0.352488 1.10514 197 230 197
-0.344413 -0.355474 1.1145 196 230 197
-0.355285 -0.373017 1.1695 196 230 195
-0.340116 -0.363356 1.13921 196 230 196
-0.379894 -0.413099 1.29517 195 229 196
-0.333007 -0.368698 1.15596 196 230 197
-0.326952 -0.368698 1.15596 195 229 196
-0.341008 -0.391804 1.2284 196 230 197
-0.314843 -0.368698 1.15596 195 229 196
-0.33825 -0.403876 1.26625 195 229 196
-0.289424 -0.352488 1.10514 196 230 198
-0.366898 -0.455962 1.42955 195 230 197
-0.337911 -0.428688 1.34404 192 229 196
-0.31884 -0.413099 1.29517 192 229 196
-0.303043 -0.401169 1.25776 192 229 195
-0.296456 -0.401169 1.25776 189 227 193
-0.332393 -0.460023 1.44228 193 229 197
-0.337838 -0.478431 1.5 193 229 197
-0.345479 -0.500901 1.57045 192 228 196
-0.288632 -0.428688 1.34404 193 227 193
-0.314268 -0.478431 1.5 184 221 183
-0.332081 -0.518513 1.62567 174 216 180
-0.298554 -0.478431 1.5 212 239 222
-0.308204 -0.507244 1.59033 179 225 201
-0.302666 -0.511965 1.60514 180 221 193
-0.317836 -0.552987 1.73375 189 227 203
-0.294901 -0.528175 1.65596 182 225 199
-0.300314 -0.554167 1.73745 159 212 180
-0.290593 -0.552987 1.73375 180 223 196
-0.279277 -0.548597 1.71999 168 216 186
-0.263011 -0.533866 1.6738 185 225 199
-0.258957 -0.543764 1.70483 164 211 176
-0.245477 -0.533866 1.6738 159 208 171
-0.246388 -0.555694 1.74224 164 213 180
-0.227943 -0.533866 1.6738 188 224 197
-0.20723 -0.504768 1.58257 162 210 172
-0.205691 -0.521897 1.63628 189 227 199
-0.197121 -0.521897 1.63628 182 224 195
-0.189994 -0.525894 1.64881 202 233 211
-0.184108 -0.533866 1.6738 179 224 194
-0.174051 -0.529941 1.66149 179 223 193
-0.162839 -0.521897 1.63628 180 224 193
-0.160732 -0.543764 1.70483 174 219 187
-0.14642 -0.524483 1.64438 196 229 204
-0.136239 -0.518513 1.62567 183 224 194
-0.126111 -0.511965 1.60514 171 219 185
-0.120905 -0.525894 1.64881 193 229 204
-0.112756 -0.528175 1.65596 178 220 187
-0.107155 -0.543764 1.70483 185 222 193
-0.0992163 -0.54925 1.72203 200 231 208
-0.0874451 -0.532495 1.6695 176 221 189
-0.0803661 -0.543764 1.70483 179 222 193
-0.0676513 -0.514951 1.6145 180 222 195
-0.0602907 -0.524483 1.64438 182 224 196
-0.0529713 -0.537612 1.68555 185 225 198
-0.0420369 -0.511965 1.60514 195 230 206
-0.0338256 -0.514951 1.6145 171 215 179
