ply
format ascii 1.0
element vertex 1188
property float x
property float y
property float z
property uchar red
property uchar green
property uchar blue
end_header
-0.0686835 0.00945724 0.226087 57 43 54
-0.0683261 0.00957308 0.228856 58 44 56
-0.0638618 0.00910737 0.217723 59 45 57
-0.0644538 0.00935892 0.223737 59 48 60
-0.0629455 0.00930917 0.222547 61 50 62
-0.060882 0.00917388 0.219313 62 51 64
-0.0593692 0.00911797 0.217976 63 53 66
-0.0574987 0.00900384 0.215248 62 56 69
-0.0575202 0.00918735 0.219635 62 57 71
-0.0550752 0.00897635 0.214591 63 57 74
-0.0538658 0.00896214 0.214251 63 61 77
-0.0545518 0.00926939 0.221596 62 62 80
-0.0514737 0.0089365 0.213638 61 62 83
-0.0516441 0.00916533 0.219109 66 69 90
-0.0486724 0.00883425 0.211194 65 70 91
-0.0483058 0.00897162 0.214478 64 69 90
-0.046311 0.00880593 0.210517 66 71 92
-0.0459218 0.00894489 0.213839 67 74 94
-0.0454796 0.00908022 0.217074 67 75 96
-0.0445671 0.0091262 0.218173 69 78 100
-0.0428904 0.00901398 0.215491 72 83 104
-0.041828 0.00902829 0.215833 77 86 108
-0.0401823 0.00891399 0.2131 79 89 110
-0.0387996 0.00885319 0.211646 81 86 108
-0.0373431 0.00877144 0.209692 83 91 116
-0.0366319 0.00886514 0.211932 84 92 119
-0.0363537 0.00907275 0.216896 88 98 118
-0.0342321 0.00881884 0.210825 90 98 118
-0.0331738 0.00883108 0.211118 86 102 121
-0.0320547 0.00882742 0.211031 85 112 128
-0.0308827 0.0088084 0.210576 90 118 133
-0.0301448 0.00891637 0.213157 98 124 139
-0.0286005 0.00878496 0.210015 98 126 142
-0.0272706 0.00871153 0.20826 98 127 143
-0.0264284 0.00879428 0.210238 110 138 152
-0.0252645 0.00877248 0.209717 114 141 155
-0.0235583 0.00855186 0.204443 123 147 161
-0.0229952 0.00874495 0.209059 130 155 167
-0.0225649 0.00901038 0.215404 136 163 172
-0.0209767 0.00881704 0.210782 134 164 173
-0.019627 0.00870808 0.208177 138 170 177
-0.0184031 0.00864535 0.206678 140 172 178
-0.0178428 0.00890601 0.212909 146 180 182
-0.0164433 0.0087546 0.20929 151 190 187
-0.0152641 0.00870727 0.208158 157 193 191
-0.0144775 0.00889385 0.212619 157 190 187
-0.0130155 0.00866204 0.207077 173 201 195
-0.0121262 0.00880382 0.210466 180 206 198
-0.0107889 0.00861626 0.205983 172 208 199
-0.0100174 0.00888899 0.212503 178 210 203
-0.00871185 0.00869681 0.207908 173 208 196
-0.00759288 0.0086626 0.20709 176 212 198
-0.00669552 0.00891196 0.213052 183 218 204
-0.00539377 0.00861513 0.205956 189 220 209
-0.0044147 0.00881416 0.210714 183 215 204
-0.00323585 0.00861405 0.20593 173 207 185
-0.00215339 0.00859871 0.205563 174 205 182
-0.00107862 0.00861405 0.20593 173 206 180
0 0.00869089 0.207766 168 206 175
0.00108449 0.00866095 0.207051 176 210 185
0.00216127 0.00863017 0.206315 162 200 176
0.00325327 0.00866042 0.207038 164 208 182
0.00423786 0.0084611 0.202273 179 220 197
0.00533593 0.00852275 0.203747 184 223 202
0.00626721 0.00834186 0.199423 159 208 180
0.00756232 0.00862774 0.206257 160 206 176
0.00868794 0.00867295 0.207338 161 202 168
0.00943899 0.00837574 0.200232 172 211 178
0.0106551 0.00850938 0.203427 156 203 162
0.0117411 0.00852425 0.203783 191 223 200
0.0127018 0.00845326 0.202086 157 204 171
0.0136214 0.00836795 0.200046 156 203 166
0.0147489 0.00841343 0.201133 169 209 178
0.0159366 0.00848486 0.202841 181 219 196
0.0168895 0.00843019 0.201534 189 223 201
0.0178607 0.00839055 0.200586 194 226 205
0.0185849 0.00824572 0.197124 179 217 194
0.0193587 0.00813695 0.194524 165 210 183
0.0210126 0.00839055 0.200586 167 213 186
0.0220012 0.00836694 0.200022 200 229 211
0.02319 0.00841818 0.201247 179 219 193
0.0245205 0.00851415 0.203541 176 217 190
0.0253448 0.00843367 0.201618 181 219 195
0.0271182 0.00866284 0.207096 180 217 192
0.0271431 0.00833732 0.199314 191 224 201
0.0277467 0.00820706 0.1962 183 220 195
0.0298064 0.00850143 0.203237 187 221 201
0.0303428 0.00835598 0.19976 163 211 182
0.0315421 0.00839671 0.200734 194 228 207
0.0330025 0.00850209 0.203253 184 220 196
0.0337602 0.00842549 0.201422 187 219 196
0.0353514 0.00855526 0.204524 162 208 176
0.0347905 0.00817188 0.195359 174 213 187
0.0364881 0.00832574 0.199037 202 230 214
0.0378655 0.00840004 0.200813 177 215 195
0.0392157 0.00846445 0.202353 184 217 191
0.0402804 0.00846545 0.202377 179 212 183
0.0408407 0.00836313 0.199931 165 205 169
0.0422002 0.00842549 0.201422 205 231 211
0.0429145 0.00835911 0.199835 192 223 202
0.0438152 0.00833135 0.199171 171 212 181
0.0449334 0.00834527 0.199504 170 209 175
0.0456759 0.00829037 0.198192 174 217 187
0.0476862 0.00846291 0.202316 180 219 195
0.0496547 0.00862069 0.206088 176 216 190
0.0490174 0.00832898 0.199115 169 211 184
0.0513383 0.00854162 0.204198 175 214 187
0.0519963 0.00847454 0.202595 167 212 185
0.0535595 0.00855474 0.204512 177 214 188
0.0534314 0.00836694 0.200022 169 209 181
0.055357 0.00850176 0.203245 185 222 200
0.0555401 0.00836895 0.20007 175 218 194
0.0558941 0.00826631 0.197617 192 225 207
0.0588251 0.00854162 0.204198 169 214 189
0.0607282 0.00866049 0.20704 185 217 194
0.0603987 0.00846239 0.202304 172 211 184
0.062521 0.0086087 0.205802 166 212 186
0.0620201 0.00839499 0.200693 204 232 215
0.0642699 0.00855453 0.204507 194 226 208
0.0649169 0.008499 0.203179 177 216 191
0.0655475 0.00844315 0.201844 188 222 200
0.0672591 0.0085261 0.203827 171 214 187
0.0684363 0.00853978 0.204154 182 221 197
0.0690405 0.00848263 0.202788 174 216 190
0.071047 0.00859689 0.20552 194 226 206
0.0699377 0.00833636 0.199291 166 211 182
0.0725834 0.00852449 0.203789 170 210 180
0.0752718 0.00871211 0.208274 181 216 191
0.076135 0.00868613 0.207653 163 208 176
0.0767065 0.00862808 0.206265 199 229 207
0.0800839 0.00888286 0.212356 188 223 199
0.0787251 0.00861253 0.205893 194 223 200
0.0800612 0.00864033 0.206558 175 213 183
0.080193 0.00853916 0.204139 198 226 204
0.0833278 0.00875621 0.209328 174 216 187
0.0826112 0.00856817 0.204833 203 229 210
0.0842626 0.00862741 0.206249 169 210 181
0.0859368 0.00868745 0.207684 157 205 162
0.0879068 0.00877551 0.20979 191 223 196
0.0869026 0.00856817 0.204833 192 229 208
0.0882803 0.00859786 0.205542 200 232 214
0.0884306 0.00850873 0.203412 168 217 194
0.0899659 0.0085534 0.20448 170 217 185
0.088686 0.00833251 0.199199 162 212 175
0.092905 0.00862741 0.206249 202 232 211
0.0949788 0.00871862 0.208429 175 218 193
0.0957345 0.00868812 0.2077 176 217 190
0.0956555 0.00858341 0.205197 156 207 171
0.0951897 0.00844671 0.201929 155 207 172
0.0969306 0.00850667 0.203362 173 217 189
0.0958802 0.00832302 0.198972 209 235 219
0.0976086 0.00838195 0.200381 172 214 186
0.0988135 0.00839515 0.200696 163 206 173
0.0979704 0.00823591 0.19689 201 230 212
0.100904 0.00839412 0.200672 188 223 198
0.102532 0.00844166 0.201808 185 218 192
0.101756 0.0082923 0.198238 172 211 182
0.105603 0.00851882 0.203653 195 225 203
0.105592 0.00843282 0.201597 209 234 217
0.103153 0.0081564 0.194989 179 219 195
0.106325 0.00832482 0.199015 157 205 171
0.110276 0.00855033 0.204406 168 213 184
0.110871 0.00851378 0.203533 179 219 194
0.107056 0.00814257 0.194658 177 218 188
0.112716 0.00849219 0.203016 171 214 182
0.113757 0.00849053 0.202977 181 219 193
0.114789 0.0084882 0.202921 196 226 205
0.115276 0.00844601 0.201913 180 217 187
0.117728 0.00854725 0.204333 178 218 187
0.119089 0.00856817 0.204833 200 229 208
0.119547 0.00852437 0.203786 182 220 195
0.117149 0.00827945 0.197931 179 218 191
0.119325 0.00835922 0.199838 175 213 181
0.120234 0.0083497 0.19961 179 212 180
0.125875 0.00866607 0.207173 173 212 182
0.122508 0.00836214 0.199907 180 216 190
0.121952 0.00825366 0.197314 172 213 186
0.124379 0.00834718 0.19955 196 228 206
-0.480128 0.0359474 0.763883 186 219 181
-0.507647 0.0383272 0.814453 188 219 183
-0.508558 0.0387214 0.822829 186 219 183
-0.521631 0.0400562 0.851194 187 220 187
-0.488429 0.03783 0.803887 183 219 184
-0.512714 0.0400562 0.851194 185 219 186
-0.522073 0.0411451 0.874334 185 219 186
-0.524103 0.0416707 0.885502 179 215 179
-0.482699 0.0387214 0.822829 173 208 165
-0.49868 0.0403638 0.85773 167 203 155
-0.478498 0.0390823 0.830499 158 191 145
-0.474148 0.0390823 0.830499 143 169 128
-0.497899 0.04142 0.880174 119 142 108
-0.473038 0.0397196 0.844042 111 121 95
-0.476217 0.0403638 0.85773 103 108 88
-0.456748 0.0390823 0.830499 95 98 85
-0.423782 0.0366101 0.777965 91 91 86
-0.433692 0.03783 0.803887 84 83 84
-0.447463 0.0394139 0.837546 84 83 84
-0.400869 0.0356594 0.757762 83 81 82
-0.394295 0.0354253 0.752789 79 75 77
-0.377706 0.0342777 0.7284 79 74 78
-0.350128 0.0320991 0.682106 78 74 78
-0.295275 0.0273494 0.581175 80 74 77
-0.266646 0.0249549 0.530292 74 68 73
-0.248795 0.0235294 0.5 75 68 75
-0.229695 0.0219541 0.466525 74 67 74
-0.209242 0.0202143 0.429553 72 64 73
-0.191018 0.0186543 0.396405 73 66 75
-0.181813 0.0179504 0.381447 75 67 76
-0.186139 0.0185818 0.394863 73 65 73
-0.177592 0.0179278 0.380965 74 65 75
-0.180101 0.0183877 0.390738 67 58 70
-0.179934 0.0185818 0.394863 70 61 73
-0.177263 0.0185187 0.393523 66 57 68
-0.161019 0.0170196 0.361667 70 60 72
-0.162043 0.0173318 0.3683 69 60 71
-0.143095 0.0154895 0.329153 66 56 68
-0.153218 0.0167876 0.356736 65 55 67
-0.149901 0.0166269 0.353321 65 54 65
-0.141181 0.0158555 0.336929 66 55 66
-0.131888 0.0149993 0.318735 65 54 66
-0.124415 0.0143308 0.304529 65 54 66
-0.122561 0.0143006 0.303887 62 51 63
-0.122777 0.0145143 0.308428 63 52 63
-0.120823 0.0144738 0.307567 56 44 56
-0.11592 0.014074 0.299073 59 47 59
-0.102108 0.0125669 0.267048 62 51 63
-0.103814 0.0129543 0.275279 62 50 63
-0.0965061 0.0122121 0.259506 63 50 63
-0.0960017 0.0123218 0.261838 60 47 59
-0.0898706 0.011702 0.248668 61 48 60
-0.0900913 0.0119033 0.252945 62 49 60
-0.0856297 0.0114826 0.244006 57 44 55
-0.0817804 0.0111326 0.236568 60 46 57
-0.0819761 0.011331 0.240783 58 45 54
-0.0774082 0.0108668 0.230918 57 44 54
-0.0745908 0.0106374 0.226046 56 42 52
-0.0738191 0.0106972 0.227315 59 45 55
-0.0748174 0.0110196 0.234166 56 42 52
-0.0730892 0.0109445 0.23257 57 43 53
-0.070395 0.0107197 0.227794 58 43 53
-0.0694728 0.0107617 0.228685 60 45 56
-0.0668426 0.0105359 0.223888 57 43 54
-0.0650678 0.0104393 0.221835 58 45 56
-0.0670502 0.0109529 0.23275 61 49 60
-0.0641417 0.0106718 0.226776 59 47 60
-0.0645237 0.0109379 0.232431 61 50 62
-0.0648244 0.0112002 0.238005 60 50 64
-0.0607337 0.0106992 0.227359 61 53 67
-0.0585253 0.0105164 0.223473 63 56 70
-0.0558057 0.0102323 0.217437 65 58 75
-0.0550336 0.010301 0.218896 63 58 74
-0.0554788 0.0106053 0.225362 60 55 73
-0.0535702 0.010463 0.22234 64 62 81
-0.0517443 0.010331 0.219534 62 62 83
-0.0500158 0.0102128 0.217023 61 63 85
-0.0490593 0.0102505 0.217823 63 66 88
-0.0480876 0.0102867 0.218593 61 66 87
-0.047035 0.0103069 0.219023 63 67 88
-0.0437712 0.00983154 0.20892 65 71 92
-0.0446528 0.0102867 0.218593 62 68 90
-0.041485 0.00980844 0.208429 66 73 95
-0.0428127 0.0103959 0.220913 65 73 95
-0.0400932 0.010006 0.212628 70 78 100
-0.0403735 0.0103639 0.220232 75 82 103
-0.0384507 0.0101606 0.215912 73 82 106
-0.0371107 0.0101036 0.214702 74 82 108
-0.0354483 0.00995264 0.211494 79 88 109
-0.035442 0.0102719 0.218277 81 89 109
-0.0336151 0.0100671 0.213927 81 93 114
-0.0320613 0.00993289 0.211074 84 101 119
-0.0300404 0.00963919 0.204833 84 104 121
-0.0300882 0.0100121 0.212757 87 113 128
-0.0285537 0.00986693 0.209672 92 119 135
-0.0279911 0.0100594 0.213763 91 120 135
-0.0271159 0.0101509 0.215707 90 123 135
-0.0258424 0.0100948 0.214514 99 131 142
-0.0241879 0.00987797 0.209907 104 135 146
-0.0233689 0.00999796 0.212457 119 145 156
-0.0219327 0.00985267 0.209369 119 145 158
-0.0214304 0.0101337 0.215342 118 145 159
-0.0199122 0.00993894 0.211202 126 158 167
-0.018992 0.0100372 0.213291 129 160 169
-0.0178147 0.0100035 0.212574 133 165 171
-0.0166446 0.00996954 0.211853 140 176 174
-0.0155099 0.00995343 0.21151 150 184 182
-0.0144837 0.0100099 0.21271 152 186 185
-0.0130859 0.00979751 0.208197 157 190 185
-0.0121752 0.00994433 0.211317 164 195 192
-0.0108888 0.00978305 0.20789 163 196 195
-0.00978247 0.0097656 0.207519 168 201 197
-0.00863087 0.00969297 0.205976 171 205 193
-0.00770484 0.00988914 0.210144 188 217 206
-0.00651918 0.0097619 0.20744 187 217 204
-0.00548109 0.00984893 0.20929 187 216 206
-0.00422198 0.00948307 0.201515 180 212 201
-0.00320126 0.00958721 0.203728 175 209 189
-0.00216507 0.00972602 0.206678 176 207 187
-0.00106129 0.00953517 0.202622 182 211 194
0 0.00965654 0.205201 173 207 187
0.00106903 0.00960467 0.204099 184 214 197
0.00215348 0.00967394 0.205571 174 209 187
0.00320106 0.0095866 0.203715 164 208 182
0.00427594 0.00960427 0.204091 148 203 173
0.00537385 0.00965624 0.205195 185 222 202
0.00641445 0.00960507 0.204108 174 215 191
0.00745742 0.00957156 0.203396 172 213 186
0.00853824 0.00958895 0.203765 179 213 187
0.00943778 0.00942149 0.200207 180 215 190
0.0107476 0.00965614 0.205193 153 200 166
0.011842 0.00967222 0.205535 187 220 196
0.0128745 0.00963919 0.204833 184 218 194
0.0135242 0.00934676 0.198619 180 214 185
0.0146005 0.00936987 0.19911 173 211 181
0.0156758 0.00938928 0.199522 164 209 178
0.0166399 0.00934381 0.198556 168 212 182
0.0178281 0.0094221 0.20022 166 211 182
0.0193734 0.00967001 0.205488 174 216 191
0.019798 0.0093618 0.198938 183 219 197
0.0210149 0.00944039 0.200608 152 203 172
0.0216005 0.0092414 0.19638 173 214 189
0.0229017 0.00935273 0.198745 189 224 200
0.0245988 0.00960902 0.204192 180 219 192
0.0252232 0.00944239 0.200651 163 210 179
0.0265242 0.00953225 0.20256 181 217 192
0.0276741 0.00956296 0.203213 186 221 197
0.0285989 0.00951653 0.202226 177 217 190
0.0296111 0.00950141 0.201905 172 214 187
0.0302404 0.00936876 0.199086 165 212 182
0.0318362 0.00953439 0.202606 194 226 207
0.0336192 0.00974357 0.207051 187 222 200
0.0341239 0.00958079 0.203592 187 219 197
0.0344927 0.00939088 0.199556 177 216 191
0.0348267 0.00920293 0.195562 181 219 194
0.0365328 0.00937793 0.199281 194 225 207
0.0379802 0.00947867 0.201422 179 217 197
0.0389727 0.00946348 0.201099 187 219 197
0.0408907 0.00966794 0.205444 172 208 176
0.0410289 0.00945186 0.200852 163 204 165
0.0427845 0.0096099 0.20421 169 209 173
0.0425106 0.00931548 0.197954 176 212 183
0.0449914 0.00962438 0.204518 187 220 195
0.0454969 0.00950617 0.202006 198 226 203
0.0464728 0.0094894 0.20165 187 220 195
0.0473905 0.00946175 0.201062 176 215 189
0.0485813 0.00948864 0.201634 178 216 192
0.0496453 0.00949014 0.201666 193 225 204
0.0510987 0.00956448 0.203245 193 225 204
0.0519934 0.00953333 0.202583 187 223 200
0.0540615 0.00971427 0.206428 175 214 188
0.0548845 0.00966879 0.205462 160 206 178
0.0545113 0.00941837 0.20014 152 203 173
0.0556325 0.00943073 0.200403 168 211 185
0.0566884 0.00943176 0.200425 187 221 201
0.0587368 0.00959489 0.203891 169 212 188
0.0588903 0.00944819 0.200774 189 220 201
0.0611537 0.00963919 0.204833 173 212 190
0.0626099 0.00969857 0.206095 186 220 202
0.0632995 0.00963919 0.204833 177 215 193
0.0634752 0.00950485 0.201978 181 218 194
0.0647191 0.00953225 0.20256 177 215 191
0.0665181 0.00963919 0.204833 178 216 194
0.0667129 0.00951397 0.202172 199 228 211
0.0700088 0.009828 0.208845 186 223 202
0.071132 0.00983205 0.208931 185 223 201
0.070095 0.00954192 0.202766 197 229 211
0.0735841 0.00986738 0.209682 174 216 192
0.0743057 0.00981761 0.208624 164 207 177
0.0740282 0.00963919 0.204833 172 209 181
0.0757405 0.00972127 0.206577 189 221 195
0.0774892 0.00980562 0.20837 173 216 186
0.0792419 0.00988815 0.210123 182 220 194
0.0787185 0.00968827 0.205876 179 215 187
0.0802051 0.00973784 0.206929 166 208 176
0.0816801 0.0097847 0.207925 171 212 181
0.081674 0.00965523 0.205174 182 216 188
0.0834297 0.0097347 0.206862 167 210 177
0.0828396 0.00954192 0.202766 195 225 203
0.086887 0.00988144 0.209981 174 215 186
0.0868452 0.00975322 0.207256 190 224 200
0.0887893 0.00984846 0.20928 175 219 192
0.0884211 0.00968801 0.20587 206 234 218
0.0896442 0.00970369 0.206203 188 225 209
0.0898161 0.00960655 0.204139 174 217 192
0.0936695 0.00990083 0.210393 175 213 179
0.0914856 0.00955756 0.203098 177 218 191
0.0938152 0.00968827 0.205876 159 210 179
0.0932723 0.00952275 0.202358 176 218 192
0.0945008 0.00953977 0.20272 171 216 185
0.09503 0.0094866 0.20159 169 215 183
0.0957488 0.00945332 0.200883 170 215 185
0.0958963 0.00936498 0.199006 198 231 210
0.0958699 0.00926172 0.196812 159 210 175
0.0961613 0.00919105 0.19531 160 207 168
0.101187 0.0095696 0.203354 164 210 176
0.0994328 0.00930574 0.197747 187 222 196
0.0996381 0.00922882 0.196112 173 211 182
0.102565 0.00940301 0.199814 177 211 182
0.109299 0.00991917 0.210782 173 211 179
0.104955 0.00942969 0.200381 174 216 186
0.106173 0.00944465 0.200699 185 222 196
0.106284 0.0093618 0.198938 175 214 186
0.107732 0.00939727 0.199692 191 224 202
0.105353 0.00910132 0.193403 196 228 207
0.110168 0.00942672 0.200318 190 226 199
0.112694 0.00955185 0.202977 192 226 199
0.11746 0.00986276 0.209584 187 223 197
0.113609 0.00945107 0.200835 189 224 199
0.11521 0.0094963 0.201796 199 229 206
0.120693 0.00985786 0.20948 198 229 205
0.116004 0.00938954 0.199528 184 220 196
0.120162 0.00963919 0.204833 203 229 211
0.118943 0.00945699 0.200961 195 225 204
0.11822 0.00931707 0.197988 200 227 205
0.121226 0.00947088 0.201256 179 214 185
0.125194 0.00969658 0.206052 186 219 192
0.124758 0.00958021 0.20358 185 219 192
0.122196 0.00930396 0.197709 194 226 202
0.13063 0.00986252 0.209578 184 221 193
-0.511913 0.0425858 0.814453 186 219 183
-0.507647 0.0425858 0.814453 187 219 182
-0.533834 0.0451621 0.863725 186 219 182
-0.470821 0.0401717 0.768284 181 219 183
-0.538017 0.0463007 0.885502 182 220 184
-0.53017 0.0460222 0.880174 184 218 185
-0.491318 0.0430237 0.822829 176 213 179
-0.507666 0.0448486 0.85773 179 215 181
-0.499339 0.0445069 0.851194 181 214 177
-0.473519 0.0425858 0.814453 177 210 170
-0.521546 0.0473314 0.905214 173 204 164
-0.459745 0.0421057 0.805271 162 192 154
-0.481505 0.0445069 0.851194 149 179 138
-0.48071 0.0448486 0.85773 141 165 126
-0.45684 0.0430237 0.822829 124 142 106
-0.475021 0.0451621 0.863725 116 127 98
-0.463672 0.0445069 0.851194 108 115 93
-0.414484 0.0401717 0.768284 99 102 86
-0.458247 0.0448486 0.85773 85 87 78
-0.400869 0.0396215 0.757762 85 84 81
-0.411516 0.0410806 0.785666 83 82 80
-0.430648 0.0434248 0.830499 84 81 80
-0.375124 0.0382119 0.730803 83 80 80
-0.358102 0.036854 0.704833 76 73 74
-0.338147 0.0351629 0.67249 78 72 77
-0.328525 0.0345219 0.660231 77 71 77
-0.29918 0.0317727 0.607653 77 71 77
-0.276081 0.0296349 0.566767 76 69 76
-0.271514 0.0294615 0.563451 74 67 76
-0.258519 0.0283597 0.542379 74 67 75
-0.268909 0.0298273 0.570447 72 64 72
-0.239982 0.0269178 0.514802 77 70 78
-0.257066 0.0291616 0.557716 74 65 73
-0.254145 0.0291616 0.557716 74 63 73
-0.231597 0.0268834 0.514145 70 61 71
-0.222606 0.0261438 0.5 68 59 68
-0.20666 0.0245599 0.469708 66 56 66
-0.204797 0.0246318 0.471083 66 57 67
-0.201739 0.0245599 0.469708 65 55 66
-0.199862 0.0246318 0.471083 67 56 66
-0.185328 0.023126 0.442284 66 55 65
-0.183011 0.023126 0.442284 65 54 65
-0.175493 0.0224603 0.429553 66 55 67
-0.173243 0.0224603 0.429553 62 51 62
-0.159929 0.0210069 0.401758 63 51 63
-0.159442 0.0212223 0.405876 63 51 62
-0.157316 0.0212223 0.405876 63 51 62
-0.135217 0.0184909 0.353638 64 52 64
-0.136062 0.0188649 0.360791 62 50 62
-0.120645 0.016963 0.324416 58 46 57
-0.134312 0.0191543 0.366327 58 46 57
-0.111016 0.0160616 0.307178 61 48 59
-0.112561 0.0165246 0.316033 62 48 59
-0.0971099 0.014469 0.27672 59 44 56
-0.0976659 0.0147723 0.282521 58 42 54
-0.0892263 0.0137034 0.262078 59 46 55
-0.0834924 0.0130232 0.249068 61 48 57
-0.0885286 0.0140279 0.268284 57 43 52
-0.0768768 0.0123781 0.236731 60 46 55
-0.0800293 0.0130969 0.250478 58 44 53
-0.0769813 0.0128081 0.244955 60 45 54
-0.0758768 0.0128383 0.245532 58 43 53
-0.0742742 0.0127838 0.24449 56 42 52
-0.073343 0.012845 0.245661 58 44 54
-0.0697308 0.0124304 0.237732 62 49 58
-0.0671335 0.012185 0.233039 61 47 58
-0.0630298 0.0116521 0.222845 60 47 59
-0.0650131 0.0122455 0.234194 61 49 62
-0.0641851 0.012322 0.235658 61 50 63
-0.0630344 0.0123384 0.235971 61 51 65
-0.0592566 0.0118309 0.226265 61 52 66
-0.0584036 0.0118985 0.22756 63 54 70
-0.0563034 0.0117096 0.223947 63 55 72
-0.0547041 0.0116191 0.222215 62 56 73
-0.0527126 0.0114395 0.21878 63 57 76
-0.0524906 0.0116445 0.2227 63 60 79
-0.0515363 0.0116926 0.223621 61 58 79
-0.0500078 0.0116096 0.222035 61 59 80
-0.0484092 0.0115061 0.220055 64 65 86
-0.04592 0.0111807 0.21383 63 64 85
-0.0458266 0.0114369 0.218731 64 66 86
-0.0448973 0.0114923 0.21979 63 65 87
-0.04471 0.0117455 0.224632 65 67 89
-0.041651 0.0112376 0.214919 66 69 90
-0.0416953 0.011562 0.221124 66 73 94
-0.0394735 0.0112587 0.215322 69 76 97
-0.0387677 0.0113826 0.217692 74 81 102
-0.0374276 0.0113221 0.216536 69 76 97
-0.0363602 0.011343 0.216934 76 83 103
-0.0349384 0.011251 0.215176 77 82 102
-0.0327678 0.0109037 0.208534 73 84 105
-0.0315242 0.0108517 0.207538 73 89 109
-0.0310836 0.0110821 0.211946 74 91 113
-0.029844 0.0110343 0.211031 78 98 119
-0.0283678 0.0108919 0.208307 82 103 122
-0.0276695 0.0110487 0.211307 83 109 123
-0.0261685 0.0108847 0.20817 90 119 130
-0.0252683 0.0109672 0.209749 88 118 130
-0.0245558 0.0111425 0.2131 95 124 136
-0.0231574 0.0110083 0.210534 103 131 141
-0.0217739 0.0108682 0.207853 109 134 146
-0.0210914 0.0110816 0.211935 107 131 150
-0.0199813 0.0110816 0.211935 115 140 158
-0.0184724 0.0108474 0.207456 121 146 160
-0.0174161 0.0108663 0.207818 134 158 168
-0.016528 0.0109997 0.210368 125 154 162
-0.0151563 0.0108073 0.206689 135 168 173
-0.0141259 0.0108474 0.207456 137 174 177
-0.0132307 0.0110065 0.2105 144 182 181
-0.0119756 0.0108682 0.207853 153 187 188
-0.0111488 0.0111295 0.212852 146 181 183
-0.0098749 0.0109532 0.20948 164 197 188
-0.00863058 0.0107696 0.205969 167 201 187
-0.00766321 0.0109285 0.209008 182 210 197
-0.00647273 0.0107693 0.205962 191 215 204
-0.00537413 0.0107297 0.205206 188 214 204
-0.00433015 0.0108067 0.206678 177 210 199
-0.00325888 0.0108442 0.207395 173 208 197
-0.00220009 0.0109815 0.21002 181 211 202
-0.00108442 0.0108255 0.207038 183 212 201
0 0.0105189 0.201174 184 214 201
0.00107287 0.0107102 0.204833 183 214 199
0.0021729 0.0108458 0.207425 173 210 188
0.00323616 0.0107686 0.205949 174 213 190
0.00412149 0.0102859 0.196719 185 219 199
0.00525914 0.0105001 0.200815 169 208 182
0.00647132 0.0107669 0.205917 173 209 185
0.0073257 0.0104472 0.199803 169 209 181
0.00832692 0.0103907 0.198722 182 216 191
0.00970698 0.0107669 0.205917 173 212 187
0.0109161 0.0108972 0.208409 173 210 183
0.0116778 0.0105979 0.202684 172 210 181
0.0127856 0.0106363 0.20342 169 208 186
0.0140661 0.0108014 0.206577 189 219 201
0.0147665 0.0105293 0.201373 188 219 195
0.015827 0.0105332 0.201447 166 208 175
0.0168866 0.0105359 0.2015 201 229 208
0.0178838 0.0105017 0.200846 187 223 198
0.0189958 0.010535 0.201482 178 218 194
0.0199554 0.0104847 0.20052 180 217 195
0.0209458 0.0104548 0.199948 154 203 172
0.0221712 0.0105395 0.201568 177 215 190
0.0232251 0.0105386 0.201551 185 221 197
0.0243234 0.0105571 0.201905 172 213 184
0.0246583 0.0102565 0.196156 175 213 184
0.0266501 0.0106416 0.203521 171 212 182
0.0274039 0.0105218 0.201229 174 214 189
0.0286412 0.0105895 0.202525 172 214 190
0.0294209 0.0104893 0.200608 162 210 180
0.030664 0.0105555 0.201875 183 219 199
0.0316758 0.0105404 0.201585 164 206 183
0.0329987 0.0106264 0.203229 173 207 178
0.0344903 0.0107596 0.205778 172 212 185
0.0359495 0.010875 0.207984 175 215 189
0.0362556 0.010645 0.203586 157 207 174
0.0362957 0.0103523 0.197988 164 210 182
0.0385644 0.0106938 0.20452 185 221 199
0.0385398 0.0103982 0.198866 182 217 194
0.0404608 0.0106292 0.203284 180 215 187
0.0408211 0.0104489 0.199835 184 214 187
0.0417461 0.0104185 0.199254 181 213 186
0.0431161 0.010498 0.200774 174 211 186
0.0454099 0.0107932 0.20642 169 210 180
0.0457777 0.0106276 0.203253 198 226 205
0.0472788 0.0107266 0.205147 179 216 190
0.0468797 0.0103997 0.198895 156 203 171
0.0494278 0.0107266 0.205147 180 215 190
0.0510469 0.0108423 0.207359 197 225 206
0.0498282 0.010363 0.198192 194 224 205
0.0513484 0.0104612 0.20007 188 220 198
0.0538911 0.0107596 0.205778 175 213 187
0.0542945 0.0106276 0.203253 175 213 187
0.0557894 0.0107102 0.204833 193 224 201
0.0561705 0.0105799 0.202341 174 214 186
0.0572269 0.0105793 0.202329 176 214 190
0.058109 0.010547 0.201712 179 217 194
0.0598983 0.0106777 0.20421 168 210 184
0.0613415 0.0107431 0.205462 169 211 185
0.0609936 0.010498 0.200774 181 217 197
0.061835 0.0104624 0.200094 187 220 201
0.0637685 0.0106097 0.202911 170 211 183
0.0647228 0.010592 0.202572 193 225 203
0.0669404 0.0107782 0.206133 184 219 195
0.0683416 0.0108292 0.207108 170 213 186
0.0688845 0.0107446 0.205491 167 212 186
0.0719121 0.0110443 0.211222 176 217 193
0.0704601 0.0106573 0.203822 212 236 223
0.0727147 0.0108342 0.207204 191 225 207
0.0718739 0.0105514 0.201796 175 214 188
0.0737842 0.0106749 0.204158 176 211 184
0.0758532 0.0108175 0.206884 192 223 200
0.0760441 0.0106919 0.204484 186 223 199
0.0761996 0.010565 0.202056 179 218 191
0.0792363 0.0108356 0.20723 182 219 193
0.0803069 0.0108336 0.207192 183 220 197
0.0833549 0.0110948 0.212188 190 222 202
0.0829924 0.0109012 0.208486 188 219 195
0.0828809 0.0107452 0.205501 165 204 168
0.0857212 0.0109709 0.209819 201 227 206
0.0842058 0.0106406 0.203501 192 225 203
0.0844258 0.010535 0.201482 172 214 185
0.0863405 0.0106409 0.203508 157 207 171
0.0876901 0.0106755 0.204168 164 213 183
0.0884633 0.0106398 0.203487 200 230 213
0.0893822 0.0106224 0.203153 176 218 192
0.093174 0.0109427 0.20928 170 210 173
0.0907335 0.0105322 0.201428 182 218 189
0.0908282 0.010422 0.199321 198 227 208
0.0942527 0.010692 0.204485 184 221 198
0.0928881 0.0104189 0.199261 186 223 199
0.0952423 0.0105642 0.202041 177 217 188
0.0969615 0.0106367 0.203427 203 230 210
0.0964625 0.010467 0.200181 185 223 199
0.0988936 0.0106154 0.203019 179 221 194
0.0960172 0.010197 0.195017 175 216 185
0.0991999 0.0104241 0.199361 210 233 214
0.101519 0.0105566 0.201896 185 220 194
0.0983947 0.0101263 0.193665 183 218 190
0.102788 0.0104704 0.200247 199 226 201
0.104354 0.0105226 0.201245 192 225 197
0.106027 0.0105844 0.202427 192 226 200
0.104621 0.0103406 0.197764 168 214 179
0.106741 0.0104467 0.199794 181 219 189
0.111435 0.0108003 0.206556 170 215 180
0.108446 0.0104095 0.199082 167 215 180
0.109887 0.0104474 0.199806 180 222 192
0.110851 0.0104396 0.199657 190 225 199
0.111519 0.0104044 0.198983 200 230 208
0.11129 0.0102869 0.196736 170 214 182
0.111642 0.0102247 0.195547 167 212 179
0.114396 0.0103817 0.198551 189 222 198
0.119406 0.0107387 0.205378 181 219 193
0.117871 0.010506 0.200927 176 215 188
0.121911 0.01077 0.205976 178 214 186
0.121241 0.0106168 0.203046 192 224 201
0.121528 0.0105494 0.201757 212 235 218
0.123699 0.0106453 0.203592 183 219 193
0.124331 0.0106082 0.202882 183 218 192
0.124539 0.0105359 0.2015 195 226 204
0.122891 0.0103092 0.197163 191 226 200
-0.493819 0.0451886 0.785666 190 220 185
-0.534621 0.0493335 0.85773 187 219 182
-0.508558 0.0473261 0.822829 186 219 182
-0.525636 0.0493335 0.85773 182 220 184
-0.512827 0.0485462 0.844042 182 219 184
-0.508406 0.0485462 0.844042 184 219 186
-0.515738 0.0496783 0.863725 185 219 188
-0.52095 0.0506244 0.880174 182 217 184
-0.490532 0.0480942 0.836183 182 214 181
-0.478389 0.0473261 0.822829 181 213 179
-0.507119 0.0506244 0.880174 177 209 173
-0.519346 0.0523206 0.909666 176 207 172
-0.473013 0.0480942 0.836183 173 200 166
-0.528098 0.0541967 0.942284 167 194 159
-0.488678 0.0506244 0.880174 154 186 145
-0.497839 0.0520646 0.905214 139 172 128
-0.427977 0.0451886 0.785666 136 157 116
-0.408807 0.0435837 0.757762 113 128 88
-0.443698 0.0477672 0.830499 114 126 87
-0.450297 0.0489576 0.851194 107 112 88
-0.3969 0.0435837 0.757762 94 96 83
-0.392931 0.0435837 0.757762 90 94 80
-0.412639 0.0462367 0.803887 88 92 79
-0.375413 0.0424991 0.738905 87 87 81
-0.35441 0.0405394 0.704833 80 77 77
-0.356809 0.0412435 0.717074 77 72 74
-0.347026 0.0405394 0.704833 80 74 78
-0.32758 0.0386792 0.67249 79 73 78
-0.301494 0.035986 0.625666 77 71 78
-0.290127 0.0350098 0.608693 77 69 77
-0.297971 0.0363559 0.632096 74 67 73
-0.297976 0.036765 0.639209 75 68 74
-0.257066 0.0320778 0.557716 74 64 72
-0.275754 0.0348053 0.605137 72 61 70
-0.275315 0.035154 0.6112 73 63 70
-0.246841 0.031889 0.554434 72 61 70
-0.236445 0.0309096 0.537405 70 60 69
-0.251785 0.0333116 0.579167 67 58 67
-0.241128 0.0322907 0.561417 66 57 67
-0.236617 0.0320778 0.557716 68 57 66
-0.240752 0.0330462 0.574554 66 56 64
-0.198913 0.0276489 0.480714 65 54 65
-0.195887 0.0275774 0.479471 65 54 64
-0.193877 0.0276489 0.480714 65 55 64
-0.176061 0.0254386 0.442284 63 51 62
-0.181723 0.0266068 0.462595 62 50 61
-0.1727 0.0256273 0.445566 63 51 61
-0.156639 0.0235625 0.409665 61 49 60
-0.160445 0.0244701 0.425446 60 48 60
-0.165699 0.0256273 0.445566 61 49 61
-0.137248 0.0215303 0.374334 62 50 60
-0.122795 0.0195423 0.339769 59 44 56
-0.133327 0.0215303 0.374334 62 48 58
-0.120735 0.019788 0.344042 60 45 56
-0.125738 0.0209201 0.363725 59 44 54
-0.10327 0.0174464 0.303329 60 46 55
-0.110789 0.0190091 0.330499 58 44 53
-0.102016 0.0177816 0.309157 59 45 54
-0.0918784 0.0162729 0.282926 57 42 52
-0.0910272 0.0163864 0.2849 57 42 51
-0.0942113 0.0172423 0.29978 59 43 52
-0.0834537 0.0155323 0.270051 63 48 57
-0.0749948 0.0141986 0.246862 59 44 54
-0.0747068 0.0143922 0.250228 56 41 51
-0.0750872 0.0147238 0.255994 60 46 55
-0.0737843 0.0147314 0.256126 61 47 58
-0.074637 0.0151776 0.263883 64 52 63
-0.0733092 0.0151889 0.264079 63 50 62
-0.0644518 0.0136105 0.236637 62 50 62
-0.0656227 0.0141295 0.245661 60 49 62
-0.0610637 0.0134108 0.233166 60 51 64
-0.0600604 0.0134597 0.234015 62 52 68
-0.0577105 0.0132025 0.229543 59 51 67
-0.0568182 0.0132749 0.230803 63 56 73
-0.0559453 0.0133551 0.232197 62 56 74
-0.0521831 0.0127338 0.221395 62 57 75
-0.0530719 0.0132451 0.230284 62 56 75
-0.0493811 0.0126106 0.219252 61 56 75
-0.0490026 0.0128119 0.222752 61 57 77
-0.0464582 0.0124429 0.216337 61 58 78
-0.04578 0.0125678 0.218508 63 60 80
-0.0445008 0.0125298 0.217848 66 62 83
-0.043992 0.0127126 0.221025 63 63 84
-0.0423465 0.0125678 0.218508 65 65 86
-0.0410308 0.0125156 0.2176 66 69 89
-0.0407618 0.0127888 0.22235 66 69 89
-0.0391413 0.0126415 0.21979 66 71 92
-0.0376501 0.0125284 0.217823 66 70 91
-0.0354827 0.0121761 0.211699 70 76 95
-0.0339569 0.0120284 0.209131 71 75 95
-0.0334104 0.0122294 0.212624 68 77 97
-0.0322883 0.0122261 0.212568 69 83 103
-0.0308384 0.0120942 0.210274 74 88 110
-0.0297262 0.0120898 0.210197 81 88 111
-0.0284844 0.0120303 0.209163 83 92 111
-0.0277157 0.0121739 0.21166 81 96 112
-0.0260603 0.0119237 0.20731 83 106 120
-0.0258933 0.0123624 0.214937 84 111 125
-0.0244727 0.0122152 0.212378 87 114 127
-0.0226155 0.0118258 0.205607 92 115 126
-0.0223591 0.0122763 0.21344 97 123 133
-0.0204589 0.0118242 0.20558 99 125 139
-0.0198095 0.0120849 0.210113 104 127 145
-0.0183382 0.0118454 0.205949 109 131 151
-0.0176033 0.0120814 0.210051 115 137 154
-0.0165689 0.0121295 0.210888 124 151 164
-0.0153228 0.0120186 0.208959 125 153 166
-0.014507 0.0122539 0.213052 128 157 168
-0.0132286 0.0121053 0.210466 135 167 174
-0.0121094 0.0120886 0.210176 139 171 176
-0.0108694 0.0119357 0.207519 145 176 178
-0.00978247 0.0119357 0.207519 155 186 181
-0.00882475 0.0121131 0.210603 164 188 181
-0.00752428 0.0118035 0.205219 181 199 193
-0.00647252 0.0118458 0.205956 185 203 197
-0.00551104 0.0121034 0.210433 183 203 193
-0.00435331 0.0119509 0.207783 178 205 195
-0.00323015 0.0118235 0.205567 169 205 196
-0.00213802 0.0117388 0.204095 174 205 199
-0.00107094 0.01176 0.204463 184 210 202
0 0.0119941 0.208534 190 216 207
0.0010574 0.0116113 0.201879 186 214 203
0.00216519 0.011888 0.206689 183 211 196
0.00323626 0.0118458 0.205956 176 210 192
0.00440018 0.0120796 0.21002 190 220 203
0.00528788 0.0116133 0.201913 176 209 187
0.00658748 0.0120562 0.209614 179 212 190
0.00744398 0.0116775 0.203029 179 212 188
0.00850698 0.0116769 0.203019 177 213 186
0.00963873 0.0117603 0.20447 177 214 188
0.0107287 0.0117812 0.204833 164 205 174
0.0116566 0.0116365 0.202316 160 203 170
0.0125619 0.0114952 0.199859 164 206 177
0.0138991 0.0117405 0.204124 162 204 174
0.0149432 0.0117208 0.203783 161 205 169
0.015852 0.0116047 0.201764 152 202 160
0.0170794 0.0117218 0.2038 180 216 186
0.0179968 0.0116249 0.202115 190 224 200
0.0192474 0.011742 0.20415 181 219 196
0.0201811 0.0116636 0.202788 174 215 190
0.0217033 0.0119162 0.207179 166 208 179
0.0222392 0.011629 0.202186 196 223 203
0.023527 0.0117432 0.204172 195 222 204
0.0242441 0.011575 0.201247 193 222 203
0.0252096 0.0115345 0.200542 204 229 210
0.0263499 0.0115739 0.201229 205 230 211
0.0271354 0.0114605 0.199257 193 226 206
0.0284526 0.0115718 0.201191 187 223 203
0.029702 0.0116485 0.202525 162 210 184
0.031163 0.0118 0.20516 186 221 202
0.0315155 0.0115357 0.200565 172 209 185
0.0330999 0.0117249 0.203853 167 202 169
0.033734 0.011576 0.201265 183 218 193
0.0348518 0.0115972 0.201634 185 220 196
0.0353383 0.0114132 0.198435 172 214 187
0.0369159 0.0115821 0.201371 183 220 196
0.0383859 0.0117088 0.203573 188 223 201
0.0399396 0.0118535 0.206088 192 224 204
0.0412085 0.0119082 0.20704 178 217 191
0.0412014 0.0116009 0.201697 201 227 208
0.0423256 0.0116195 0.20202 188 219 200
0.0429701 0.0115087 0.200094 188 219 200
0.0444419 0.0116195 0.20202 179 216 190
0.0462766 0.0118178 0.205468 195 225 205
0.046257 0.0115443 0.200713 173 212 187
0.0475401 0.0116009 0.201697 158 204 176
0.0480683 0.0114748 0.199504 179 215 192
0.0501134 0.0117084 0.203567 172 212 186
0.0508589 0.0116351 0.202291 181 216 192
0.052002 0.0116538 0.202617 172 211 184
0.0529814 0.0116358 0.202304 177 215 188
0.0536161 0.0115443 0.200713 163 207 172
0.0554463 0.0117088 0.203573 186 224 200
0.0554541 0.0114895 0.19976 178 218 196
0.0573114 0.0116544 0.202628 175 215 190
0.0588287 0.0117454 0.20421 190 223 202
0.0598956 0.0117449 0.204201 181 218 195
0.0609661 0.0117451 0.204204 191 222 203
0.0622266 0.0117812 0.204833 182 217 197
0.0618422 0.01151 0.200117 188 219 199
0.064572 0.0118178 0.205468 184 218 193
0.0654452 0.0117812 0.204833 203 229 210
0.0662078 0.0117263 0.203877 194 224 202
0.0663216 0.01156 0.200986 176 217 191
0.0661455 0.0113491 0.19732 151 205 172
0.070184 0.0118568 0.206147 150 204 173
0.0721751 0.0120084 0.208783 183 220 198
0.0717669 0.0117623 0.204503 204 231 214
0.0711976 0.0114974 0.199898 179 216 192
0.0759435 0.012086 0.210132 177 215 190
0.075345 0.0118195 0.205498 177 217 190
0.0774332 0.011976 0.208219 191 224 204
0.0766133 0.0116846 0.203153 181 218 195
0.0801246 0.0120527 0.209553 180 217 193
0.0800368 0.0118768 0.206495 175 215 191
0.083444 0.0122173 0.212415 194 224 206
0.08193 0.0118378 0.205817 184 216 192
0.0833963 0.0118932 0.20678 171 207 173
0.0878678 0.0123702 0.215073 199 226 204
0.0850265 0.0118187 0.205484 190 223 200
0.08624 0.0118375 0.205812 187 221 199
0.0852371 0.0115554 0.200907 165 210 181
0.0882568 0.0118189 0.205488 171 215 182
0.0909213 0.012029 0.209141 206 234 211
0.0898319 0.0117434 0.204175 186 223 193
0.0913405 0.0118001 0.205161 166 211 170
0.0912166 0.0116471 0.202501 182 218 188
0.0915324 0.0115531 0.200866 176 214 187
0.0945708 0.0118009 0.205176 161 207 177
0.0934104 0.0115252 0.200381 154 205 168
0.0959032 0.0117013 0.203443 156 207 168
0.0936346 0.0112989 0.196447 196 225 201
0.0978449 0.0116787 0.20305 211 233 216
0.0980447 0.0115767 0.201276 174 216 189
0.0994365 0.0116161 0.201962 170 211 180
0.0999351 0.0115515 0.200838 194 222 200
0.100228 0.0114647 0.199329 183 220 195
0.101608 0.0115027 0.19999 176 217 183
0.103764 0.0116269 0.20215 196 228 201
0.103763 0.0115093 0.200105 178 219 187
0.10497 0.0115268 0.200409 193 228 203
0.104434 0.0113544 0.197411 191 226 200
0.104498 0.0112499 0.195595 194 227 203
0.104685 0.0111607 0.194044 191 227 202
0.106929 0.0112903 0.196297 194 228 204
0.10962 0.0114642 0.199321 183 223 195
0.110829 0.0114813 0.199619 168 211 179
0.113148 0.011612 0.20189 172 216 188
0.109563 0.0111399 0.193683 193 226 205
0.11546 0.0116318 0.202234 185 223 197
0.11709 0.0116888 0.203226 191 225 203
0.116185 0.0114939 0.199838 196 227 206
0.117125 0.0114835 0.199657 185 219 194
0.119482 0.0116109 0.201872 187 220 195
0.12267 0.0118162 0.205441 167 211 180
0.125654 0.0119983 0.208607 207 232 214
0.120926 0.0114474 0.199028 207 233 217
0.120238 0.0112849 0.196203 180 220 195
0.127441 0.0118596 0.206196 195 227 206
0.126776 0.0116986 0.203396 195 226 203
-0.493819 0.0492967 0.785666 187 219 182
-0.530548 0.0534083 0.851194 187 219 182
-0.526089 0.0534083 0.851194 186 219 183
-0.517247 0.0529595 0.844042 183 220 184
-0.517172 0.0534083 0.851194 183 220 185
-0.526652 0.0548602 0.874334 185 219 187
-0.486317 0.0511029 0.814453 185 219 188
-0.52095 0.0552266 0.880174 183 218 185
-0.490532 0.0524664 0.836183 179 217 183
-0.504595 0.0544567 0.867904 178 216 184
-0.494188 0.0538184 0.85773 183 216 186
-0.50555 0.0555609 0.885502 184 215 185
-0.465459 0.0516285 0.822829 183 213 183
-0.499008 0.055867 0.89038 176 208 175
-0.45684 0.0516285 0.822829 177 206 173
-0.464196 0.0529595 0.844042 171 201 165
-0.44822 0.0516285 0.822829 164 192 154
-0.428987 0.0498928 0.795167 158 180 141
-0.458247 0.0538184 0.85773 152 171 131
-0.43086 0.0511029 0.814453 142 158 119
-0.411516 0.0492967 0.785666 134 148 114
-0.386984 0.0468262 0.746293 118 125 99
-0.403286 0.0492967 0.785666 111 117 94
-0.421948 0.0521097 0.830499 102 108 92
-0.395676 0.0493741 0.7869 94 100 86
-0.385772 0.048645 0.775279 92 94 81
-0.383033 0.0488135 0.777965 84 85 77
-0.38271 0.0492967 0.785666 84 83 80
-0.333253 0.0433927 0.691572 80 77 76
-0.317396 0.0417823 0.665905 76 70 73
-0.313909 0.0417823 0.665905 76 69 74
-0.316935 0.0426591 0.67988 76 68 74
-0.292405 0.0398046 0.634386 76 66 74
-0.321184 0.0442248 0.704833 77 66 74
-0.278377 0.0387762 0.617996 76 67 72
-0.292041 0.0411582 0.655958 74 64 70
-0.264779 0.0377602 0.601804 72 63 70
-0.294391 0.0424892 0.677171 71 62 70
-0.245006 0.0357927 0.570447 71 62 70
-0.25336 0.0374701 0.59718 67 55 63
-0.241371 0.0361431 0.576031 68 57 66
-0.234047 0.0354901 0.565624 66 56 66
-0.214672 0.0329695 0.525451 62 52 62
-0.21116 0.0328513 0.523568 66 55 65
-0.199036 0.0313726 0.5 63 51 61
-0.206415 0.0329695 0.525451 66 54 64
-0.184664 0.0298938 0.476432 63 51 62
-0.173822 0.0285242 0.454604 62 50 61
-0.154494 0.0257045 0.409665 62 50 61
-0.16906 0.0285242 0.454604 63 51 62
-0.159262 0.027255 0.434376 62 50 60
-0.165388 0.0287135 0.457621 60 46 56
-0.124381 0.0219117 0.349217 59 44 54
-0.143765 0.0257045 0.409665 58 43 53
-0.110664 0.020086 0.32012 58 43 53
-0.124924 0.0230232 0.366932 58 43 52
-0.118293 0.0221417 0.352883 54 41 50
-0.125711 0.0239037 0.380965 60 47 56
-0.102629 0.0198295 0.316033 60 44 54
-0.107412 0.0210938 0.336183 57 42 51
-0.101455 0.0202559 0.322829 56 40 49
-0.0884833 0.0179655 0.286326 54 38 47
-0.102544 0.0211793 0.337546 59 44 53
-0.0973876 0.0204673 0.326197 58 44 53
-0.0986079 0.0210938 0.336183 60 46 56
-0.0952096 0.0207372 0.330499 62 48 59
-0.0998098 0.0221417 0.352883 62 50 60
-0.101169 0.0228668 0.364439 63 50 61
-0.0903618 0.0208167 0.331767 64 51 63
-0.0843312 0.0198084 0.315696 62 51 63
-0.0736576 0.0176473 0.281254 60 50 63
-0.0670809 0.0163996 0.261369 61 51 66
-0.066344 0.0165574 0.263883 63 54 69
-0.062269 0.015871 0.252945 62 55 70
-0.0569461 0.0148299 0.236351 62 55 71
-0.0574426 0.0152916 0.24371 61 55 71
-0.0516669 0.0140667 0.224187 60 53 70
-0.0520288 0.0144946 0.231008 61 54 72
-0.0489556 0.0139632 0.222538 61 56 74
-0.0472858 0.0138159 0.220191 61 57 75
-0.0474774 0.0142187 0.22661 63 59 78
-0.0464225 0.0142592 0.227256 65 61 81
-0.0454046 0.0143136 0.228122 63 61 81
-0.0429565 0.0139078 0.221656 60 59 79
-0.0423735 0.0141001 0.224721 62 63 83
-0.0397611 0.0136088 0.216891 65 66 86
-0.0380943 0.0134218 0.21391 65 68 87
-0.0360472 0.0130855 0.208549 65 67 88
-0.0357391 0.013379 0.213228 65 67 88
-0.0349509 0.0135061 0.215253 66 67 88
-0.0339916 0.0135732 0.216323 66 71 91
-0.0322968 0.0133411 0.212624 64 73 94
-0.0308946 0.0132177 0.210657 70 78 100
-0.0304044 0.0134898 0.214993 75 80 101
-0.0281293 0.0129604 0.206556 73 82 101
-0.0277547 0.0132993 0.211957 76 89 107
-0.0270438 0.0134986 0.215133 78 91 111
-0.0251149 0.0130808 0.208475 81 96 116
-0.0244727 0.0133257 0.212378 85 101 119
-0.022616 0.0129011 0.205612 84 101 118
-0.0221327 0.0132567 0.211278 84 110 122
-0.0213638 0.0134697 0.214673 86 112 124
-0.0199525 0.0132787 0.211629 93 109 126
-0.0189136 0.0133278 0.212411 107 121 135
-0.0175159 0.0131143 0.209008 105 122 131
-0.0164753 0.0131575 0.209698 111 135 149
-0.0152964 0.0130886 0.2086 106 136 152
-0.0142283 0.0131112 0.208959 126 153 166
-0.0130655 0.0130429 0.207871 122 151 160
-0.0122435 0.0133335 0.212503 125 155 161
-0.0109346 0.0130988 0.208762 132 160 166
-0.00982226 0.0130738 0.208363 141 167 171
-0.00869622 0.0130218 0.207535 150 173 173
-0.00748191 0.012804 0.204064 159 181 181
-0.00657896 0.0131352 0.209342 170 189 190
-0.00548177 0.0131335 0.209316 173 194 189
-0.00433037 0.0129687 0.206689 164 190 189
-0.00327678 0.0130845 0.208534 156 187 190
-0.00219554 0.0131505 0.209586 160 192 191
-0.00107479 0.0128752 0.205199 174 203 193
0 0.0129453 0.206315 185 212 202
0.00106705 0.0127825 0.203722 188 214 203
0.00214965 0.0128757 0.205206 183 209 200
0.00315475 0.0125972 0.200768 172 205 194
0.0042296 0.0126669 0.201879 181 210 199
0.00532586 0.01276 0.203362 183 213 196
0.00626225 0.0125029 0.199265 182 214 195
0.0074562 0.01276 0.203362 181 213 193
0.0085061 0.0127371 0.202998 177 213 187
0.00948436 0.012624 0.201195 175 213 186
0.0106522 0.0127605 0.203371 181 216 192
0.0116977 0.0127391 0.203029 200 225 208
0.0128972 0.012875 0.205195 190 223 199
0.0139957 0.0128968 0.205542 187 221 196
0.0148132 0.0126751 0.20201 176 214 183
0.0159008 0.0126987 0.202386 159 207 164
0.017078 0.0127864 0.203783 177 215 181
0.0184235 0.0129824 0.206906 194 227 205
0.0191158 0.0127219 0.202755 172 216 188
0.0201811 0.0127239 0.202788 200 230 209
0.0211697 0.0126799 0.202086 168 209 180
0.0221146 0.0126151 0.201054 168 205 177
0.0234873 0.0127891 0.203827 174 207 181
0.0243141 0.0126637 0.201828 160 204 175
0.0257489 0.0128523 0.204833 163 206 174
0.0267778 0.0128312 0.204496 168 208 178
0.0277584 0.0127895 0.203832 165 210 180
0.0284471 0.0126214 0.201153 200 230 211
0.0301878 0.0129153 0.205837 178 218 199
0.0298995 0.0123509 0.196842 178 217 197
0.0323937 0.0129351 0.206154 187 219 199
0.0325022 0.0125598 0.200171 192 221 200
0.0338361 0.0126667 0.201875 185 218 193
0.0356877 0.0129549 0.206469 190 222 201
0.0360062 0.0126862 0.202186 190 223 202
0.0369581 0.0126495 0.201601 174 214 187
0.0383811 0.0127716 0.203548 170 211 186
0.039451 0.0127728 0.203567 164 210 181
0.0403924 0.0127335 0.20294 152 206 172
0.0403752 0.0124017 0.197652 200 230 213
0.0425856 0.0127536 0.203261 167 213 189
0.0431075 0.0125951 0.200734 178 213 190
0.0444295 0.0126722 0.201964 169 209 182
0.0452715 0.0126121 0.201005 204 228 211
0.0458753 0.0124899 0.199057 177 211 190
0.0485812 0.0129326 0.206114 173 211 190
0.0488892 0.0127317 0.202911 184 218 199
0.0500361 0.0127531 0.203253 181 216 193
0.050373 0.0125715 0.200359 187 219 199
0.0533049 0.0130317 0.207693 187 221 201
0.0521536 0.0124953 0.199143 179 218 192
0.0547165 0.0128523 0.204833 163 210 177
0.0552764 0.0127341 0.202949 200 230 211
0.0556386 0.0125757 0.200425 204 232 219
0.0582011 0.0129113 0.205773 178 220 199
0.0588278 0.012813 0.204207 173 215 191
0.0594309 0.0127132 0.202617 186 221 200
0.0607796 0.0127736 0.20358 184 219 201
0.0619406 0.0127932 0.203891 181 216 197
0.0649478 0.0131869 0.210167 166 207 177
0.0630007 0.0125784 0.200468 165 207 177
0.064943 0.0127536 0.203261 199 227 208
0.0669238 0.0129307 0.206082 178 215 189
0.0674881 0.0128327 0.204521 191 221 198
0.0689822 0.0129118 0.205782 171 210 182
0.0679923 0.0125308 0.199709 177 214 192
0.0721406 0.0130938 0.208683 172 211 187
0.072332 0.0129326 0.206114 191 223 202
0.0706765 0.0124508 0.198435 194 225 205
0.0722808 0.0125489 0.199998 179 218 193
0.0763042 0.0130582 0.208114 180 219 193
0.0764175 0.0128933 0.205488 187 223 201
0.0784843 0.0130582 0.208114 175 215 194
0.0793203 0.0130165 0.20745 194 225 207
0.0814151 0.0131797 0.210051 196 225 207
0.0820983 0.0131131 0.208989 181 219 197
0.0830788 0.0130951 0.208703 195 223 203
0.0828713 0.0128927 0.205478 178 212 185
0.0859182 0.0131954 0.210301 172 210 181
0.0836893 0.0126904 0.202253 211 232 217
0.0854233 0.0127914 0.203863 184 218 195
0.0871749 0.0128925 0.205475 161 207 175
0.0896461 0.0130963 0.208722 188 223 197
0.0914378 0.0131971 0.210329 200 230 205
0.0892673 0.0127305 0.202892 170 214 176
0.0910505 0.012832 0.20451 169 211 172
0.0910869 0.0126879 0.202213 171 213 181
0.0939481 0.012936 0.206167 198 227 207
0.0928519 0.0126398 0.201447 191 223 203
0.0972248 0.0130863 0.208564 176 209 180
0.0954236 0.0127012 0.202425 160 207 167
0.0976314 0.0128523 0.204833 175 214 181
0.097525 0.0126987 0.202386 194 224 201
0.0990888 0.0127636 0.20342 170 215 186
0.0970319 0.0123657 0.197078 179 218 190
0.0997581 0.0125793 0.200482 169 210 180
0.0998701 0.0124622 0.198617 171 213 183
0.103497 0.0127817 0.203709 183 221 190
0.100265 0.0122561 0.195332 183 221 191
0.0999484 0.0120941 0.192749 194 227 202
0.107078 0.0128272 0.204433 176 220 190
0.10602 0.0125747 0.200409 200 230 209
0.10721 0.0125912 0.200672 186 223 201
0.108185 0.0125824 0.200531 186 222 200
0.10463 0.0120518 0.192076 185 222 197
0.11116 0.012682 0.20212 187 223 197
0.111636 0.0126162 0.201071 186 220 201
0.112322 0.0125751 0.200415 165 209 178
0.113012 0.0125352 0.19978 183 220 186
0.114859 0.0126232 0.201183 200 230 206
0.11586 0.0126175 0.201091 174 217 188
0.116478 0.0125705 0.200342 192 226 204
0.120162 0.0128523 0.204833 182 221 197
0.119432 0.0126611 0.201787 189 225 203
0.117505 0.0123476 0.19679 180 218 194
0.1257 0.0130938 0.208683 162 209 183
0.12247 0.0126474 0.201568 184 222 203
0.122624 0.0125551 0.200097 179 221 197
0.127033 0.0128963 0.205535 170 214 181
0.124446 0.0125275 0.199657 171 213 181
-0.539114 0.0583032 0.85773 184 218 180
-0.512867 0.0559309 0.822829 185 218 182
-0.513298 0.0564522 0.830499 187 220 185
-0.52931 0.0587107 0.863725 183 220 185
-0.53478 0.0598288 0.880174 183 220 185
-0.536317 0.0605225 0.89038 182 218 184
-0.503985 0.0573728 0.844042 183 218 185
-0.517493 0.0594319 0.874334 183 218 184
-0.516339 0.0598288 0.880174 183 218 186
-0.450744 0.0526987 0.775279 181 217 186
-0.486301 0.0573728 0.844042 181 215 184
-0.477393 0.0568386 0.836183 178 213 180
-0.460721 0.0553615 0.814453 182 215 184
-0.46115 0.0559309 0.822829 183 215 187
-0.45684 0.0559309 0.822829 178 211 181
-0.46813 0.057859 0.851194 180 211 175
-0.44822 0.0559309 0.822829 175 206 166
-0.455355 0.0573728 0.844042 171 202 166
-0.470238 0.0598288 0.880174 169 198 166
-0.450297 0.057859 0.851194 160 189 152
-0.449262 0.0583032 0.85773 159 186 144
-0.426671 0.0559309 0.822829 152 175 126
-0.422361 0.0559309 0.822829 135 158 106
-0.384993 0.051508 0.757762 129 154 108
-0.413742 0.0559309 0.822829 117 134 104
-0.385772 0.0526987 0.775279 110 117 91
-0.381711 0.0526987 0.775279 110 116 91
-0.343335 0.0479102 0.704833 101 108 83
-0.359621 0.0507284 0.746293 88 97 75
-0.374479 0.0534048 0.785666 85 83 74
-0.345891 0.0498758 0.73375 83 78 75
-0.314102 0.045801 0.673803 79 72 72
-0.312126 0.0460299 0.677171 75 66 71
-0.314439 0.046904 0.69003 77 66 72
-0.330518 0.0498758 0.73375 76 67 72
-0.30721 0.046904 0.69003 75 65 71
-0.283513 0.0438013 0.644385 75 65 72
-0.292927 0.045801 0.673803 73 64 71
-0.276763 0.0438013 0.644385 73 63 71
-0.260708 0.0417698 0.614498 71 59 67
-0.266614 0.0432501 0.636275 71 60 68
-0.247104 0.0405926 0.59718 66 55 65
-0.235336 0.039155 0.576031 67 56 66
-0.244058 0.0411335 0.605137 67 56 64
-0.199036 0.0339869 0.5 71 59 68
-0.207284 0.0358672 0.527662 64 51 61
-0.203663 0.0357169 0.525451 63 51 61
-0.201756 0.0358672 0.527662 64 52 63
-0.1686 0.0303891 0.447071 64 51 62
-0.176477 0.0322569 0.474549 62 49 59
