ply
format ascii 1.0
element vertex 1168
property float x
property float y
property float z
property uchar red
property uchar green
property uchar blue
end_header
0.00590861 -0.0353905 0.188012 69 63 76
0.00689859 -0.0354173 0.188154 68 62 75
0.00795753 -0.0357471 0.189906 68 64 76
0.00886962 -0.0354173 0.188154 69 66 78
0.00990027 -0.0355795 0.189016 70 67 79
0.0108157 -0.0353356 0.18772 69 66 78
0.011641 -0.0348626 0.185208 68 66 79
0.012427 -0.0343538 0.182504 69 68 80
0.0137085 -0.0351897 0.186945 68 67 79
0.0144685 -0.0346646 0.184156 68 68 80
0.0153135 -0.034396 0.182729 69 69 81
0.0164415 -0.0347573 0.184648 69 70 82
0.0175973 -0.0351338 0.186649 71 71 83
0.0190088 -0.0359545 0.191008 69 69 82
0.0196943 -0.0353885 0.188001 69 70 83
0.0212093 -0.036296 0.192822 71 72 84
0.0223056 -0.0364371 0.193572 71 73 85
0.0232139 -0.0362721 0.192695 71 74 85
0.0240541 -0.0360188 0.19135 71 73 84
0.0248169 -0.0356747 0.189522 70 73 85
0.0275847 -0.0381283 0.202556 68 71 84
0.025794 -0.0343326 0.182392 72 75 88
0.0285586 -0.0366548 0.194729 72 75 88
0.0296422 -0.0367337 0.195148 74 78 92
0.0310495 -0.0371951 0.197599 77 80 94
0.0318643 -0.0369399 0.196243 74 75 92
0.032964 -0.0370205 0.196671 72 77 93
0.0344801 -0.0375498 0.199483 74 79 93
0.036077 -0.0381333 0.202583 73 78 92
0.037123 -0.0381178 0.202501 72 78 90
0.0383982 -0.0383319 0.203638 78 84 96
0.0387687 -0.0376558 0.200046 78 83 99
0.0397792 -0.0376206 0.199859 75 81 97
0.041842 -0.0385568 0.204833 75 83 101
0.0429149 -0.0385568 0.204833 78 86 103
0.0409275 -0.0358743 0.190582 80 89 101
0.0440271 -0.0376724 0.200135 77 84 96
0.045364 -0.0379136 0.201416 81 89 101
0.0443402 -0.0362157 0.192396 81 92 101
0.0488209 -0.0389894 0.207131 83 97 104
0.0482795 -0.0377188 0.200381 84 95 106
0.0490855 -0.0375326 0.199392 80 91 103
0.0512324 -0.038358 0.203777 87 99 109
0.0515366 -0.0377983 0.200804 84 97 109
0.0541383 -0.0389123 0.206722 85 100 111
0.0507623 -0.0357704 0.19003 87 105 110
0.0564913 -0.0390419 0.20741 93 112 116
0.0545966 -0.0370205 0.196671 92 114 123
0.0556844 -0.0370589 0.196875 94 115 125
0.0587904 -0.0384146 0.204078 97 119 122
0.0580061 -0.0372253 0.197759 99 123 123
0.0619642 -0.0390678 0.207548 95 122 121
0.0584271 -0.0362025 0.192326 108 131 129
0.0599249 -0.0365013 0.193913 108 128 123
0.061769 -0.0369974 0.196549 110 123 120
0.0634112 -0.0373585 0.198467 101 113 114
0.0652752 -0.0378363 0.201005 87 99 104
0.065264 -0.0372293 0.197781 88 98 104
0.0682353 -0.0383161 0.203554 91 97 109
0.0677604 -0.0374641 0.199028 92 98 109
0.0660913 -0.0359876 0.191184 89 101 109
0.0693195 -0.037182 0.19753 89 106 108
0.0691905 -0.0365671 0.194263 101 119 114
0.0707649 -0.0368571 0.195803 98 118 118
0.0714918 -0.0367038 0.194989 97 124 124
0.0721091 -0.0364993 0.193902 95 127 125
0.0725027 -0.0361888 0.192253 106 137 127
0.0745751 -0.0367133 0.195039 108 136 125
0.0742526 -0.0360606 0.191572 107 134 126
0.0744018 -0.0356512 0.189397 112 139 132
0.0722087 -0.0341451 0.181396 112 137 130
0.0748862 -0.0349513 0.185679 114 140 131
0.076384 -0.0351933 0.186964 112 147 135
0.0773506 -0.0351875 0.186934 119 156 144
0.079192 -0.0355749 0.188992 121 156 144
0.0801517 -0.0355615 0.188921 122 158 147
0.0790277 -0.0346352 0.184 131 166 151
0.0775447 -0.0335758 0.178372 139 172 155
0.0813764 -0.0348154 0.184957 134 172 155
0.0829785 -0.0350832 0.186379 137 169 152
0.0805034 -0.0336409 0.178718 144 173 156
0.0836255 -0.034544 0.183515 141 179 162
0.0823655 -0.0336368 0.178696 143 183 160
0.0853436 -0.0344614 0.183076 151 190 166
0.0850288 -0.0339528 0.180374 154 192 168
0.0841254 -0.0332229 0.176497 165 198 177
0.0884512 -0.0345516 0.183556 170 205 184
0.0880305 -0.0340175 0.180718 173 206 184
0.0886197 -0.0338809 0.179992 175 204 183
0.0912917 -0.034535 0.183467 187 212 183
0.0925987 -0.0346646 0.184156 208 227 201
0.089163 -0.0330343 0.175495 210 230 206
0.0933689 -0.0342396 0.181898 208 228 204
0.0910709 -0.0330595 0.175629 195 218 191
0.0934274 -0.0335758 0.178372 193 216 189
0.0935427 -0.0332844 0.176824 209 232 208
0.0968733 -0.0341316 0.181324 211 234 204
0.0939535 -0.0327814 0.174151 213 237 206
0.100194 -0.0346229 0.183934 213 238 206
0.0963576 -0.0329799 0.175206 214 238 209
0.0983665 -0.0333498 0.177171 217 239 212
0.099502 -0.0334196 0.177541 214 237 210
0.100328 -0.0333849 0.177357 217 239 212
0.102551 -0.0338117 0.179625 216 239 209
0.103189 -0.0337125 0.179098 227 247 221
0.103354 -0.0334623 0.177769 225 247 221
0.10252 -0.0328961 0.17476 217 242 214
0.105484 -0.0335476 0.178222 209 237 210
0.106179 -0.0334725 0.177823 202 232 201
0.107257 -0.0335182 0.178065 210 240 212
0.102631 -0.0317959 0.168916 217 244 219
0.10643 -0.0326912 0.173672 198 231 201
0.10344 -0.0315036 0.167363 193 228 202
0.103408 -0.0312291 0.165905 205 238 208
-0.128175 -0.03732 0.203927 147 196 180
-0.139984 -0.0411008 0.224587 146 198 183
-0.131643 -0.0389793 0.212994 140 199 184
-0.132285 -0.0395042 0.215862 142 199 186
-0.127209 -0.0383159 0.209369 147 200 183
-0.122505 -0.0372197 0.203379 158 205 190
-0.129338 -0.0396407 0.216608 153 206 188
-0.129589 -0.0400689 0.218948 155 209 186
-0.122421 -0.0381904 0.208683 154 211 186
-0.121975 -0.0383941 0.209797 159 210 188
-0.120743 -0.0383519 0.209566 167 212 191
-0.118588 -0.0380129 0.207713 170 212 189
-0.11587 -0.0374857 0.204833 175 217 190
-0.116074 -0.0379026 0.20711 176 219 188
-0.113724 -0.0374857 0.204833 186 225 193
-0.10958 -0.0364638 0.199249 187 225 193
-0.108858 -0.0365716 0.199838 184 223 192
-0.111081 -0.0376809 0.205899 185 224 191
-0.109717 -0.0375831 0.205365 188 226 193
-0.109168 -0.0377651 0.206359 189 226 194
-0.103898 -0.0363016 0.198362 185 224 190
-0.104249 -0.0367923 0.201043 188 225 193
-0.103266 -0.0368171 0.201179 189 227 194
-0.0993618 -0.0357903 0.195569 188 226 193
-0.0976788 -0.0355506 0.194259 189 226 193
-0.0992119 -0.0364887 0.199385 187 226 193
-0.0966657 -0.0359304 0.196334 187 226 193
-0.096545 -0.0362714 0.198197 188 226 193
-0.0979659 -0.0372053 0.203301 187 226 192
-0.0960029 -0.0368605 0.201416 189 227 194
-0.0930691 -0.0361311 0.197431 189 227 193
-0.0925712 -0.0363416 0.198581 189 226 194
-0.0912215 -0.0362187 0.197909 187 226 192
-0.0917009 -0.0368275 0.201236 188 226 193
-0.0877156 -0.0356366 0.194729 189 227 194
-0.0881466 -0.036233 0.197988 188 226 194
-0.0880745 -0.0366344 0.200181 186 225 193
-0.0869913 -0.0366198 0.200101 188 227 195
-0.0836611 -0.0356474 0.194788 187 226 194
-0.0817464 -0.0352616 0.192679 189 227 195
-0.0825211 -0.0360407 0.196937 188 227 194
-0.0806263 -0.0356589 0.19485 186 226 192
-0.0811279 -0.0363408 0.198576 187 226 193
-0.0814598 -0.0369633 0.201978 187 226 193
-0.079267 -0.0364415 0.199127 186 226 193
-0.079001 -0.0368035 0.201105 186 226 193
-0.0784361 -0.0370342 0.202365 187 227 194
-0.0765844 -0.0366552 0.200294 187 226 194
-0.0747971 -0.0362969 0.198337 184 225 191
-0.0730134 -0.0359304 0.196334 180 224 188
-0.0712798 -0.0355784 0.19441 186 226 194
-0.070124 -0.0355088 0.19403 185 226 192
-0.0682172 -0.0350512 0.19153 181 224 190
-0.0687836 -0.0358697 0.196003 182 225 192
-0.0677376 -0.0358595 0.195947 183 225 192
-0.0670919 -0.0360641 0.197064 184 226 192
-0.0647434 -0.0353455 0.193138 183 225 192
-0.0643679 -0.0356983 0.195066 182 225 192
-0.0641126 -0.0361302 0.197425 182 225 192
-0.062718 -0.0359236 0.196297 181 225 191
-0.0612196 -0.0356498 0.194801 180 224 191
-0.060645 -0.0359138 0.196243 185 225 195
-0.0593035 -0.0357248 0.195211 151 209 172
-0.0579862 -0.0355442 0.194223 128 195 151
-0.0576132 -0.0359461 0.19642 156 211 177
-0.0569436 -0.0361743 0.197667 143 205 166
-0.0579351 -0.0374857 0.204833 161 213 182
-0.0548008 -0.0361268 0.197407 187 224 203
-0.0554023 -0.0372257 0.203412 158 210 180
-0.0537335 -0.0368123 0.201153 158 211 182
-0.0510909 -0.0357019 0.195086 145 205 172
-0.0498862 -0.0355715 0.194373 152 209 178
-0.0485815 -0.0353629 0.193233 149 209 177
-0.0476637 -0.035433 0.193616 145 209 181
-0.0480384 -0.0364879 0.19938 173 221 200
-0.0453878 -0.0352407 0.192565 155 210 180
-0.0440074 -0.0349455 0.190952 160 214 185
-0.0438816 -0.0356559 0.194834 150 209 181
-0.0417371 -0.0347209 0.189725 143 204 177
-0.0417513 -0.0355799 0.194419 156 215 187
-0.0407767 -0.0356181 0.194627 163 219 192
-0.0414554 -0.0371393 0.20294 149 210 177
-0.039539 -0.0363546 0.198652 159 213 185
-0.0379083 -0.0357974 0.195607 163 212 187
-0.0368838 -0.0357974 0.195607 144 203 177
-0.0357517 -0.03569 0.195021 169 214 196
-0.033713 -0.0346447 0.189309 155 208 187
-0.0335728 -0.0355461 0.194234 109 175 139
-0.0322192 -0.035179 0.192228 130 157 125
-0.0315852 -0.0355992 0.194524 108 125 107
-0.0297664 -0.0346676 0.189434 94 102 89
-0.0287013 -0.0345798 0.188954 85 85 79
-0.0288007 -0.0359388 0.19638 83 82 78
-0.027796 -0.0359697 0.196549 77 76 72
-0.026479 -0.0355833 0.194437 78 73 78
-0.0243434 -0.0340219 0.185905 70 65 69
-0.0240894 -0.0350698 0.191632 71 64 70
-0.0226583 -0.0344205 0.188083 69 61 69
-0.0219564 -0.0348703 0.190541 70 62 70
-0.020998 -0.0349364 0.190902 66 56 64
-0.0198672 -0.0347076 0.189652 67 57 66
-0.0194375 -0.0357441 0.195316 65 52 63
-0.0175526 -0.0340712 0.186175 64 53 63
-0.0167046 -0.0343325 0.187603 64 52 62
-0.0159457 -0.034821 0.190272 61 46 59
-0.0143579 -0.033444 0.182747 60 45 58
-0.0137426 -0.0342972 0.18741 58 42 55
-0.0129313 -0.0347549 0.189911 59 43 57
-0.0115153 -0.0335283 0.183208 58 42 56
-0.0113667 -0.0361043 0.197284 58 40 54
-0.0100451 -0.0350972 0.191781 59 42 57
-0.00893648 -0.034693 0.189573 59 42 57
-0.00776244 -0.0339021 0.185251 57 39 54
-0.00699622 -0.0349207 0.190817 58 39 56
-0.00597914 -0.0348181 0.190256 58 41 57
-0.00503551 -0.0351877 0.192276 59 42 59
-0.00387828 -0.0338764 0.18511 61 46 62
-0.00278719 -0.0324611 0.177377 62 48 63
-0.00199183 -0.0347969 0.19014 64 52 67
-0.000967401 -0.0338006 0.184696 67 57 70
0 -0.033464 0.182857 68 59 71
0.000971106 -0.0339301 0.185404 68 59 72
0.00190857 -0.0333423 0.182192 67 59 72
0.00290635 -0.0338489 0.18496 69 62 74
0.00378265 -0.0330411 0.180546 69 62 75
0.00489394 -0.0341985 0.18687 67 61 74
0.00591283 -0.034432 0.188146 68 62 75
0.00676634 -0.0337733 0.184547 68 63 75
0.0076377 -0.0333573 0.182274 69 65 77
0.00892187 -0.0346363 0.189263 69 66 78
0.00993613 -0.0347164 0.189701 69 66 78
0.0104579 -0.0332178 0.181512 68 65 78
0.0112019 -0.0326157 0.178222 68 65 78
0.0125838 -0.033821 0.184808 69 67 79
0.0131655 -0.032857 0.17954 68 67 79
0.0151568 -0.0353049 0.192916 68 67 79
0.0154616 -0.0337639 0.184496 69 68 80
0.0170442 -0.0350305 0.191417 68 68 80
0.0174069 -0.0337884 0.184629 69 69 81
0.018374 -0.0337884 0.184629 70 71 83
0.0200457 -0.0350194 0.191356 69 69 82
0.0210358 -0.0349991 0.191245 68 69 82
0.0216974 -0.034459 0.188294 70 72 84
0.0221515 -0.0336507 0.183877 70 72 84
0.0237558 -0.0345841 0.188977 71 72 83
0.0248301 -0.0347021 0.189622 68 70 82
0.0254183 -0.0341579 0.186649 68 70 83
0.0274004 -0.0354578 0.193752 67 70 84
0.0274373 -0.0342374 0.187083 70 73 87
0.0282729 -0.0340636 0.186133 72 75 88
0.0300805 -0.0350333 0.191432 72 74 88
0.0325978 -0.0367405 0.200761 73 74 90
0.0326573 -0.0356573 0.194842 71 76 91
0.0324931 -0.0344029 0.187987 72 77 91
0.0326267 -0.0335283 0.183208 70 75 88
0.0351045 -0.0350439 0.19149 73 77 90
0.0365281 -0.0354522 0.193721 74 80 92
0.0367556 -0.0347088 0.189659 73 78 93
0.0406073 -0.0373369 0.20402 72 78 94
0.0399916 -0.0358279 0.195774 73 79 96
0.0425755 -0.0371893 0.203213 75 81 98
0.0415405 -0.0354002 0.193437 77 83 97
0.0429227 -0.0357072 0.195114 78 84 97
0.0442715 -0.0359728 0.196565 78 86 98
0.0450913 -0.0358062 0.195655 77 86 98
0.0470757 -0.0365512 0.199726 80 85 98
0.047746 -0.0362658 0.198167 85 88 103
0.0453052 -0.0336797 0.184036 82 86 104
0.0450825 -0.032816 0.179316 82 87 106
0.0503044 -0.0358697 0.196003 83 93 109
0.0504982 -0.0352878 0.192822 81 97 109
0.0534691 -0.0366312 0.200163 85 103 107
0.0541262 -0.0363682 0.198726 86 101 107
0.0542186 -0.035743 0.19531 89 104 112
0.057524 -0.0372197 0.203379 89 110 114
0.059008 -0.0374857 0.204833 90 111 114
0.0572374 -0.0357117 0.195139 88 112 115
0.0574274 -0.0352016 0.192352 91 115 118
0.0588924 -0.0354772 0.193858 89 111 116
0.0597297 -0.0353717 0.193281 93 109 116
0.0628681 -0.0366098 0.200046 95 105 108
0.0641033 -0.0367171 0.200633 83 93 97
0.0639803 -0.0360556 0.197018 80 89 97
0.0658191 -0.036503 0.199463 82 89 98
0.0653986 -0.0357032 0.195092 83 85 98
0.0678187 -0.0364547 0.199199 87 89 102
0.0668017 -0.035364 0.193239 93 101 110
0.0688737 -0.0359167 0.196259 90 99 105
0.0685743 -0.0352347 0.192532 92 102 100
0.070803 -0.0358526 0.195909 94 106 109
0.0693923 -0.0346363 0.189263 101 116 119
0.0732807 -0.0360619 0.197053 99 117 119
0.0739125 -0.0358677 0.195991 99 122 120
0.0744562 -0.0356366 0.194729 105 127 122
0.0754762 -0.0356366 0.194729 108 127 122
0.0744227 -0.0346707 0.18945 107 127 125
0.0723475 -0.0332605 0.181745 112 134 131
0.0760862 -0.034525 0.188654 115 139 133
0.0782329 -0.0350439 0.19149 106 132 124
0.0769693 -0.0340415 0.186012 112 141 132
0.0787073 -0.034375 0.187835 116 146 136
0.079106 -0.0341226 0.186456 114 145 134
0.0797403 -0.0339768 0.185659 119 150 136
0.0822758 -0.0346348 0.189254 127 156 144
0.0807559 -0.0335902 0.183547 132 161 149
0.0800849 -0.0329192 0.17988 134 164 147
0.0829229 -0.0336895 0.184089 131 162 146
0.0846035 -0.0339772 0.185661 136 169 153
0.083537 -0.0331676 0.181237 136 175 150
0.0851374 -0.0334232 0.182634 145 182 158
0.0861545 -0.0334467 0.182762 152 186 165
0.0852778 -0.0327426 0.178915 157 191 170
0.087308 -0.0331577 0.181183 157 191 168
0.0880974 -0.0330977 0.180856 158 193 169
0.0887936 -0.0330044 0.180345 170 198 178
0.0907126 -0.0333628 0.182304 184 208 184
0.0894938 -0.0325716 0.177981 202 221 195
0.0907578 -0.0326912 0.178634 196 216 188
0.0922181 -0.0328782 0.179656 195 214 190
0.0928121 -0.0327557 0.178987 189 214 188
0.0945299 -0.0330284 0.180476 194 217 192
0.094173 -0.0325779 0.178015 196 223 194
0.0944741 -0.0323617 0.176833 195 223 193
0.0988139 -0.0335196 0.183161 200 226 199
0.0965105 -0.0324235 0.177171 199 228 200
0.0954247 -0.0317533 0.173509 205 231 206
0.0981707 -0.0323589 0.176818 210 234 211
0.101081 -0.033007 0.180359 209 230 206
0.100728 -0.0325871 0.178065 210 232 200
0.102907 -0.0329864 0.180247 224 243 215
0.10347 -0.0328655 0.179587 225 243 216
0.10423 -0.0328087 0.179276 223 242 215
0.102668 -0.0320285 0.175013 217 240 213
0.10593 -0.0327537 0.178976 211 237 210
0.106166 -0.0325385 0.1778 213 234 205
0.106456 -0.0323437 0.176735 221 244 220
0.105716 -0.031842 0.173994 220 244 221
0.106196 -0.0317133 0.173291 218 240 214
0.105594 -0.0312662 0.170847 218 242 214
0.104193 -0.030592 0.167164 212 242 212
-0.134176 -0.037951 0.213474 136 185 171
-0.131589 -0.0375321 0.211118 147 194 181
-0.130935 -0.0376618 0.211848 141 193 181
-0.126547 -0.036711 0.206499 145 196 186
-0.123493 -0.0361339 0.203253 145 195 186
-0.12705 -0.0374977 0.210925 144 195 186
-0.1283 -0.0381989 0.214869 147 198 186
-0.124562 -0.037414 0.210454 140 198 185
-0.125213 -0.0379456 0.213444 138 202 187
-0.120587 -0.0368729 0.20741 144 204 187
-0.116209 -0.0358572 0.201697 156 206 190
-0.118304 -0.0368386 0.207217 164 208 187
-0.115207 -0.0362063 0.20366 161 208 184
-0.116397 -0.0369222 0.207688 162 212 187
-0.112777 -0.0361113 0.203126 164 213 186
-0.112024 -0.0362119 0.203692 173 216 189
-0.110968 -0.0362155 0.203712 187 220 197
-0.108711 -0.0358232 0.201505 185 223 196
-0.109717 -0.0365093 0.205365 180 222 189
-0.106194 -0.0356869 0.200739 184 224 192
-0.102158 -0.0346737 0.195039 184 223 191
-0.101324 -0.0347381 0.195402 188 226 194
-0.104905 -0.0363329 0.204372 186 225 192
-0.101403 -0.035482 0.199586 188 226 193
-0.102132 -0.0361092 0.203114 187 226 193
-0.0990469 -0.0353872 0.199053 187 225 192
-0.100254 -0.0361997 0.203623 188 226 193
-0.0973175 -0.035517 0.199783 187 226 192
-0.0968673 -0.035737 0.201021 187 226 192
-0.0958359 -0.035745 0.201066 188 226 193
-0.0922095 -0.0347746 0.195607 186 225 191
-0.0909359 -0.0346796 0.195073 188 226 194
-0.0925923 -0.0357126 0.200883 189 226 193
-0.0904454 -0.0352855 0.198481 187 226 193
-0.0889996 -0.0351252 0.197579 189 226 194
-0.0879822 -0.0351321 0.197618 188 226 194
-0.087342 -0.0352917 0.198516 187 226 193
-0.0864789 -0.0353639 0.198922 186 225 193
-0.0861486 -0.0356585 0.200579 187 226 194
-0.0850674 -0.0356457 0.200507 186 226 193
-0.0842967 -0.0357643 0.201174 188 227 194
-0.0807936 -0.0347119 0.195255 189 227 196
-0.0812897 -0.0353728 0.198972 187 226 194
-0.0807838 -0.0356092 0.200302 187 226 194
-0.0782512 -0.0349467 0.196575 187 226 194
-0.0777764 -0.0351978 0.197988 187 227 194
-0.0764897 -0.0350833 0.197343 186 226 193
-0.0765872 -0.0356092 0.200302 185 225 192
-0.0755581 -0.0356186 0.200355 184 225 192
-0.0747975 -0.0357567 0.201131 182 225 191
-0.0721601 -0.0349887 0.196812 183 225 191
-0.0708585 -0.0348555 0.196062 184 225 192
-0.070082 -0.0349805 0.196765 183 225 192
-0.0680309 -0.0344636 0.193858 184 226 193
-0.0691549 -0.0355638 0.200046 184 226 193
-0.0681071 -0.0355638 0.200046 185 226 194
-0.0636137 -0.0337365 0.189768 182 225 191
-0.0634379 -0.0341772 0.192247 181 225 191
-0.0637037 -0.034874 0.196166 178 224 189
-0.0615836 -0.034266 0.192746 178 223 189
-0.0625441 -0.0353805 0.199015 179 223 189
-0.0598154 -0.0344104 0.193559 181 223 193
-0.059222 -0.0346565 0.194943 177 220 193
-0.0573557 -0.0341532 0.192111 165 214 184
-0.0581829 -0.0352644 0.198362 159 213 181
-0.0540444 -0.0333516 0.187603 135 202 165
-0.055747 -0.0350394 0.197096 144 203 167
-0.0546374 -0.0349899 0.196818 182 218 193
-0.0529104 -0.0345356 0.194263 167 213 184
-0.051966 -0.0345842 0.194536 170 217 192
-0.049767 -0.0337832 0.19003 190 226 209
-0.0506204 -0.0350637 0.197233 188 223 202
-0.0496217 -0.0350881 0.19737 158 210 180
-0.0468133 -0.0338065 0.190161 169 217 195
-0.0474718 -0.0350273 0.197029 159 212 183
-0.0468601 -0.0353443 0.198812 165 215 186
-0.0442023 -0.0340974 0.191798 164 215 186
-0.0435223 -0.0343536 0.193239 166 216 190
-0.0413916 -0.0334496 0.188154 155 209 181
-0.0412355 -0.0341363 0.192017 154 214 187
-0.0412547 -0.0350059 0.196908 157 217 190
-0.0394895 -0.0343673 0.193316 146 209 176
-0.0385757 -0.0344555 0.193812 140 205 172
-0.0382829 -0.0351181 0.19754 153 207 181
-0.0362852 -0.0342102 0.192433 133 198 171
-0.035563 -0.0344873 0.193991 145 203 179
-0.0339056 -0.0338471 0.19039 148 208 179
-0.0342216 -0.0351978 0.197988 143 201 164
-0.0321838 -0.0341363 0.192017 141 189 156
-0.0311605 -0.034117 0.191908 134 170 147
-0.0301024 -0.0340572 0.191572 104 128 109
-0.0290023 -0.033944 0.190935 101 109 101
-0.0278695 -0.0337832 0.19003 85 92 84
-0.0276826 -0.0347994 0.195746 77 85 78
-0.0258954 -0.0338048 0.190152 76 78 74
-0.0243984 -0.0331246 0.186326 76 73 75
-0.0237424 -0.033577 0.188871 73 69 74
-0.0230421 -0.0340034 0.191269 71 65 72
-0.0219488 -0.0338623 0.190475 71 64 71
-0.0211698 -0.0342157 0.192464 68 59 67
-0.019482 -0.0330623 0.185975 67 57 66
-0.0193643 -0.0345921 0.194581 63 51 62
-0.017773 -0.0335134 0.188513 62 49 61
-0.0165466 -0.0330361 0.185828 62 49 61
-0.016123 -0.0342023 0.192388 62 48 60
-0.0141855 -0.0320983 0.180553 60 46 58
-0.0138097 -0.0334799 0.188325 60 45 59
-0.0128151 -0.0334587 0.188205 61 46 59
-0.0117761 -0.033308 0.187358 61 45 59
-0.0108331 -0.0334264 0.188024 60 43 56
-0.00977494 -0.0331775 0.186623 59 42 56
-0.00908968 -0.0342796 0.192822 58 41 56
-0.00800599 -0.0339667 0.191063 59 41 57
-0.00703912 -0.034131 0.191987 58 41 57
-0.00593296 -0.0335621 0.188787 58 42 59
-0.00500049 -0.0339447 0.190939 61 46 62
-0.00390947 -0.0331732 0.186599 64 50 64
-0.0029458 -0.0333282 0.187471 66 53 67
-0.00199068 -0.0337832 0.19003 66 55 69
-0.000961019 -0.0326183 0.183478 66 56 70
0 -0.0323203 0.181802 66 58 70
0.000950254 -0.0322529 0.181423 67 59 71
0.00193128 -0.0327751 0.18436 68 60 72
0.00295091 -0.033386 0.187796 68 62 73
0.00389019 -0.0330096 0.185679 68 61 73
0.00471864 -0.0320314 0.180177 68 63 75
0.00570153 -0.0322529 0.181423 67 62 74
0.00669063 -0.0324413 0.182482 68 63 75
0.00782804 -0.0332117 0.186816 68 65 76
0.00887419 -0.0334669 0.188251 69 65 77
0.00960516 -0.0326012 0.183382 68 65 77
0.0105852 -0.0326614 0.18372 67 65 77
0.0114072 -0.0322647 0.181489 68 66 78
0.0126874 -0.0331252 0.186329 68 66 79
0.0136541 -0.0331028 0.186203 68 66 79
0.0146507 -0.0331509 0.186474 68 67 79
0.0154599 -0.0327955 0.184475 69 68 80
0.0167735 -0.0334891 0.188376 69 68 80
0.0176831 -0.0333439 0.187559 69 69 81
0.0181307 -0.0323885 0.182185 68 68 80
0.0197091 -0.0334476 0.188143 70 70 83
0.0204392 -0.0330349 0.185821 69 70 83
0.0214955 -0.0331629 0.186541 69 71 83
0.0227619 -0.03359 0.188944 71 72 84
0.0235469 -0.0333005 0.187316 70 71 83
0.024929 -0.033845 0.190378 71 72 84
0.0260238 -0.0339724 0.191095 69 70 83
0.0263073 -0.0330706 0.186022 69 71 84
0.0274002 -0.0332142 0.18683 72 75 88
0.0297331 -0.0347994 0.195746 72 75 89
0.0302349 -0.0342071 0.192415 73 75 89
0.0309584 -0.0338958 0.190664 71 72 88
0.0308424 -0.0327135 0.184014 68 71 86
0.0322847 -0.0332056 0.186782 72 75 90
0.0344962 -0.0344367 0.193706 71 75 88
0.0350632 -0.0340026 0.191265 71 75 89
0.0363372 -0.0342592 0.192708 70 75 87
0.0380227 -0.0348795 0.196197 71 73 89
0.0387778 -0.034636 0.194828 70 72 89
0.0380604 -0.0331236 0.18632 68 73 90
0.0401503 -0.0340688 0.191637 72 77 93
0.0416662 -0.0344928 0.194022 73 79 93
0.042365 -0.0342363 0.192579 76 82 96
0.0443707 -0.0350233 0.197006 73 81 94
0.0459761 -0.0354657 0.199494 76 81 95
0.0460493 -0.0347328 0.195372 73 78 92
0.0468916 -0.0345992 0.19462 78 80 97
0.0467023 -0.0337264 0.189711 79 81 100
0.0483803 -0.0342102 0.192433 79 83 102
0.0511713 -0.0354453 0.19938 76 84 101
0.0531052 -0.0360492 0.202777 76 91 101
0.0528681 -0.0351846 0.197913 79 95 101
0.0524835 -0.0342569 0.192695 81 92 101
0.0541154 -0.0346556 0.194938 85 94 105
0.0562764 -0.0353722 0.198968 86 100 105
0.0562434 -0.0347087 0.195236 84 101 107
0.0570317 -0.0345666 0.194437 82 99 109
0.0609732 -0.0363072 0.204228 86 104 115
0.0575193 -0.03366 0.189338 84 101 114
0.0589364 -0.0339047 0.190714 89 95 108
0.0630768 -0.0356818 0.20071 75 80 90
0.0612273 -0.0340678 0.191632 81 81 88
0.063786 -0.0349191 0.19642 78 74 82
0.0643703 -0.0346796 0.195073 83 83 89
0.0655257 -0.0347505 0.195471 87 87 96
0.0652578 -0.0340759 0.191677 85 86 96
0.0671308 -0.0345229 0.194191 84 89 98
0.0681017 -0.0344995 0.194059 87 92 100
0.0676078 -0.0337456 0.189819 90 96 99
0.0694177 -0.0341468 0.192076 92 103 105
0.0697829 -0.0338361 0.190328 94 107 109
0.0726589 -0.0347344 0.195381 99 112 114
0.0729764 -0.0344016 0.193509 97 108 114
0.0721337 -0.0335386 0.188654 100 112 117
0.0735507 -0.0337352 0.189761 103 115 119
0.0744765 -0.0337044 0.189587 103 116 121
0.0741357 -0.0331088 0.186237 99 112 118
0.0752429 -0.0331668 0.186563 96 117 119
0.077116 -0.0335567 0.188756 103 124 125
0.076867 -0.0330249 0.185765 107 125 124
0.0777937 -0.0330053 0.185655 117 135 130
0.077314 -0.0323968 0.182232 118 140 133
0.0794622 -0.0328909 0.185011 118 142 131
0.0799277 -0.032685 0.183853 119 142 133
0.0818223 -0.0330614 0.18597 116 141 136
0.0801002 -0.0319848 0.179914 130 156 147
0.0817453 -0.0322621 0.181475 129 156 144
0.0837654 -0.0326794 0.183822 125 155 142
0.0847682 -0.0326948 0.183908 128 162 145
0.0846837 -0.0322952 0.181661 127 165 148
0.0833738 -0.0314424 0.176864 137 170 154
0.086262 -0.0321741 0.180979 147 175 156
0.0887897 -0.032757 0.184258 153 188 165
0.0895423 -0.0326794 0.183822 152 187 162
0.0878414 -0.0317176 0.178411 170 197 177
0.0870709 -0.0311084 0.174985 178 202 183
0.0904136 -0.0319662 0.17981 186 205 182
0.0912111 -0.0319157 0.179526 180 202 176
0.0915962 -0.0317234 0.178444 173 198 171
0.0935387 -0.032069 0.180388 169 201 174
0.0938943 -0.031869 0.179263 183 210 183
0.094593 -0.0317882 0.178809 188 211 185
0.0943897 -0.031409 0.176675 187 211 185
0.0947736 -0.0312305 0.175672 189 216 193
0.0966021 -0.031527 0.177339 187 217 192
0.0972528 -0.031437 0.176833 194 221 193
0.0991236 -0.0317395 0.178535 196 220 190
0.0985199 -0.0312514 0.175789 201 222 190
0.1016 -0.0319299 0.179606 219 237 208
0.102742 -0.0319926 0.179959 221 240 214
0.103943 -0.0320724 0.180407 219 238 213
0.104192 -0.0318597 0.179211 219 237 212
0.105272 -0.0319025 0.179451 212 236 208
0.104059 -0.0312558 0.175814 208 235 206
0.104086 -0.0309897 0.174317 218 237 208
0.106847 -0.0315349 0.177384 221 239 213
0.103499 -0.0302835 0.170345 223 241 217
0.108297 -0.0314167 0.176719 222 240 215
0.106609 -0.0306649 0.17249 218 241 214
0.102774 -0.0293135 0.164888 214 240 210
-0.135995 -0.0373341 0.216368 125 176 171
-0.139579 -0.0386399 0.223936 126 180 175
-0.13186 -0.0368126 0.213346 129 183 177
-0.13045 -0.0367302 0.212868 129 182 175
-0.12968 -0.036828 0.213435 136 187 180
-0.12874 -0.036879 0.21373 135 186 180
-0.12608 -0.036434 0.211151 141 191 181
-0.120788 -0.0352134 0.204078 138 192 181
-0.123496 -0.0363245 0.210517 137 192 182
-0.124313 -0.0368941 0.213818 134 193 180
-0.12148 -0.0363811 0.210845 140 196 182
-0.121991 -0.0368693 0.213674 147 196 182
-0.116224 -0.0354517 0.205459 150 197 183
-0.114452 -0.0352374 0.204216 148 200 187
-0.113386 -0.0352384 0.204222 150 203 185
-0.112983 -0.0354476 0.205435 162 208 187
-0.111259 -0.0352423 0.204245 167 208 188
-0.110197 -0.035245 0.204261 162 207 189
-0.110598 -0.0357199 0.207013 169 212 188
-0.10808 -0.0352524 0.204304 178 218 194
-0.105451 -0.0347387 0.201327 177 218 189
-0.103941 -0.0345873 0.200449 181 220 192
-0.103473 -0.0347828 0.201582 184 223 195
-0.103618 -0.0351907 0.203946 182 224 192
-0.100637 -0.0345344 0.200142 186 226 193
-0.101715 -0.0352716 0.204415 186 226 193
-0.0990612 -0.0347168 0.2012 185 225 191
-0.09574 -0.0339136 0.196545 187 225 192
-0.0953859 -0.0341555 0.197947 186 225 191
-0.0943687 -0.0341626 0.197988 184 224 190
-0.0935942 -0.0342586 0.198544 185 225 191
-0.093446 -0.0345887 0.200457 186 225 193
-0.0937578 -0.0350985 0.203412 189 226 195
-0.0928614 -0.0351625 0.203783 186 225 192
-0.0894679 -0.0342715 0.198619 186 225 193
-0.0878527 -0.0340487 0.197327 186 225 193
-0.0873011 -0.0342377 0.198423 188 226 194
-0.0858029 -0.0340556 0.197367 186 225 192
-0.0856907 -0.0344258 0.199513 185 225 192
-0.0846582 -0.0344309 0.199542 186 226 193
-0.0831534 -0.0342416 0.198445 186 226 193
-0.0811893 -0.033856 0.196211 186 226 193
-0.0829555 -0.035036 0.20305 186 226 193
-0.081144 -0.034716 0.201195 186 226 193
-0.0805252 -0.0349046 0.202288 186 226 193
-0.0770592 -0.0338476 0.196162 187 227 194
-0.0781498 -0.0347905 0.201627 185 226 192
-0.0758499 -0.0342291 0.198373 185 226 192
-0.0737363 -0.0337375 0.195524 183 225 191
-0.0725399 -0.0336576 0.195061 183 225 191
-0.0738325 -0.0347467 0.201373 185 226 193
-0.0709108 -0.0338553 0.196207 184 226 193
-0.0693955 -0.0336191 0.194838 184 225 193
-0.0703032 -0.0345672 0.200333 185 226 193
-0.068302 -0.0340921 0.197579 182 225 192
-0.0660001 -0.0334499 0.193858 181 225 191
-0.0657406 -0.033839 0.196112 183 225 192
-0.0645702 -0.0337641 0.195678 181 224 191
-0.063512 -0.0337465 0.195576 178 223 189
-0.0630802 -0.0340664 0.197431 181 225 191
-0.0629313 -0.0345525 0.200247 180 222 187
-0.0587818 -0.0328212 0.190214 146 204 159
-0.0603367 -0.0342703 0.198612 143 204 166
-0.0598695 -0.0346015 0.200531 187 226 204
-0.0583457 -0.034323 0.198917 171 219 191
-0.0567817 -0.0340102 0.197105 175 220 194
-0.0550109 -0.0335598 0.194494 158 210 179
-0.0548209 -0.0340749 0.197479 171 213 185
-0.0538191 -0.0340955 0.197599 142 199 161
-0.0531744 -0.0343476 0.19906 160 210 183
-0.0501983 -0.0330737 0.191677 174 219 202
-0.0491943 -0.0330737 0.191677 177 223 203
-0.0491351 -0.0337221 0.195435 155 212 186
-0.0472618 -0.0331266 0.191983 171 217 194
-0.0480768 -0.0344304 0.19954 164 214 186
-0.0457899 -0.0335213 0.194271 158 211 178
-0.0443125 -0.033177 0.192276 174 218 192
-0.0441843 -0.0338504 0.196178 168 216 188
-0.0440309 -0.034536 0.200152 176 219 197
-0.0415023 -0.0333467 0.193259 161 215 191
-0.0410746 -0.0338281 0.196049 160 215 189
-0.0393361 -0.033227 0.192565 166 215 188
-0.0383275 -0.033227 0.192565 162 209 180
-0.0375012 -0.0333893 0.193506 159 211 185
-0.0360087 -0.032951 0.190966 181 221 201
-0.0357245 -0.033625 0.194872 146 207 169
-0.034293 -0.033227 0.192565 147 210 172
-0.0333137 -0.0332562 0.192735 186 228 205
-0.0318693 -0.0328086 0.19014 151 206 179
-0.0313827 -0.0333497 0.193277 153 193 162
-0.0305616 -0.0335598 0.194494 132 170 138
-0.0286079 -0.0324977 0.188339 119 153 124
-0.0269977 -0.0317639 0.184086 93 113 102
-0.0273576 -0.0333794 0.193449 80 97 86
-0.0256137 -0.0324536 0.188083 78 88 81
-0.0248697 -0.0327714 0.189925 77 81 81
-0.0236802 -0.0325041 0.188376 74 80 80
-0.0224008 -0.0320848 0.185946 72 69 74
-0.0219442 -0.0328595 0.190436 72 66 72
-0.0204378 -0.0320612 0.185809 72 64 71
-0.0193274 -0.0318351 0.184499 70 61 69
-0.0183361 -0.0317919 0.184248 65 53 63
-0.0177955 -0.0325689 0.188751 63 50 62
-0.0168069 -0.0325689 0.188751 64 52 63
-0.0158092 -0.0325503 0.188644 63 50 61
-0.0141946 -0.0311742 0.180669 62 49 61
-0.013606 -0.032016 0.185547 61 47 60
-0.0126516 -0.0320602 0.185803 61 46 60
-0.011535 -0.0316666 0.183523 61 46 59
-0.0105763 -0.031674 0.183565 61 45 57
-0.00967968 -0.0318878 0.184804 60 44 58
-0.00875254 -0.0320373 0.185671 59 42 57
-0.00773909 -0.0318686 0.184693 60 43 58
-0.00700211 -0.032953 0.190978 59 44 59
-0.00592761 -0.0325456 0.188617 61 47 62
-0.0049133 -0.0323718 0.187609 61 48 62
-0.0038476 -0.031688 0.183646 64 52 65
-0.00289126 -0.031749 0.184 66 54 67
-0.00196599 -0.0323828 0.187673 66 56 70
-0.000968126 -0.031893 0.184835 65 55 68
0 -0.0322407 0.18685 67 59 71
0.00095126 -0.0313374 0.181615 66 58 71
0.00192103 -0.0316423 0.183382 65 59 72
0.00283333 -0.0311128 0.180313 66 60 72
0.00371552 -0.0306001 0.177342 67 61 73
0.00490656 -0.0323274 0.187352 65 60 73
0.00568098 -0.0311915 0.180769 66 61 74
0.00663662 -0.0312329 0.181009 67 63 75
0.00759901 -0.0312918 0.18135 65 62 74
0.0088351 -0.0323395 0.187422 67 63 76
0.00943756 -0.0310902 0.180182 68 65 78
0.0105358 -0.0315527 0.182862 67 64 77
0.0119724 -0.0328673 0.190481 69 66 78
0.0129332 -0.0327738 0.189939 68 66 78
0.0133071 -0.0313125 0.18147 68 66 78
0.0144923 -0.0318281 0.184458 67 66 78
0.0157226 -0.0323718 0.187609 67 65 77
0.0162971 -0.0315809 0.183026 69 69 80
0.0170813 -0.0312617 0.181176 69 68 80
0.0181653 -0.0314958 0.182532 68 67 80
0.0198189 -0.0326448 0.189191 70 69 82
0.0210483 -0.0330188 0.191359 69 70 82
0.0209586 -0.0313837 0.181883 69 70 82
0.0232484 -0.0332989 0.192982 69 70 82
0.0240763 -0.0330478 0.191527 70 70 82
0.0244342 -0.0321975 0.186599 69 69 82
0.0251578 -0.031876 0.184736 66 67 80
0.0276906 -0.0337857 0.195803 68 69 82
0.0269912 -0.0317562 0.184041 68 70 84
0.029732 -0.0337745 0.195739 69 71 85
0.0302164 -0.0331807 0.192297 71 73 87
0.0292298 -0.0310619 0.180018 71 73 87
0.0308605 -0.03177 0.184122 70 72 87
0.0322762 -0.0322205 0.186732 68 70 85
0.0341533 -0.0330916 0.191781 68 72 86
0.0335974 -0.0316229 0.183269 68 72 85
0.0369004 -0.033767 0.195695 71 74 87
0.0375005 -0.0333887 0.193503 71 73 88
0.0366499 -0.0317727 0.184137 70 71 88
0.0385916 -0.0325981 0.188921 70 72 90
0.0404617 -0.0333233 0.193124 71 74 90
0.0411885 -0.0330946 0.191798 69 74 87
0.0424185 -0.0332713 0.192822 70 74 89
0.0428582 -0.0328344 0.19029 72 78 92
0.0444873 -0.0333079 0.193034 76 82 96
0.0451677 -0.0330658 0.191632 75 79 93
0.0470966 -0.0337284 0.195471 75 77 94
0.0461127 -0.0323211 0.187316 76 78 96
0.0480547 -0.0329806 0.191138 77 83 94
0.0510438 -0.0343171 0.198883 74 83 92
0.0509974 -0.0336002 0.194729 73 82 91
0.0532685 -0.0344084 0.199412 76 84 95
0.0553028 -0.0350354 0.203046 80 83 97
0.0529063 -0.0328848 0.190582 84 87 103
0.0562523 -0.0343171 0.198883 82 91 99
0.0545855 -0.0326948 0.189481 83 91 99
0.0578518 -0.0340324 0.197233 84 87 100
0.0618399 -0.0357403 0.207131 80 80 95
0.0582162 -0.0330658 0.191632 77 76 94
0.0592014 -0.0330555 0.191572 78 77 91
0.0601521 -0.0330266 0.191404 74 75 85
0.06259 -0.0338017 0.195896 76 73 83
0.0622796 -0.0330916 0.191781 78 76 81
0.0634157 -0.0331605 0.19218 77 76 80
0.0650788 -0.0334984 0.194138 82 81 89
0.0643767 -0.0326272 0.189089 81 81 90
0.0651989 -0.0325432 0.188603 82 85 92
0.0676958 -0.0332852 0.192903 85 88 95
0.0695669 -0.0337022 0.195319 86 93 95
0.0680326 -0.0324812 0.188243 89 99 96
0.0700433 -0.0329635 0.191038 90 99 101
0.0706361 -0.0327742 0.189942 98 104 106
0.0710416 -0.0325045 0.188379 98 104 107
0.0705612 -0.0318425 0.184542 96 103 108
0.073232 -0.0326012 0.188939 94 102 109
0.0729324 -0.0320349 0.185657 97 109 116
0.0753517 -0.032662 0.189291 94 108 115
0.0762466 -0.0326207 0.189052 99 116 119
0.0770813 -0.0325551 0.188671 96 116 118
0.0793874 -0.0331046 0.191856 102 116 118
0.0774475 -0.031892 0.184828 106 119 116
0.0779455 -0.0317008 0.18372 105 123 117
0.0799527 -0.0321206 0.186153 111 131 121
0.0807524 -0.032051 0.18575 114 134 126
0.0817692 -0.0320682 0.18585 114 134 132
0.0817946 -0.0317008 0.18372 116 140 135
0.0806683 -0.0309007 0.179084 121 144 137
0.0824066 -0.0312037 0.18084 118 140 134
0.085236 -0.0319084 0.184923 119 143 137
0.0840404 -0.0311073 0.180281 121 149 137
0.0847799 -0.0310323 0.179847 128 154 141
0.0863008 -0.0312419 0.181061 137 160 144
0.0865331 -0.0309855 0.179575 143 165 147
0.0903317 -0.0319979 0.185442 150 176 155
0.0895996 -0.0314009 0.181982 152 185 160
0.0884585 -0.0306747 0.177774 159 189 166
0.0899195 -0.0308565 0.178827 165 190 167
0.0892388 -0.0303072 0.175644 160 185 158
0.0916549 -0.0308101 0.178559 153 185 155
0.0938268 -0.0312216 0.180944 154 193 164
0.0955189 -0.0314668 0.182365 161 198 165
0.0942309 -0.0307352 0.178124 173 204 175
0.0946546 -0.0305707 0.177171 173 201 177
0.0950528 -0.0304013 0.176189 171 200 178
0.0939957 -0.0297741 0.172554 174 201 179
0.0982653 -0.0308301 0.178674 177 205 177
0.0978061 -0.0303965 0.176162 187 211 183
0.0996752 -0.0306879 0.17785 197 220 186
0.101097 -0.0308375 0.178718 209 231 202
0.102561 -0.0309969 0.179641 209 232 205
0.100871 -0.0302092 0.175076 205 229 203
0.104369 -0.030975 0.179514 202 226 199
0.102081 -0.0300255 0.174011 199 226 193
0.106466 -0.0310381 0.17988 200 226 197
0.108737 -0.0314222 0.182106 210 231 209
0.108716 -0.031143 0.180488 208 229 199
0.109887 -0.0312069 0.180858 211 233 207
0.105864 -0.0298076 0.172749 211 233 206
0.106282 -0.0296716 0.17196 216 235 210
0.105463 -0.0291956 0.169202 214 234 209
-0.138085 -0.0367591 0.219693 118 159 154
-0.131985 -0.0354304 0.211752 123 170 166
-0.134547 -0.0364243 0.217692 127 174 170
-0.129868 -0.0354581 0.211917 127 176 169
-0.13428 -0.0369789 0.221006 128 176 169
-0.129263 -0.0359067 0.214599 135 180 173
-0.127905 -0.0358411 0.214207 136 186 175
-0.123172 -0.0348203 0.208106 133 186 174
-0.123868 -0.0353299 0.211151 137 185 175
-0.120409 -0.0346526 0.207104 136 184 177
-0.124376 -0.0361196 0.215871 135 185 178
-0.123319 -0.0361412 0.216 142 188 180
-0.116255 -0.0343864 0.205512 144 187 179
-0.119674 -0.0357287 0.213535 147 190 180
-0.115575 -0.0348304 0.208166 146 193 177
-0.116634 -0.0354843 0.212074 150 198 177
-0.110194 -0.0338474 0.202291 151 197 178
-0.111158 -0.0344748 0.206041 155 192 180
-0.106313 -0.0332955 0.198992 149 196 184
-0.111263 -0.0351909 0.210321 158 204 186
-0.109202 -0.0348843 0.208488 171 212 193
-0.104396 -0.033686 0.201327 174 214 193
-0.103182 -0.0336339 0.201015 177 216 190
-0.101515 -0.0334315 0.199806 173 218 189
-0.0977051 -0.0325122 0.194311 183 224 198
-0.0966261 -0.0324916 0.194188 184 225 195
-0.0964186 -0.0327667 0.195832 186 226 195
-0.0954485 -0.0327858 0.195947 184 225 194
-0.0943464 -0.0327595 0.195789 185 225 196
-0.0936246 -0.0328661 0.196426 187 225 195
-0.0947827 -0.0336424 0.201066 184 224 191
-0.0932282 -0.0334624 0.19999 186 225 193
-0.0929349 -0.0337362 0.201627 187 225 194
-0.0915601 -0.0336192 0.200927 185 224 193
-0.08959 -0.0332783 0.19889 185 224 193
-0.0889023 -0.0334113 0.199685 185 225 192
-0.0892168 -0.0339287 0.202777 186 225 193
-0.087113 -0.0335278 0.200381 185 225 192
-0.0844324 -0.0328924 0.196583 185 225 192
-0.0837915 -0.0330457 0.1975 185 225 192
-0.0825623 -0.0329679 0.197035 184 225 191
-0.080011 -0.0323536 0.193363 186 226 193
-0.0823741 -0.0337362 0.201627 187 226 193
-0.0808566 -0.0335448 0.200482 185 226 192
-0.0792319 -0.0333032 0.199039 186 226 194
-0.0783639 -0.0333776 0.199483 185 226 193
-0.0768265 -0.033165 0.198212 185 226 193
-0.0771463 -0.0337592 0.201764 184 225 193
-0.0745551 -0.0330784 0.197695 185 226 194
-0.0754255 -0.0339359 0.20282 185 226 193
-0.0736238 -0.0335985 0.200804 185 226 193
-0.0719921 -0.03333 0.199199 185 226 194
-0.0693565 -0.032582 0.194729 182 225 191
-0.0693438 -0.0330623 0.197599 183 225 193
-0.0671027 -0.0324785 0.19411 183 225 193
-0.0656901 -0.032284 0.192947 183 225 192
-0.0660129 -0.0329495 0.196925 180 223 190
-0.0647728 -0.0328437 0.196292 180 223 189
-0.0612348 -0.0315505 0.188564 179 224 190
-0.0618153 -0.0323718 0.193472 180 224 192
-0.0610382 -0.0324975 0.194223 156 210 168
-0.0609018 -0.0329745 0.197074 138 199 150
-0.0583801 -0.0321541 0.192171 177 222 194
-0.0580421 -0.0325288 0.19441 175 221 195
-0.0579519 -0.0330582 0.197574 153 211 179
-0.0563206 -0.0327118 0.195504 155 211 179
-0.0529565 -0.0313275 0.187231 155 210 178
-0.0551841 -0.0332612 0.198788 178 219 195
-0.0529764 -0.0325446 0.194505 143 198 163
-0.0525049 -0.0328874 0.196553 153 203 172
-0.0513599 -0.0328136 0.196112 170 214 193
-0.0510844 -0.0333037 0.199041 178 223 202
-0.0497046 -0.0330792 0.1977 156 213 186
-0.0473865 -0.0322075 0.19249 167 214 189
-0.0467995 -0.0325 0.194238 171 216 190
-0.045833 -0.0325361 0.194454 162 213 183
-0.0438181 -0.0318127 0.190131 160 212 181
-0.0434658 -0.0322908 0.192988 160 211 179
-0.0426138 -0.0324116 0.19371 165 212 181
-0.0406407 -0.0316648 0.189247 170 217 195
-0.0413396 -0.0330146 0.197314 151 212 185
-0.0401532 -0.0328894 0.196565 159 215 188
-0.0376309 -0.0316345 0.189066 154 210 178
-0.0368276 -0.0317959 0.19003 160 212 182
-0.0360664 -0.0320037 0.191272 150 209 177
-0.034015 -0.0310458 0.185547 164 217 185
-0.0334263 -0.0314058 0.187699 161 216 185
-0.0327609 -0.0317133 0.189536 179 225 201
-0.0322914 -0.0322357 0.192658 151 207 177
-0.0312549 -0.0322075 0.19249 159 206 175
-0.0295821 -0.0314997 0.18826 153 193 159
-0.0293141 -0.0322908 0.192988 140 183 149
-0.0270379 -0.0308472 0.18436 115 156 128
-0.0269726 -0.0319123 0.190726 94 122 105
-0.0259583 -0.0318935 0.190614 84 97 87
-0.0245866 -0.0314165 0.187763 78 89 84
-0.0241139 -0.0320963 0.191826 70 86 80
-0.0229486 -0.0318734 0.190493 71 73 77
-0.0218867 -0.0317803 0.189937 71 65 71
-0.0202496 -0.0308033 0.184098 72 64 71
-0.0202466 -0.0323386 0.193274 72 63 70
-0.018801 -0.0316102 0.188921 70 60 68
-0.0180191 -0.0319788 0.191123 64 53 63
-0.0163952 -0.0308083 0.184127 62 50 61
-0.01542 -0.0307869 0.184 63 50 61
-0.0151726 -0.0323124 0.193117 61 47 61
-0.013606 -0.0310458 0.185547 63 49 62
-0.0126665 -0.0311252 0.186022 62 48 60
-0.0120335 -0.0320339 0.191452 63 49 61
-0.0106048 -0.030797 0.18406 61 46 59
-0.00972454 -0.0310648 0.185661 60 42 57
-0.00870402 -0.0308942 0.184641 60 43 59
-0.00755269 -0.0301586 0.180245 60 46 60
-0.00662069 -0.0302138 0.180575 61 48 62
-0.00579207 -0.0308378 0.184304 62 50 63
-0.00487101 -0.0311207 0.185995 64 53 66
-0.00384293 -0.0306904 0.183423 64 54 67
-0.00283099 -0.0301451 0.180164 66 55 68
-0.00190084 -0.030361 0.181454 68 59 71
-0.000978833 -0.0312686 0.186879 66 58 70
0 -0.030361 0.181454 68 60 72
0.000976527 -0.0311949 0.186438 67 59 72
0.00192366 -0.0307254 0.183632 67 61 73
0.00280664 -0.0298858 0.178614 67 60 73
0.00384989 -0.030746 0.183755 66 60 72
0.00476062 -0.0304154 0.18178 64 59 71
0.00591681 -0.0315019 0.188273 64 59 71
0.00658748 -0.0300622 0.179669 67 63 75
0.00765731 -0.0305764 0.182742 65 62 74
0.00871095 -0.0309188 0.184788 64 61 74
0.00959882 -0.0306632 0.183261 66 63 76
0.0108719 -0.0315728 0.188697 68 66 78
0.0114015 -0.0303516 0.181398 68 65 78
0.0123207 -0.0302755 0.180944 68 65 78
0.0132584 -0.0302527 0.180807 68 66 78
0.0144045 -0.0306766 0.183341 68 65 78
0.015234 -0.0304154 0.18178 67 65 77
0.016362 -0.030746 0.183755 67 66 78
0.0177143 -0.0314378 0.18789 67 66 78
0.0181882 -0.0305798 0.182762 67 67 79
0.0191184 -0.0305367 0.182504 68 68 81
0.0203594 -0.0309703 0.185096 69 69 81
0.0207797 -0.0301729 0.18033 68 68 80
0.0226644 -0.0314787 0.188135 68 69 81
0.0235786 -0.0313838 0.187567 69 68 81
0.0245328 -0.0313478 0.187352 68 68 81
0.0255141 -0.0313478 0.187352 67 67 79
0.0263959 -0.0312301 0.186649 67 67 80
0.0273195 -0.0311684 0.18628 68 68 82
0.0286184 -0.0315244 0.188407 69 70 84
0.0296484 -0.0315704 0.188683 70 71 85
0.0303716 -0.0312973 0.18705 70 70 85
0.0312921 -0.0312381 0.186697 69 70 84
0.0324601 -0.0314221 0.187796 68 70 84
0.0341642 -0.0320991 0.191842 71 73 86
0.0348931 -0.0318472 0.190337 68 69 83
0.0356756 -0.0316569 0.1892 70 71 85
0.0371537 -0.0320775 0.191713 72 73 87
0.0374235 -0.0314602 0.188024 68 68 85
0.0382463 -0.0313275 0.187231 67 67 86
0.0394704 -0.0315219 0.188392 73 75 89
0.0395069 -0.0307815 0.183967 74 76 90
0.0423984 -0.0322478 0.192731 71 73 88
0.0425196 -0.0315879 0.188787 69 72 87
0.0443523 -0.0322006 0.192449 72 77 91
0.0459164 -0.0325953 0.194808 74 78 92
0.0478867 -0.033255 0.198751 76 77 93
0.0482954 -0.0328253 0.196182 76 78 95
0.0490594 -0.0326498 0.195134 74 78 88
0.0490835 -0.0319992 0.191245 71 79 88
0.0509329 -0.0325408 0.194482 75 83 92
0.0523294 -0.0327775 0.195896 76 81 92
0.0529471 -0.0325266 0.194397 73 75 90
0.054854 -0.0330623 0.197599 77 80 95
0.0542306 -0.0320812 0.191735 77 84 93
0.0557174 -0.0323614 0.19341 77 84 90
0.0569689 -0.0324975 0.194223 75 79 88
0.0572435 -0.0320812 0.191735 74 73 87
0.058728 -0.0323457 0.193316 77 73 89
0.0607974 -0.032918 0.196736 69 65 77
0.0599676 -0.0319275 0.190817 75 71 80
0.0624096 -0.0326829 0.195332 73 69 78
0.0631437 -0.032534 0.194442 74 70 77
0.064119 -0.0325122 0.194311 73 70 79
0.0638658 -0.0318778 0.19052 76 74 83
0.0649273 -0.0319091 0.190706 80 78 87
0.0652037 -0.0315594 0.188617 81 83 90
0.0688411 -0.0328226 0.196166 84 86 95
0.0704728 -0.0331064 0.197863 83 88 91
0.0670174 -0.0310269 0.185434 85 93 89
0.0704661 -0.0321575 0.192191 92 100 96
0.0701392 -0.0315575 0.188605 90 97 95
0.0703741 -0.0312234 0.186609 98 105 103
0.0727523 -0.0318364 0.190272 91 98 95
0.0738742 -0.0318905 0.190595 91 98 101
0.0740268 -0.0315303 0.188443 87 97 105
0.0748356 -0.0314554 0.187995 93 105 110
0.0765152 -0.0317437 0.189718 94 111 111
0.0747377 -0.0306087 0.182935 93 110 112
0.0745372 -0.0301402 0.180135 95 108 112
0.0759443 -0.0303253 0.181241 97 109 109
0.0785157 -0.030965 0.185064 107 121 116
0.079651 -0.0310297 0.185451 106 121 115
0.0797849 -0.0307074 0.183525 107 121 118
0.0803495 -0.0305565 0.182623 114 127 125
0.079806 -0.0299928 0.179254 114 125 123
0.0826535 -0.0307017 0.183491 119 130 126
0.0850451 -0.031227 0.18663 120 131 127
0.083695 -0.030382 0.18158 119 135 130
0.0861235 -0.0309123 0.18475 117 139 131
0.0859818 -0.0305186 0.182396 116 138 128
0.086094 -0.0302226 0.180627 125 148 132
0.0874072 -0.03035 0.181389 142 154 139
0.0889091 -0.0305396 0.182522 145 166 143
0.090604 -0.0307907 0.184022 144 176 151
0.0886686 -0.0298158 0.178196 150 179 158
0.0929848 -0.0309414 0.184923 148 174 154
0.0900146 -0.0296443 0.177171 148 175 150
0.0928059 -0.0302517 0.180801 143 177 148
0.0938454 -0.0302815 0.180979 147 185 156
0.0944184 -0.0301618 0.180264 154 192 166
0.0921738 -0.0291532 0.174236 153 191 165
0.0938064 -0.0293787 0.175583 156 191 168
0.0952381 -0.0295375 0.176533 167 192 175
0.0936192 -0.0287562 0.171863 167 191 172
0.0978839 -0.0297798 0.177981 175 199 176
0.097534 -0.0293934 0.175672 182 205 177
0.100038 -0.0298662 0.178497 195 218 193
0.0995522 -0.0294461 0.175986 196 221 193
0.100464 -0.0294432 0.175969 200 224 199
0.104922 -0.03047 0.182106 193 219 191
0.103215 -0.0297044 0.17753 183 212 186
0.106428 -0.0303557 0.181423 184 214 185
0.105199 -0.0297396 0.17774 190 218 192
0.103131 -0.028899 0.172717 193 219 196
0.105746 -0.0293742 0.175557 196 220 198
0.105416 -0.0290301 0.1735 195 219 193
0.107637 -0.0293883 0.175641 192 218 189
0.106447 -0.0288171 0.172227 199 223 192
0.110137 -0.0295657 0.176701 206 226 200
-0.146706 -0.0378336 0.233409 122 159 150
-0.145503 -0.0378388 0.233441 119 160 156
-0.139136 -0.0364895 0.225117 118 161 158
-0.141011 -0.0372973 0.2301 125 171 164
-0.13382 -0.0357006 0.22025 127 171 164
-0.127079 -0.034197 0.210974 132 170 165
-0.131493 -0.0356952 0.220216 132 174 163
-0.128323 -0.0351428 0.216808 136 181 169
-0.124277 -0.0343387 0.211848 139 180 171
-0.12154 -0.033885 0.209049 136 180 174
-0.121312 -0.0341289 0.210553 134 180 174
-0.119696 -0.0339834 0.209656 141 184 178
-0.121179 -0.0347228 0.214217 143 185 176
-0.119486 -0.0345577 0.213199 144 185 174
-0.1197 -0.0349463 0.215596 145 189 174
-0.118431 -0.0349051 0.215342 141 189 175
-0.117798 -0.0350524 0.216251 142 189 177
-0.112323 -0.0337476 0.208201 152 188 180
-0.107078 -0.0324872 0.200425 147 194 183
-0.110263 -0.0337846 0.208429 144 196 179
-0.11112 -0.0343877 0.21215 152 201 183
-0.102071 -0.0319064 0.196842 161 206 187
-0.104357 -0.0329538 0.203304 166 208 188
-0.10309 -0.0328894 0.202907 162 208 186
-0.102766 -0.0331276 0.204376 161 211 187
-0.100601 -0.0327711 0.202176 173 218 193
-0.0991603 -0.0326454 0.201401 177 221 192
-0.0973545 -0.0323955 0.199859 179 222 195
-0.0948457 -0.0319037 0.196825 180 223 196
-0.0948476 -0.032255 0.198992 182 223 197
-0.091881 -0.0315933 0.19491 182 223 195
-0.0937399 -0.0325947 0.201088 183 223 192
-0.0939036 -0.0330226 0.203728 184 221 189
-0.0903629 -0.0321427 0.1983 188 223 194
-0.0895451 -0.0322222 0.19879 186 224 194
-0.0891574 -0.0324601 0.200258 182 223 190
-0.0899676 -0.033145 0.204484 182 223 189
-0.0846071 -0.0315457 0.194617 185 224 191
-0.0841676 -0.0317645 0.195967 186 225 193
-0.083885 -0.0320487 0.19772 185 225 193
-0.0824879 -0.0319089 0.196857 186 226 193
-0.0831133 -0.0325578 0.200861 186 226 193
-0.0814611 -0.0323197 0.199392 185 226 193
-0.0811523 -0.0326153 0.201216 185 226 193
-0.0795695 -0.0324 0.199887 185 226 193
-0.07841 -0.0323535 0.1996 184 225 192
-0.0781902 -0.0326988 0.201731 185 226 193
-0.0763827 -0.0323805 0.199767 184 225 193
-0.0761137 -0.0327147 0.201828 183 225 192
-0.0739819 -0.0322462 0.198938 184 225 193
-0.0713022 -0.0315222 0.194472 184 225 193
-0.0712563 -0.0319584 0.197163 181 224 191
-0.069393 -0.0315804 0.194831 181 224 191
-0.0692729 -0.0319963 0.197397 185 226 194
-0.0684907 -0.0321144 0.198125 184 226 193
-0.0659155 -0.0313824 0.193609 181 224 191
-0.0636522 -0.0307783 0.189882 178 223 189
-0.0631933 -0.0310414 0.191506 180 222 190
-0.0636152 -0.0317527 0.195894 181 224 192
-0.0625307 -0.0317231 0.195711 183 225 196
-0.0626678 -0.0323225 0.199409 149 207 167
-0.0593674 -0.0311392 0.192109 150 204 163
-0.0593987 -0.0316928 0.195524 190 228 207
-0.0577145 -0.0313344 0.193313 177 223 201
-0.0565146 -0.0312309 0.192675 171 220 196
-0.0566417 -0.0318702 0.196619 147 207 173
-0.0557944 -0.0319749 0.197264 160 213 183
-0.0528085 -0.0308347 0.19023 166 214 188
-0.0519981 -0.0309454 0.190913 185 223 202
-0.0516373 -0.0313332 0.193306 161 212 184
-0.0505808 -0.031306 0.193138 155 207 180
-0.0502458 -0.0317333 0.195774 197 232 215
-0.047849 -0.0308492 0.19032 166 217 193
-0.0477145 -0.031417 0.193822 179 220 197
-0.0456497 -0.0307109 0.189466 179 219 197
-0.0466659 -0.0320921 0.197988 161 212 185
-0.0447168 -0.0314506 0.19403 169 217 189
-0.0439856 -0.0316558 0.195296 175 219 190
-0.0419642 -0.0309202 0.190757 162 211 177
-0.0403473 -0.0304539 0.187881 182 220 199
-0.0416987 -0.0322607 0.199028 162 217 192
-0.0399012 -0.0316616 0.195332 162 217 190
-0.0372482 -0.0303343 0.187143 163 214 184
-0.0367266 -0.0307178 0.189509 161 212 181
-0.0346424 -0.0297795 0.18372 138 203 166
-0.0349017 -0.0308596 0.190384 153 210 181
-0.0342872 -0.0312079 0.192532 155 212 181
-0.0332902 -0.0312187 0.192599 177 224 199
-0.03267 -0.0315944 0.194917 152 214 184
-0.0310852 -0.0310316 0.191445 173 224 201
-0.0302627 -0.0312175 0.192592 142 207 176
-0.0290797 -0.0310316 0.191445 144 198 164
-0.0275145 -0.0304099 0.187609 140 190 160
-0.027343 -0.0313397 0.193346 117 158 135
