ply
format ascii 1.0
element vertex 1222
property float x
property float y
property float z
property uchar red
property uchar green
property uchar blue
end_header
0.0825448 -0.0403604 0.160811 63 52 61
0.081232 -0.0393173 0.156655 63 51 60
0.0811941 -0.0389059 0.155016 64 53 61
0.0843917 -0.0400377 0.159525 63 53 61
0.0847376 -0.0398077 0.158609 64 53 61
0.0857108 -0.039874 0.158873 64 53 61
0.0825274 -0.0380238 0.151501 63 53 61
0.0828487 -0.0378084 0.150643 63 53 61
0.0880264 -0.0397922 0.158547 64 54 62
0.0907912 -0.0406585 0.161999 65 55 63
0.0897289 -0.0398107 0.158621 64 54 62
0.0902691 -0.0396829 0.158112 65 55 63
0.0943177 -0.0410858 0.163701 64 54 62
0.096281 -0.0415632 0.165603 65 55 63
0.0970564 -0.0415238 0.165446 66 56 64
0.0937131 -0.0397387 0.158334 65 56 63
0.0924024 -0.0388391 0.15475 65 56 63
0.0985967 -0.0410824 0.163688 66 56 63
0.0982354 -0.040579 0.161682 64 55 62
0.097357 -0.0398724 0.158867 65 56 62
0.101818 -0.0413462 0.164739 64 55 62
0.0956906 -0.0385313 0.153523 63 55 62
-0.383168 -0.149815 0.60962 184 211 179
-0.400325 -0.157839 0.64227 176 209 174
-0.403361 -0.160384 0.652625 166 203 163
-0.389924 -0.156366 0.636275 164 194 156
-0.389209 -0.157425 0.640584 158 182 144
-0.376868 -0.153758 0.625666 145 169 134
-0.367605 -0.151295 0.615641 127 148 111
-0.376593 -0.156366 0.636275 118 124 98
-0.384807 -0.161203 0.655958 104 102 88
-0.336725 -0.142331 0.579167 96 94 85
-0.360482 -0.153758 0.625666 91 91 78
-0.330658 -0.142331 0.579167 82 85 73
-0.339977 -0.147697 0.601003 80 82 73
-0.307614 -0.134887 0.548874 76 78 71
-0.322348 -0.142681 0.580591 82 76 71
-0.306726 -0.13706 0.557716 78 72 69
-0.297094 -0.134032 0.545396 77 70 68
-0.281191 -0.128089 0.521213 77 70 68
-0.294944 -0.135671 0.552066 70 67 64
-0.253648 -0.117831 0.479471 71 68 62
-0.251788 -0.118136 0.480714 75 65 62
-0.235391 -0.111559 0.453949 72 60 60
-0.215449 -0.103149 0.41973 72 61 61
-0.202035 -0.0977244 0.397655 70 57 58
-0.180061 -0.088003 0.358097 69 55 56
-0.139886 -0.0690873 0.281126 66 52 54
-0.130612 -0.0651932 0.265281 68 54 56
-0.110385 -0.0556897 0.22661 67 52 52
-0.110747 -0.0564794 0.229823 65 50 51
-0.100341 -0.0517348 0.210517 63 46 48
-0.0909923 -0.0474362 0.193025 64 48 50
-0.0845292 -0.044562 0.181329 64 47 49
-0.0866482 -0.0461981 0.187987 61 42 46
-0.0828227 -0.0446661 0.181753 61 41 46
-0.0815518 -0.0444921 0.181045 60 40 45
-0.0799627 -0.0441384 0.179606 60 39 45
-0.0790524 -0.0441554 0.179675 60 40 48
-0.0792443 -0.0447958 0.182281 61 45 50
-0.0780092 -0.0446354 0.181628 64 49 53
-0.0740342 -0.042884 0.174501 61 44 50
-0.0740312 -0.0434183 0.176675 64 48 52
-0.0711994 -0.0422861 0.172068 64 48 53
-0.0706561 -0.0425014 0.172944 61 44 51
-0.0703453 -0.042864 0.17442 61 44 51
-0.0683146 -0.0421743 0.171613 61 43 51
-0.0688577 -0.0430764 0.175284 64 48 55
-0.0670219 -0.0424945 0.172916 63 48 54
-0.0658133 -0.0422998 0.172124 62 47 54
-0.0660398 -0.0430349 0.175116 62 46 54
-0.0650546 -0.04299 0.174933 62 46 55
-0.062896 -0.0421573 0.171544 62 46 55
-0.0625108 -0.0425063 0.172965 62 47 56
-0.0600779 -0.0414528 0.168678 61 47 56
-0.0622132 -0.0435668 0.17728 61 46 56
-0.0597725 -0.0424919 0.172906 61 47 56
-0.0588961 -0.0425129 0.172991 60 46 56
-0.0588783 -0.0431641 0.175641 61 48 57
-0.0576029 -0.0428994 0.174564 62 49 59
-0.056828 -0.0430049 0.174993 62 50 60
-0.0564004 -0.0433811 0.176524 62 50 59
-0.0555422 -0.043433 0.176735 61 49 58
-0.0541027 -0.0430244 0.175073 61 49 59
-0.053083 -0.0429413 0.174734 62 50 60
-0.0527639 -0.043432 0.176731 61 50 59
-0.0510692 -0.0427877 0.174109 62 50 59
-0.0511342 -0.0436211 0.177501 62 49 59
-0.0480014 -0.0417069 0.169711 61 49 59
-0.0480611 -0.0425467 0.173129 61 49 59
-0.0471785 -0.0425685 0.173218 60 48 58
-0.046353 -0.0426438 0.173524 60 47 57
-0.0454614 -0.04266 0.17359 59 47 57
-0.0437474 -0.0418894 0.170454 60 47 57
-0.0429672 -0.0419995 0.170902 61 48 57
-0.0425608 -0.0424874 0.172888 61 48 57
-0.0411004 -0.0419214 0.170585 61 48 57
-0.0392238 -0.0408964 0.166414 61 48 56
-0.039136 -0.0417322 0.169814 60 45 54
-0.0387713 -0.0423048 0.172144 59 42 53
-0.0380467 -0.0425026 0.172949 59 42 53
-0.0364137 -0.0416705 0.169564 58 41 53
-0.0356052 -0.041764 0.169944 60 45 55
-0.0341738 -0.0411128 0.167294 59 43 53
-0.034309 -0.0423616 0.172376 58 39 50
-0.0332041 -0.0421055 0.171333 58 37 49
-0.0312036 -0.0406677 0.165483 57 37 48
-0.031191 -0.0418128 0.170142 57 34 47
-0.0303687 -0.0419079 0.170529 57 32 46
-0.0292978 -0.0416552 0.169501 59 40 50
-0.028156 -0.0412828 0.167986 58 35 48
-0.0273498 -0.0413943 0.168439 60 38 50
-0.0266768 -0.0417216 0.169771 58 34 47
-0.0257466 -0.0416552 0.169501 59 37 48
-0.0246599 -0.041322 0.168145 58 35 47
-0.0243644 -0.0423388 0.172283 56 32 46
-0.0225531 -0.0406987 0.165609 58 32 46
-0.021248 -0.0398773 0.162267 57 30 44
-0.0208372 -0.0407358 0.16576 57 32 45
-0.0199747 -0.0407475 0.165808 56 29 46
-0.0195928 -0.0417851 0.17003 57 33 48
-0.0182645 -0.0408073 0.166051 58 37 50
-0.0173795 -0.0407713 0.165905 60 41 53
-0.0170481 -0.0420989 0.171307 61 45 56
-0.0160815 -0.0419182 0.170571 62 47 57
-0.0149207 -0.0411803 0.167569 63 48 58
-0.0140944 -0.041331 0.168182 62 47 58
-0.0130118 -0.0407 0.165614 63 49 59
-0.0126156 -0.0422794 0.172041 62 48 59
-0.0111985 -0.040417 0.164463 61 47 58
-0.0104277 -0.0407713 0.165905 61 48 59
-0.00951978 -0.0406052 0.165229 62 49 59
-0.00861639 -0.0404272 0.164504 62 49 60
-0.00770814 -0.0401841 0.163515 61 48 58
-0.00678786 -0.0398099 0.161992 61 48 59
-0.00598872 -0.0401406 0.163338 62 48 60
-0.00514138 -0.0402047 0.163599 61 46 59
-0.00432332 -0.0405691 0.165082 61 47 60
-0.00338403 -0.0396937 0.16152 60 47 60
-0.00255647 -0.0399823 0.162694 60 47 60
-0.00171379 -0.0402047 0.163599 62 49 62
-0.000839256 -0.039377 0.160231 61 50 62
0 -0.0404162 0.16446 62 50 62
0.00084007 -0.0394152 0.160386 64 52 64
0.00167119 -0.0392052 0.159532 63 51 63
0.00254308 -0.0397729 0.161842 62 50 63
0.00345521 -0.0405286 0.164917 60 49 62
0.00419931 -0.0394054 0.160346 62 51 64
0.00512279 -0.0400593 0.163007 61 50 63
0.00593006 -0.0397474 0.161738 61 50 63
0.00672361 -0.0394331 0.160459 61 49 63
0.00756501 -0.039438 0.160479 61 50 63
0.00814259 -0.0382041 0.155458 61 49 63
0.00950277 -0.0405327 0.164934 61 49 63
0.0100975 -0.0394804 0.160652 61 49 63
0.0113724 -0.0410447 0.167017 61 49 63
0.0115438 -0.0386873 0.157424 61 48 62
0.0122405 -0.0382874 0.155797 60 47 62
0.0136167 -0.0399302 0.162482 61 48 63
0.0144068 -0.0397619 0.161797 60 47 62
0.0150623 -0.0392615 0.159761 59 48 62
0.0158522 -0.0391457 0.15929 59 46 61
0.0164716 -0.0386415 0.157238 59 46 61
0.017719 -0.0395883 0.161091 59 46 61
0.0187068 -0.0398955 0.162341 57 43 60
0.0192257 -0.0392196 0.15959 59 45 61
0.0198747 -0.0388542 0.158103 59 45 61
0.0210507 -0.039507 0.16076 59 44 60
0.0221819 -0.0400288 0.162883 59 44 60
0.0224836 -0.0390706 0.158984 58 42 60
0.0235578 -0.0394752 0.160631 57 42 59
0.0243762 -0.039438 0.160479 57 40 58
0.0252438 -0.0394804 0.160652 58 43 59
0.0253781 -0.0384101 0.156296 57 41 58
0.0268465 -0.0393628 0.160173 58 42 59
0.0278358 -0.0395766 0.161043 58 41 58
0.0286753 -0.0395709 0.16102 58 43 59
0.029455 -0.0394856 0.160673 58 44 59
0.0298902 -0.038956 0.158518 58 42 58
0.0315525 -0.040011 0.162811 58 42 58
0.0320768 -0.0396055 0.161161 58 41 58
0.0330365 -0.0397445 0.161726 59 43 59
0.0328204 -0.0384974 0.156652 59 43 59
0.0342809 -0.0392298 0.159632 58 42 58
0.0349664 -0.0390615 0.158947 59 44 59
0.0360701 -0.0393574 0.160151 60 44 59
0.0362712 -0.0386774 0.157384 58 40 57
0.0378012 -0.0394131 0.160378 57 39 56
0.0395076 -0.0402968 0.163974 59 42 58
0.04018 -0.0401106 0.163216 59 43 58
0.0413309 -0.0404 0.164394 58 42 57
0.0425256 -0.0407195 0.165694 58 41 57
0.0428468 -0.0402065 0.163606 58 42 57
0.0436582 -0.0401646 0.163436 58 40 56
0.0443246 -0.0399934 0.162739 58 40 56
0.0448815 -0.0397319 0.161675 58 39 55
0.0468176 -0.0406783 0.165526 58 39 55
0.0480604 -0.0409989 0.166831 57 37 54
0.0482421 -0.040419 0.164471 57 37 54
0.0488437 -0.0402051 0.163601 57 37 54
0.0520657 -0.0421184 0.171386 57 38 55
0.0507195 -0.040334 0.164125 57 37 54
0.0522802 -0.0408821 0.166355 57 37 54
0.0538322 -0.0414057 0.168486 57 35 53
0.0538952 -0.0407855 0.165962 57 35 53
0.0551609 -0.0410807 0.167164 57 35 53
0.0548694 -0.0402252 0.163682 56 31 51
0.0571485 -0.0412515 0.167858 55 28 50
0.0577654 -0.041065 0.1671 56 31 50
0.0576623 -0.0403799 0.164312 55 27 48
0.0573251 -0.0395534 0.160949 55 24 47
0.0612591 -0.0416552 0.169501 55 26 47
0.0613866 -0.0411456 0.167428 53 21 43
0.0614566 -0.0406124 0.165258 51 18 39
0.0623686 -0.0406426 0.165381 51 19 40
0.0631932 -0.0406158 0.165272 50 18 39
0.063862 -0.040491 0.164764 52 20 41
0.0652819 -0.0408394 0.166182 52 20 41
0.0627448 -0.0387358 0.157622 53 21 43
0.0646417 -0.0393885 0.160278 52 21 43
0.065868 -0.0396212 0.161224 56 30 48
0.0667124 -0.0396212 0.161224 56 32 50
0.0677071 -0.0397093 0.161583 57 33 50
0.0698422 -0.0404558 0.164621 60 41 54
0.0688881 -0.0394165 0.160392 59 41 54
0.0701943 -0.03968 0.161464 61 45 56
0.0696223 -0.0388881 0.158242 61 46 56
0.0716409 -0.0395449 0.160914 62 48 58
0.0721021 -0.0393367 0.160067 62 49 59
0.0728544 -0.0392902 0.159878 63 49 59
0.0718852 -0.038327 0.155958 63 49 59
0.0714276 -0.0376551 0.153224 62 49 59
0.0761138 -0.0396797 0.161463 62 50 60
0.0758445 -0.0391048 0.159123 62 50 60
0.0747401 -0.0381166 0.155102 63 50 60
0.0758643 -0.0382739 0.155742 63 51 60
0.0766788 -0.0382733 0.15574 62 50 59
0.0769473 -0.038003 0.15464 62 51 60
0.0794178 -0.0388145 0.157942 63 51 60
0.0784427 -0.0379427 0.154395 64 53 62
0.080054 -0.038327 0.155958 64 52 61
0.0826527 -0.0391714 0.159394 63 52 61
0.081083 -0.0380433 0.154804 63 52 61
0.0821348 -0.0381552 0.155259 62 51 60
0.0829457 -0.0381541 0.155255 62 51 60
0.083247 -0.0379209 0.154306 65 54 62
0.0841626 -0.0379694 0.154503 63 52 61
0.0857721 -0.038327 0.155958 63 53 61
0.0885464 -0.0391934 0.159484 63 53 61
0.0879729 -0.0385756 0.15697 63 53 61
0.0911589 -0.0396026 0.161149 64 53 62
0.0904055 -0.0389149 0.158351 62 52 61
0.0897004 -0.0382604 0.155687 63 53 61
0.093375 -0.0394689 0.160605 64 54 61
0.0928105 -0.0388801 0.158209 64 54 62
0.0940168 -0.0390368 0.158847 64 54 61
0.0948896 -0.0390537 0.158915 64 55 62
0.0963068 -0.0392923 0.159886 65 55 62
0.0947578 -0.038327 0.155958 64 55 62
0.0993164 -0.0398275 0.162064 64 55 62
0.0984281 -0.0391368 0.159253 65 56 63
0.0999937 -0.0394252 0.160427 65 57 64
-0.386234 -0.147801 0.614498 181 216 188
-0.400325 -0.154481 0.64227 179 215 182
-0.383474 -0.149232 0.620448 177 211 177
-0.399943 -0.156971 0.652625 173 209 174
-0.396525 -0.156971 0.652625 171 207 173
-0.383258 -0.153039 0.636275 169 191 157
-0.410861 -0.1655 0.688083 166 183 149
-0.36438 -0.148076 0.615641 149 165 129
-0.363975 -0.149232 0.620448 125 143 114
-0.381371 -0.157773 0.655958 114 127 104
-0.369077 -0.154075 0.640584 99 110 83
-0.354513 -0.149353 0.62095 93 102 76
-0.339977 -0.144555 0.601003 87 94 75
-0.339145 -0.145549 0.605137 89 95 82
-0.339342 -0.147008 0.6112 87 85 74
-0.354391 -0.154989 0.644385 83 80 70
-0.326673 -0.144241 0.599696 75 79 73
-0.302052 -0.134664 0.559881 77 83 78
-0.292276 -0.131583 0.547071 71 72 68
-0.301776 -0.137205 0.570447 74 74 63
-0.296262 -0.136045 0.565624 76 68 62
-0.270271 -0.125364 0.521213 73 61 60
-0.262009 -0.122771 0.510435 73 61 60
-0.249057 -0.117906 0.490207 73 61 59
-0.242271 -0.115888 0.481816 73 61 60
-0.206497 -0.0998152 0.414993 72 59 59
-0.192381 -0.0939815 0.390738 71 58 58
-0.172605 -0.0852274 0.354342 71 57 56
-0.135468 -0.0676173 0.281126 65 51 51
-0.12286 -0.0619977 0.257762 66 51 52
-0.113527 -0.057925 0.240829 64 48 50
-0.103753 -0.0535324 0.222567 64 48 50
-0.0957969 -0.0499892 0.207836 64 48 50
-0.0906287 -0.047836 0.198883 61 42 47
-0.0879224 -0.0469471 0.195188 62 44 49
-0.087953 -0.047516 0.197553 62 44 49
-0.079894 -0.043676 0.181588 62 45 50
-0.0810004 -0.0448143 0.18632 62 47 51
-0.0766303 -0.0429136 0.178418 64 50 53
-0.0754484 -0.0427733 0.177835 62 46 50
-0.0743222 -0.0426615 0.17737 62 45 50
-0.0724311 -0.0421023 0.175045 63 47 51
-0.0731873 -0.0430873 0.17914 63 47 52
-0.0691102 -0.0412154 0.171357 62 46 52
-0.0694422 -0.0419583 0.174446 63 47 53
-0.0684585 -0.0419154 0.174268 62 46 53
-0.0682684 -0.0423639 0.176133 63 48 55
-0.0652405 -0.0410395 0.170626 62 47 54
-0.0644461 -0.0411029 0.17089 63 48 55
-0.0651798 -0.0421563 0.175269 63 48 55
-0.06376 -0.0418272 0.173901 61 46 54
-0.0625338 -0.0416173 0.173028 62 48 56
-0.0608365 -0.0410831 0.170807 61 47 56
-0.0606397 -0.0415614 0.172796 61 47 56
-0.0600066 -0.0417506 0.173583 61 48 56
-0.0581728 -0.0410974 0.170867 61 48 56
-0.0575426 -0.0412874 0.171657 60 47 56
-0.0577577 -0.0420995 0.175033 61 50 59
-0.0572449 -0.0423988 0.176277 61 50 59
-0.0552917 -0.0416234 0.173054 61 50 59
-0.0553619 -0.0423709 0.176162 61 49 58
-0.0548206 -0.0426678 0.177396 62 50 60
-0.0533187 -0.0422142 0.17551 62 50 59
-0.0526308 -0.0424007 0.176286 61 49 58
-0.0516765 -0.0423754 0.17618 61 50 59
-0.0502814 -0.041981 0.17454 61 49 58
-0.0490539 -0.0417145 0.173433 61 49 58
-0.0486385 -0.0421417 0.175209 59 47 57
-0.0478628 -0.0422671 0.17573 59 46 56
-0.0466565 -0.0420097 0.17466 59 47 57
-0.0444449 -0.0408188 0.169708 60 48 58
-0.0445233 -0.0417252 0.173477 60 47 57
-0.0422984 -0.040466 0.168242 61 47 56
-0.0418226 -0.0408621 0.169889 60 46 56
-0.0401073 -0.0400381 0.166463 59 44 55
-0.0400406 -0.0408597 0.169879 59 45 55
-0.0402151 -0.0419705 0.174497 59 43 54
-0.0383295 -0.0409329 0.170183 58 41 52
-0.0365877 -0.0400031 0.166317 58 42 53
-0.0365749 -0.0409645 0.170314 59 42 53
-0.0348862 -0.0400499 0.166512 59 44 54
-0.034793 -0.040967 0.170325 60 44 53
-0.0335528 -0.0405465 0.168576 58 39 50
-0.0334061 -0.0414603 0.172376 58 38 50
-0.031736 -0.0404815 0.168306 57 37 48
-0.0294957 -0.0386988 0.160895 56 32 46
-0.03014 -0.0407073 0.169245 56 34 47
-0.0299176 -0.0416314 0.173087 58 37 48
-0.0275975 -0.039603 0.164654 57 34 47
-0.0274475 -0.0406583 0.169041 59 36 48
-0.02652 -0.0405938 0.168773 59 36 48
-0.0255737 -0.0404952 0.168363 60 37 48
-0.0248588 -0.0407689 0.169501 58 31 46
-0.0236618 -0.0402432 0.167315 56 28 44
-0.0224812 -0.0397057 0.165081 56 27 43
-0.0219637 -0.0403436 0.167733 55 25 41
-0.0208014 -0.0398006 0.165475 56 29 43
-0.0197898 -0.0395113 0.164273 55 28 45
-0.0194042 -0.0405025 0.168393 57 32 48
-0.0182908 -0.0399965 0.16629 58 38 50
-0.0173182 -0.0397632 0.16532 60 42 54
-0.0168419 -0.0407048 0.169235 61 44 56
-0.0157459 -0.0401701 0.167011 63 48 59
-0.0149332 -0.0403378 0.167709 62 47 57
-0.013989 -0.040149 0.166924 62 47 58
-0.01305 -0.039951 0.166101 62 47 59
-0.0120879 -0.039649 0.164845 63 50 61
-0.0111985 -0.0395571 0.164463 62 49 60
-0.0103276 -0.039521 0.164313 63 50 60
-0.00961943 -0.0401573 0.166958 62 49 59
-0.00869726 -0.0399384 0.166048 61 48 59
-0.00762899 -0.0389253 0.161836 61 48 59
-0.00675153 -0.0387543 0.161125 60 47 58
-0.00599958 -0.0393578 0.163634 61 48 59
-0.00528345 -0.0404365 0.168119 60 46 58
-0.00424274 -0.0389658 0.162005 59 46 59
-0.00335785 -0.0385486 0.16027 61 48 60
-0.00255176 -0.0390594 0.162394 61 48 61
-0.00171306 -0.0393323 0.163529 62 49 62
-0.000863286 -0.0396426 0.164819 62 50 62
0 -0.0387345 0.161043 63 51 63
0.000851054 -0.0390809 0.162483 63 50 62
0.00167591 -0.0384794 0.159982 64 51 63
0.00257137 -0.0393597 0.163642 63 50 63
0.0034152 -0.039207 0.163007 62 49 62
0.00423193 -0.0388666 0.161592 60 49 62
0.00499551 -0.0382329 0.158957 60 49 62
0.0058333 -0.038267 0.159099 61 49 62
0.00672113 -0.0385798 0.1604 60 49 62
0.00756735 -0.0386108 0.160529 61 50 63
0.00837767 -0.0384708 0.159946 61 49 63
0.00924268 -0.0385845 0.160419 60 48 62
0.0100193 -0.0383409 0.159407 62 50 63
0.0111569 -0.0394101 0.163852 61 47 62
0.0116029 -0.0380581 0.158231 61 47 62
0.0126273 -0.0386568 0.16072 60 48 62
0.0132021 -0.0378905 0.157534 61 48 62
0.0140984 -0.0380829 0.158334 60 48 62
0.0150456 -0.0383835 0.159583 57 45 60
0.0156306 -0.0377772 0.157063 58 46 61
0.0168662 -0.0387252 0.161004 58 45 61
0.0176123 -0.0385128 0.160121 58 45 61
0.0186779 -0.0389864 0.16209 58 45 61
0.0195946 -0.0391216 0.162652 59 45 61
0.020307 -0.0388547 0.161542 59 45 61
0.0213247 -0.0391698 0.162853 58 44 60
0.0222949 -0.0393768 0.163713 59 43 60
0.02327 -0.0395769 0.164545 59 43 60
0.0231886 -0.0380298 0.158113 58 43 60
0.024139 -0.0382233 0.158918 58 43 59
0.0256486 -0.0392601 0.163228 57 42 59
0.0265194 -0.0392835 0.163325 58 43 59
0.0265012 -0.0380298 0.158113 59 45 60
0.0281592 -0.0391845 0.162914 58 42 58
0.0294108 -0.0397224 0.16515 58 41 58
0.0300571 -0.0394355 0.163957 59 44 59
0.0301438 -0.0384507 0.159863 57 41 57
0.0314776 -0.0390668 0.162425 57 41 57
0.0332928 -0.0402323 0.16727 57 40 57
0.0329112 -0.0387514 0.161113 59 42 59
0.0344644 -0.0395656 0.164498 58 42 59
0.0348107 -0.0389885 0.162099 59 44 59
0.0347599 -0.0380047 0.158009 60 43 59
0.0360255 -0.0384724 0.159953 59 42 59
0.0367595 -0.0383641 0.159503 60 43 58
0.0382906 -0.0390739 0.162454 60 43 58
0.0392732 -0.0392054 0.163001 59 41 57
0.0392281 -0.0383272 0.15935 58 41 57
0.0404164 -0.0386656 0.160756 57 40 56
0.0420335 -0.039392 0.163776 57 40 56
0.0414627 -0.0380799 0.158321 58 41 57
0.0433682 -0.0390489 0.16235 58 40 56
0.0447792 -0.039544 0.164408 58 39 56
0.0454645 -0.0393917 0.163775 58 39 56
0.04587 -0.039007 0.162176 57 38 55
0.047886 -0.039981 0.166225 57 37 54
0.0486149 -0.0398648 0.165742 57 36 54
0.0482238 -0.0388503 0.161524 57 38 55
0.0488762 -0.038697 0.160887 57 37 54
0.0495306 -0.0385505 0.160278 57 35 53
0.0526071 -0.0402625 0.167396 57 35 52
0.0526349 -0.0396234 0.164739 56 32 51
0.0542563 -0.0401852 0.167074 56 34 52
0.0541733 -0.0394869 0.164171 57 35 52
0.0550332 -0.0394869 0.164171 57 31 51
0.056657 -0.0400265 0.166415 55 27 49
0.0577783 -0.0402003 0.167137 56 29 49
0.0581044 -0.0398238 0.165572 54 25 47
0.0592508 -0.0400123 0.166355 55 25 47
0.0600615 -0.0399719 0.166188 53 21 42
0.060096 -0.0394235 0.163908 52 19 40
0.0612918 -0.0396417 0.164815 51 18 40
0.0627585 -0.0400265 0.166415 51 18 39
0.0637172 -0.0400813 0.166642 51 19 41
0.0650194 -0.0403477 0.16775 52 19 40
0.0645915 -0.0395477 0.164424 53 20 41
0.0660203 -0.0398907 0.16585 53 20 41
0.0665848 -0.0397093 0.165096 54 25 45
0.0671688 -0.039544 0.164408 56 30 48
0.0682538 -0.0396741 0.164949 58 36 51
0.0682031 -0.0391491 0.162767 58 37 52
0.0685407 -0.0388572 0.161553 59 39 53
0.0692336 -0.0387714 0.161196 59 42 54
0.0689452 -0.0381447 0.158591 61 46 56
0.0720942 -0.039412 0.16386 63 48 57
0.0713265 -0.0385336 0.160208 62 48 58
0.0707153 -0.0377592 0.156988 61 47 57
0.0701325 -0.0370176 0.153905 63 48 59
0.0727488 -0.0379622 0.157832 63 50 60
0.072314 -0.0373113 0.155126 61 48 58
0.0741023 -0.0378091 0.157196 63 51 61
0.0725333 -0.0366019 0.152176 63 50 60
0.0763613 -0.0381148 0.158466 62 50 60
0.0760728 -0.0375625 0.15617 62 50 60
0.0752109 -0.0367418 0.152758 61 50 59
0.0787786 -0.0380796 0.15832 63 51 60
0.0799555 -0.0382459 0.159012 63 51 60
0.0775636 -0.0367193 0.152664 63 51 60
0.0816397 -0.0382546 0.159048 62 51 60
0.0801749 -0.0371887 0.154616 62 50 60
0.0835756 -0.0383785 0.159563 63 52 61
0.0821438 -0.0373475 0.155276 62 51 60
0.0839359 -0.0377881 0.157108 62 51 60
0.084898 -0.0378502 0.157366 64 53 62
0.0856015 -0.0377969 0.157145 63 51 61
0.0876359 -0.0383266 0.159347 62 51 61
0.0856229 -0.037093 0.154218 63 53 61
0.088111 -0.0378141 0.157216 62 52 61
0.0899618 -0.0382509 0.159032 61 50 59
0.0930581 -0.0392045 0.162997 62 52 61
0.0918466 -0.0383423 0.159412 62 53 60
0.0930319 -0.0384872 0.160015 64 54 62
0.092791 -0.0380448 0.158175 63 54 62
0.0939781 -0.0381906 0.158781 63 53 61
0.0915892 -0.0368933 0.153388 65 54 62
0.094481 -0.0377272 0.156855 64 54 62
0.0988666 -0.0391381 0.162721 63 54 60
0.0936356 -0.0367505 0.152794 63 54 61
0.095593 -0.0372008 0.154666 63 54 61
0.100596 -0.0388188 0.161394 62 55 61
-0.425626 -0.159334 0.677171 176 216 187
-0.417299 -0.15753 0.669501 178 216 182
-0.386699 -0.147216 0.625666 185 216 186
-0.373589 -0.14344 0.60962 175 212 180
-0.40817 -0.158069 0.671791 180 215 185
-0.389334 -0.152085 0.646362 174 211 180
-0.370475 -0.145988 0.620448 170 201 165
-0.38627 -0.153559 0.652625 168 198 159
-0.398346 -0.159774 0.679038 163 191 158
-0.357931 -0.144857 0.615641 151 170 141
-0.354706 -0.144857 0.615641 136 153 120
-0.354226 -0.145988 0.620448 120 135 108
-0.374738 -0.155872 0.662454 108 123 98
-0.347726 -0.145988 0.620448 97 101 83
-0.338465 -0.14344 0.60962 94 91 75
-0.326749 -0.139794 0.594124 89 85 73
-0.343594 -0.148414 0.630759 81 85 77
-0.318481 -0.138902 0.590334 81 85 79
-0.317151 -0.139678 0.593633 80 84 74
-0.321158 -0.142843 0.607084 78 80 67
-0.302636 -0.135951 0.577792 81 75 68
-0.2958 -0.134223 0.570447 78 66 64
-0.284279 -0.130311 0.553822 80 68 66
-0.269927 -0.125008 0.531284 72 62 60
-0.272723 -0.127618 0.542379 75 64 61
-0.248795 -0.117647 0.5 73 61 59
-0.241355 -0.115343 0.490207 68 56 55
-0.238787 -0.115343 0.490207 68 56 54
-0.213127 -0.104067 0.442284 69 56 54
-0.194131 -0.095833 0.40729 64 50 49
-0.17049 -0.0850981 0.361667 63 47 49
-0.163037 -0.0822924 0.349743 63 49 50
-0.133984 -0.0683962 0.290684 62 45 48
-0.112492 -0.0580852 0.246862 63 47 50
-0.102152 -0.0533592 0.226776 62 46 50
-0.0957652 -0.0506117 0.2151 62 44 49
-0.089503 -0.0478653 0.203427 62 45 50
-0.0828354 -0.0448333 0.190541 63 48 51
-0.0759261 -0.0415948 0.176778 64 50 53
-0.0782344 -0.0433886 0.184401 63 49 52
-0.0767815 -0.0431151 0.183239 62 46 50
-0.0725392 -0.0412485 0.175306 63 48 52
-0.071217 -0.0410158 0.174317 63 49 53
-0.0707952 -0.0413025 0.175535 64 49 54
-0.0692046 -0.0409057 0.173849 65 50 54
-0.0698357 -0.0418291 0.177774 64 50 55
-0.068782 -0.0417547 0.177458 63 50 56
-0.0659124 -0.0405608 0.172384 65 51 57
-0.0653935 -0.0408004 0.173402 63 49 56
-0.0638292 -0.0403853 0.171638 63 49 55
-0.0628274 -0.0403194 0.171357 62 48 55
-0.061573 -0.040087 0.17037 61 47 56
-0.0626239 -0.0413708 0.175826 61 48 56
-0.0620482 -0.0416023 0.17681 60 47 56
-0.0580133 -0.0394863 0.167817 61 48 56
-0.0592634 -0.0409577 0.17407 61 48 57
-0.0585265 -0.0410804 0.174592 60 48 56
-0.0579292 -0.0413066 0.175553 62 50 59
-0.057761 -0.041851 0.177867 62 50 59
-0.0557988 -0.041092 0.174641 61 50 58
-0.0562547 -0.0421182 0.179002 61 49 58
-0.0539768 -0.0410977 0.174665 61 49 58
-0.0531432 -0.0411606 0.174933 61 48 58
-0.0511997 -0.0403511 0.171492 61 49 59
-0.0510887 -0.0409826 0.174176 61 50 59
-0.0515132 -0.0420744 0.178816 61 49 58
-0.0509195 -0.0423597 0.180029 60 48 57
-0.0472917 -0.040084 0.170357 60 48 57
-0.0469213 -0.0405349 0.172273 60 48 57
-0.0469387 -0.0413451 0.175717 60 48 58
-0.0449523 -0.0403872 0.171646 59 46 57
-0.044802 -0.0410737 0.174563 59 45 56
-0.0431253 -0.0403602 0.171531 60 45 56
-0.0427722 -0.0408815 0.173746 60 45 55
-0.0406708 -0.039718 0.168802 60 46 56
-0.0401589 -0.0400896 0.170381 59 43 54
-0.039895 -0.0407313 0.173108 59 42 54
-0.0384869 -0.0402075 0.170882 59 43 53
-0.0375234 -0.0401343 0.170571 58 42 53
-0.0365081 -0.0400007 0.170003 58 41 53
-0.0352773 -0.0396185 0.168379 56 40 52
-0.0338806 -0.0390255 0.165859 59 41 52
-0.0328544 -0.0388393 0.165067 58 38 50
-0.0326065 -0.0395881 0.168249 57 35 48
-0.0320447 -0.0399868 0.169944 57 36 48
-0.0302499 -0.0388257 0.165009 56 33 47
-0.0294862 -0.0389585 0.165574 57 34 48
-0.029564 -0.040245 0.171041 57 36 48
-0.0283768 -0.039836 0.169303 58 36 48
-0.027586 -0.0399751 0.169894 58 33 46
-0.026221 -0.0392637 0.166871 60 37 49
-0.0258386 -0.0400252 0.170107 55 26 43
-0.0242672 -0.0389335 0.165468 55 26 43
-0.0236264 -0.0393095 0.167065 57 32 46
-0.0230561 -0.039836 0.169303 56 27 43
-0.021446 -0.0385363 0.163779 55 25 40
-0.0207592 -0.0388564 0.16514 54 27 42
-0.0200037 -0.0390702 0.166048 55 27 45
-0.0190344 -0.0388668 0.165184 57 34 48
-0.0181367 -0.0387972 0.164888 59 40 52
-0.0174863 -0.0392762 0.166924 61 43 54
-0.0167702 -0.0396504 0.168514 61 44 56
-0.0156092 -0.0389556 0.165561 62 47 58
-0.0145281 -0.0383903 0.163159 63 49 59
-0.0139846 -0.0392637 0.166871 62 47 58
-0.0131189 -0.0392889 0.166978 61 47 59
-0.0124536 -0.0399603 0.169831 63 50 60
-0.0112013 -0.0387069 0.164504 63 50 60
-0.0104127 -0.0389802 0.165666 63 49 60
-0.00941641 -0.0384552 0.163435 60 46 58
-0.00868724 -0.0390251 0.165857 61 48 59
-0.00764644 -0.0381662 0.162206 62 48 59
-0.00680207 -0.0381956 0.162331 61 48 59
-0.005923 -0.0380107 0.161546 60 47 58
-0.00505495 -0.0378467 0.160849 60 46 58
-0.00425293 -0.0382103 0.162394 60 46 59
-0.00343523 -0.0385796 0.163963 59 45 58
-0.00257469 -0.0385537 0.163853 61 49 61
-0.00169567 -0.0380867 0.161868 62 49 61
-0.000834685 -0.037496 0.159358 63 51 63
0 -0.0388882 0.165275 62 49 61
0.000858226 -0.0385536 0.163853 61 48 61
0.00168993 -0.0379578 0.161321 62 49 61
0.00255497 -0.0382584 0.162598 62 49 62
0.00340724 -0.0382653 0.162628 61 49 62
0.00421013 -0.0378258 0.16076 60 49 62
0.00509909 -0.0381772 0.162253 60 49 62
0.00588719 -0.0377809 0.160569 60 49 62
0.00664454 -0.0373111 0.158572 60 48 61
0.00751234 -0.0374969 0.159362 61 49 62
0.0084358 -0.0378956 0.161056 61 49 62
0.00918346 -0.0375039 0.159391 60 48 62
0.0101626 -0.0380441 0.161688 60 49 63
0.0110617 -0.0382245 0.162454 60 48 62
0.0117429 -0.0376798 0.160139 61 48 62
0.012377 -0.0370668 0.157534 59 46 61
0.0134538 -0.0377734 0.160537 59 46 61
0.0142385 -0.0376251 0.159906 58 44 60
0.0152674 -0.0381025 0.161936 59 48 62
0.0160993 -0.0380642 0.161773 58 45 60
0.0167359 -0.0375908 0.159761 60 47 62
0.0179301 -0.0383553 0.16301 58 45 60
0.0185247 -0.037826 0.16076 58 44 60
0.0194694 -0.0380267 0.161613 59 46 61
0.0207088 -0.038762 0.164739 58 43 60
0.0212613 -0.0382044 0.162369 58 42 59
0.0221273 -0.0382312 0.162482 58 43 59
0.022263 -0.037041 0.157424 58 43 59
0.0234498 -0.0376221 0.159894 57 41 59
0.0244571 -0.0378852 0.161012 58 41 58
0.0249432 -0.0373502 0.158738 58 41 58
0.0267333 -0.0387394 0.164643 58 42 59
0.0273944 -0.0384569 0.163442 58 43 59
0.0271003 -0.0368912 0.156787 57 40 57
0.0293581 -0.0387893 0.164855 58 42 58
0.0286825 -0.0368139 0.156459 58 42 58
0.0302601 -0.0377598 0.160479 57 41 57
0.0311422 -0.0378103 0.160694 59 43 59
0.0325914 -0.0385285 0.163746 57 41 57
0.0332031 -0.0382452 0.162542 58 42 58
0.0335945 -0.0377285 0.160346 59 43 59
0.0346539 -0.0379692 0.161369 58 42 57
0.0363281 -0.0388558 0.165137 59 43 59
0.0363611 -0.0379867 0.161443 59 43 59
0.0367973 -0.0375686 0.159667 59 41 57
0.0381684 -0.0381025 0.161936 59 42 58
0.0386257 -0.0377209 0.160314 59 41 57
0.0396622 -0.0379089 0.161113 57 39 56
0.0409173 -0.0382938 0.162749 59 43 57
0.0416004 -0.0381385 0.162089 57 40 55
0.0427642 -0.0384214 0.163291 57 38 55
0.0432699 -0.0381135 0.161982 57 40 56
0.0437502 -0.0377954 0.160631 56 37 54
0.0442198 -0.0374803 0.159291 55 34 53
0.046476 -0.0386632 0.164319 56 37 55
0.0467696 -0.0382001 0.16235 56 37 55
0.046864 -0.0375936 0.159773 57 37 54
0.0482324 -0.0380125 0.161553 57 37 54
0.0495223 -0.0383561 0.163014 57 36 54
0.0504657 -0.0384244 0.163304 57 37 54
0.0526556 -0.0394235 0.16755 57 36 53
0.0533852 -0.0393145 0.167087 55 32 51
0.0530448 -0.0384338 0.163344 57 34 52
0.0543129 -0.038728 0.164594 57 34 52
0.0554875 -0.0389473 0.165526 57 33 51
0.0561851 -0.0388303 0.165029 55 27 48
0.0570323 -0.0388186 0.164979 54 25 47
0.0580885 -0.0389473 0.165526 54 25 46
0.0586067 -0.0387169 0.164547 56 28 48
0.0594582 -0.0387102 0.164518 50 17 38
0.0611372 -0.0392347 0.166747 49 16 36
0.062179 -0.0393412 0.1672 50 17 38
0.0618806 -0.0386086 0.164087 51 18 39
0.0612382 -0.0376845 0.160159 51 18 39
0.0655517 -0.0397938 0.169124 52 20 41
0.064829 -0.0388303 0.165029 53 20 41
0.0655496 -0.0387453 0.164667 54 23 44
0.0655901 -0.0382658 0.162629 54 27 47
0.0660995 -0.0380685 0.161791 56 31 48
0.066934 -0.0380612 0.16176 58 37 52
0.0702074 -0.0394235 0.16755 58 38 52
0.0690403 -0.0382895 0.162731 60 41 54
0.0694759 -0.0380612 0.16176 60 44 55
0.0709428 -0.0383966 0.163185 61 46 56
0.0702228 -0.0375545 0.159606 61 46 56
0.0710588 -0.0375545 0.159606 62 48 57
0.0709805 -0.0370768 0.157577 62 47 58
0.0733854 -0.0378925 0.161043 60 46 58
0.0719792 -0.036744 0.156162 61 49 59
0.0727021 -0.0366961 0.155958 62 49 59
0.0725456 -0.0362102 0.153893 62 50 60
0.077466 -0.0382413 0.162525 63 50 60
0.076253 -0.0372333 0.158242 61 49 59
0.0770818 -0.0372333 0.158242 63 50 60
0.0765799 -0.0365973 0.155539 62 50 59
0.0788726 -0.0372962 0.158509 63 50 60
0.078636 -0.036797 0.156387 62 50 59
0.0778079 -0.0360342 0.153145 62 50 59
0.0794958 -0.0364402 0.154871 60 49 58
0.081213 -0.0368513 0.156618 62 50 59
0.082733 -0.0371656 0.157954 61 49 58
0.0856951 -0.0381151 0.161989 60 48 58
0.0831997 -0.0366424 0.15573 62 51 60
0.0862716 -0.0376264 0.159912 61 50 59
0.0836831 -0.0361466 0.153623 61 50 59
0.0870869 -0.0372586 0.158349 62 51 60
0.0861832 -0.0365241 0.155227 63 52 61
0.0907559 -0.0381025 0.161936 63 52 61
0.0873663 -0.0363398 0.154444 63 52 61
0.0894842 -0.0368793 0.156737 64 54 62
0.0906172 -0.0370067 0.157278 65 55 62
0.0926959 -0.0375146 0.159437 62 52 60
0.0951625 -0.038169 0.162218 63 53 61
0.0956327 -0.0380181 0.161577 64 54 62
0.0950247 -0.037445 0.159141 63 53 61
0.0955284 -0.0373162 0.158594 63 54 61
0.0958535 -0.0371204 0.157762 62 53 60
0.0990237 -0.0380203 0.161586 63 54 61
0.0985599 -0.0375216 0.159467 63 55 61
0.102584 -0.0387254 0.164583 60 52 59
-0.425626 -0.155794 0.677171 181 220 188
-0.383015 -0.141375 0.614498 178 218 182
-0.412166 -0.153424 0.666871 183 217 182
-0.383422 -0.143944 0.625666 181 217 184
-0.390233 -0.147764 0.64227 185 220 190
-0.383258 -0.146385 0.636275 182 219 188
-0.361333 -0.139221 0.605137 182 216 184
-0.396258 -0.154029 0.669501 179 212 176
-0.370024 -0.145116 0.630759 175 206 174
-0.385148 -0.152408 0.662454 171 195 167
-0.366595 -0.146385 0.636275 156 183 149
-0.383539 -0.154556 0.671791 151 179 141
-0.344851 -0.140252 0.60962 128 158 120
-0.339145 -0.139221 0.605137 117 135 105
-0.364192 -0.150913 0.655958 109 117 94
-0.344097 -0.143944 0.625666 95 103 82
-0.352093 -0.148705 0.646362 90 96 80
-0.318481 -0.135816 0.590334 87 92 78
-0.319046 -0.13739 0.59718 84 88 76
-0.330988 -0.143944 0.625666 80 84 72
-0.322948 -0.141852 0.616572 85 83 75
-0.312815 -0.138789 0.603259 82 78 70
-0.316489 -0.141852 0.616572 83 78 69
-0.299929 -0.135816 0.590334 79 74 65
-0.285581 -0.130666 0.56795 81 72 65
-0.282607 -0.130666 0.56795 81 69 65
-0.25698 -0.120081 0.521944 73 60 58
-0.248641 -0.117434 0.510435 75 61 60
-0.225864 -0.107835 0.468716 73 60 59
-0.233346 -0.112632 0.489565 73 59 59
-0.213346 -0.104123 0.452579 66 51 52
-0.200242 -0.0988254 0.429553 66 51 51
-0.197992 -0.0988254 0.429553 66 52 52
-0.17341 -0.0875502 0.380545 63 47 50
-0.16176 -0.082618 0.359107 65 50 53
-0.127334 -0.0658005 0.286008 63 48 51
-0.106579 -0.0557305 0.242238 67 53 55
-0.100887 -0.05339 0.232064 65 51 53
-0.0971699 -0.05205 0.22624 64 50 53
-0.082931 -0.0449712 0.195471 65 52 54
-0.0833368 -0.0457561 0.198883 65 52 54
-0.0782774 -0.0435223 0.189174 65 51 54
-0.0731456 -0.0411904 0.179038 63 49 53
-0.0713531 -0.0407028 0.176919 65 51 55
-0.0717207 -0.0414509 0.18017 64 51 54
-0.0685014 -0.0401182 0.174377 63 49 53
-0.0684132 -0.040608 0.176506 63 50 55
-0.0682735 -0.0410802 0.178559 63 48 54
-0.0647288 -0.0394882 0.171639 61 48 54
-0.0662504 -0.0409858 0.178148 65 52 58
-0.0639185 -0.040108 0.174333 62 49 56
-0.0632682 -0.0402753 0.17506 61 48 56
-0.0611663 -0.0395099 0.171733 61 49 57
-0.0613695 -0.0402328 0.174876 61 49 56
-0.0601935 -0.0400597 0.174123 61 48 56
-0.0606203 -0.0409645 0.178056 62 49 57
-0.0584727 -0.0401306 0.174431 60 49 56
-0.0590232 -0.0411514 0.178868 62 50 58
-0.0586257 -0.0415335 0.180529 62 50 59
-0.0563462 -0.040573 0.176354 62 50 59
-0.0551706 -0.0403886 0.175553 62 51 59
-0.0556362 -0.0414198 0.180035 62 50 59
-0.0542027 -0.0410483 0.17842 61 49 58
-0.0519927 -0.0400654 0.174148 61 50 58
-0.0510525 -0.0400435 0.174053 61 49 58
-0.0512634 -0.04094 0.177949 61 49 58
-0.0489827 -0.039843 0.173181 61 49 58
-0.0484733 -0.0401725 0.174613 60 48 57
-0.0473802 -0.0400217 0.173958 58 46 56
-0.0461459 -0.0397435 0.172749 60 47 56
-0.0463133 -0.0406853 0.176843 60 46 56
-0.0440183 -0.0394584 0.17151 58 44 55
-0.0432865 -0.0396108 0.172172 58 44 55
-0.0424922 -0.0397113 0.172609 59 44 54
-0.0417084 -0.0398262 0.173108 60 45 56
-0.0393677 -0.0384265 0.167024 58 42 54
-0.0393418 -0.0392739 0.170708 58 41 52
-0.0387017 -0.0395334 0.171836 59 43 54
-0.0367206 -0.0384028 0.166921 59 43 53
-0.0367006 -0.0393181 0.1709 59 43 53
-0.0355526 -0.0390403 0.169692 57 39 51
-0.0347676 -0.0391573 0.170201 58 41 51
-0.0332065 -0.0383833 0.166837 57 36 49
-0.0323061 -0.0383518 0.1667 56 34 48
-0.0313097 -0.0382013 0.166046 55 31 45
-0.0310027 -0.0389076 0.169116 55 32 46
-0.0303464 -0.0392041 0.170404 56 32 47
-0.029444 -0.0391909 0.170347 57 35 47
-0.0279366 -0.0383465 0.166677 59 36 48
-0.026954 -0.0381912 0.166002 60 35 48
-0.0269379 -0.0394408 0.171433 60 34 48
-0.0254403 -0.0385324 0.167485 55 26 43
-0.0247321 -0.0387977 0.168638 56 28 43
-0.0237952 -0.0387105 0.168259 55 27 43
-0.0230392 -0.0389221 0.169178 56 27 43
-0.0218001 -0.038302 0.166483 55 24 42
-0.0210952 -0.0386079 0.167813 55 27 44
-0.0203726 -0.0389065 0.16911 54 26 44
-0.019592 -0.0391164 0.170023 56 31 47
-0.0185055 -0.0387066 0.168242 60 40 52
-0.0177632 -0.0390117 0.169568 61 43 55
-0.0163066 -0.0376976 0.163856 62 46 57
-0.0160057 -0.0390576 0.169768 62 47 57
-0.0150037 -0.0387662 0.168501 63 47 58
-0.0137126 -0.0376446 0.163626 63 48 59
-0.0129851 -0.0380238 0.165274 62 48 59
-0.0122223 -0.0383465 0.166677 61 47 58
-0.0113492 -0.0383465 0.166677 62 48 59
-0.0104673 -0.0383137 0.166534 61 47 59
-0.00961134 -0.038379 0.166818 61 48 59
-0.00848939 -0.0372889 0.162079 61 48 59
-0.00752838 -0.0367419 0.159702 61 47 58
-0.00686591 -0.0376974 0.163855 60 46 58
-0.00599677 -0.037629 0.163558 60 46 58
-0.00516683 -0.0378247 0.164408 60 45 58
-0.00425531 -0.0373821 0.162485 59 46 59
-0.00337551 -0.0370665 0.161113 61 48 61
-0.0025424 -0.0372243 0.161799 60 47 60
-0.00173224 -0.0380436 0.16536 62 49 62
-0.000860469 -0.0377953 0.164281 61 49 61
0 -0.037517 0.163071 63 50 63
0.00084418 -0.0370798 0.161171 62 49 62
0.00172015 -0.0377781 0.164206 62 48 62
0.00253181 -0.0370691 0.161124 61 49 62
0.00334394 -0.0367199 0.159606 61 49 62
0.00413597 -0.0363337 0.157928 60 48 61
0.00494754 -0.0362194 0.157431 60 48 61
0.00599016 -0.0375875 0.163377 60 48 61
0.00677096 -0.037176 0.161589 60 49 62
0.00763429 -0.0372588 0.161949 61 49 62
0.00834401 -0.0366503 0.159304 60 48 62
0.00933744 -0.0372853 0.162064 59 47 61
0.0100664 -0.0368466 0.160157 61 49 63
0.0108716 -0.0367325 0.159661 61 49 62
0.0116239 -0.0364691 0.158516 61 49 63
0.0125276 -0.0366843 0.159452 60 47 61
0.0133076 -0.0365328 0.158793 59 46 61
0.0142674 -0.0368636 0.160231 60 47 61
0.0150593 -0.0367481 0.159729 59 48 61
0.0161671 -0.0373751 0.162454 59 47 61
0.0168363 -0.036976 0.16072 59 47 61
0.0175583 -0.0367253 0.15963 58 45 60
0.0189117 -0.0377582 0.16412 58 44 60
0.0196945 -0.0376114 0.163481 58 43 59
0.0203581 -0.0372588 0.161949 58 43 59
0.0215741 -0.037905 0.164757 58 43 59
0.0217633 -0.0367667 0.15981 58 43 60
0.0229704 -0.0373686 0.162426 57 41 58
0.0239451 -0.0375632 0.163272 58 43 60
0.0244691 -0.0370614 0.161091 58 42 59
0.0256987 -0.0376263 0.163546 58 42 59
0.0259781 -0.0368085 0.159992 59 43 59
0.0270358 -0.0371101 0.161302 59 43 59
0.0280169 -0.0372914 0.16209 58 42 58
0.0285913 -0.0369367 0.160549 59 43 58
0.029436 -0.0369414 0.160569 57 40 56
0.030163 -0.0368022 0.159964 57 41 57
0.0314834 -0.0373751 0.162454 57 41 57
0.0334612 -0.0386777 0.168116 58 43 58
0.0331556 -0.0373417 0.162309 57 41 58
0.0332653 -0.0365287 0.158775 58 41 58
0.0349682 -0.0374621 0.162832 58 42 58
0.0343089 -0.0358806 0.155958 59 43 59
0.0360173 -0.0367913 0.159917 60 43 59
0.0378297 -0.0377644 0.164146 58 40 57
0.0382114 -0.0372978 0.162118 59 42 58
0.0390818 -0.0373181 0.162206 58 40 57
0.0396774 -0.0370807 0.161175 57 40 56
0.0405061 -0.0370665 0.161113 58 40 56
0.041984 -0.0376348 0.163583 57 39 55
0.0425194 -0.0373525 0.162356 57 39 55
0.0433344 -0.037322 0.162224 57 39 56
0.0447713 -0.0378181 0.16438 57 38 55
0.0447917 -0.0371214 0.161352 57 38 55
0.0453074 -0.0368535 0.160187 56 37 54
0.0470627 -0.0375852 0.163367 57 37 55
0.0482801 -0.0378689 0.164601 56 36 54
0.0484403 -0.037328 0.16225 57 37 54
0.0490606 -0.0371542 0.161494 57 37 55
0.0506502 -0.0377079 0.163901 57 37 54
0.0510322 -0.037359 0.162384 57 36 53
0.0520166 -0.0374554 0.162803 56 33 52
0.0527897 -0.037399 0.162558 58 35 52
0.0540006 -0.0376496 0.163647 57 33 51
0.0554193 -0.038035 0.165323 56 28 49
0.0574108 -0.0387956 0.168629 54 26 47
0.0578682 -0.0385122 0.167397 55 28 48
0.0573862 -0.0376214 0.163525 55 24 46
0.0585901 -0.0378458 0.1645 55 24 46
0.0604304 -0.0384689 0.167208 53 21 42
0.0620923 -0.0389621 0.169352 51 18 39
0.0618614 -0.0382705 0.166346 51 19 39
0.0628611 -0.0383489 0.166687 51 18 38
0.0642016 -0.0386301 0.167909 51 19 39
0.0638333 -0.0378894 0.16469 52 20 40
0.0636075 -0.037252 0.161919 54 22 44
0.0657399 -0.0379943 0.165146 55 24 45
0.0667169 -0.0380582 0.165423 55 26 46
0.0678458 -0.038206 0.166066 57 32 49
0.0685382 -0.0381073 0.165637 57 33 49
0.0682031 -0.037447 0.162767 59 39 53
0.0695729 -0.0377275 0.163986 60 41 54
0.0697589 -0.037367 0.162419 60 44 55
0.0698293 -0.0369541 0.160624 61 46 56
0.071368 -0.0373187 0.162209 60 45 55
0.0716861 -0.0370441 0.161015 61 48 58
0.0716084 -0.0365736 0.158971 61 48 59
0.0723618 -0.0365336 0.158797 61 47 58
0.0737686 -0.0368207 0.160044 62 49 59
0.0733722 -0.0362113 0.157396 61 48 58
0.0739965 -0.0361137 0.156971 62 49 59
0.074728 -0.0360699 0.156781 62 49 59
0.075453 -0.0360239 0.156581 62 49 59
0.074846 -0.0353499 0.153652 63 50 60
0.0764735 -0.0357343 0.155322 60 48 57
0.0777094 -0.0359296 0.156171 62 49 59
0.079185 -0.0362305 0.157479 63 50 59
0.079019 -0.0357818 0.155529 62 50 59
0.0809527 -0.0362834 0.157709 61 49 58
0.0815539 -0.0361836 0.157275 63 51 60
0.0822687 -0.0361358 0.157067 62 50 59
0.0862107 -0.0374923 0.162964 62 51 60
0.0827085 -0.0356166 0.154811 61 50 60
0.0847588 -0.0361452 0.157108 61 50 60
0.0834236 -0.0352337 0.153147 61 50 59
0.0865613 -0.0362107 0.157393 62 51 60
0.0876683 -0.0363278 0.157902 62 50 60
0.0885024 -0.0363307 0.157915 63 53 62
0.0920704 -0.0374454 0.16276 62 52 61
0.0903497 -0.0364085 0.158253 63 52 60
0.0886569 -0.0354016 0.153876 63 53 60
0.0920545 -0.0364271 0.158334 62 52 60
0.0925938 -0.0363134 0.157839 62 52 60
0.093288 -0.0362618 0.157615 62 52 60
0.0960038 -0.0369901 0.160781 63 53 60
0.0944643 -0.0360805 0.156827 63 52 60
0.0945761 -0.0358118 0.155659 63 54 61
0.0972693 -0.0365168 0.158723 63 54 61
0.0965881 -0.0359538 0.156276 63 54 61
0.101081 -0.0373098 0.162171 61 53 60
-0.407797 -0.145875 0.648805 187 222 185
-0.396589 -0.143058 0.636275 179 218 182
-0.418532 -0.152253 0.677171 184 220 187
-0.401986 -0.147483 0.655958 182 219 188
-0.411439 -0.152253 0.677171 179 217 185
-0.386869 -0.144406 0.64227 180 218 186
-0.383505 -0.144406 0.64227 182 218 186
-0.367225 -0.139499 0.620448 187 218 187
-0.37326 -0.143058 0.636275 175 212 177
-0.383394 -0.148266 0.659437 172 209 181
-0.387058 -0.151043 0.671791 170 208 179
-0.357205 -0.140673 0.625666 169 204 171
-0.348257 -0.138419 0.615641 157 189 151
-0.350651 -0.140673 0.625666 151 177 138
-0.335976 -0.136057 0.605137 141 159 123
-0.364329 -0.148944 0.662454 120 134 102
-0.340819 -0.140673 0.625666 107 120 90
-0.320526 -0.133581 0.594124 98 107 82
-0.345322 -0.145326 0.646362 93 99 80
-0.328228 -0.139499 0.620448 86 91 76
-0.330379 -0.141818 0.630759 85 84 72
-0.313789 -0.136057 0.605137 84 84 67
-0.323525 -0.14171 0.630279 85 85 67
-0.296506 -0.131214 0.583598 83 79 65
-0.29345 -0.131214 0.583598 83 79 67
-0.288897 -0.130538 0.580591 81 75 71
-0.290653 -0.132729 0.590334 78 65 62
-0.292121 -0.134834 0.599696 77 64 62
-0.25707 -0.119945 0.533475 72 61 58
-0.249152 -0.117528 0.522727 72 59 57
-0.230782 -0.110072 0.489565 73 59 59
-0.233082 -0.112418 0.5 69 56 55
-0.2165 -0.105607 0.469708 69 56 56
-0.210284 -0.103754 0.461464 65 51 53
-0.195373 -0.0975179 0.433728 65 51 54
-0.199042 -0.100518 0.447071 65 51 54
-0.167615 -0.0856549 0.380965 64 50 52
-0.155678 -0.0805134 0.358097 67 55 57
-0.132675 -0.0694532 0.308905 66 53 55
-0.121603 -0.0644432 0.286622 65 52 54
-0.0984232 -0.0528112 0.234887 65 52 55
-0.0872187 -0.0473916 0.210782 68 55 57
-0.088135 -0.0485034 0.215727 68 56 58
-0.0779434 -0.0434517 0.193259 65 53 56
-0.0744726 -0.0420631 0.187083 65 53 56
-0.0712639 -0.0407875 0.181409 65 53 57
-0.069976 -0.0405916 0.180538 63 50 55
-0.066476 -0.0390895 0.173857 63 51 56
-0.0655632 -0.0390882 0.173852 64 53 58
-0.0668944 -0.0404436 0.17988 64 52 58
-0.0646303 -0.039633 0.176275 63 51 57
-0.064397 -0.0400622 0.178184 63 50 58
-0.0623076 -0.0393324 0.174938 62 50 57
-0.0603446 -0.0386618 0.171955 62 50 57
-0.0605432 -0.0393768 0.175135 63 51 58
-0.0582299 -0.0384548 0.171035 62 50 58
-0.0584709 -0.0392173 0.174426 61 49 57
-0.0575399 -0.0392055 0.174373 62 51 59
-0.0573337 -0.0396951 0.176551 61 50 58
-0.0557666 -0.0392431 0.17454 61 50 58
-0.0553041 -0.0395662 0.175978 62 51 59
-0.0538207 -0.0391575 0.17416 62 50 58
-0.0516039 -0.038192 0.169866 62 50 59
-0.053097 -0.0399865 0.177847 61 49 58
-0.0516091 -0.03956 0.17595 61 49 57
-0.0498791 -0.0389291 0.173144 60 48 57
-0.0499214 -0.0396837 0.1765 60 48 57
-0.0483441 -0.0391549 0.174148 60 48 57
-0.0471584 -0.0389291 0.173144 59 46 56
-0.0467085 -0.0393137 0.174854 59 46 56
-0.0451179 -0.0387345 0.172278 59 45 55
-0.0440906 -0.038625 0.171791 59 46 56
-0.0429125 -0.0383762 0.170685 59 45 55
-0.0426955 -0.0389944 0.173435 59 43 54
-0.0418219 -0.0390269 0.173579 59 43 54
-0.0407477 -0.0388695 0.172879 56 39 52
-0.0388887 -0.0379393 0.168741 58 43 53
-0.0393255 -0.0392577 0.174605 60 45 54
-0.0370666 -0.0378836 0.168494 58 42 52
-0.0364003 -0.0381101 0.169501 58 41 52
-0.0355125 -0.0381101 0.169501 58 41 51
-0.0350681 -0.0385981 0.171672 58 40 51
-0.0339942 -0.0384007 0.170794 57 37 49
-0.0330859 -0.0383849 0.170723 56 33 47
-0.0317081 -0.0378082 0.168159 56 33 47
-0.0306833 -0.0376316 0.167373 56 33 47
-0.0306474 -0.0386931 0.172094 56 34 47
-0.0297521 -0.038701 0.172129 58 37 49
-0.0279453 -0.0374867 0.166729 58 36 48
-0.0278563 -0.0385726 0.171559 59 32 47
-0.0267709 -0.0383054 0.17037 60 35 48
-0.0254272 -0.0376374 0.167399 57 29 45
-0.0244253 -0.0374456 0.166546 55 26 42
-0.0242687 -0.0385835 0.171607 54 25 41
-0.022922 -0.0378441 0.168318 54 23 40
-0.0217618 -0.0373657 0.166191 55 24 41
-0.0209217 -0.03742 0.166432 55 28 45
-0.0205604 -0.0383726 0.170669 56 32 48
-0.0194042 -0.037861 0.168393 58 36 50
-0.0188041 -0.0384372 0.170956 58 38 51
-0.0177355 -0.0380655 0.169303 59 42 54
-0.0162079 -0.0366178 0.162864 63 47 57
-0.015596 -0.0371928 0.165421 62 46 57
-0.0149983 -0.0378713 0.168439 62 47 58
-0.0140713 -0.0377514 0.167906 62 46 58
-0.0132242 -0.0378441 0.168318 62 48 59
-0.0123471 -0.0378576 0.168379 61 46 58
-0.0115055 -0.0379909 0.168971 61 46 58
-0.0104895 -0.0375227 0.166889 60 46 58
-0.00953354 -0.0372032 0.165468 59 45 57
-0.00866967 -0.0372152 0.165521 60 47 59
-0.00765811 -0.0365256 0.162454 60 46 58
-0.00696765 -0.0373865 0.166283 59 45 58
-0.0058933 -0.0361392 0.160735 59 45 58
-0.00510832 -0.0365465 0.162547 60 45 58
-0.00435587 -0.0373959 0.166325 59 45 59
-0.00332926 -0.0357278 0.158906 60 48 60
-0.00253442 -0.036264 0.161291 60 47 59
-0.00172846 -0.0370977 0.164999 61 48 61
-0.000856168 -0.0367517 0.16346 60 47 60
0 -0.0362531 0.161242 60 47 60
0.000839965 -0.0360562 0.160366 60 48 61
0.00167891 -0.0360343 0.160269 60 49 61
0.00254911 -0.0364742 0.162225 61 50 62
0.00344014 -0.0369177 0.164198 60 48 62
0.00425227 -0.0365064 0.162369 60 49 62
0.00509117 -0.0364237 0.162001 60 49 61
0.00582478 -0.035719 0.158867 60 49 62
0.00680487 -0.0365131 0.162398 59 48 60
0.00757924 -0.0361495 0.160781 61 49 62
0.00848721 -0.036432 0.162038 58 46 60
0.00905065 -0.0353188 0.157086 58 48 61
0.010024 -0.0358573 0.159482 59 47 61
0.0109365 -0.0361123 0.160616 60 47 61
0.0118802 -0.0364262 0.162012 61 48 62
0.0124382 -0.0355947 0.158314 60 47 61
0.0134037 -0.0359604 0.15994 60 47 61
0.0143091 -0.0361312 0.1607 60 46 61
0.0150745 -0.0359491 0.15989 59 46 60
0.0160413 -0.0362413 0.161189 58 46 60
0.0168513 -0.0361678 0.160863 59 46 61
0.0173453 -0.0354552 0.157693 59 46 61
0.0186309 -0.036352 0.161682 58 44 60
0.019384 -0.0361772 0.160904 59 45 61
0.0202503 -0.0362191 0.161091 59 45 60
0.0214205 -0.0367797 0.163584 59 46 61
0.021652 -0.0357472 0.158992 58 43 59
0.0228252 -0.0362885 0.161399 58 42 60
0.0241935 -0.0370901 0.164965 58 42 59
0.0244942 -0.0362564 0.161257 58 42 59
0.025936 -0.0371108 0.165057 58 42 59
0.026333 -0.0364635 0.162178 58 42 59
0.0267306 -0.0358573 0.159482 58 43 59
0.0276571 -0.0359759 0.160009 57 40 57
0.0284952 -0.0359759 0.160009 58 42 57
0.0293431 -0.0359879 0.160062 58 42 58
0.0306486 -0.0365449 0.16254 58 42 58
0.0308031 -0.0357364 0.158944 58 43 58
0.0325012 -0.0367142 0.163293 58 44 59
0.033004 -0.0363262 0.161567 58 42 58
0.0336628 -0.0361251 0.160673 58 42 58
0.0347181 -0.0363488 0.161668 59 43 59
0.0355432 -0.0363267 0.161569 59 42 59
0.0378271 -0.0377618 0.167952 59 41 58
0.0368183 -0.0359194 0.159758 58 40 57
0.0382764 -0.0365121 0.162394 59 41 57
0.0386783 -0.0360934 0.160532 58 40 56
0.0391806 -0.0357842 0.159156 57 38 55
0.0399759 -0.03575 0.159004 58 41 56
0.0406367 -0.0355992 0.158334 57 38 55
0.0425871 -0.0365617 0.162614 57 39 55
0.0436033 -0.0367002 0.16323 56 38 55
0.0443178 -0.0365842 0.162715 56 36 54
0.0442894 -0.0358709 0.159542 57 37 55
0.04621 -0.0367334 0.163378 56 36 54
0.046482 -0.0362777 0.161352 56 35 53
0.0474939 -0.0364056 0.16192 57 37 54
0.047606 -0.0358513 0.159455 57 36 54
0.0491136 -0.036349 0.161669 57 36 54
0.0503938 -0.0366643 0.163071 57 35 53
0.0504964 -0.0361267 0.16068 56 33 52
0.0522343 -0.0367574 0.163485 56 32 51
0.0531581 -0.0368041 0.163693 56 31 51
0.0545533 -0.0371706 0.165323 56 29 49
0.0561961 -0.0376916 0.16764 54 24 46
0.0565371 -0.0373369 0.166062 56 29 48
0.0577529 -0.0375619 0.167063 54 27 46
0.0589797 -0.0377874 0.168066 53 21 44
0.058675 -0.0370393 0.164739 52 20 41
0.0600373 -0.03735 0.166121 52 19 40
0.0616047 -0.0377776 0.168023 52 19 40
0.06184 -0.0373878 0.166289 52 19 39
0.0630213 -0.0375728 0.167111 51 18 39
0.0639202 -0.0375867 0.167173 51 18 39
0.0639841 -0.0371158 0.165079 53 20 41
0.0646214 -0.0369857 0.1645 54 21 42
0.0658056 -0.0371679 0.165311 56 25 46
0.0673245 -0.0375319 0.16693 58 32 49
0.0655277 -0.0360619 0.160392 58 34 50
0.0686049 -0.0372775 0.165798 57 35 50
0.0684834 -0.0367463 0.163436 61 42 55
0.0691604 -0.0366514 0.163014 60 42 54
0.070088 -0.0366901 0.163185 61 45 56
0.0705184 -0.0364706 0.162209 61 46 56
0.0722074 -0.0368995 0.164117 60 44 55
0.0707757 -0.0357424 0.158971 61 48 57
0.0716157 -0.0357461 0.158987 62 48 59
0.0722679 -0.035657 0.158591 62 48 59
0.0725478 -0.0353883 0.157396 61 48 58
0.0738457 -0.0356167 0.158412 61 49 59
0.0749781 -0.0357611 0.159054 61 48 58
0.0734538 -0.034649 0.154108 62 49 59
0.0755514 -0.0352511 0.156786 62 49 59
0.0766816 -0.0353937 0.15742 61 48 58
0.0781411 -0.0356837 0.15871 62 49 59
0.0779187 -0.0352076 0.156592 61 48 58
0.0786385 -0.0351627 0.156392 61 48 58
0.0791266 -0.0350162 0.155741 61 48 58
0.0780451 -0.0341852 0.152045 61 49 58
0.0829058 -0.0359475 0.159883 63 51 60
0.08239 -0.0353666 0.157299 62 50 59
0.0835795 -0.0355219 0.15799 63 51 60
0.0842968 -0.0354755 0.157784 62 50 59
0.0843901 -0.03517 0.156425 61 50 59
0.0839281 -0.0346412 0.154073 62 51 60
0.0881369 -0.0360319 0.160258 61 50 59
0.0871288 -0.0352837 0.156931 62 50 59
0.0886495 -0.035564 0.158177 62 51 60
0.0889297 -0.0353461 0.157208 63 51 60
0.0900553 -0.0354651 0.157737 62 51 59
0.0920813 -0.0359333 0.15982 62 51 59
0.0943699 -0.0364946 0.162316 61 50 58
0.0967343 -0.037075 0.164897 61 50 59
0.0941077 -0.0357491 0.159 62 52 60
0.0971786 -0.0365918 0.162749 63 54 61
0.0941161 -0.0351305 0.156249 63 53 60
0.0929427 -0.0343934 0.152971 62 53 59
0.0966979 -0.0354772 0.157791 63 53 60
0.0961974 -0.0349945 0.155644 62 54 60
0.0982338 -0.035435 0.157603 62 54 60
