ply
format ascii 1.0
element vertex 1291
property float x
property float y
property float z
property uchar red
property uchar green
property uchar blue
end_header
0.0188735 0.0278128 0.171587 53 36 56
0.0197042 0.0277171 0.170997 53 37 57
0.0204117 0.0274639 0.169435 54 38 57
0.020959 0.0270253 0.166729 49 31 54
0.0222556 0.0275493 0.169962 51 33 55
0.0233086 0.027743 0.171157 50 30 53
0.0238488 0.0273347 0.168638 54 35 55
0.024752 0.0273567 0.168773 51 30 52
0.0250618 0.0267439 0.164993 53 33 53
0.0265631 0.0274012 0.169047 51 29 51
0.0271899 0.027143 0.167455 52 29 50
0.027008 0.0261189 0.161137 50 27 48
0.0289349 0.0271344 0.167401 52 27 48
0.0300879 0.0273857 0.168952 46 19 40
0.0308776 0.0273015 0.168433 47 20 41
0.030896 0.026559 0.163852 50 23 45
0.0313904 0.0262547 0.161975 45 18 39
0.0330901 0.026948 0.166252 46 19 39
0.0334286 0.0265256 0.163646 47 19 38
0.0341025 0.0263838 0.162771 48 20 39
0.0341162 0.0257507 0.158865 41 15 29
0.035301 0.0260105 0.160468 45 17 34
0.0373977 0.0269146 0.166046 44 15 30
0.0375621 0.0264186 0.162985 42 14 26
0.0391492 0.0269229 0.166097 44 16 32
0.0397532 0.0267439 0.164993 45 15 32
0.0394707 0.0259889 0.160335 45 16 32
0.0408268 0.0263218 0.162389 45 17 34
0.0417027 0.0263378 0.162487 50 21 40
0.0428587 0.0265266 0.163652 52 24 42
0.0435913 0.026451 0.163185 53 25 45
0.0467567 0.0278261 0.171669 52 22 43
0.0462234 0.0269897 0.166509 48 19 40
0.0470047 0.0269376 0.166188 53 28 47
0.0486936 0.0273981 0.169029 55 34 50
0.0475036 0.0262513 0.161953 55 34 51
0.0508516 0.0276084 0.170326 55 34 51
0.051748 0.0276107 0.17034 54 33 50
0.0510735 0.0267889 0.16527 54 33 51
0.0523393 0.0269953 0.166544 55 34 52
0.053506 0.0271447 0.167465 54 33 51
0.0548683 0.0273868 0.168959 53 31 50
0.0547454 0.0268917 0.165905 53 31 50
0.0562069 0.0271782 0.167672 53 32 49
0.0577755 0.0275069 0.1697 52 32 49
0.0585957 0.0274747 0.169501 51 29 48
0.0593322 0.0274049 0.16907 52 31 49
0.0590903 0.0268917 0.165905 52 30 49
0.0614337 0.027553 0.169984 52 31 49
0.0628637 0.0277916 0.171456 52 30 49
0.062715 0.0273353 0.168641 51 28 47
0.0655187 0.0281608 0.173734 49 26 46
0.0648807 0.0275045 0.169685 49 27 46
0.0726029 0.0303623 0.187316 49 27 47
0.0771532 0.031835 0.196401 49 25 47
0.078691 0.0320423 0.19768 50 26 46
0.10029 0.040307 0.248668 48 23 44
0.122704 0.048683 0.300343 47 23 45
0.166242 0.0651215 0.401758 46 22 44
0.226163 0.0874868 0.539737 46 21 44
0.278298 0.106325 0.655958 47 20 44
0.347881 0.131289 0.80997 49 23 45
0.38903 0.14505 0.894863 49 25 46
0.378726 0.139527 0.860791 48 24 45
0.473462 0.172376 1.06345 48 24 45
0.595869 0.214419 1.32283 48 23 45
0.617738 0.219734 1.35562 49 24 45
0.583648 0.205248 1.26625 49 23 44
0.62023 0.215663 1.3305 49 23 44
0.687125 0.236268 1.45762 48 21 45
0.714959 0.243137 1.5 49 24 47
0.699264 0.235215 1.45113 49 24 46
0.75448 0.251059 1.54887 50 24 47
0.738529 0.243137 1.5 51 24 47
0.767473 0.250006 1.54238 50 24 45
0.729667 0.235215 1.45113 49 23 44
0.762099 0.243137 1.5 48 21 42
0.769956 0.243137 1.5 47 20 41
0.752469 0.235215 1.45113 48 22 43
0.867357 0.268417 1.65596 47 20 40
0.824059 0.252492 1.55772 46 19 37
0.770548 0.233782 1.44228 47 19 38
0.782872 0.235215 1.45113 49 20 42
0.909429 0.270612 1.6695 44 17 36
0.824953 0.243137 1.5 46 17 38
0.83281 0.243137 1.5 46 17 37
0.911095 0.263507 1.62567 47 18 36
0.848523 0.243137 1.5 46 18 35
0.973323 0.276339 1.70483 46 17 34
0.864236 0.243137 1.5 42 15 29
0.924613 0.25778 1.59033 43 15 28
0.913808 0.252492 1.55772 43 15 29
0.887806 0.243137 1.5 44 16 32
0.949603 0.25778 1.59033 43 15 31
0.696288 0.187371 1.15596 46 18 34
1.09072 0.290981 1.79517 47 18 36
0.842222 0.222768 1.37433 43 15 29
0.744659 0.195293 1.20483 43 16 30
0.750969 0.195293 1.20483 47 18 37
-0.393253 0.104687 0.625666 68 64 59
-0.439321 0.117933 0.704833 74 70 63
-0.420207 0.113758 0.67988 75 68 62
-0.431937 0.117933 0.704833 75 68 62
-0.435683 0.119981 0.717074 71 65 59
-0.409523 0.113758 0.67988 69 64 60
-0.420862 0.117933 0.704833 70 64 60
-0.388243 0.109755 0.655958 67 61 57
-0.421423 0.120199 0.718376 64 58 53
-0.387154 0.111419 0.665905 67 59 55
-0.413148 0.119981 0.717074 65 57 53
-0.402403 0.117933 0.704833 66 57 54
-0.362818 0.107316 0.641382 64 53 51
-0.381035 0.113758 0.67988 62 51 47
-0.37597 0.113304 0.677171 66 58 54
-0.372423 0.113304 0.677171 62 54 49
-0.383944 0.117933 0.704833 68 57 54
-0.380252 0.117933 0.704833 64 52 49
-0.369476 0.115714 0.691572 63 50 48
-0.365853 0.115714 0.691572 63 51 49
-0.38278 0.122278 0.730803 64 53 50
-0.372508 0.120199 0.718376 61 46 43
-0.361794 0.117933 0.704833 61 46 44
-0.358102 0.117933 0.704833 60 44 42
-0.381024 0.126789 0.757762 59 41 43
-0.350718 0.117933 0.704833 58 40 42
-0.339738 0.115456 0.69003 60 44 44
-0.328219 0.112741 0.673803 59 41 42
-0.339643 0.117933 0.704833 56 35 39
-0.321161 0.112741 0.673803 60 44 47
-0.324364 0.11513 0.688083 57 39 44
-0.32076 0.11513 0.688083 62 47 51
-0.293276 0.106462 0.636275 62 50 52
-0.313552 0.11513 0.688083 59 45 47
-0.301577 0.112021 0.669501 61 47 52
-0.265872 0.0999202 0.59718 61 47 52
-0.317677 0.120811 0.722035 61 48 52
-0.272 0.104687 0.625666 59 46 51
-0.253548 0.0987749 0.590334 60 47 53
-0.250456 0.0987749 0.590334 57 44 51
-0.236099 0.0942768 0.563451 58 45 53
-0.248146 0.100341 0.599696 56 44 52
-0.26799 0.109755 0.655958 57 44 52
-0.201655 0.0836601 0.5 57 46 52
-0.212362 0.0892612 0.533475 59 48 55
-0.168743 0.071873 0.429553 59 49 57
-0.150698 0.0650541 0.3888 59 49 56
-0.166918 0.0730435 0.436549 58 47 55
-0.154494 0.0685453 0.409665 58 48 56
-0.185942 0.0836601 0.5 60 52 58
-0.197037 0.0899188 0.537405 58 50 57
-0.180704 0.0836601 0.5 59 51 58
-0.142576 0.066979 0.400304 58 49 57
-0.136443 0.0650541 0.3888 60 52 59
-0.161275 0.078059 0.466525 59 50 57
-0.107058 0.0526143 0.314453 61 53 59
-0.167609 0.0836601 0.5 60 51 58
-0.145945 0.0740031 0.442284 57 47 57
-0.152534 0.0785916 0.469708 57 47 57
-0.170448 0.0892612 0.533475 57 47 58
-0.233261 0.124191 0.742238 57 47 58
-0.208225 0.112741 0.673803 57 45 57
-0.205719 0.113304 0.677171 58 48 59
-0.167614 0.0939365 0.561417 57 46 58
-0.127075 0.0724887 0.433233 59 48 59
-0.0875435 0.0508465 0.303887 59 47 59
-0.0617656 0.0365387 0.218376 56 44 56
-0.0666103 0.0401481 0.239948 56 43 56
-0.0636654 0.0391111 0.23375 56 42 55
-0.0590513 0.0369879 0.22106 57 43 56
-0.0506521 0.0323614 0.19341 58 46 58
-0.0515256 0.0335913 0.200761 56 41 55
-0.04979 0.0331361 0.19804 56 41 56
-0.0480172 0.0326361 0.195052 56 41 56
-0.0462039 0.0320864 0.191766 56 40 56
-0.0454484 0.0322631 0.192822 56 38 55
-0.0455579 0.0330759 0.19768 54 36 52
-0.0439565 0.0326554 0.195167 54 34 51
-0.041753 0.0317569 0.189797 54 34 51
-0.0410376 0.031974 0.191095 55 35 51
-0.0405239 0.0323632 0.19342 56 35 50
-0.0393525 0.0322335 0.192646 53 31 47
-0.037894 0.0318557 0.190388 53 30 47
-0.0365123 0.0315237 0.188404 54 30 47
-0.0360453 0.031985 0.19116 55 30 46
-0.0347231 0.0316921 0.18941 53 25 43
-0.0344561 0.0323734 0.193481 51 22 41
-0.0328231 0.0317736 0.189897 50 22 40
-0.0319716 0.0319164 0.190751 51 23 42
-0.0313348 0.0322898 0.192982 52 25 42
-0.0294215 0.0313288 0.187239 53 26 43
-0.0284525 0.0313417 0.187316 50 20 39
-0.0273361 0.0311874 0.186393 49 19 39
-0.0267644 0.0316661 0.189254 52 22 43
-0.0253819 0.0311853 0.186381 54 28 47
-0.0246939 0.0315536 0.188582 54 29 48
-0.0243305 0.0323847 0.193549 55 32 50
-0.0220662 0.0306479 0.183169 55 35 53
-0.0215591 0.0313046 0.187094 57 38 55
-0.0203823 0.0310051 0.185304 57 40 57
-0.0192325 0.0307188 0.183593 56 41 57
-0.0187425 0.0315118 0.188332 56 42 58
-0.0170916 0.0303327 0.181285 57 43 59
-0.0159882 0.0300436 0.179557 56 42 59
-0.0150235 0.0299952 0.179268 57 43 59
-0.014262 0.0303731 0.181527 57 44 60
-0.0131683 0.0300471 0.179578 56 43 59
-0.0125564 0.0308547 0.184405 56 43 60
-0.0113455 0.0302025 0.180507 56 43 60
-0.0104955 0.0304796 0.182163 56 44 60
-0.00932295 0.029782 0.177994 57 45 61
-0.00842804 0.0299147 0.178787 57 45 61
-0.00753614 0.0300925 0.17985 56 45 61
-0.00658761 0.0300628 0.179672 56 44 61
-0.00555529 0.0295771 0.176769 56 43 61
-0.00478518 0.0305723 0.182717 55 42 60
-0.00371194 0.0296443 0.177171 55 43 61
-0.00284903 0.0303372 0.181312 55 43 61
-0.001885 0.030108 0.179943 55 42 61
-0.000931514 0.029757 0.177845 55 42 61
0 0.0300471 0.179578 55 42 61
0.000952087 0.0304142 0.181772 53 41 61
0.00183086 0.0292432 0.174774 55 44 62
0.00279816 0.0297955 0.178075 54 42 61
0.00372774 0.0297704 0.177925 53 40 60
0.00449528 0.0287202 0.171648 53 40 60
0.0055458 0.0295265 0.176467 53 39 60
0.00657226 0.0299928 0.179254 54 40 60
0.00744348 0.0297226 0.177639 55 42 61
0.00819148 0.029075 0.173769 56 44 62
0.0092094 0.0294192 0.175826 53 39 59
0.0100196 0.0290977 0.173905 54 40 60
0.0110186 0.0293323 0.175306 54 41 60
0.0119142 0.0292766 0.174974 56 44 61
0.01278 0.029161 0.174283 54 38 59
0.0136201 0.0290062 0.173357 53 36 58
0.014452 0.0288541 0.172448 55 40 60
0.0157176 0.0295351 0.176518 54 39 59
0.0162786 0.0288898 0.172662 54 39 59
0.0167776 0.0282082 0.168588 53 36 56
0.0178434 0.0285002 0.170333 52 35 56
0.0191802 0.0291766 0.174376 53 36 56
0.0196891 0.0285893 0.170866 51 34 55
0.0202992 0.0281936 0.168501 51 34 55
0.0216832 0.0288611 0.17249 51 32 54
0.0225235 0.0287803 0.172007 52 35 55
0.0232813 0.0286044 0.170956 53 35 55
0.0241976 0.0286292 0.171104 53 34 54
0.0248588 0.028361 0.169501 51 31 52
0.0250774 0.0276239 0.165096 52 31 51
0.0262348 0.0279355 0.166958 52 30 50
0.0274612 0.0282981 0.169125 49 24 46
0.0276289 0.0275812 0.164841 48 21 45
0.0288403 0.0279181 0.166854 46 19 43
0.0294405 0.0276609 0.165317 46 19 40
0.0304872 0.0278259 0.166303 45 18 39
0.030896 0.0274157 0.163852 45 18 40
0.0311996 0.0269369 0.16099 48 20 42
0.0323456 0.0271914 0.162511 47 19 39
0.0335133 0.0274506 0.16406 47 19 38
0.0345923 0.0276261 0.165109 47 19 39
0.0349748 0.0272503 0.162863 43 16 32
0.0361505 0.0274957 0.16433 45 17 34
0.0367126 0.0272739 0.163004 42 13 26
0.0370325 0.0268862 0.160687 43 14 28
0.038885 0.0276038 0.164976 44 16 35
0.0401623 0.0278908 0.166691 44 15 32
0.0399297 0.0271393 0.162199 47 17 35
0.0413735 0.0275348 0.164563 51 24 42
0.0432517 0.0281973 0.168523 46 18 36
0.0436266 0.0278729 0.166584 48 19 39
0.0441359 0.0276453 0.165224 53 28 47
0.0438274 0.0269242 0.160914 51 22 44
0.0459632 0.0277035 0.165572 52 23 45
0.0465519 0.0275387 0.164587 51 27 47
0.0482419 0.0280196 0.167461 55 35 51
0.0486626 0.0277592 0.165905 53 32 50
0.0501117 0.0280843 0.167848 55 35 52
0.0514932 0.028361 0.169501 54 32 51
0.0507179 0.0274605 0.16412 56 36 54
0.0517088 0.0275305 0.164538 54 33 52
0.0540698 0.0283156 0.16923 54 33 51
0.0561249 0.0289177 0.172829 53 31 50
0.0560901 0.028441 0.16998 53 32 51
0.0559293 0.0279164 0.166844 51 30 48
0.0573903 0.0282049 0.168569 51 29 48
0.0585584 0.0283429 0.169393 52 32 50
0.0590802 0.0281687 0.168352 52 30 49
0.0617301 0.0289993 0.173316 53 31 50
0.0626882 0.0290226 0.173455 51 29 48
0.0640489 0.029229 0.174689 52 30 49
0.065509 0.0294742 0.176154 49 27 47
0.0657982 0.0291932 0.174475 50 29 47
0.0684568 0.0299567 0.179038 48 27 46
0.0738533 0.0318814 0.190541 48 25 46
0.0810651 0.0345281 0.206359 49 25 47
0.0985269 0.0414134 0.24751 49 25 46
0.12347 0.0512238 0.306142 47 22 44
0.164137 0.0672222 0.401758 48 24 45
0.206893 0.0836601 0.5 47 24 45
0.288323 0.11513 0.688083 48 24 46
0.331613 0.130782 0.781624 47 22 45
0.367486 0.143162 0.855615 47 22 45
0.495256 0.190613 1.13921 48 22 44
0.439975 0.16732 1 47 23 44
0.58894 0.221336 1.32283 48 24 45
0.570383 0.211869 1.26625 48 24 45
0.590192 0.216708 1.29517 47 21 43
0.609726 0.221336 1.32283 48 23 45
0.699246 0.25098 1.5 47 22 43
0.639039 0.226822 1.35562 48 23 45
0.714959 0.25098 1.5 49 24 46
0.722816 0.25098 1.5 50 26 47
0.679459 0.233389 1.39486 49 22 46
0.762593 0.259158 1.54887 51 26 48
0.808916 0.272007 1.62567 52 28 48
0.681642 0.226822 1.35562 51 26 46
0.737268 0.242803 1.45113 50 23 44
0.799582 0.260637 1.55772 47 20 41
0.747885 0.241323 1.44228 48 20 42
0.748771 0.239193 1.42955 51 25 43
0.860006 0.272007 1.62567 51 25 42
0.832218 0.260637 1.55772 44 17 35
0.840377 0.260637 1.55772 45 17 36
0.817096 0.25098 1.5 46 18 37
0.856695 0.260637 1.55772 46 17 37
0.864854 0.260637 1.55772 47 18 38
0.955464 0.285253 1.70483 45 17 34
0.848523 0.25098 1.5 44 16 33
0.81616 0.239193 1.42955 42 15 29
1.01275 0.294109 1.75776 39 13 24
0.924613 0.266095 1.59033 46 16 32
0.932943 0.266095 1.59033 45 15 30
0.83434 0.235866 1.40967 43 16 31
0.841724 0.235866 1.40967 46 18 34
0.957932 0.266095 1.59033 46 17 34
0.987729 0.272007 1.62567 48 20 38
0.919233 0.25098 1.5 47 18 36
0.92709 0.25098 1.5 50 21 40
0.750969 0.201593 1.20483 49 20 39
-0.469071 0.128772 0.746293 77 77 67
-0.439321 0.121618 0.704833 75 75 64
-0.458747 0.128072 0.742238 76 75 65
-0.447852 0.126099 0.730803 74 72 63
-0.420188 0.11933 0.691572 71 70 60
-0.449527 0.128772 0.746293 74 72 63
-0.428948 0.123955 0.718376 73 69 61
-0.454725 0.132567 0.768284 70 65 58
-0.420659 0.12373 0.717074 67 61 55
-0.431534 0.128072 0.742238 70 63 58
-0.429982 0.128772 0.746293 66 59 55
-0.394832 0.11933 0.691572 67 60 56
-0.444437 0.135566 0.785666 69 60 57
-0.387587 0.11933 0.691572 67 59 54
-0.420714 0.130751 0.757762 64 57 51
-0.387636 0.121618 0.704833 63 55 51
-0.406529 0.128772 0.746293 67 57 54
-0.380252 0.121618 0.704833 63 51 46
-0.390435 0.126099 0.730803 61 47 46
-0.365853 0.11933 0.691572 64 53 52
-0.346477 0.11414 0.661494 64 52 50
-0.351142 0.116845 0.677171 63 48 45
-0.361794 0.121618 0.704833 63 50 48
-0.372794 0.126608 0.73375 59 43 41
-0.375257 0.128772 0.746293 60 45 46
-0.371348 0.128772 0.746293 57 40 41
-0.347026 0.121618 0.704833 58 42 42
-0.372099 0.131807 0.763883 60 44 45
-0.36205 0.129642 0.751332 58 40 42
-0.335951 0.121618 0.704833 59 44 45
-0.340368 0.124586 0.722035 59 44 47
-0.328568 0.121618 0.704833 61 48 51
-0.324876 0.121618 0.704833 63 52 53
-0.305084 0.115522 0.669501 62 49 52
-0.308805 0.11829 0.685547 63 51 54
-0.29554 0.114541 0.663817 60 47 51
-0.281236 0.110295 0.639209 62 51 55
-0.25664 0.101862 0.590334 60 48 53
-0.26251 0.105462 0.6112 61 50 55
-0.289391 0.117697 0.682106 59 46 52
-0.209512 0.0862745 0.5 59 47 55
-0.233148 0.0972229 0.563451 57 46 54
-0.261148 0.110295 0.639209 58 47 54
-0.215156 0.0920507 0.533475 59 48 55
-0.167522 0.0726143 0.420833 57 47 54
-0.213065 0.0935869 0.542379 59 49 56
-0.193798 0.0862745 0.5 60 52 57
-0.205482 0.0927287 0.537405 56 48 55
-0.201185 0.0920507 0.533475 60 53 59
-0.144588 0.0670871 0.3888 58 48 56
-0.14677 0.0690721 0.400304 60 52 58
-0.180704 0.0862745 0.5 58 49 56
-0.167296 0.0810476 0.469708 58 50 57
-0.153199 0.0753261 0.436549 58 50 56
-0.129405 0.064591 0.374334 59 51 57
-0.142116 0.0720269 0.417429 60 51 58
-0.148262 0.0763157 0.442284 59 50 57
-0.139902 0.0731555 0.423969 57 47 57
-0.154107 0.0818829 0.474549 58 49 58
-0.184045 0.0993935 0.576031 59 49 58
-0.207886 0.11414 0.661494 59 50 59
-0.182431 0.101862 0.590334 56 45 57
-0.163259 0.0927287 0.537405 59 49 59
-0.139283 0.0804984 0.466525 57 46 57
-0.108305 0.0637122 0.369241 56 45 57
-0.0737017 0.0441447 0.255839 57 47 57
-0.0661141 0.0403334 0.23375 57 45 57
-0.0576408 0.0358276 0.207637 58 46 57
-0.0618037 0.0391539 0.226915 56 43 56
-0.052708 0.0340463 0.197314 58 46 57
-0.0525817 0.034644 0.200778 56 42 55
-0.0519882 0.0349521 0.202563 57 43 56
-0.0493519 0.0338709 0.196297 55 38 55
-0.0486773 0.0341187 0.197733 56 40 56
-0.0455544 0.032624 0.189071 54 37 54
-0.0468225 0.0342772 0.198652 56 41 55
-0.0456377 0.0341692 0.198026 53 35 51
-0.0430733 0.0329992 0.191245 53 35 51
-0.0422512 0.0331401 0.192062 54 34 51
-0.0421631 0.0338776 0.196336 54 33 50
-0.0400462 0.0329811 0.191141 55 34 50
-0.0389073 0.0328647 0.190466 55 34 50
-0.0380917 0.0330226 0.191381 55 32 48
-0.0366506 0.0326319 0.189117 56 32 48
-0.0358192 0.0327776 0.189961 55 30 46
-0.0348492 0.0328011 0.190097 50 22 40
-0.0331517 0.0321211 0.186156 51 24 41
-0.0319518 0.0318967 0.184856 49 21 40
-0.0318619 0.0328009 0.190096 52 24 42
-0.030265 0.032162 0.186393 53 26 43
-0.0294692 0.0323602 0.187542 51 23 41
-0.0280458 0.0318591 0.184638 53 24 43
-0.0264512 0.0311208 0.180359 49 19 38
-0.0260294 0.0317589 0.184057 50 20 39
-0.025516 0.0323297 0.187366 54 28 46
-0.0248502 0.0327456 0.189776 53 29 47
-0.0235718 0.0323554 0.187514 57 38 54
-0.0222361 0.0318489 0.184579 58 41 55
-0.0211938 0.0317358 0.183924 57 39 55
-0.0202136 0.0317095 0.183771 58 42 57
-0.018816 0.0309928 0.179617 56 41 57
-0.018661 0.0323554 0.187514 57 43 58
-0.017571 0.0321579 0.186369 57 43 58
-0.016403 0.0317861 0.184215 57 43 59
-0.0152826 0.031466 0.18236 57 44 60
-0.0144103 0.031648 0.183415 57 43 59
-0.0133817 0.0314882 0.182488 58 44 60
-0.012419 0.0314709 0.182388 57 44 60
-0.0117604 0.0322854 0.187109 57 45 60
-0.0104822 0.0313924 0.181933 57 45 61
-0.00963855 0.0317523 0.184019 56 44 60
-0.00850557 0.0311333 0.180432 57 45 61
-0.0076608 0.0315463 0.182825 56 44 61
-0.00656889 0.0309142 0.179162 57 46 62
-0.00573838 0.0315066 0.182595 55 42 61
-0.00472216 0.0311125 0.180311 56 44 61
-0.00373862 0.0307904 0.178444 56 44 61
-0.00278841 0.0306195 0.177454 56 43 60
-0.00184713 0.0304251 0.176327 54 41 60
-0.000920726 0.0303315 0.175785 55 43 61
0 0.0307624 0.178282 55 42 61
0.000945664 0.0311531 0.180546 53 40 60
0.00189515 0.031216 0.180911 54 41 60
0.00282794 0.0310537 0.17997 54 41 61
0.00373372 0.03075 0.17821 54 42 62
0.00461047 0.0303766 0.176046 53 40 60
0.00553727 0.0304024 0.176196 54 41 61
0.00649152 0.0305501 0.177052 53 40 60
0.00749573 0.0308665 0.178886 53 38 59
0.0084408 0.0308962 0.179058 55 40 60
0.00947074 0.0311995 0.180815 54 40 60
0.0101656 0.0304443 0.176439 53 39 59
0.0108529 0.029794 0.17267 55 40 60
0.0118366 0.0299949 0.173834 53 38 58
0.0129839 0.0305521 0.177063 54 37 58
0.0133498 0.0293189 0.169916 55 39 60
0.0145935 0.0300472 0.174137 52 36 57
0.0156395 0.0303067 0.175641 54 38 58
0.0161683 0.0295908 0.171492 54 36 57
0.0169249 0.0293451 0.170068 52 35 56
0.0181231 0.0298515 0.173003 51 34 55
0.0186517 0.0292592 0.169571 51 34 54
0.0196264 0.0293888 0.170321 51 34 55
0.0205908 0.0294924 0.170922 51 34 56
0.0217087 0.029798 0.172693 50 32 54
0.0219348 0.028904 0.167512 48 27 50
0.022839 0.028938 0.167709 49 27 49
0.0233097 0.0284404 0.164825 52 31 52
0.0249566 0.0293624 0.170169 50 29 49
0.0247135 0.0280738 0.1627 52 32 50
0.0257707 0.0282989 0.164005 54 33 52
0.0265159 0.0281779 0.163304 48 21 44
0.0281813 0.0290118 0.168137 47 19 43
0.0281723 0.0281237 0.16299 45 18 41
0.0288359 0.0279395 0.161922 47 20 41
0.0302257 0.0284493 0.164877 46 20 41
0.0306809 0.0280757 0.162711 45 18 39
0.0325634 0.0289929 0.168027 47 20 39
0.0322832 0.0279871 0.162198 44 17 35
0.0331556 0.0280063 0.162309 44 17 35
0.0342637 0.0282188 0.163541 42 15 30
0.0352792 0.0283465 0.164281 42 15 30
0.0357379 0.0280313 0.162454 41 14 30
0.0369043 0.028273 0.163855 41 14 28
0.0378332 0.0283259 0.164162 47 18 36
0.0388392 0.0284329 0.164782 46 18 38
0.0392648 0.0281196 0.162966 44 16 35
0.0403088 0.0282531 0.16374 52 24 43
0.0415847 0.0285401 0.165403 48 20 40
0.042963 0.0288844 0.167398 52 25 44
0.043053 0.028366 0.164394 53 26 45
0.0440885 0.0284786 0.165046 52 28 47
0.0453199 0.0287111 0.166394 55 31 49
0.0449445 0.027936 0.161902 54 31 49
0.0468263 0.0285667 0.165557 55 34 52
0.0474203 0.0284031 0.164609 54 33 51
0.0485389 0.0285539 0.165483 54 32 50
0.0497329 0.0287431 0.166579 54 32 51
0.0502848 0.0285609 0.165524 53 31 51
0.0513907 0.0286944 0.166297 53 33 51
0.0532688 0.0292473 0.169501 54 33 52
0.052548 0.0283786 0.164467 54 34 52
0.0546084 0.0290156 0.168159 53 32 50
0.055248 0.0288895 0.167428 54 33 51
0.057822 0.029763 0.17249 53 31 50
0.0578923 0.0293408 0.170043 53 32 51
0.0575268 0.0287138 0.166409 52 31 50
0.0619701 0.0304699 0.176587 53 31 51
0.0619868 0.0300299 0.174037 51 30 49
0.0621117 0.0296543 0.17186 51 29 49
0.0635381 0.029902 0.173296 50 27 48
0.0670521 0.0311113 0.180304 48 25 47
0.072066 0.0329732 0.191095 49 27 47
0.0769649 0.0347323 0.201289 49 27 46
0.0781463 0.0347889 0.201618 48 25 47
0.106177 0.0466373 0.270284 48 25 47
0.124806 0.0540986 0.313526 48 26 46
0.171933 0.0735586 0.426305 45 21 43
0.213239 0.0900609 0.521944 46 22 44
0.238353 0.0993935 0.576031 45 21 44
0.31752 0.130751 0.757762 46 22 45
0.399775 0.16259 0.942284 47 23 46
0.517475 0.207893 1.20483 48 24 46
0.534031 0.211959 1.2284 49 25 46
0.591345 0.231913 1.34404 49 26 46
0.58894 0.228253 1.32283 50 27 46
0.610638 0.23391 1.35562 50 27 46
0.626268 0.23714 1.37433 48 23 45
0.649752 0.243236 1.40967 48 24 45
0.657135 0.243236 1.40967 48 25 44
0.72708 0.266136 1.54238 47 23 45
0.671902 0.243236 1.40967 47 20 43
0.750628 0.268782 1.55772 50 25 46
0.730673 0.258824 1.5 48 21 45
0.821984 0.288071 1.6695 47 19 43
0.770705 0.267257 1.54887 50 24 45
0.783264 0.268782 1.55772 50 23 44
0.825946 0.280507 1.62567 49 20 42
0.769956 0.258824 1.5 46 19 39
0.741283 0.246668 1.42955 46 19 39
0.892957 0.294167 1.70483 47 20 39
0.883195 0.288071 1.6695 44 17 35
0.770548 0.248865 1.44228 43 16 34
0.840377 0.268782 1.55772 43 15 34
0.866304 0.274411 1.59033 44 16 33
0.894065 0.280507 1.62567 43 15 32
0.946534 0.294167 1.70483 43 16 33
0.880148 0.270979 1.57045 42 15 31
0.797422 0.243236 1.40967 43 15 32
0.896599 0.270979 1.57045 44 16 32
0.982252 0.294167 1.70483 46 16 31
0.91305 0.270979 1.57045 43 14 27
0.87995 0.258824 1.5 41 13 25
0.941273 0.274411 1.59033 40 13 26
0.970699 0.280507 1.62567 42 15 31
0.696288 0.199459 1.15596 45 18 35
1.09072 0.309754 1.79517 48 20 38
0.996244 0.280507 1.62567 51 22 39
1.13973 0.318188 1.84404 51 23 40
0.856619 0.23714 1.37433 49 19 39
-0.47628 0.134713 0.757762 76 84 71
-0.457345 0.130444 0.73375 77 81 67
-0.453502 0.130444 0.73375 78 79 66
-0.449658 0.130444 0.73375 78 78 65
-0.445815 0.130444 0.73375 74 74 63
-0.460122 0.135801 0.763883 76 75 65
-0.438129 0.130444 0.73375 78 76 66
-0.425186 0.127711 0.718376 74 69 61
-0.405699 0.122946 0.691572 74 68 60
-0.426599 0.130444 0.73375 72 67 59
-0.422756 0.130444 0.73375 71 65 58
-0.384687 0.119787 0.673803 71 65 59
-0.415069 0.130444 0.73375 65 57 50
-0.40261 0.127711 0.718376 64 57 49
-0.420714 0.134713 0.757762 69 63 56
-0.387636 0.125304 0.704833 68 60 56
-0.392199 0.127998 0.719988 68 60 55
-0.41211 0.135801 0.763883 69 61 55
-0.424822 0.141363 0.795167 66 56 52
-0.380033 0.127711 0.718376 66 56 51
-0.386262 0.131102 0.737451 65 55 49
-0.417567 0.143159 0.805271 67 55 51
-0.369572 0.127998 0.719988 61 46 44
-0.388103 0.135801 0.763883 63 51 49
-0.416095 0.147113 0.82751 66 54 53
-0.359278 0.128362 0.722035 64 51 50
-0.355496 0.128362 0.722035 65 51 52
-0.359224 0.131102 0.737451 60 45 46
-0.36205 0.13357 0.751332 60 46 47
-0.335951 0.125304 0.704833 65 53 54
-0.324364 0.122326 0.688083 63 51 51
-0.359692 0.137173 0.771599 66 56 55
-0.366513 0.141363 0.795167 63 53 52
-0.321184 0.125304 0.704833 61 49 51
-0.308805 0.121875 0.685547 64 53 55
-0.305214 0.121875 0.685547 68 59 60
-0.318859 0.128839 0.724721 65 56 56
-0.288586 0.118012 0.663817 62 53 55
-0.302725 0.125304 0.704833 63 54 57
-0.275263 0.115343 0.648805 60 49 54
-0.251287 0.106613 0.599696 62 51 56
-0.222371 0.0955387 0.537405 60 52 57
-0.24118 0.104948 0.590334 59 51 56
-0.230067 0.101413 0.570447 60 52 58
-0.199036 0.0888889 0.5 56 48 55
-0.211111 0.0955387 0.537405 58 50 56
-0.166494 0.0763651 0.429553 58 49 56
-0.174976 0.0813549 0.457621 60 55 59
-0.188561 0.0888889 0.5 59 52 57
-0.134172 0.0641406 0.360791 59 51 56
-0.160059 0.0776087 0.436549 60 53 57
-0.114889 0.0565145 0.317894 56 46 54
-0.157528 0.0786283 0.442284 58 50 57
-0.143765 0.0728294 0.409665 59 52 58
-0.108705 0.0559027 0.314453 60 52 58
-0.123833 0.0646622 0.363725 59 51 57
-0.0989456 0.0524742 0.295167 58 50 58
-0.130297 0.0701979 0.394863 57 48 57
-0.155246 0.0849878 0.478056 58 49 58
-0.159753 0.0888889 0.5 58 49 58
-0.163195 0.0923174 0.519286 58 48 58
-0.143596 0.0826077 0.464669 58 48 58
-0.126812 0.0742096 0.417429 58 47 58
-0.096382 0.0573918 0.322829 58 47 57
-0.0788015 0.0477612 0.268657 57 46 57
-0.0669767 0.0413323 0.232494 57 46 57
-0.0624927 0.0392793 0.220946 58 48 58
-0.0576958 0.0369486 0.207836 57 45 56
-0.0572971 0.0373988 0.210368 57 43 56
-0.0532487 0.0354379 0.199338 59 46 58
-0.0519345 0.0352545 0.198307 57 45 56
-0.0498601 0.0345371 0.194271 58 45 56
-0.0491905 0.0347832 0.195655 59 45 57
-0.0487091 0.0351756 0.197863 56 40 56
-0.0470174 0.034692 0.195143 54 37 53
-0.0455295 0.0343407 0.193166 55 38 54
-0.0451744 0.0348473 0.196016 57 41 55
-0.043017 0.0339547 0.190995 54 36 51
-0.0426143 0.0344378 0.193712 55 36 52
-0.0421725 0.0349119 0.19638 57 37 52
-0.0410514 0.0348335 0.195938 55 35 49
-0.0393525 0.0342481 0.192646 55 33 48
-0.0380348 0.0339724 0.191095 55 32 48
-0.0371623 0.0340902 0.191757 55 33 48
-0.0358969 0.0338441 0.190373 54 29 45
-0.0345076 0.0334638 0.188234 53 27 43
-0.0338299 0.0337716 0.189965 54 28 44
-0.0329253 0.0338645 0.190488 48 20 38
-0.0316892 0.0336117 0.189066 50 22 41
-0.0303823 0.033265 0.187116 52 25 42
-0.0301467 0.0341073 0.191853 50 23 40
-0.0286657 0.0335501 0.188719 53 24 43
-0.0270449 0.0327836 0.184408 51 22 42
-0.0265739 0.0334057 0.187907 51 22 42
-0.0252234 0.0329275 0.185217 54 29 47
-0.0241887 0.0328399 0.184724 57 37 53
-0.0227838 0.0322214 0.181245 56 36 52
-0.0220592 0.032553 0.183111 56 38 54
-0.0215373 0.0332275 0.186905 58 42 56
-0.0204441 0.0330429 0.185866 58 43 57
-0.0191414 0.0324842 0.182724 58 43 57
-0.0182172 0.0325429 0.183054 56 42 57
-0.016902 0.0318709 0.179274 55 40 57
-0.0162849 0.0325136 0.182889 56 41 58
-0.0152015 0.0322475 0.181392 59 46 61
-0.0143323 0.0324305 0.182422 56 42 59
-0.0130311 0.0315923 0.177706 56 42 59
-0.0124502 0.0325058 0.182845 57 44 59
-0.011533 0.0326206 0.183491 58 45 60
-0.0104423 0.0322206 0.181241 55 42 58
-0.00942337 0.0319842 0.179911 56 43 59
-0.00869761 0.032801 0.184505 57 45 60
-0.00758682 0.0321883 0.181059 57 44 60
-0.00659523 0.0319787 0.17988 57 44 61
-0.00580462 0.0328361 0.184703 61 51 64
-0.00467554 0.0317388 0.178531 56 45 61
-0.0038129 0.0323537 0.18199 55 43 60
-0.00280227 0.0317042 0.178336 55 42 60
-0.00182111 0.0309055 0.173843 55 42 60
-0.000962453 0.032667 0.183752 55 42 61
0 0.0321858 0.181045 54 41 60
0.00092196 0.0312926 0.176021 54 41 60
0.00186645 0.031675 0.178172 54 41 60
0.00276016 0.0312278 0.175656 54 42 60
0.00373714 0.0317108 0.178374 53 40 60
0.00456957 0.0310194 0.174484 53 40 60
0.00545437 0.0308548 0.173558 54 42 61
0.00655141 0.0317662 0.178685 52 39 59
0.00727663 0.0308723 0.173657 53 38 59
0.00843704 0.0318183 0.178978 54 39 59
0.00930642 0.0315872 0.177678 52 37 59
0.0101656 0.0313669 0.176439 56 42 61
0.0110693 0.0313088 0.176112 55 40 60
0.0117066 0.0305644 0.171925 55 40 60
0.0127693 0.0309577 0.174137 54 39 59
0.013715 0.0310336 0.174564 56 41 59
0.0146833 0.0311482 0.175209 52 36 57
0.0151368 0.0302213 0.169995 51 34 56
0.0162666 0.0306727 0.172534 51 35 56
0.0168543 0.0301082 0.169359 53 36 57
0.0177636 0.0301461 0.169572 52 35 56
0.0188424 0.0304542 0.171305 49 31 53
0.0191756 0.0295839 0.166409 50 33 55
0.0203871 0.0300855 0.169231 52 36 56
0.0210468 0.0297649 0.167428 52 36 56
0.0221435 0.0300631 0.169105 55 39 57
0.0229554 0.0299667 0.168563 52 31 52
0.0232488 0.0292257 0.164395 52 31 52
0.0245911 0.0298091 0.167676 53 33 53
0.0253575 0.0296781 0.166939 51 29 50
0.0260546 0.0294775 0.165811 51 28 48
0.0271684 0.0297462 0.167322 51 28 48
0.0279968 0.0296953 0.167036 48 21 44
0.027888 0.0286835 0.161345 47 20 43
0.0298301 0.0297786 0.167505 48 20 42
0.0303497 0.0294317 0.165553 45 19 40
0.0309801 0.0292085 0.164298 47 20 41
0.0315606 0.0289516 0.162853 45 18 36
0.0334753 0.0298999 0.168187 45 18 36
0.0338629 0.0294706 0.165772 43 17 35
0.035116 0.0297971 0.167609 44 16 33
0.0354211 0.0293229 0.164941 46 17 35
0.0364141 0.0294272 0.165528 40 15 30
0.0373878 0.0295114 0.166002 41 15 31
0.0372495 0.0287341 0.161629 48 20 39
0.0387217 0.0292059 0.164283 47 19 40
0.0393285 0.0290187 0.16323 52 24 45
0.0404249 0.0291931 0.164211 52 25 44
0.042197 0.0298379 0.167838 51 25 44
0.0431983 0.0299226 0.168315 54 29 46
0.0434071 0.0294659 0.165745 54 28 47
0.0446914 0.0297429 0.167304 53 31 49
0.0450075 0.0293772 0.165247 54 30 49
0.046598 0.0298415 0.167858 54 32 50
0.0467765 0.029401 0.165381 52 31 50
0.0463595 0.0286091 0.160926 54 33 51
0.0492831 0.0298702 0.16802 54 33 51
0.0499431 0.0297392 0.167283 54 34 52
0.0526126 0.0307887 0.173186 54 33 52
0.0526047 0.0302623 0.170225 53 32 51
0.0532104 0.0301005 0.169316 54 35 53
0.0541869 0.0301504 0.169596 53 32 51
0.0549472 0.0300804 0.169202 52 29 50
0.054919 0.0295877 0.166431 51 28 50
0.0583098 0.0309237 0.173946 52 31 50
0.0571529 0.0298438 0.167871 50 29 49
0.0588507 0.0302647 0.170239 51 29 49
0.0590569 0.0299174 0.168286 51 30 50
0.0597895 0.0298432 0.167868 52 32 50
0.0621881 0.0305905 0.172072 52 30 50
0.0653132 0.0316688 0.178137 50 29 49
0.06542 0.0312738 0.175915 49 26 47
0.0748698 0.0352942 0.19853 50 29 48
0.0829368 0.0385614 0.216908 50 30 49
0.0976768 0.0448011 0.252006 48 25 46
0.123528 0.0559027 0.314453 49 27 48
0.156182 0.0697505 0.392347 47 24 46
0.228122 0.100555 0.565624 47 23 45
0.251052 0.109244 0.614498 46 23 44
0.29165 0.125304 0.704833 46 22 44
0.400002 0.169707 0.954604 46 22 45
0.424261 0.177778 1 48 24 46
0.478676 0.198133 1.1145 48 23 45
0.515401 0.210764 1.18555 48 23 44
0.557118 0.225111 1.26625 47 23 44
0.627601 0.250607 1.40967 49 26 45
0.566559 0.223602 1.25776 48 25 44
0.657232 0.256406 1.44228 48 24 44
0.733027 0.282726 1.59033 48 23 44
0.631939 0.240998 1.35562 50 27 45
0.744422 0.280741 1.57917 47 21 43
0.714959 0.266667 1.5 47 21 43
0.722816 0.266667 1.5 48 22 44
0.730673 0.266667 1.5 50 23 47
0.766946 0.276927 1.55772 50 23 46
0.722066 0.257978 1.45113 48 21 42
0.783264 0.276927 1.55772 49 22 42
0.807995 0.282726 1.59033 47 18 39
0.856962 0.2968 1.6695 48 20 40
0.752469 0.257978 1.45113 45 18 37
0.719848 0.244326 1.37433 43 16 35
0.824059 0.276927 1.55772 47 19 37
0.86852 0.289007 1.62567 44 16 33
0.900684 0.2968 1.6695 45 17 35
0.992951 0.324058 1.82283 43 15 31
0.786209 0.254143 1.42955 45 16 33
0.919399 0.294393 1.65596 42 15 30
0.840666 0.266667 1.5 42 16 31
0.964393 0.303081 1.70483 45 17 34
0.804806 0.250607 1.40967 40 14 25
0.823648 0.254143 1.42955 41 14 26
0.924613 0.282726 1.59033 42 14 27
0.87995 0.266667 1.5 44 15 30
0.887806 0.266667 1.5 43 16 32
0.597109 0.177778 1 42 16 33
0.827825 0.244326 1.37433 46 18 36
0.987729 0.289007 1.62567 51 24 42
0.793707 0.230252 1.29517 51 23 40
0.92709 0.266667 1.5 51 23 40
0.807275 0.230252 1.29517 51 24 42
-0.469071 0.136576 0.746293 76 85 72
-0.422079 0.123927 0.677171 83 88 75
-0.472126 0.139796 0.763883 83 85 71
-0.440237 0.131467 0.718376 79 80 66
-0.477358 0.143782 0.785666 78 80 68
-0.440197 0.133742 0.730803 78 82 71
-0.452466 0.138675 0.757762 79 79 68
-0.444691 0.137499 0.751332 79 77 66
-0.440756 0.137499 0.751332 78 74 65
-0.426599 0.134281 0.73375 73 69 60
-0.422756 0.134281 0.73375 76 72 63
-0.464987 0.14905 0.814453 71 66 57
-0.406372 0.131467 0.718376 72 65 57
-0.4133 0.134958 0.737451 73 67 58
-0.398847 0.131467 0.718376 67 61 54
-0.437317 0.145521 0.795167 67 61 54
-0.399696 0.134281 0.73375 69 62 54
-0.428987 0.145521 0.795167 69 62 55
-0.402181 0.137765 0.752789 70 61 55
-0.43086 0.14905 0.814453 70 61 56
-0.400106 0.139796 0.763883 68 59 54
-0.373344 0.131762 0.719988 65 53 48
-0.396065 0.141208 0.771599 62 48 44
-0.437339 0.15753 0.860791 67 57 54
-0.35441 0.128989 0.704833 64 52 51
-0.366949 0.134958 0.737451 63 50 49
-0.391503 0.145521 0.795167 64 51 51
-0.372099 0.139796 0.763883 62 50 50
-0.396502 0.150583 0.822829 61 49 48
-0.367775 0.141208 0.771599 63 53 52
-0.349892 0.135834 0.742238 64 54 52
-0.353241 0.138675 0.757762 65 55 54
-0.366513 0.145521 0.795167 66 58 57
-0.330247 0.132629 0.724721 66 58 56
-0.307255 0.12483 0.682106 64 55 54
-0.29554 0.121483 0.663817 62 52 53
-0.288605 0.120045 0.655958 62 53 53
-0.277888 0.116979 0.639209 65 56 58
-0.312847 0.133302 0.7284 62 56 58
-0.239051 0.103115 0.563451 62 55 58
-0.256107 0.111854 0.6112 61 53 56
-0.236043 0.104395 0.570447 63 56 59
-0.219556 0.0983486 0.537405 60 53 57
-0.230067 0.104395 0.570447 59 52 56
-0.234996 0.108035 0.590334 59 51 56
-0.196417 0.0915033 0.5 62 55 60
-0.210224 0.0992588 0.542379 60 52 57
-0.19118 0.0915033 0.5 59 51 56
-0.201185 0.0976295 0.533475 59 53 58
-0.173493 0.085377 0.466525 62 56 59
-0.14677 0.0732583 0.400304 61 54 58
-0.148056 0.0749715 0.409665 61 54 59
-0.125085 0.0642709 0.351194 61 55 60
-0.141363 0.0737188 0.40282 58 52 57
-0.129405 0.0685056 0.374334 58 50 56
-0.100492 0.0540175 0.295167 59 50 57
-0.125484 0.0685056 0.374334 59 51 58
-0.104899 0.0581767 0.317894 60 52 60
-0.110338 0.06218 0.339769 59 51 59
-0.111219 0.0637039 0.348097 59 50 58
-0.103865 0.0604834 0.330499 60 51 59
-0.10156 0.0601437 0.328643 59 50 59
-0.0850656 0.0512441 0.280012 58 47 57
-0.06819 0.0417988 0.2284 59 48 58
-0.0697864 0.0435413 0.237922 59 48 57
-0.0646782 0.0410879 0.224516 58 48 58
-0.0567772 0.0367365 0.200739 59 50 59
-0.0541643 0.0357072 0.195114 59 47 57
-0.0552525 0.037125 0.202862 57 44 56
-0.0521829 0.03575 0.195348 58 45 56
-0.0508013 0.0354995 0.19398 58 46 57
-0.0504068 0.0359427 0.196401 57 44 56
-0.0494397 0.0359876 0.196646 58 45 57
-0.0478348 0.0355602 0.194311 58 44 57
-0.047684 0.0362187 0.197909 58 45 57
-0.0452243 0.0351138 0.191872 57 40 54
-0.0449293 0.0356776 0.194953 57 40 54
-0.0440422 0.0357864 0.195547 57 41 54
-0.0422118 0.0351158 0.191883 56 38 53
-0.0412355 0.0351403 0.192017 54 34 50
-0.0397523 0.0347233 0.189738 55 34 49
-0.0391728 0.0350945 0.191766 53 31 47
-0.0377671 0.0347255 0.18975 54 31 47
-0.0357845 0.0337918 0.184648 54 32 46
-0.0363485 0.0352779 0.192768 57 34 48
-0.0353194 0.0352585 0.192662 50 21 39
-0.0339918 0.0349312 0.190874 48 21 39
-0.0333018 0.0352591 0.192666 50 24 42
-0.0308612 0.0336962 0.184126 51 24 42
-0.0304755 0.0343485 0.18769 51 24 42
-0.0294924 0.0343485 0.18769 53 26 42
-0.0283582 0.0341664 0.186695 52 23 42
-0.0269868 0.0336752 0.184011 53 24 42
-0.0265989 0.0344205 0.188083 55 30 47
-0.0258788 0.0347768 0.19003 54 31 48
-0.024577 0.0343485 0.18769 56 36 51
-0.0234904 0.0341977 0.186866 56 36 52
-0.0221967 0.0337193 0.184252 57 39 54
-0.0217258 0.0345041 0.18854 58 43 57
-0.0199941 0.033266 0.181775 56 40 55
-0.0193268 0.0337635 0.184494 56 40 56
-0.0180803 0.0332484 0.181679 55 42 56
-0.0179044 0.0347541 0.189906 57 44 59
-0.0160625 0.0330127 0.180391 56 42 57
-0.0151439 0.0330701 0.180704 57 44 59
-0.0144103 0.0335661 0.183415 55 41 58
-0.0133617 0.0333465 0.182215 57 43 59
-0.0126276 0.0339387 0.185451 57 45 60
-0.0113916 0.0331683 0.181241 56 43 58
-0.0103382 0.0328375 0.179434 58 45 60
-0.00949058 0.0331597 0.181194 56 42 59
-0.00856586 0.0332542 0.18171 57 44 60
-0.0074977 0.0327458 0.178933 57 44 60
-0.00665445 0.0332148 0.181495 57 44 60
-0.0055637 0.0323989 0.177037 57 45 60
-0.00477656 0.0333782 0.182388 57 44 60
-0.0038141 0.0333158 0.182047 55 42 59
-0.00280249 0.0326393 0.178351 56 43 60
-0.00190446 0.0332705 0.181799 55 42 60
-0.000964765 0.0337085 0.184193 55 42 60
0 0.032665 0.178491 55 42 60
0.000952228 0.0332705 0.181799 55 42 60
0.00189488 0.0331032 0.180885 54 41 60
0.00285023 0.0331954 0.181389 55 40 60
0.00372638 0.0325495 0.17786 53 40 60
0.00463646 0.0323992 0.177038 51 38 59
0.00548975 0.0319683 0.174684 54 41 60
0.00634123 0.0316514 0.172952 53 38 59
0.0072588 0.0317025 0.173231 53 38 58
0.0085481 0.0331852 0.181334 53 36 58
0.00916562 0.0320243 0.17499 53 37 58
0.0100873 0.0320407 0.175079 54 38 59
0.011063 0.0322114 0.176012 54 37 59
0.0120103 0.0322796 0.176385 54 38 59
0.0127019 0.0317 0.173218 56 42 61
0.013619 0.0317228 0.173343 50 33 56
0.0142587 0.0311372 0.170142 54 37 58
0.0151882 0.0312159 0.170572 53 36 58
0.0162078 0.0314608 0.171911 52 35 57
0.0170341 0.0313244 0.171165 52 37 57
0.0176352 0.0308083 0.168345 52 36 56
0.0189303 0.0314961 0.172104 51 35 55
0.0197091 0.0313013 0.171039 50 33 54
0.0207898 0.0315821 0.172573 52 35 56
0.0215376 0.0313548 0.171332 54 37 57
0.0216463 0.0302526 0.165309 52 34 54
0.0226932 0.0304959 0.166638 52 31 51
0.02349 0.0303975 0.166101 51 30 51
0.0245265 0.0306052 0.167236 51 29 51
0.0247547 0.0298248 0.162971 50 27 48
0.0261201 0.0304209 0.166228 50 25 46
0.0270351 0.0304708 0.166501 47 21 44
0.0275819 0.0301157 0.164561 49 21 45
0.029046 0.0307532 0.168045 46 19 42
0.0292787 0.0300878 0.164408 46 19 39
0.030133 0.030081 0.164371 46 19 39
0.0311432 0.0302258 0.165163 44 17 37
0.0314608 0.0297089 0.162338 44 17 36
0.0328873 0.0302387 0.165233 45 17 37
0.0339266 0.0303944 0.166084 45 18 38
0.0339617 0.0296652 0.162099 44 16 34
0.0339007 0.0288897 0.157862 44 16 34
0.0349328 0.0290605 0.158795 44 17 37
0.036511 0.029667 0.162109 45 17 37
0.0381667 0.0303075 0.165609 47 19 39
0.0395565 0.0307131 0.167825 48 19 40
0.039877 0.0302888 0.165507 51 24 44
0.0403084 0.0299651 0.163738 50 24 44
0.0424741 0.0309173 0.168941 52 29 47
0.0423803 0.0302194 0.165127 53 29 47
0.0430451 0.0300796 0.164363 54 28 47
0.0449423 0.0307895 0.168243 52 29 48
0.0448825 0.0301573 0.164788 52 28 48
0.0452121 0.0298055 0.162866 54 34 52
0.0461889 0.0298856 0.163304 54 35 53
0.048002 0.030494 0.166628 54 33 51
0.0488456 0.0304758 0.166528 54 33 52
0.049589 0.0303968 0.166097 53 33 51
0.0519322 0.0312843 0.170947 53 32 51
0.0524097 0.0310369 0.169594 54 33 52
0.0529367 0.0308265 0.168445 52 31 51
0.0532648 0.030509 0.16671 53 32 52
0.0541992 0.0305435 0.166899 52 29 50
0.05557 0.030819 0.168404 53 31 51
0.0590272 0.0322248 0.176086 52 30 50
0.0599258 0.0322121 0.176016 51 31 51
0.0577995 0.0305984 0.167198 51 31 50
0.0608541 0.0317346 0.173407 51 30 50
0.0625115 0.0321195 0.17551 49 27 48
0.0672298 0.0340432 0.186022 48 25 47
0.0703531 0.0351158 0.191883 48 25 47
0.0736819 0.0362594 0.198132 49 27 48
0.084306 0.0409114 0.223551 49 28 48
0.101036 0.0483585 0.264245 49 28 47
0.125743 0.0593703 0.324416 48 25 46
0.171492 0.0798913 0.436549 46 22 45
0.227079 0.104395 0.570447 47 24 46
0.264555 0.120045 0.655958 47 25 46
0.324864 0.145521 0.795167 46 23 44
0.413786 0.183007 1 46 23 44
0.443208 0.193569 1.05772 47 24 45
0.521163 0.224805 1.2284 45 20 43
0.543853 0.231732 1.26625 48 24 45
0.597474 0.251512 1.37433 47 24 44
0.596437 0.248086 1.35562 49 27 46
0.632573 0.260022 1.42083 48 25 45
0.634984 0.257978 1.40967 48 24 44
0.647457 0.260022 1.42083 48 23 44
0.713917 0.283454 1.54887 47 22 43
0.699246 0.27451 1.5 47 22 42
0.684063 0.265565 1.45113 48 23 45
0.738255 0.283454 1.54887 47 20 42
0.722816 0.27451 1.5 49 23 44
0.75448 0.283454 1.54887 49 22 45
0.766946 0.285072 1.55772 45 19 40
0.770705 0.283454 1.54887 48 22 42
0.725221 0.263947 1.44228 45 18 37
0.815516 0.293751 1.60514 46 18 39
0.795044 0.283454 1.54887 49 20 41
0.807741 0.285072 1.55772 49 20 40
0.8159 0.285072 1.55772 45 16 34
0.921674 0.318841 1.74224 48 17 36
0.734245 0.251512 1.37433 43 14 30
0.900684 0.30553 1.6695 44 16 33
0.848536 0.285072 1.55772 45 16 33
0.958176 0.318841 1.74224 41 14 28
0.871922 0.287402 1.57045 44 15 32
0.928072 0.303051 1.65596 43 15 29
0.7603 0.245968 1.34404 43 14 27
1.0528 0.337472 1.84404 41 13 24
0.74622 0.237024 1.29517 42 14 27
1.07212 0.337472 1.84404 38 13 22
0.87995 0.27451 1.5 46 17 33
0.83434 0.257978 1.40967 48 20 38
0.949603 0.291042 1.59033 52 27 44
0.997461 0.303051 1.65596 49 23 40
0.786923 0.237024 1.29517 52 24 41
0.793707 0.237024 1.29517 50 23 40
0.714451 0.211548 1.15596 50 23 40
1.55824 0.457516 2.5 51 27 42
-0.433709 0.129888 0.69003 85 93 73
-0.488665 0.147576 0.784 88 94 75
-0.472126 0.14379 0.763883 86 88 73
-0.42381 0.130178 0.691572 81 83 67
-0.502782 0.155767 0.82751 81 85 70
-0.460122 0.14379 0.763883 79 83 70
-0.469128 0.14789 0.785666 81 83 71
-0.494912 0.157399 0.836183 83 86 72
-0.422369 0.135527 0.719988 80 83 68
-0.418597 0.135527 0.719988 79 82 67
-0.458142 0.149679 0.795167 76 80 63
-0.436116 0.14379 0.763883 78 81 64
-0.456606 0.151939 0.807177 79 77 65
-0.428114 0.14379 0.763883 74 70 59
-0.441482 0.149679 0.795167 78 74 65
-0.473408 0.162031 0.860791 79 76 63
-0.401712 0.138814 0.737451 76 70 58
-0.451115 0.157399 0.836183 75 68 59
-0.424822 0.149679 0.795167 73 65 57
-0.426003 0.151581 0.805271 71 63 56
-0.416492 0.149679 0.795167 70 60 55
-0.400107 0.145242 0.771599 69 58 53
-0.419828 0.153957 0.817894 69 58 54
-0.381726 0.141427 0.751332 65 55 51
-0.394217 0.147576 0.784 65 54 52
-0.390111 0.147576 0.784 66 54 53
-0.402692 0.153957 0.817894 64 53 50
-0.398408 0.153957 0.817894 66 54 52
-0.371816 0.145242 0.771599 64 51 50
-0.335951 0.132674 0.704833 66 57 55
-0.312925 0.124954 0.663817 65 55 53
-0.346004 0.139715 0.742238 65 56 54
-0.324876 0.132674 0.704833 67 60 58
-0.356177 0.147129 0.781624 69 61 58
-0.326451 0.136418 0.724721 67 58 56
-0.3138 0.132674 0.704833 67 60 59
-0.292063 0.124954 0.663817 66 58 58
-0.285169 0.123474 0.655958 67 58 59
-0.245006 0.107378 0.570447 63 57 58
-0.289391 0.128396 0.682106 63 55 57
-0.274862 0.123474 0.655958 65 57 59
-0.191415 0.0870767 0.462595 62 55 56
-0.245005 0.112884 0.599696 62 54 58
-0.186569 0.0870767 0.462595 63 56 60
-0.199036 0.0941176 0.5 62 56 59
-0.196417 0.0941176 0.5 59 51 55
-0.193798 0.0941176 0.5 60 53 56
-0.14313 0.0704629 0.374334 60 53 57
-0.164632 0.0821739 0.436549 60 54 59
-0.139209 0.0704629 0.374334 61 56 59
-0.126141 0.0647608 0.344042 62 55 59
-0.150862 0.0785748 0.417429 56 48 54
-0.122537 0.0647608 0.344042 58 51 56
-0.113291 0.0607678 0.322829 59 54 58
-0.0891069 0.0485199 0.257762 57 49 55
-0.0963241 0.0532567 0.282926 59 51 57
-0.0922788 0.0518173 0.275279 58 50 57
-0.100277 0.0572023 0.303887 59 50 58
-0.0786651 0.0455977 0.242238 59 51 59
-0.0923135 0.0543861 0.288926 61 54 60
-0.0823197 0.0493066 0.261941 57 46 55
-0.0632995 0.0385568 0.204833 59 49 58
-0.0695807 0.0431135 0.22904 58 47 56
-0.0626214 0.0394821 0.209749 59 48 57
-0.0600808 0.0385568 0.204833 59 49 57
-0.0583675 0.0381382 0.202609 59 50 58
-0.0565004 0.0376019 0.19976 58 48 57
-0.0556476 0.0377332 0.200457 58 47 57
-0.0526179 0.0363649 0.193189 58 46 56
-0.0536514 0.0378062 0.200846 58 46 57
-0.0508436 0.0365442 0.194141 56 43 54
-0.0502919 0.0368854 0.195954 58 44 56
-0.0496038 0.0371387 0.197299 57 42 55
-0.0482409 0.0368867 0.195961 59 47 57
-0.046835 0.0365902 0.194385 58 45 56
-0.0455423 0.036371 0.193221 55 37 52
-0.0451967 0.0369153 0.196112 55 36 51
-0.0432678 0.0361617 0.192109 55 37 51
-0.0420438 0.0359753 0.191119 57 39 53
-0.0416732 0.0365279 0.194055 57 37 52
-0.0405239 0.0364086 0.19342 56 36 50
-0.0399068 0.0367735 0.195359 55 35 49
-0.0371122 0.0350982 0.186459 55 35 49
-0.0368276 0.0357704 0.19003 56 35 48
-0.0357067 0.0356451 0.189364 53 28 44
-0.0339222 0.0348312 0.185041 54 29 44
-0.0332224 0.035116 0.186554 53 28 43
-0.0332024 0.0361583 0.192091 50 23 41
-0.0316809 0.0355795 0.189016 51 24 42
-0.030835 0.0357467 0.189904 51 25 41
-0.0297008 0.0355795 0.189016 54 27 43
-0.0284938 0.0353106 0.187587 53 24 41
-0.0275735 0.0353905 0.188012 51 23 41
-0.0264025 0.0351426 0.186695 55 31 47
-0.0247341 0.0341881 0.181625 57 36 51
-0.0243288 0.034973 0.185794 57 39 53
-0.0229647 0.0343876 0.182684 58 41 54
-0.0225776 0.0352779 0.187414 57 39 54
-0.0210618 0.0344052 0.182778 57 42 55
-0.0205152 0.0351082 0.186512 58 44 56
-0.0189226 0.0340019 0.180635 57 43 56
-0.0183929 0.0347896 0.18482 58 45 58
-0.0173779 0.0346957 0.184321 56 42 57
-0.0160748 0.033982 0.180529 56 42 57
-0.0153843 0.0345549 0.183573 57 43 58
-0.0140198 0.0335895 0.178444 56 43 58
-0.0132145 0.0339214 0.180208 56 41 57
-0.0123807 0.0342259 0.181825 57 44 59
-0.0113378 0.0339547 0.180384 57 43 58
-0.0108095 0.0353155 0.187613 56 43 58
-0.00929451 0.0334025 0.177451 57 44 60
-0.00875129 0.0349448 0.185644 56 43 59
-0.00771084 0.0346389 0.184019 56 43 59
-0.00652572 0.033503 0.177984 56 45 60
-0.00576862 0.034552 0.183557 56 44 60
-0.00469109 0.0337176 0.179125 56 43 59
-0.00385603 0.0346444 0.184049 57 44 60
-0.00289744 0.0347093 0.184393 55 42 59
-0.00186558 0.0335224 0.178088 55 42 60
-0.000972979 0.0349668 0.185761 55 43 60
0 0.0330624 0.175644 56 44 61
0.000940737 0.0338081 0.179606 54 39 59
0.00188147 0.0338081 0.179606 54 39 59
0.00285073 0.0341497 0.18142 54 39 59
0.00381782 0.0343011 0.182225 54 40 59
0.00455988 0.0327745 0.174114 53 39 59
0.00565501 0.0338715 0.179943 56 42 61
0.00636232 0.032664 0.173528 54 40 59
0.00725779 0.0326037 0.173207 51 35 57
0.00844893 0.0337374 0.17923 52 36 58
0.00915098 0.0328867 0.174711 51 35 57
0.0102991 0.0336478 0.178754 56 41 60
0.0110341 0.0330453 0.175553 54 37 58
0.0117123 0.0323782 0.172009 53 37 59
0.0126645 0.0325097 0.172708 55 39 59
0.0137439 0.0329285 0.174933 55 39 59
0.0144407 0.0324356 0.172314 53 36 57
0.0147487 0.0311787 0.165637 52 35 57
0.0163256 0.0325948 0.17316 50 33 56
0.0167366 0.0316566 0.168176 51 36 57
0.0180461 0.0324269 0.172268 50 34 55
0.0190588 0.0326158 0.173272 50 32 54
0.0196058 0.0320268 0.170142 54 37 56
0.0205451 0.032102 0.170542 54 37 57
0.0210395 0.0315048 0.167369 53 34 54
0.0219806 0.0315975 0.167862 49 27 50
0.0226269 0.0312754 0.166151 49 28 50
0.0239522 0.0318811 0.169368 48 24 47
0.0241696 0.0310216 0.164802 47 23 47
0.0252429 0.031282 0.166186 48 25 47
0.0257069 0.0307951 0.163599 47 20 43
0.02667 0.0309181 0.164252 45 18 42
0.0279968 0.0314421 0.167036 46 19 42
0.028607 0.0311538 0.165504 45 18 39
0.0296244 0.0313129 0.16635 46 19 39
0.0307119 0.0315348 0.167529 43 17 36
0.031383 0.0313289 0.166435 44 17 37
0.0321957 0.0312715 0.16613 42 16 35
0.0325276 0.0307625 0.163426 45 18 38
0.0331732 0.0305685 0.162395 45 18 38
0.0336855 0.0302647 0.160781 45 18 37
0.0349726 0.0306546 0.162853 45 17 36
0.0363607 0.0311125 0.165285 49 20 41
0.0370886 0.0309974 0.164673 48 20 41
0.0374471 0.0305857 0.162486 49 21 43
0.0396177 0.0316395 0.168085 49 21 42
0.0399249 0.0311916 0.165706 53 29 48
0.0403674 0.0308664 0.163978 50 28 47
0.0417629 0.0312682 0.166112 53 29 48
0.0431893 0.0316762 0.16828 52 28 47
0.0435053 0.0312697 0.166121 54 31 49
0.0437955 0.0308611 0.16395 54 34 51
0.0456636 0.0315587 0.167656 51 30 49
0.0452979 0.0307153 0.163175 52 32 50
0.0466698 0.0310595 0.165004 54 35 53
0.0478294 0.0312525 0.166029 53 31 51
0.0490009 0.0314462 0.167058 52 30 50
0.0488617 0.0308068 0.163661 53 33 51
0.0505657 0.0313314 0.166448 52 31 50
0.0508508 0.0309741 0.16455 52 31 50
0.052858 0.0316601 0.168194 52 32 52
0.0548257 0.0323003 0.171595 52 31 51
0.0542955 0.031472 0.167195 51 28 49
0.055588 0.0317098 0.168458 52 31 51
0.057822 0.0324687 0.17249 50 29 49
0.0583573 0.0322652 0.171409 50 31 51
0.0587548 0.0319928 0.169962 50 29 49
0.0619796 0.033245 0.176614 51 29 50
0.0628524 0.0332174 0.176467 51 28 49
0.0677313 0.0352771 0.18741 50 28 49
0.0781322 0.040113 0.2131 48 26 48
0.0829795 0.0420015 0.223133 48 26 48
0.104095 0.0519579 0.276027 49 28 49
0.135973 0.0669394 0.355615 48 26 47
0.1727 0.0838712 0.445566 47 24 46
0.205676 0.0985539 0.523568 48 26 47
0.264247 0.124954 0.663817 47 25 46
0.315237 0.147129 0.781624 49 27 47
0.384968 0.177371 0.942284 45 22 43
0.434009 0.197435 1.04887 45 21 42
0.520527 0.233833 1.24224 46 22 44
0.591787 0.262562 1.39486 46 22 44
0.573889 0.251517 1.33618 47 24 45
0.603763 0.261421 1.3888 48 26 46
0.582011 0.249003 1.32283 47 24 44
0.611871 0.258698 1.37433 49 27 46
0.675676 0.282353 1.5 47 24 45
0.731442 0.302143 1.60514 48 26 46
0.649752 0.265349 1.40967 46 24 44
0.766553 0.309531 1.64438 44 22 42
0.775165 0.309531 1.64438 47 25 45
0.714959 0.282353 1.5 48 23 43
0.746367 0.291553 1.54887 46 21 41
0.75448 0.291553 1.54887 47 20 42
0.790294 0.302143 1.60514 49 22 44
0.775105 0.293217 1.55772 48 23 42
0.754243 0.282353 1.5 47 19 38
0.866168 0.32091 1.70483 46 18 38
0.744868 0.273153 1.45113 48 20 39
0.807741 0.293217 1.55772 47 18 36
0.851491 0.306008 1.62567 44 16 32
0.883195 0.314259 1.6695 46 17 34
0.86852 0.306008 1.62567 40 13 27
0.939925 0.327951 1.74224 39 13 26
0.88555 0.306008 1.62567 42 15 29
0.987286 0.337914 1.79517 43 15 28
0.83281 0.282353 1.5 44 15 30
0.911095 0.306008 1.62567 40 14 25
0.848523 0.282353 1.5 41 14 26
1.07009 0.352816 1.87433 41 14 26
0.830983 0.271489 1.44228 42 15 28
0.945155 0.306008 1.62567 41 15 28
