ply
format ascii 1.0
element vertex 1230
property float x
property float y
property float z
property uchar red
property uchar green
property uchar blue
end_header
-0.00571605 0.00285309 0.181885 58 46 65
-0.00485929 0.00291054 0.185547 58 46 64
-0.00382717 0.00286543 0.182671 58 46 65
-0.00282554 0.00282066 0.179817 57 45 64
-0.00193262 0.00289393 0.184488 58 45 64
-0.000980363 0.00293601 0.187171 59 46 65
0 0.00294643 0.187835 56 42 63
0.000954421 0.00285832 0.182218 57 42 63
0.00185033 0.00277071 0.176633 57 43 64
0.00275267 0.00274792 0.17518 56 41 63
0.00381988 0.00285997 0.182323 56 39 61
0.00452257 0.00270886 0.17269 56 41 62
0.00559988 0.00279511 0.178188 56 40 62
0.00633502 0.00271032 0.172783 55 38 60
0.00753162 0.00281948 0.179742 56 39 61
0.00839835 0.00279462 0.178157 57 40 62
0.0092094 0.00275805 0.175826 55 37 59
0.0103575 0.0028199 0.179768 56 38 60
0.0110057 0.00274668 0.175101 55 37 59
0.0118039 0.00271928 0.173354 55 37 59
0.0129025 0.00276006 0.175954 54 35 58
0.0138016 0.00275555 0.175666 55 36 58
0.0149313 0.00279478 0.178167 55 36 58
0.0159664 0.00281274 0.179312 54 36 58
0.0168966 0.00281124 0.179217 55 37 58
0.0173958 0.00274196 0.1748 55 36 57
0.0188403 0.00282117 0.17985 56 36 58
0.0192637 0.00274722 0.175135 56 37 58
0.0204472 0.00278344 0.177444 56 37 58
0.0209472 0.00272752 0.17388 55 35 57
0.0219852 0.00274341 0.174893 56 36 58
0.0225187 0.00269758 0.17197 56 36 58
0.0234902 0.00270573 0.17249 55 35 57
0.0241327 0.00267679 0.170645 55 36 56
0.0249419 0.00266774 0.170068 54 34 55
0.025155 0.00259775 0.165607 54 34 55
0.0265333 0.00264875 0.168858 53 33 54
0.0276517 0.00267136 0.170299 54 34 55
0.0284625 0.00266376 0.169814 54 33 54
0.0296494 0.00269075 0.171535 55 34 55
0.0302279 0.00266257 0.169739 54 33 55
0.0313756 0.00268469 0.171149 53 33 55
0.0309239 0.00257255 0.164 53 30 54
0.0330012 0.00267116 0.170286 55 35 55
0.034464 0.00271614 0.173154 51 27 51
0.0344975 0.00264907 0.168878 53 31 51
0.0361878 0.0027094 0.172724 52 28 50
0.0357864 0.002614 0.166642 53 30 51
0.0366823 0.00261565 0.166747 51 27 49
0.037176 0.0025892 0.165061 53 26 48
0.0390462 0.00265765 0.169425 51 22 46
0.0391172 0.00260331 0.165961 50 21 43
0.0393628 0.00256271 0.163373 49 19 41
0.0416512 0.002654 0.169193 48 18 39
0.0422544 0.00263634 0.168067 47 17 37
0.0431115 0.00263493 0.167976 47 17 36
0.0435363 0.00260767 0.166239 45 16 32
0.0448597 0.00263425 0.167933 46 17 34
0.0453953 0.00261444 0.166671 46 16 35
0.0469066 0.00265051 0.16897 46 16 35
0.046795 0.00259524 0.165446 46 16 35
0.0482895 0.00262943 0.167626 49 18 39
0.0480914 0.00257188 0.163957 53 28 47
0.0503327 0.00264452 0.168588 55 32 49
0.0505115 0.00260815 0.16627 56 31 49
0.0524329 0.00266148 0.169669 57 39 54
0.0534313 0.00266695 0.170018 57 39 54
0.0540457 0.0026534 0.169154 58 42 56
0.0560836 0.00270904 0.172701 59 42 56
0.0551114 0.00261982 0.167014 58 41 55
0.0581698 0.002722 0.173528 57 40 54
0.0594023 0.00273691 0.174478 58 42 56
0.0618774 0.00280776 0.178994 57 40 55
0.0628687 0.00281016 0.179148 57 41 55
0.0629515 0.00277248 0.176746 56 39 54
0.0644422 0.002797 0.178309 54 36 52
0.0655305 0.0028036 0.17873 54 35 53
0.0655656 0.0027656 0.176307 54 35 52
0.067519 0.00280844 0.179038 54 37 54
0.0680807 0.00279301 0.178054 53 33 51
0.0686139 0.00277684 0.177024 54 33 53
0.0687926 0.00274696 0.175118 52 33 52
0.0716451 0.00282322 0.17998 54 35 52
0.0724125 0.0028164 0.179545 53 32 50
0.0735448 0.00282377 0.180015 53 31 50
0.0743753 0.00281951 0.179744 53 32 50
0.0749417 0.00280546 0.178848 51 29 49
0.077314 0.00285854 0.182232 55 35 52
0.0779917 0.00284843 0.181588 53 30 49
0.079197 0.0028576 0.182172 54 32 50
0.0774367 0.00276083 0.176003 51 27 47
0.0800497 0.00282041 0.179801 52 28 48
0.0806349 0.00280799 0.179009 52 29 48
0.0835199 0.00287503 0.183283 53 29 48
0.0841659 0.00286434 0.182602 52 27 47
0.0864954 0.00291054 0.185547 51 25 46
0.0851982 0.00283504 0.180734 51 26 47
0.0879775 0.00289535 0.184579 52 26 47
0.0882439 0.00287255 0.183125 51 26 46
0.0882312 0.00284126 0.18113 52 26 47
0.0894866 0.00285103 0.181753 53 28 48
0.0935406 0.00294882 0.187987 53 26 46
0.0929327 0.00289913 0.18482 51 23 43
0.099079 0.00305901 0.195012 51 23 44
0.0960103 0.00293402 0.187044 51 22 43
0.10032 0.00303476 0.193466 51 23 43
0.095507 0.00286027 0.182342 50 22 43
0.104303 0.00309275 0.197163 49 20 41
0.11141 0.00327112 0.208534 50 21 42
0.115447 0.00335674 0.213992 51 23 44
0.111579 0.00321306 0.204833 52 25 45
0.127145 0.00362646 0.231187 52 24 44
0.137606 0.00388779 0.247847 52 25 45
0.151348 0.00423609 0.270051 51 26 46
0.204093 0.00565947 0.360791 52 27 46
0.176968 0.00486227 0.30997 53 27 47
0.215675 0.00587191 0.374334 52 27 46
0.204183 0.00550893 0.351194 51 25 45
0.25199 0.00673809 0.429553 52 25 45
0.270853 0.00717837 0.457621 54 28 46
0.269371 0.00707648 0.451125 54 27 46
0.335938 0.00874848 0.557716 53 26 45
0.303792 0.00784314 0.5 55 28 47
0.36177 0.00926015 0.590334 53 27 45
0.30903 0.00784314 0.5 53 27 44
0.439321 0.0110562 0.704833 51 21 41
-0.130709 0.00434946 0.207959 61 43 43
-0.129529 0.0043464 0.207812 59 37 39
-0.128332 0.00434274 0.207637 56 34 37
-0.131511 0.00448834 0.214599 56 32 37
-0.124453 0.00428408 0.204833 56 32 37
-0.126782 0.00440221 0.210481 57 35 39
-0.126034 0.00441462 0.211074 56 35 38
-0.126128 0.004457 0.2131 57 36 40
-0.124793 0.0044492 0.212727 58 37 41
-0.120702 0.0043421 0.207607 56 34 38
-0.119161 0.00432565 0.20682 56 34 38
-0.117667 0.00431061 0.206101 57 36 39
-0.115175 0.00425838 0.203604 57 36 38
-0.113796 0.00424672 0.203046 58 37 39
-0.115916 0.00436664 0.20878 58 36 38
-0.111737 0.00424932 0.203171 59 37 38
-0.114493 0.00439597 0.210182 58 35 36
-0.109372 0.00424014 0.202732 58 35 35
-0.111063 0.00434789 0.207884 56 33 33
-0.106505 0.00421075 0.201327 57 33 34
-0.107542 0.00429427 0.20532 57 34 36
-0.107451 0.00433395 0.207217 56 32 34
-0.10633 0.0043325 0.207148 56 33 34
-0.100664 0.00414393 0.198132 56 31 32
-0.103217 0.00429329 0.205273 57 33 34
-0.101056 0.00424765 0.203091 55 29 32
-0.0971779 0.00412809 0.197374 56 33 35
-0.0972037 0.00417359 0.19955 57 35 36
-0.0972243 0.00421985 0.201762 56 31 33
-0.0978396 0.00429322 0.20527 57 33 36
-0.0953484 0.00423039 0.202266 58 39 42
-0.0933836 0.00418977 0.200324 59 40 44
-0.0931298 0.00422587 0.202049 60 41 46
-0.094227 0.0043248 0.20678 60 45 50
-0.0924411 0.00429217 0.205219 58 43 50
-0.0923829 0.00433993 0.207503 58 45 52
-0.0915929 0.00435404 0.208177 59 47 53
-0.0887277 0.00426866 0.204095 59 47 55
-0.086107 0.00419309 0.200482 59 49 56
-0.0869026 0.00428408 0.204833 60 49 56
-0.0859782 0.00429149 0.205187 60 50 57
-0.0849027 0.00429145 0.205185 60 50 57
-0.0834022 0.00426966 0.204143 59 49 57
-0.083578 0.00433422 0.20723 60 49 58
-0.0818087 0.00429829 0.205512 59 48 57
-0.0809925 0.00431214 0.206174 60 51 59
-0.0788736 0.00425608 0.203494 60 51 59
-0.0759941 0.00415687 0.198751 60 53 60
-0.0749772 0.00415821 0.198814 61 54 61
-0.0751524 0.00422663 0.202086 61 54 62
-0.0732977 0.00418121 0.199914 59 52 60
-0.0731188 0.00423146 0.202316 60 53 61
-0.0703933 0.00413364 0.19764 61 55 62
-0.070347 0.00419257 0.200457 61 56 63
-0.069656 0.00421429 0.201496 59 54 61
-0.0666626 0.00409523 0.195803 60 55 62
-0.0689188 0.00429999 0.205593 61 56 62
-0.0646289 0.00409634 0.195856 59 54 60
-0.0660175 0.00425184 0.203291 60 56 63
-0.0642345 0.00420483 0.201043 60 56 63
-0.0624982 0.00415936 0.198869 60 56 63
-0.0620507 0.00419957 0.200792 61 57 63
-0.0600414 0.00413364 0.19764 59 55 62
-0.058565 0.00410273 0.196162 60 55 62
-0.0590492 0.00421052 0.201316 61 56 63
-0.0565655 0.00410676 0.196354 60 56 63
-0.0569348 0.00421011 0.201296 61 58 64
-0.0550143 0.00414486 0.198176 62 57 64
-0.0530373 0.00407275 0.194729 60 55 62
-0.052858 0.00413857 0.197875 62 56 63
-0.0521923 0.00416818 0.199291 60 53 60
-0.0513289 0.00418289 0.199994 60 53 61
-0.0502106 0.004177 0.199713 60 56 63
-0.0486865 0.00413638 0.197771 60 55 62
-0.0479097 0.00415887 0.198846 61 55 62
-0.046462 0.00412283 0.197123 59 51 60
-0.0438129 0.00397612 0.190108 59 52 60
-0.0434856 0.00403819 0.193076 61 55 61
-0.0429794 0.00408621 0.195372 60 54 60
-0.0417008 0.00406135 0.194183 61 54 60
-0.0402346 0.00401652 0.19204 61 55 59
-0.0398817 0.00408337 0.195236 61 55 60
-0.0392171 0.00412099 0.197035 60 52 58
-0.03724 0.004019 0.192158 60 52 59
-0.0362852 0.00402474 0.192433 58 50 58
-0.0349657 0.00398918 0.190733 58 50 58
-0.0342597 0.00402359 0.192378 56 48 57
-0.033252 0.00402359 0.192378 56 47 57
-0.0317851 0.00396628 0.189638 58 50 60
-0.0312786 0.00402899 0.192636 58 49 61
-0.0291557 0.00388072 0.185547 58 48 61
-0.0291963 0.00402012 0.192212 59 50 63
-0.0269262 0.00383997 0.183599 58 49 62
-0.0268951 0.00397759 0.190178 60 51 63
-0.0260655 0.00400316 0.191401 60 50 63
-0.0243091 0.00388275 0.185644 59 47 62
-0.0236808 0.00393998 0.18838 58 47 62
-0.0229756 0.00398886 0.190717 58 48 63
-0.0215269 0.00390722 0.186814 59 50 64
-0.020516 0.00390107 0.18652 59 48 63
-0.0195391 0.00390107 0.18652 58 47 63
-0.018203 0.0038256 0.182911 58 47 63
-0.0180426 0.00400254 0.191372 58 48 63
-0.0162522 0.00381745 0.182522 58 47 63
-0.0157031 0.003919 0.187377 59 49 65
-0.0145779 0.00388072 0.185547 58 47 64
-0.0139406 0.00397616 0.19011 58 47 65
-0.0127105 0.00390416 0.186668 59 48 65
-0.0119298 0.00396972 0.189802 59 47 65
-0.0106343 0.00386036 0.184573 58 45 64
-0.00940226 0.00375442 0.179508 57 45 64
-0.00864634 0.00383619 0.183418 58 46 64
-0.00769895 0.00384283 0.183735 58 45 64
-0.0067262 0.00383691 0.183452 57 45 64
-0.00587663 0.00391099 0.186994 57 46 64
-0.00487988 0.00389717 0.186333 56 44 63
-0.00396522 0.00395838 0.18926 58 45 64
-0.00286521 0.00381369 0.182342 57 44 64
-0.00190341 0.00380024 0.181699 57 43 63
-0.000968282 0.00386644 0.184864 56 43 63
0 0.00375963 0.179757 56 41 62
0.000961062 0.00383762 0.183486 57 42 63
0.00184905 0.00369171 0.17651 56 41 62
0.00285812 0.00380425 0.181891 56 41 62
0.00372268 0.00371626 0.177684 57 42 63
0.00461649 0.00368682 0.176276 55 39 61
0.00564682 0.00375805 0.179682 56 40 61
0.0064959 0.00370554 0.177171 55 38 61
0.00718773 0.00358767 0.171535 55 38 61
0.0083059 0.00368514 0.176196 56 37 61
0.00921673 0.00368033 0.175966 56 37 60
0.0100471 0.00364718 0.174381 56 39 60
0.0107424 0.00357463 0.170912 55 37 59
0.0120302 0.00369521 0.176677 55 38 59
0.0128646 0.00366925 0.175436 55 38 59
0.0139198 0.00370554 0.177171 56 38 59
0.0148268 0.00370031 0.176921 55 36 58
0.0153899 0.00361491 0.172838 55 36 58
0.0166302 0.00368922 0.176391 54 36 58
0.0175788 0.00369441 0.176639 55 36 57
0.0178923 0.00357228 0.1708 56 37 58
0.0194278 0.00369415 0.176627 56 37 58
0.0201299 0.00365367 0.174691 56 37 58
0.0204197 0.00354513 0.169501 55 36 57
0.0215854 0.00359136 0.171712 56 36 58
0.0225536 0.00360234 0.172237 56 37 58
0.0231165 0.00355025 0.169747 56 37 57
0.023721 0.00350816 0.167734 55 35 55
0.0252971 0.00360764 0.17249 54 33 55
0.0264911 0.00364764 0.174403 53 34 55
0.0267335 0.00355832 0.170132 55 36 56
0.0277267 0.00357147 0.170761 54 32 54
0.0278828 0.00347933 0.166355 54 32 54
0.0290976 0.0035209 0.168343 54 32 54
0.0303796 0.00356791 0.170591 53 31 54
0.0303928 0.00346747 0.165789 52 29 53
0.0323001 0.00358271 0.171298 52 29 53
0.0323961 0.00349623 0.167164 53 30 53
0.0336605 0.0035371 0.169118 52 28 52
0.0342995 0.00351183 0.167909 53 29 51
0.0354321 0.0035371 0.169118 54 31 52
0.0366939 0.00357371 0.170868 53 29 50
0.0368884 0.00350712 0.167684 52 28 49
0.0380053 0.00352928 0.168743 51 24 46
0.0373552 0.00339007 0.162088 52 24 46
0.0396457 0.00351798 0.168203 48 19 40
0.0400815 0.00347933 0.166355 48 18 39
0.0409259 0.00347704 0.166246 47 18 37
0.0419893 0.00349307 0.167012 45 16 34
0.0443633 0.00361524 0.172854 46 16 34
0.044351 0.00354196 0.16935 46 17 33
0.0450981 0.003531 0.168826 46 16 34
0.0465386 0.00357371 0.170868 47 17 35
0.0467184 0.00351983 0.168292 48 18 38
0.0473739 0.00350312 0.167493 50 19 41
0.048784 0.00354181 0.169343 49 20 41
0.0484522 0.0034549 0.165187 53 28 47
0.049767 0.00348639 0.166693 54 31 48
0.0502901 0.0034623 0.165541 57 36 52
0.0530826 0.00359261 0.171772 57 40 54
0.0522971 0.00348046 0.166409 58 43 56
0.0542673 0.00355237 0.169848 59 44 56
0.0550162 0.00354331 0.169414 58 42 56
0.0557848 0.00353578 0.169055 57 39 54
0.0577851 0.00360534 0.17238 56 38 53
0.0604646 0.00371448 0.177599 58 43 56
0.0606524 0.00366956 0.175451 57 41 55
0.061975 0.00369361 0.176601 57 42 55
0.0613165 0.00360063 0.172155 57 41 55
0.0655554 0.00379376 0.181389 57 40 55
0.064959 0.00370554 0.177171 55 36 53
0.0660518 0.00371481 0.177614 54 36 52
0.0675452 0.00374604 0.179107 53 33 52
0.0674553 0.0036898 0.176419 54 35 52
0.0694849 0.00374946 0.179271 54 34 53
0.070068 0.00373051 0.178365 53 34 53
0.0702236 0.0036896 0.176409 53 33 52
0.0727573 0.00377308 0.1804 53 31 50
0.0739588 0.00378621 0.181028 53 31 50
0.0758808 0.00383544 0.183382 52 31 50
0.0743056 0.00370887 0.17733 51 29 49
0.0771483 0.00380322 0.181841 53 31 50
0.0792956 0.0038614 0.184623 51 28 48
0.0752721 0.00362131 0.173144 52 28 48
0.0791773 0.00376384 0.179959 51 27 47
0.0830114 0.00389968 0.186453 52 28 48
0.0794592 0.0036894 0.176399 52 28 48
0.0828692 0.0038035 0.181855 50 26 47
0.0832462 0.00377739 0.180606 52 27 48
0.0840677 0.0037718 0.180339 52 26 47
0.0853698 0.00378766 0.181098 51 24 46
0.0866962 0.00380425 0.181891 52 26 47
0.0893162 0.00387661 0.18535 52 27 48
0.0902762 0.00387615 0.185328 53 28 48
0.0891568 0.00378736 0.181083 53 26 46
0.095515 0.00401474 0.191955 53 26 45
0.0909119 0.00378146 0.180801 51 22 43
0.0959686 0.00395064 0.18889 52 24 45
0.0991186 0.00403868 0.193099 51 22 43
0.107114 0.00432036 0.206567 52 24 44
0.113137 0.00451765 0.216 51 23 44
0.114268 0.00451765 0.216 49 21 43
0.11507 0.00450475 0.215383 49 21 43
0.12322 0.004777 0.2284 51 23 44
0.165537 0.00635582 0.303887 51 24 44
0.150469 0.00572225 0.273595 51 23 43
0.171241 0.00645079 0.308428 52 25 45
0.229595 0.00856817 0.409665 51 25 45
0.226445 0.00837237 0.400304 52 26 46
0.28546 0.0104575 0.5 52 25 44
0.263662 0.00957117 0.457621 54 27 47
0.319113 0.0114797 0.548874 53 27 46
0.321988 0.0114797 0.548874 53 26 46
0.221557 0.00782921 0.374334 53 26 45
0.298554 0.0104575 0.5 52 24 44
0.355586 0.0123469 0.590334 53 25 45
0.303792 0.0104575 0.5 54 28 46
0.401986 0.0137194 0.655958 54 27 45
0.540391 0.0182867 0.874334 53 25 43
0.439321 0.0147416 0.704833 51 21 41
-0.135059 0.00561775 0.214879 60 40 40
-0.137955 0.00578643 0.221331 57 34 36
-0.131709 0.00557124 0.2131 57 35 38
-0.129398 0.0055203 0.211151 56 33 37
-0.125833 0.00541448 0.207104 57 33 38
-0.127333 0.00552668 0.211396 56 33 38
-0.127298 0.00557361 0.213191 55 32 36
-0.125243 0.00553216 0.211605 57 35 40
-0.12054 0.00537197 0.205478 57 35 40
-0.121262 0.00545282 0.20857 57 37 41
-0.119738 0.00543324 0.207822 57 37 41
-0.116286 0.00532501 0.203682 58 38 41
-0.119937 0.00554308 0.212023 58 37 40
-0.117489 0.00548066 0.209635 58 36 40
-0.114593 0.005396 0.206397 58 36 38
-0.112928 0.00536824 0.205335 58 36 37
-0.109698 0.00526486 0.201381 57 35 35
-0.107672 0.00521776 0.199579 57 36 36
-0.111185 0.00544083 0.208112 57 34 35
-0.10836 0.0053551 0.204833 56 32 34
-0.106349 0.00530829 0.203042 55 31 34
-0.103436 0.00521505 0.199476 55 31 33
-0.104253 0.00530988 0.203103 55 30 33
-0.107071 0.00550962 0.210743 56 31 33
-0.103823 0.00539811 0.206478 55 29 31
-0.101096 0.00531165 0.203171 54 28 31
-0.0996272 0.00529018 0.202349 56 32 35
-0.0971577 0.00521452 0.199455 56 33 36
-0.0966727 0.00524488 0.200617 56 33 35
-0.0970321 0.00532223 0.203575 57 32 36
-0.0921314 0.00510958 0.195441 57 36 39
-0.0993395 0.00557124 0.2131 56 37 40
-0.0937108 0.00531529 0.20331 58 39 46
-0.0950667 0.00545417 0.208622 58 42 48
-0.0932779 0.00541378 0.207077 57 41 48
-0.0916825 0.00538378 0.20593 57 43 50
-0.0899606 0.00534556 0.204468 57 44 52
-0.0899855 0.00541146 0.206988 57 42 53
-0.0873618 0.00531775 0.203404 58 46 55
-0.0860013 0.00529956 0.202708 59 48 56
-0.0848155 0.00529182 0.202412 60 49 57
-0.085615 0.00540932 0.206906 58 48 56
-0.0816144 0.00522266 0.199767 59 49 58
-0.0819265 0.00531072 0.203135 59 49 58
-0.0800887 0.0052599 0.201191 59 48 57
-0.0792974 0.00527737 0.201859 59 49 58
-0.0806777 0.00544179 0.208148 59 50 59
-0.0779371 0.00532895 0.203832 60 51 60
-0.0762485 0.0052859 0.202186 60 52 60
-0.0741462 0.00521255 0.19938 60 53 61
-0.0748495 0.00533717 0.204147 59 52 60
-0.0737748 0.00533677 0.204132 60 53 61
-0.0728281 0.00534577 0.204476 62 56 63
-0.0706273 0.0052616 0.201256 59 52 60
-0.0697942 0.00527832 0.201896 58 51 60
-0.0683449 0.00524823 0.200745 58 52 60
-0.0689173 0.00537487 0.205589 59 53 60
-0.0657098 0.00520606 0.199132 58 51 59
-0.0644022 0.00518477 0.198317 57 49 58
-0.0649615 0.00531552 0.203319 57 49 59
-0.0629568 0.00523735 0.200328 60 55 62
-0.0618203 0.00522997 0.200046 60 55 62
-0.0596834 0.00513625 0.196461 60 55 62
-0.059414 0.00520276 0.199006 58 52 61
-0.058812 0.00524201 0.200507 59 53 61
-0.0571576 0.00518718 0.19841 60 54 62
-0.0543303 0.00502191 0.192088 61 55 63
-0.0546975 0.00515124 0.197035 60 54 62
-0.0539458 0.00517815 0.198064 59 53 61
-0.0528478 0.00517221 0.197837 59 51 60
-0.0514476 0.00513588 0.196447 59 50 59
-0.0511638 0.00521178 0.199351 60 51 60
-0.0496742 0.00516547 0.197579 59 51 60
-0.0487399 0.00517615 0.197988 58 50 59
-0.0474646 0.0051503 0.196999 58 49 58
-0.0467523 0.00518573 0.198354 58 49 58
-0.0451644 0.00512346 0.195972 58 48 58
-0.0438211 0.00508668 0.194566 59 49 58
-0.0430904 0.00512096 0.195877 59 49 58
-0.042566 0.00518202 0.198212 60 49 57
-0.0408449 0.0050968 0.194953 59 50 57
-0.0397318 0.00508503 0.194502 58 48 57
-0.0383125 0.00503242 0.19249 57 47 56
-0.0369815 0.00498888 0.190825 59 49 57
-0.0354736 0.00491839 0.188128 57 46 56
-0.0351068 0.0050066 0.191502 57 45 55
-0.0345077 0.00506591 0.193771 56 45 56
-0.0340579 0.00515139 0.197041 58 48 58
-0.0316283 0.00493339 0.188702 56 45 57
-0.0313089 0.00504111 0.192822 56 45 58
-0.0299908 0.00498984 0.190861 59 48 61
-0.029206 0.00502682 0.192276 59 49 62
-0.0276276 0.00492498 0.18838 58 48 61
-0.026076 0.00482055 0.184386 58 48 61
-0.025889 0.00497006 0.190105 59 48 62
-0.0247171 0.0049349 0.18876 58 46 61
-0.0231161 0.00480754 0.183888 60 50 63
-0.0231924 0.00503312 0.192517 57 47 62
-0.0219235 0.00497402 0.190256 58 48 63
-0.0203559 0.00483828 0.185064 59 48 63
-0.0198361 0.00495048 0.189356 58 48 63
-0.0186882 0.00490947 0.187787 57 47 63
-0.0173545 0.00481238 0.184074 56 45 62
-0.0161468 0.00474088 0.181338 57 46 63
-0.0156453 0.00488072 0.186688 56 45 62
-0.0148233 0.00493259 0.188671 59 48 64
-0.0139985 0.00499083 0.190899 57 45 63
-0.0126681 0.00486395 0.186046 58 46 64
-0.0116807 0.00485855 0.18584 57 45 64
-0.0104724 0.00475197 0.181763 58 46 64
-0.00968341 0.00483335 0.184876 58 46 64
-0.00877826 0.00486839 0.186216 57 45 64
-0.00769769 0.00480275 0.183705 57 45 64
-0.00673156 0.00479996 0.183599 57 46 64
-0.00575262 0.00478558 0.183048 58 47 65
-0.00491433 0.00490585 0.187649 58 45 64
-0.00381534 0.00476094 0.182106 59 47 64
-0.00284091 0.00472668 0.180796 58 45 64
-0.00187996 0.00469178 0.179461 57 42 63
-0.000972365 0.00485344 0.185644 56 43 63
0 0.00474626 0.181544 56 42 63
0.000918191 0.00458303 0.175301 56 41 62
0.00189979 0.00474128 0.181354 56 41 63
0.00272074 0.00452674 0.173148 56 41 62
0.00373606 0.00466202 0.178322 56 41 62
0.00458698 0.00457907 0.175149 56 40 62
0.00574573 0.00477985 0.182829 56 39 62
0.00658195 0.00469328 0.179518 53 35 59
0.00750053 0.00467974 0.179 55 37 60
0.00830045 0.0046034 0.17608 56 39 61
0.00926717 0.00462559 0.176929 55 37 59
0.0101384 0.00460041 0.175966 56 38 60
0.0109906 0.0045715 0.17486 56 38 60
0.0120553 0.00462867 0.177047 56 38 60
0.0127651 0.00455111 0.17408 55 36 59
0.0136853 0.00455389 0.174186 55 38 59
0.0147414 0.00459875 0.175902 55 36 58
0.0155266 0.00455878 0.174373 55 36 58
0.0167284 0.00463876 0.177433 54 35 57
0.0171919 0.00451637 0.172751 56 38 59
0.0180749 0.00451093 0.172543 55 37 59
0.0193826 0.00460693 0.176215 54 36 57
0.0202743 0.00459984 0.175944 55 37 58
0.0212311 0.00460749 0.176236 56 38 59
0.021497 0.0044708 0.171008 55 35 57
0.0221735 0.00442705 0.169335 55 35 57
0.0233612 0.00448479 0.171543 55 35 57
0.0240736 0.00445037 0.170227 54 33 55
0.0250913 0.00447286 0.171087 54 34 55
0.0263318 0.00453213 0.173354 54 35 55
0.0264636 0.00440298 0.168414 53 34 55
0.0274729 0.00442346 0.169197 54 33 54
0.0275166 0.00429205 0.164171 54 32 54
0.0288218 0.00435941 0.166747 54 32 54
0.0302266 0.00443742 0.169731 54 33 55
0.0309345 0.00441159 0.168743 52 29 53
0.0318889 0.00442137 0.169118 51 27 52
0.033028 0.00445554 0.170424 51 27 51
0.0338567 0.00444714 0.170103 53 30 53
0.0343777 0.00439979 0.168292 51 26 49
0.0350379 0.00437218 0.167236 54 31 52
0.0360779 0.00439215 0.168 50 23 47
0.037189 0.00441962 0.16905 54 31 51
0.0381414 0.00442739 0.169348 55 30 49
0.0376828 0.00427475 0.163509 50 22 43
0.0375013 0.00415963 0.159106 50 20 41
0.0410817 0.0044577 0.170507 48 18 38
0.0402289 0.00427229 0.163415 46 16 35
0.0400649 0.00416622 0.159358 45 16 33
0.0428382 0.0043637 0.166912 45 16 33
0.0439737 0.00438978 0.167909 47 17 34
0.045076 0.00441159 0.168743 46 16 33
0.0450645 0.00432565 0.165456 46 16 35
0.0461645 0.00434763 0.166297 47 16 36
0.0467007 0.00431668 0.165113 49 20 41
0.0477768 0.00433585 0.165846 53 26 46
0.0489975 0.00436723 0.167047 55 34 50
0.0503097 0.00440552 0.168511 56 36 51
0.0501205 0.00431328 0.164983 56 37 52
0.052381 0.00443141 0.169501 57 40 54
0.0529221 0.00440256 0.168398 58 42 55
0.053576 0.0043839 0.167684 57 41 55
0.0554424 0.00446345 0.170727 58 41 55
0.056433 0.00447108 0.171019 58 42 55
0.0587779 0.0045841 0.175342 56 41 55
0.0594975 0.00456884 0.174758 57 41 55
0.0602076 0.00455331 0.174164 56 40 54
0.0625304 0.0046584 0.178184 57 42 55
0.0608049 0.00446323 0.170719 58 43 55
0.0622984 0.00450659 0.172377 54 36 52
0.0651235 0.00464365 0.17762 54 34 51
0.0671224 0.00471877 0.180493 53 34 51
0.0657853 0.00456054 0.174441 54 37 53
0.0675656 0.0046198 0.176707 53 33 51
0.069223 0.00466916 0.178595 53 33 52
0.0691641 0.00460298 0.176064 53 33 52
0.070653 0.0046402 0.177488 54 33 52
0.0702399 0.00455316 0.174158 53 33 51
0.0729648 0.00466916 0.178595 51 29 48
0.0733768 0.00463609 0.17733 52 31 49
0.0730177 0.00455573 0.174257 52 30 49
0.0770854 0.00475015 0.181693 51 29 48
0.0757969 0.00461379 0.176477 52 30 49
0.0794842 0.00477995 0.182833 51 26 47
0.077869 0.00462706 0.176985 52 28 48
0.0799104 0.0046925 0.179488 52 28 48
0.0811939 0.00471243 0.18025 51 26 47
0.0799317 0.00458585 0.175409 51 26 47
0.0847752 0.00480846 0.183924 51 26 47
0.0829459 0.00465184 0.177933 51 26 46
0.0869199 0.00482055 0.184386 50 25 46
0.0915227 0.00502004 0.192017 50 24 46
0.0877527 0.00476094 0.182106 50 24 45
0.0878909 0.00471716 0.180432 52 25 46
0.0908499 0.0048241 0.184522 52 24 44
0.101239 0.00531916 0.203458 51 23 44
0.0987278 0.0051332 0.196345 50 21 42
0.108269 0.00557124 0.2131 50 20 42
0.10652 0.00542533 0.207519 49 20 41
0.142744 0.00719684 0.275279 50 21 42
0.121368 0.00605794 0.231716 50 22 43
0.143681 0.00710064 0.271599 49 20 42
0.187627 0.00918156 0.351194 51 23 44
0.166395 0.00806348 0.308428 51 23 44
0.219429 0.0105313 0.40282 52 26 45
0.212014 0.0100785 0.385502 50 23 43
0.238491 0.0112302 0.429553 51 25 44
0.252831 0.0117941 0.451125 53 27 46
0.327624 0.0151416 0.579167 51 24 44
0.313363 0.0143497 0.548874 52 24 44
0.360482 0.0163573 0.625666 53 25 45
0.363759 0.0163573 0.625666 53 26 46
0.367036 0.0163573 0.625666 53 26 46
0.388243 0.0171492 0.655958 52 25 44
0.391678 0.0171492 0.655958 52 26 45
0.355586 0.0154336 0.590334 53 27 45
0.428245 0.018427 0.704833 54 26 45
0.517247 0.0220664 0.844042 53 26 43
0.435629 0.018427 0.704833 54 28 45
0.623298 0.0261438 1 51 21 41
-0.131815 0.00657936 0.209717 59 38 39
-0.133521 0.00672054 0.214217 57 33 36
-0.127063 0.00644971 0.205584 56 35 38
-0.124195 0.00635796 0.20266 56 34 37
-0.129144 0.00666834 0.212553 55 31 36
-0.122578 0.00638434 0.203501 55 32 37
-0.125455 0.00659152 0.210105 58 38 43
-0.12531 0.00664214 0.211718 57 36 42
-0.120864 0.00646367 0.206029 56 34 39
-0.119089 0.00642613 0.204833 57 36 41
-0.12027 0.00654887 0.208745 58 37 42
-0.119662 0.00657554 0.209595 58 37 40
-0.115287 0.00639381 0.203803 58 37 40
-0.113409 0.00634841 0.202356 57 34 38
-0.115317 0.00651609 0.2077 58 36 39
-0.113429 0.00647048 0.206246 58 36 37
-0.110336 0.00635454 0.202551 58 36 37
-0.10956 0.00637111 0.203079 55 32 33
-0.107087 0.00628839 0.200442 56 33 34
-0.10628 0.00630276 0.2009 56 32 34
-0.106615 0.00638589 0.20355 54 29 32
-0.10491 0.00634718 0.202316 55 31 35
-0.10347 0.00632397 0.201576 55 29 33
-0.101422 0.00626273 0.199625 55 29 33
-0.101419 0.00632774 0.201697 55 33 35
-0.100948 0.00636467 0.202874 55 29 31
-0.0992867 0.00632651 0.201658 55 28 33
-0.102126 0.00657743 0.209656 55 31 35
-0.0985092 0.00641343 0.204428 55 29 32
-0.0953499 0.00627596 0.200046 57 33 38
-0.0961894 0.00640156 0.20405 57 36 41
-0.0969107 0.00652203 0.20789 58 39 44
-0.0971551 0.00661278 0.210782 58 39 46
-0.0943391 0.00649492 0.207025 58 42 48
-0.0921034 0.00641473 0.20447 57 42 49
-0.0911941 0.00642613 0.204833 57 42 50
-0.0912234 0.00650471 0.207338 57 43 51
-0.0905945 0.0065377 0.208389 57 42 52
-0.0861588 0.00629342 0.200603 56 42 52
-0.0889378 0.00657661 0.20963 56 43 53
-0.0869673 0.00651129 0.207548 56 44 53
-0.0854483 0.00647855 0.206504 58 46 55
-0.0824693 0.00633285 0.201859 58 47 56
-0.0838191 0.00652009 0.207828 59 48 57
-0.083513 0.00658175 0.209793 57 46 56
-0.0805939 0.00643638 0.20516 60 51 60
-0.0766839 0.00620689 0.197845 59 50 60
-0.0779411 0.00639506 0.203843 59 50 59
-0.0759964 0.0063221 0.201517 60 52 60
-0.0738397 0.00622921 0.198556 59 51 59
-0.0741099 0.00634132 0.202129 60 52 60
-0.0729071 0.00632881 0.201731 59 51 60
-0.073702 0.0064919 0.206929 59 52 60
-0.0705344 0.00630561 0.200991 57 50 59
-0.0686015 0.00622574 0.198445 59 53 61
-0.0668866 0.0061635 0.196461 59 52 60
-0.0672854 0.00629712 0.200721 59 53 61
-0.0651823 0.00619712 0.197533 58 51 60
-0.0657699 0.00635385 0.202529 58 51 60
-0.0634942 0.00623455 0.198726 58 51 60
-0.0624872 0.00623793 0.198834 59 53 61
-0.0612214 0.00621516 0.198108 59 53 61
-0.0602938 0.00622653 0.198471 59 51 60
-0.0598246 0.00628646 0.200381 60 52 61
-0.0581313 0.0062176 0.198186 59 52 61
-0.0567104 0.00617592 0.196857 59 52 60
-0.0563238 0.00624741 0.199136 59 52 60
-0.0549727 0.00621259 0.198026 59 51 60
-0.0543323 0.00625829 0.199483 59 52 61
-0.0520625 0.00611443 0.194897 58 49 59
-0.05216 0.0062484 0.199168 58 48 59
-0.0498777 0.00609694 0.19434 59 50 59
-0.0494962 0.00617635 0.196871 57 45 56
-0.048372 0.00616449 0.196493 58 47 57
-0.0484316 0.00630627 0.201012 55 42 54
-0.0472932 0.00629487 0.200649 59 48 57
-0.045507 0.0061948 0.197459 57 47 56
-0.0451755 0.00629268 0.200579 57 46 55
-0.0427267 0.00609328 0.194223 57 45 55
-0.0420109 0.00613733 0.195628 56 42 53
-0.0408333 0.00611443 0.194897 56 44 54
-0.0396063 0.00608276 0.193888 56 44 55
-0.0393844 0.00620786 0.197875 56 45 55
-0.0378431 0.00612613 0.195271 58 46 56
-0.0356404 0.00592982 0.189013 56 44 55
-0.0350939 0.00600572 0.191432 54 39 52
-0.0336899 0.00593502 0.189179 54 43 54
-0.0327131 0.00593757 0.18926 54 41 55
-0.0325312 0.00608907 0.194089 54 42 56
-0.0309053 0.00597135 0.190337 58 47 59
-0.0298132 0.00595236 0.189732 58 46 60
-0.0286963 0.00592692 0.188921 58 46 61
-0.0274111 0.00586367 0.186905 58 47 61
-0.0266757 0.0059177 0.188627 58 47 61
-0.0256766 0.00591515 0.188545 58 46 61
-0.0245511 0.00588211 0.187492 57 44 60
-0.0232388 0.00579967 0.184864 58 46 61
-0.022388 0.00583026 0.18584 58 47 62
-0.0215269 0.00586083 0.186814 57 47 62
-0.020451 0.00583306 0.185929 57 46 62
-0.0192771 0.00577315 0.184019 57 46 63
-0.0181569 0.00572387 0.182448 57 46 63
-0.0174841 0.00581797 0.185448 57 46 63
-0.0166112 0.00585266 0.186554 57 46 63
-0.015826 0.00592452 0.188844 57 46 63
-0.0143987 0.00574954 0.183266 57 45 63
-0.0135611 0.00580186 0.184934 57 45 63
-0.0125596 0.00578673 0.184452 58 46 64
-0.0116377 0.00580883 0.185156 57 45 64
-0.0108414 0.0059033 0.188168 57 44 63
-0.00971858 0.00582109 0.185547 57 45 64
-0.00866488 0.00576662 0.183811 57 45 63
-0.00787757 0.00589799 0.187998 56 44 63
-0.00696456 0.00595932 0.189953 56 44 63
-0.00579949 0.00578948 0.18454 56 43 63
-0.00481647 0.00576979 0.183912 57 45 63
-0.00384048 0.00575078 0.183306 57 44 63
-0.00283366 0.00565754 0.180334 57 44 63
-0.00192522 0.0057657 0.183782 57 42 63
-0.000927986 0.00555831 0.177171 56 42 63
0 0.00561296 0.178913 57 44 64
0.000942329 0.00564422 0.179909 57 42 63
0.00189104 0.00566334 0.180519 57 42 63
0.00278396 0.00555831 0.177171 57 41 63
0.00379681 0.00568539 0.181222 56 40 62
0.00464973 0.00557005 0.177545 57 40 63
0.00573898 0.00572907 0.182614 56 39 62
0.00653639 0.00559295 0.178275 56 39 61
0.00741873 0.00555444 0.177048 55 38 60
0.00846663 0.00563468 0.179606 56 38 61
0.00914069 0.00547495 0.174514 56 37 59
0.0101868 0.00554685 0.176806 55 36 59
0.0113984 0.00568937 0.181349 55 37 59
0.0123685 0.00569871 0.181646 54 36 58
0.0128911 0.00551523 0.175798 56 38 60
0.0135829 0.00542379 0.172883 55 37 58
0.0146366 0.00547924 0.174651 56 38 59
0.0156284 0.00550639 0.175516 55 36 58
0.0163303 0.00543405 0.17321 55 37 58
0.0176451 0.00556252 0.177305 56 38 59
0.0183464 0.00549443 0.175135 55 37 58
0.0191298 0.00545621 0.173917 56 37 58
0.0203378 0.0055371 0.176495 57 40 59
0.0209468 0.00545495 0.173877 55 35 57
0.0218346 0.00544924 0.173694 57 37 58
0.0221314 0.00530237 0.169013 55 35 56
0.0232816 0.0053634 0.170958 54 33 56
0.0238692 0.00529512 0.168782 56 36 57
0.0253823 0.00542968 0.173071 56 37 57
0.0256883 0.00530565 0.169118 52 33 54
0.026816 0.00535394 0.170657 55 36 56
0.0273228 0.00527915 0.168273 53 32 54
0.0281584 0.00527058 0.168 53 31 54
0.0286186 0.0051944 0.165572 52 28 52
0.0301989 0.00532003 0.169576 53 31 54
0.0299273 0.00512154 0.163249 53 29 53
0.0318611 0.00530102 0.16897 52 28 52
0.0326884 0.00529168 0.168672 50 26 50
0.0337964 0.00532706 0.1698 52 29 51
0.0346554 0.0053224 0.169651 50 24 47
0.034817 0.00521354 0.166182 51 26 48
0.0359138 0.00524661 0.167236 49 22 45
0.0360954 0.00514759 0.16408 51 23 46
0.0377307 0.00525566 0.167524 52 24 45
0.0377235 0.00513524 0.163686 51 21 43
0.0393125 0.00523262 0.16679 51 21 42
0.040472 0.00526985 0.167976 46 17 35
0.0414077 0.00527697 0.168203 46 16 34
0.0412866 0.00515192 0.164217 47 16 34
0.0428118 0.00523321 0.166809 47 17 34
0.0430068 0.00515192 0.164217 47 17 34
0.0435553 0.00511531 0.163051 46 16 33
0.0456636 0.00525978 0.167656 49 18 38
0.0463698 0.00524035 0.167036 50 19 40
0.0470689 0.00522085 0.166415 55 31 48
0.0479929 0.00522656 0.166597 55 33 49
0.0477634 0.00510868 0.162839 56 37 51
0.0516319 0.00542556 0.17294 57 40 54
0.0512672 0.00529435 0.168757 57 41 54
0.0511545 0.00519318 0.165533 58 42 55
0.0517461 0.00516568 0.164656 58 43 56
0.0550107 0.00540155 0.172174 58 44 56
0.0557013 0.00538114 0.171524 58 42 55
0.0555551 0.00528183 0.168358 56 40 54
0.0574537 0.00537699 0.171391 57 42 55
0.0592538 0.00546014 0.174042 56 41 55
0.0615451 0.00558535 0.178033 57 42 56
0.0616589 0.00551216 0.1757 55 39 53
0.060203 0.00530286 0.169029 56 39 53
0.0612934 0.00532066 0.169596 54 35 51
0.063568 0.00543928 0.173377 53 34 51
0.0659447 0.00556317 0.177326 53 34 51
0.0677148 0.00563317 0.179557 53 35 52
0.0687106 0.0056377 0.179702 53 35 52
0.0703005 0.0056902 0.181375 52 33 50
0.0701659 0.00560359 0.178614 53 33 52
0.071693 0.0056502 0.1801 53 33 52
0.0707272 0.0055017 0.175367 52 31 49
0.0737333 0.00566201 0.180476 53 31 49
0.0753244 0.00571097 0.182037 52 29 48
0.0765769 0.00573336 0.182751 51 28 48
0.0753907 0.00557486 0.177699 50 27 47
0.0780535 0.00570137 0.181731 51 27 47
0.0780142 0.00562985 0.179451 52 28 48
0.0760276 0.00542117 0.1728 52 28 48
0.0801905 0.00565074 0.180117 52 27 48
0.0800115 0.00557256 0.177625 51 26 46
0.0814105 0.00560483 0.178654 51 26 47
0.0834213 0.005678 0.180986 52 27 47
0.083886 0.00564548 0.17995 52 27 47
0.0901097 0.00599695 0.191153 51 26 47
0.0888586 0.0058487 0.186427 52 28 48
0.0941087 0.00612694 0.195296 49 25 46
0.104721 0.00674456 0.214983 52 25 45
0.10178 0.00648539 0.206722 51 23 44
0.113187 0.00713631 0.22747 50 21 42
0.117912 0.00735681 0.234498 52 25 45
0.140813 0.00869504 0.277155 50 22 43
0.159109 0.00972454 0.30997 49 20 42
0.1784 0.0107935 0.344042 49 21 42
0.208567 0.0124924 0.398196 50 21 43
0.156149 0.00926015 0.295167 49 21 42
0.23885 0.0140257 0.447071 51 23 44
0.215961 0.0125586 0.400304 51 25 45
0.272365 0.0156863 0.5 51 25 44
0.205872 0.0117438 0.374334 52 27 45
0.335976 0.0189847 0.605137 52 25 45
0.339145 0.0189847 0.605137 53 27 46
0.398711 0.0221124 0.704833 53 27 46
0.3745 0.0205791 0.655958 53 27 45
0.427646 0.0232859 0.742238 53 26 46
0.581395 0.0313726 1 52 25 45
0.466471 0.0249464 0.795167 52 26 45
0.41717 0.0221124 0.704833 51 25 43
0.420862 0.0221124 0.704833 51 25 43
0.424554 0.0221124 0.704833 52 26 44
0.531232 0.0274301 0.874334 54 27 45
0.612822 0.0313726 1 52 25 42
0.386699 0.0196287 0.625666 52 26 42
0.389976 0.0196287 0.625666 51 22 41
-0.131596 0.00766318 0.209369 59 40 41
-0.131716 0.00773464 0.211321 57 34 37
-0.13312 0.00788332 0.215383 56 34 37
-0.127985 0.007644 0.208845 55 33 36
-0.125256 0.00754549 0.206154 56 33 37
-0.126821 0.00770622 0.210545 56 33 37
-0.122307 0.00749715 0.204833 56 34 38
-0.125406 0.00775508 0.21188 56 33 38
-0.124417 0.00776262 0.212086 56 33 38
-0.124659 0.00784781 0.214413 57 38 42
-0.118312 0.00751598 0.205347 59 39 43
-0.119513 0.00766188 0.209334 59 37 40
-0.114231 0.00739107 0.201935 58 37 41
-0.117153 0.007651 0.209036 57 35 38
-0.115248 0.00759758 0.207577 57 33 36
-0.114355 0.00761049 0.20793 57 34 36
-0.108076 0.00726179 0.198402 57 34 36
-0.109365 0.00741973 0.202718 55 32 34
-0.107868 0.00738991 0.201903 56 32 34
-0.107913 0.0074662 0.203987 55 30 32
-0.106856 0.007467 0.204009 55 30 34
-0.106636 0.00752694 0.205647 54 30 33
-0.105141 0.00749715 0.204833 54 28 32
-0.103469 0.00745397 0.203653 54 26 32
-0.103773 0.0075537 0.206378 54 30 32
-0.100977 0.00742759 0.202932 56 32 35
-0.097439 0.00724358 0.197905 55 28 33
-0.0962428 0.00723158 0.197577 55 29 33
-0.0963977 0.00732195 0.200046 55 31 35
-0.0944687 0.00725429 0.198197 55 31 36
-0.0943573 0.00732624 0.200163 54 30 36
-0.0935344 0.00734394 0.200647 54 32 39
-0.0928657 0.00737429 0.201476 58 41 48
-0.0914985 0.00734925 0.200792 58 41 48
-0.0906377 0.00736476 0.201216 57 40 49
-0.0907162 0.00745785 0.203759 57 42 51
-0.0912172 0.00758832 0.207324 58 44 53
-0.0916492 0.00771611 0.210815 56 41 51
-0.0866504 0.00738422 0.201747 56 41 52
-0.0853164 0.0073603 0.201094 58 46 55
-0.0852688 0.00744814 0.203494 58 45 55
-0.0816162 0.00721933 0.197243 57 45 55
-0.0835509 0.00748522 0.204507 57 46 55
-0.0811797 0.00736724 0.201283 58 47 56
-0.080629 0.00741355 0.202549 58 48 58
-0.082658 0.00770143 0.210414 58 48 58
-0.0788869 0.0074494 0.203528 58 49 59
-0.0770584 0.00737642 0.201534 59 51 61
-0.0763854 0.00741355 0.202549 60 52 61
-0.0760508 0.00748503 0.204502 60 52 61
-0.074237 0.00741089 0.202476 58 50 59
-0.0728108 0.00737386 0.201464 58 51 60
-0.0716307 0.00736103 0.201114 59 52 61
-0.0711648 0.0074223 0.202788 60 53 61
-0.0704525 0.00745934 0.2038 58 50 59
-0.0671983 0.00722425 0.197377 56 48 58
-0.0679313 0.00741717 0.202648 59 51 60
-0.0667162 0.00740012 0.202182 59 51 60
-0.0640123 0.00721472 0.197117 58 50 60
-0.0629798 0.00721472 0.197117 58 50 60
-0.0631671 0.00735678 0.200998 59 51 60
-0.0617762 0.00731674 0.199904 59 51 60
-0.0598419 0.00720983 0.196983 59 51 60
-0.0585502 0.00717797 0.196112 59 51 60
-0.059642 0.00744238 0.203337 58 50 60
-0.0563502 0.00715947 0.195607 58 50 59
-0.0557658 0.00721642 0.197163 58 48 58
-0.0538329 0.00709774 0.19392 56 46 57
-0.0539144 0.00724518 0.197949 57 47 58
-0.0524803 0.00719075 0.196461 58 48 58
-0.0533609 0.00745763 0.203753 58 46 58
-0.0505694 0.00721174 0.197035 58 45 57
-0.049417 0.00719421 0.196556 57 44 56
-0.0481334 0.00715643 0.195524 58 45 56
-0.0466553 0.00708747 0.19364 57 42 55
-0.0449491 0.00698002 0.190704 56 41 53
-0.0453096 0.00719591 0.196603 57 44 55
-0.0451592 0.00733882 0.200507 57 45 55
-0.0436476 0.00726205 0.19841 57 40 52
-0.0422943 0.00720852 0.196947 57 43 54
-0.0405961 0.00709206 0.193765 56 42 54
-0.0404671 0.00725079 0.198102 54 40 52
-0.0386921 0.0071152 0.194397 54 38 51
-0.0372953 0.00704368 0.192444 56 41 53
-0.0367576 0.00713498 0.194938 55 40 53
-0.0354862 0.007085 0.193572 55 40 54
-0.033801 0.00694702 0.189802 57 45 56
-0.0330712 0.00700299 0.191332 57 44 56
-0.031838 0.00695254 0.189953 57 44 57
-0.0310669 0.00700299 0.191332 57 44 57
-0.0293726 0.00684179 0.186927 58 43 59
-0.0284172 0.00684748 0.187083 58 46 60
-0.0275352 0.00687192 0.187751 58 47 61
-0.0266226 0.00689024 0.188251 57 46 60
-0.025334 0.00680893 0.18603 58 46 61
-0.0238533 0.0066674 0.182163 58 47 61
-0.0230071 0.00669883 0.183022 58 47 62
-0.022492 0.00683358 0.186703 57 46 62
-0.0215476 0.00684423 0.186994 56 45 61
-0.0208125 0.00692553 0.189215 58 46 62
-0.0198991 0.00695266 0.189957 57 45 62
-0.0183873 0.00676256 0.184763 57 47 63
-0.017773 0.00689981 0.188513 58 47 63
-0.0165668 0.00680985 0.186055 57 46 63
-0.0159055 0.00694663 0.189792 57 45 63
-0.0144888 0.00674977 0.184413 56 43 62
-0.0139008 0.00693842 0.189567 57 44 63
-0.0123442 0.00663542 0.181289 58 46 64
-0.011779 0.00685924 0.187404 56 44 63
-0.0105512 0.00670283 0.183131 56 44 63
-0.00960139 0.00670937 0.18331 57 45 63
-0.0086672 0.00672952 0.18386 57 44 63
-0.00777062 0.00678756 0.185446 56 44 63
-0.0069703 0.00695827 0.19011 56 44 63
-0.00570769 0.00664748 0.181619 56 44 63
-0.00478177 0.00668293 0.182587 55 42 62
-0.00391685 0.00684266 0.186951 56 42 62
-0.00278396 0.00648469 0.177171 57 45 63
-0.00185452 0.00647961 0.177032 57 42 63
-0.000920316 0.00643109 0.175707 56 42 63
0 0.00651349 0.177958 56 42 63
0.000942175 0.00658385 0.17988 57 42 63
0.0019 0.00663851 0.181374 57 43 63
0.00278996 0.00649868 0.177553 57 41 62
0.00377225 0.00659004 0.180049 56 40 62
0.00463664 0.00648009 0.177045 57 41 63
0.00544993 0.00634728 0.173417 56 40 62
0.00645508 0.00644394 0.176058 56 39 61
0.007317 0.00639133 0.17462 57 40 62
0.00834613 0.00648023 0.177049 57 39 61
0.00929259 0.00649359 0.177414 56 38 60
0.0102641 0.00652041 0.178147 54 36 58
0.0108567 0.00632216 0.17273 56 39 60
0.0120298 0.00646642 0.176672 56 38 60
0.012541 0.00625968 0.171023 55 37 59
0.0138999 0.00647545 0.176919 55 37 58
0.014273 0.00623365 0.170312 56 37 59
0.0158214 0.00650345 0.177684 56 37 59
0.0162771 0.00631906 0.172646 56 37 59
0.0175366 0.00644971 0.176215 56 38 59
0.0187597 0.00655458 0.17908 56 39 60
0.0187295 0.0062324 0.170278 55 36 58
0.0200018 0.00635321 0.173579 56 36 58
0.0211711 0.00643226 0.175738 56 36 58
0.0215524 0.00627528 0.17145 56 36 57
0.022619 0.0063224 0.172737 54 33 55
0.02281 0.00613056 0.167496 54 33 56
0.0245301 0.00634869 0.173455 55 34 55
0.0241119 0.00601757 0.164408 54 33 55
0.0257348 0.00620114 0.169424 54 33 55
0.0263592 0.00613987 0.16775 54 33 55
0.0276963 0.00624322 0.170574 52 30 53
0.0281696 0.00615147 0.168067 51 27 52
0.0282927 0.00599112 0.163686 51 26 51
0.0287651 0.005912 0.161524 53 30 54
0.031223 0.00623383 0.170317 51 26 50
0.0322266 0.00625547 0.170908 52 26 50
0.0321948 0.00608039 0.166125 50 25 49
0.0335884 0.00617665 0.168755 51 26 49
0.0342592 0.00613847 0.167712 51 26 48
0.0355282 0.0062067 0.169576 51 25 47
0.0371112 0.00632513 0.172812 51 23 46
0.0364486 0.00606428 0.165685 51 21 44
0.0381588 0.00620118 0.169425 52 22 44
0.0380715 0.00604639 0.165196 51 20 42
0.0393363 0.00610842 0.166891 49 18 38
0.0392283 0.00595922 0.162815 47 16 35
0.0398853 0.00593011 0.162019 45 15 31
0.0414987 0.00604146 0.165061 45 15 32
0.0426089 0.00607649 0.166018 48 17 36
0.0436419 0.00609933 0.166642 50 19 37
0.0443635 0.0060786 0.166076 48 18 36
0.0456015 0.00612807 0.167428 51 20 41
0.0475776 0.00627299 0.171387 54 26 46
0.0463727 0.00600091 0.163953 54 30 48
0.0488071 0.0062011 0.169423 57 39 53
0.0506085 0.00631515 0.172539 57 40 54
0.050752 0.00622194 0.169992 58 41 54
0.050694 0.00610768 0.166871 57 40 54
0.0515886 0.00611012 0.166937 57 41 54
0.0537506 0.00626009 0.171035 58 43 55
0.0541566 0.00620397 0.169501 58 43 56
0.0554971 0.00625498 0.170895 56 41 54
0.0570961 0.00633306 0.173028 56 41 55
0.0586928 0.00640845 0.175088 56 41 55
0.0572397 0.00615364 0.168126 56 41 55
0.060546 0.00641047 0.175143 54 37 52
0.0600728 0.00626543 0.171181 56 40 55
0.0616214 0.00633243 0.173011 56 40 54
0.0634791 0.0064288 0.175644 54 37 52
0.0641678 0.00640571 0.175013 53 35 51
0.0666547 0.00656025 0.179235 52 33 51
0.0685255 0.0066507 0.181707 53 35 52
0.0690068 0.00660567 0.180476 53 34 51
0.0678345 0.00640571 0.175013 52 31 50
0.069533 0.00647855 0.177003 53 32 51
0.0715299 0.00657691 0.179691 52 30 49
0.0720786 0.00654129 0.178718 53 32 50
0.0737914 0.00661088 0.180619 53 31 49
0.0748433 0.00662024 0.180874 52 29 48
0.0730198 0.0063782 0.174262 52 29 48
0.0759589 0.00655302 0.179038 51 27 47
0.0764291 0.00651318 0.177949 51 27 47
0.0770228 0.00648469 0.177171 51 26 47
0.0785315 0.006533 0.178491 53 29 49
0.0789848 0.00649341 0.177409 52 29 48
0.0843262 0.00685191 0.187204 52 29 48
0.0838834 0.0067376 0.184081 51 27 47
0.0856343 0.00680006 0.185787 51 26 46
0.0892105 0.00700445 0.191372 51 24 46
0.089043 0.00691362 0.18889 50 24 45
0.0976314 0.00749715 0.204833 51 26 46
0.106469 0.00808692 0.220946 51 26 46
0.116374 0.00874423 0.238905 52 25 45
0.129924 0.00965847 0.263883 52 25 45
0.146872 0.0108035 0.295167 50 21 42
0.169728 0.0123546 0.337546 50 21 42
0.186426 0.0134302 0.366932 51 23 43
0.222967 0.0158987 0.434376 50 21 43
0.219846 0.0155178 0.423969 49 21 42
0.246023 0.0171919 0.469708 49 20 42
0.264509 0.0183007 0.5 52 26 46
0.323298 0.0221488 0.605137 51 24 44
0.292609 0.0198518 0.542379 53 26 46
0.383944 0.0257978 0.704833 52 26 45
0.344097 0.0229002 0.625666 52 27 46
0.371711 0.0245046 0.669501 54 29 47
0.367628 0.0240089 0.655958 53 28 47
0.398711 0.0257978 0.704833 54 28 46
0.57092 0.0366013 1 54 27 45
0.43659 0.0277351 0.757762 53 26 46
0.440559 0.0277351 0.757762 52 26 46
0.495143 0.030893 0.844042 51 25 44
0.684178 0.0423096 1.15596 52 27 45
0.503985 0.030893 0.844042 51 25 42
0.424554 0.0257978 0.704833 53 25 43
0.543705 0.0327532 0.894863 52 24 43
0.517247 0.030893 0.844042 53 27 44
0.744659 0.0440984 1.20483 51 25 42
0.807275 0.0474048 1.29517 51 24 42
-0.12693 0.0084474 0.201946 58 38 41
-0.127672 0.00856817 0.204833 58 37 41
-0.128225 0.00867821 0.207463 57 36 39
-0.126311 0.00862175 0.206114 57 35 38
-0.127856 0.00880244 0.210433 56 32 37
-0.128123 0.00889754 0.212707 56 33 37
-0.126119 0.00883519 0.211216 55 34 38
-0.124176 0.00877603 0.209802 57 35 41
-0.122681 0.00874779 0.209127 56 35 40
-0.122354 0.00880307 0.210448 57 37 41
-0.122558 0.00889793 0.212716 58 38 42
-0.115843 0.00848759 0.202907 58 36 40
-0.115343 0.00852918 0.203901 57 35 39
-0.114293 0.00853056 0.203934 57 35 38
-0.114207 0.00860455 0.205702 58 35 37
-0.11124 0.00846079 0.202266 57 34 36
-0.114061 0.00875875 0.209389 56 29 33
-0.113348 0.00878852 0.210101 56 31 33
-0.107726 0.00843452 0.201638 56 31 32
-0.108145 0.00855113 0.204425 55 29 31
-0.106035 0.00846818 0.202442 54 29 32
-0.103935 0.00838429 0.200437 56 32 35
-0.103542 0.00843779 0.201716 53 24 28
-0.102891 0.00847122 0.202515 53 27 31
-0.10281 0.00855271 0.204463 57 34 37
-0.10007 0.00841244 0.20111 55 31 35
-0.0988014 0.00839412 0.200672 56 32 36
-0.10015 0.00860017 0.205598 54 28 33
-0.0960565 0.00833832 0.199338 55 30 36
-0.0946122 0.0083032 0.198498 55 32 38
-0.0956519 0.00848772 0.202909 56 35 41
-0.0939024 0.0084261 0.201436 56 35 42
-0.0942444 0.00855289 0.204468 58 41 48
-0.0949882 0.00871947 0.20845 58 41 48
-0.0940421 0.00873301 0.208774 58 42 50
-0.0936028 0.00879448 0.210243 58 43 52
-0.0898076 0.00853835 0.20412 55 40 50
-0.0885919 0.00852425 0.203783 58 44 54
-0.0870878 0.00848171 0.202766 58 46 55
-0.0884855 0.00872423 0.208564 56 42 53
-0.0856911 0.00855432 0.204502 56 43 54
-0.0847569 0.00856817 0.204833 56 43 54
-0.0819581 0.00839145 0.200608 57 45 56
-0.0809246 0.00839324 0.200651 57 47 57
-0.0815383 0.00856817 0.204833 58 47 58
-0.0785661 0.00836592 0.199998 57 46 57
-0.0776228 0.00837718 0.200267 59 49 59
-0.0778183 0.00851332 0.203521 60 51 60
-0.0761539 0.00844694 0.201935 59 49 60
-0.0744846 0.00837815 0.20029 58 49 59
-0.0744948 0.008499 0.203179 58 49 59
-0.0723523 0.0083742 0.200196 59 53 62
-0.0709061 0.0083275 0.199079 59 52 60
-0.0705911 0.00841424 0.201153 60 53 60
-0.0699906 0.00846907 0.202464 58 50 59
-0.0686748 0.0084377 0.201714 56 47 58
-0.0667542 0.00832988 0.199136 58 50 60
-0.0644928 0.00817543 0.195444 58 51 61
-0.0644022 0.00829563 0.198317 60 52 62
-0.0631908 0.00827302 0.197777 59 51 61
-0.06243 0.00830963 0.198652 58 49 59
-0.061286 0.00829563 0.198317 58 49 60
-0.0615267 0.0084718 0.202529 59 51 60
-0.0600156 0.00840871 0.201021 59 49 60
-0.0582897 0.00831273 0.198726 57 47 58
-0.05729 0.00831871 0.198869 59 50 60
-0.0560331 0.00828688 0.198108 56 45 57
-0.0543849 0.00819488 0.195909 57 46 58
-0.0541839 0.0083216 0.198938 58 47 58
-0.0527619 0.00826209 0.197516 58 46 57
-0.0511496 0.00816982 0.19531 58 44 56
-0.05191 0.00846048 0.202258 57 42 55
-0.0506638 0.00842939 0.201515 57 43 56
-0.046951 0.00797787 0.190721 56 41 54
-0.0464079 0.00805701 0.192613 56 40 53
-0.0471445 0.00836678 0.200018 57 41 54
-0.0456656 0.00828852 0.198147 57 41 53
-0.0443165 0.00823071 0.196765 56 39 51
-0.043786 0.00832581 0.199039 56 38 50
-0.0414967 0.00808294 0.193233 56 38 51
-0.0411287 0.00821154 0.196307 54 38 50
-0.0396986 0.00812925 0.19434 56 40 53
-0.0383011 0.00804947 0.192433 54 38 51
-0.0365702 0.00789343 0.188702 55 39 52
-0.0357022 0.00792013 0.189341 55 37 51
-0.0348369 0.00794898 0.19003 54 36 51
-0.0343827 0.00807609 0.193069 55 39 54
-0.0336945 0.00815427 0.194938 56 41 55
-0.0308982 0.00771122 0.184346 58 45 57
-0.0306976 0.00790828 0.189057 57 42 56
-0.0297321 0.00791489 0.189215 57 42 59
-0.0286072 0.00787802 0.188334 57 45 60
-0.0266827 0.00761048 0.181938 58 46 60
-0.026429 0.0078173 0.186882 57 45 60
-0.0254622 0.007821 0.186971 57 45 60
-0.0241469 0.00771368 0.184405 57 46 61
-0.0233125 0.00775742 0.185451 57 45 61
-0.0229195 0.00795823 0.190251 57 46 62
-0.0213262 0.00774158 0.185072 57 47 63
-0.0206607 0.00785715 0.187835 56 44 61
-0.0198456 0.00792455 0.189446 57 45 62
-0.0180438 0.0075843 0.181312 57 46 62
-0.0169832 0.00753505 0.180135 58 47 63
-0.0165668 0.00778269 0.186055 56 44 62
-0.0155497 0.00776145 0.185547 56 44 62
-0.014756 0.00785631 0.187815 57 45 62
-0.0133365 0.00760771 0.181872 57 45 63
-0.0124232 0.00763183 0.182448 56 44 63
-0.0115532 0.00768882 0.183811 57 44 63
-0.0105284 0.0076438 0.182735 56 42 62
-0.00979697 0.00782405 0.187044 57 45 64
-0.00851073 0.00755204 0.180541 56 43 62
-0.00777055 0.00775714 0.185444 56 43 63
-0.00667013 0.00760985 0.181923 56 43 63
-0.00586027 0.00780021 0.186474 57 45 64
-0.00482444 0.00770579 0.184217 56 44 63
-0.00377069 0.00752836 0.179975 58 45 64
-0.00278825 0.00742251 0.177444 56 43 63
-0.00182811 0.00729982 0.174511 56 42 63
-0.000944503 0.00754299 0.180325 57 45 65
0 0.00723653 0.172998 57 44 64
0.000954942 0.00762635 0.182317 57 42 63
0.00191097 0.00763071 0.182422 57 42 63
0.0027958 0.00744261 0.177925 57 42 63
0.00365969 0.00730675 0.174677 55 39 61
0.00460738 0.0073591 0.175928 57 41 62
0.00562236 0.00748354 0.178903 56 38 61
0.0064559 0.00736544 0.17608 55 37 60
0.00745982 0.00744695 0.178029 56 38 61
0.00835763 0.00741618 0.177293 55 36 59
0.00914625 0.00730438 0.17462 56 37 59
0.0100018 0.0072615 0.173595 56 38 60
0.0110185 0.00733297 0.175304 56 38 59
0.0118847 0.00730104 0.17454 56 37 59
0.0128901 0.00735304 0.175784 55 37 59
0.0136914 0.00728946 0.174264 56 38 59
0.0145474 0.00726117 0.173587 56 37 58
0.0153316 0.00720244 0.172183 55 35 58
0.0165657 0.00734982 0.175707 55 36 58
0.0173787 0.00730471 0.174628 55 37 59
0.0176304 0.00703999 0.1683 56 38 59
0.0188696 0.00717602 0.171552 57 38 59
0.0195796 0.00710755 0.169915 57 39 59
0.0205873 0.00714843 0.170892 56 37 58
