ply
format ascii 1.0
element vertex 1292
property float x
property float y
property float z
property uchar red
property uchar green
property uchar blue
end_header
0.577265 0.203802 1.34404 43 14 29
0.633682 0.221025 1.45762 41 13 28
0.641317 0.221025 1.45762 44 14 31
0.648951 0.221025 1.45762 42 14 29
0.694765 0.233877 1.54238 44 15 33
0.683532 0.227451 1.5 45 16 37
0.691389 0.227451 1.5 47 18 38
0.757827 0.246506 1.62567 48 19 40
0.730142 0.234862 1.54887 47 19 40
0.714959 0.227451 1.5 48 20 42
0.773479 0.243393 1.60514 50 23 46
0.781886 0.243393 1.60514 50 23 45
0.759394 0.233877 1.54238 52 28 47
0.717667 0.218699 1.44228 51 28 47
0.799665 0.241149 1.59033 49 22 43
0.762099 0.227451 1.5 50 25 45
0.769956 0.227451 1.5 50 26 45
0.814342 0.238133 1.57045 51 26 46
0.840738 0.243393 1.60514 51 27 47
0.793526 0.227451 1.5 51 26 46
0.89194 0.253153 1.6695 50 25 46
0.86596 0.243393 1.60514 50 25 46
0.785657 0.218699 1.44228 50 24 45
0.793211 0.218699 1.44228 50 24 45
0.871922 0.238133 1.57045 50 26 46
0.880148 0.238133 1.57045 50 24 45
0.888373 0.238133 1.57045 49 22 43
0.784634 0.208396 1.37433 48 21 42
0.904825 0.238133 1.57045 48 22 42
0.924613 0.241149 1.59033 49 22 43
0.932943 0.241149 1.59033 50 22 44
0.980114 0.2511 1.65596 49 21 43
1.04957 0.266536 1.75776 50 21 43
0.90352 0.227451 1.5 49 22 43
0.835024 0.208396 1.37433 50 21 42
0.919233 0.227451 1.5 48 20 40
1.23612 0.303268 2 48 20 40
0.807275 0.196391 1.29517 50 21 42
-0.342139 0.0853872 0.544343 71 60 59
-0.320875 0.0807533 0.514802 69 59 60
-0.30903 0.0784314 0.5 72 63 64
-0.306411 0.0784314 0.5 69 62 60
-0.322197 0.0831831 0.530292 69 61 60
-0.31942 0.0831831 0.530292 68 60 60
-0.315821 0.0829674 0.528917 72 64 63
-0.313051 0.0829674 0.528917 70 62 61
-0.320594 0.0857253 0.546499 68 61 60
-0.325842 0.0879134 0.560448 68 60 60
-0.305532 0.0831831 0.530292 66 58 58
-0.314865 0.0865106 0.551505 67 59 60
-0.32876 0.0911647 0.581175 65 57 59
-0.300023 0.0839736 0.535331 64 56 59
-0.312832 0.0883845 0.563451 63 56 59
-0.30988 0.0883845 0.563451 63 56 59
-0.300422 0.0865106 0.551505 64 58 60
-0.311425 0.0905498 0.577255 64 57 61
-0.284119 0.0834203 0.531804 64 57 60
-0.309746 0.091845 0.585512 64 57 60
-0.306679 0.091845 0.585512 63 55 59
-0.342357 0.103566 0.660231 62 55 59
-0.292812 0.0894818 0.570447 61 54 58
-0.299929 0.0926015 0.590334 62 54 59
-0.301544 0.0940699 0.599696 61 53 57
-0.274424 0.0865106 0.551505 61 52 57
-0.314716 0.100268 0.639209 58 50 55
-0.261778 0.0842988 0.537405 61 53 58
-0.287068 0.0934477 0.595729 60 52 57
-0.273855 0.0901261 0.574554 59 51 57
-0.291324 0.0969406 0.617996 59 51 57
-0.242652 0.0816516 0.520529 58 50 56
-0.269358 0.0916682 0.584385 59 50 57
-0.24853 0.0855523 0.545396 59 50 57
-0.244315 0.085079 0.542379 57 49 56
-0.222606 0.0784314 0.5 57 49 56
-0.230357 0.0821283 0.523568 57 49 56
-0.228433 0.0824237 0.525451 57 48 55
-0.224872 0.0821283 0.523568 57 49 56
-0.22213 0.0821283 0.523568 58 48 55
-0.209512 0.0784314 0.5 57 47 55
-0.166681 0.0631875 0.40282 56 46 54
-0.167368 0.0642613 0.409665 57 48 54
-0.162462 0.0631875 0.40282 56 45 54
-0.16877 0.066505 0.423969 56 45 53
-0.177218 0.0707648 0.451125 56 46 54
-0.148616 0.0601456 0.383428 56 46 54
-0.139796 0.0573512 0.365614 55 43 52
-0.121746 0.0506398 0.322829 56 43 53
-0.127943 0.0539673 0.344042 55 42 51
-0.108222 0.0463007 0.295167 56 42 51
-0.113646 0.0493259 0.314453 56 41 51
-0.0900357 0.0396531 0.252789 55 39 49
-0.0680309 0.030409 0.193858 54 37 47
-0.0723067 0.03281 0.209163 55 37 47
-0.0733288 0.0337856 0.215383 55 37 48
-0.0726899 0.0340146 0.216843 54 34 46
-0.0679973 0.0323238 0.206064 53 30 43
-0.0641143 0.0309695 0.197431 53 28 42
-0.0612258 0.0300591 0.191627 52 26 41
-0.0589733 0.0294358 0.187653 52 27 41
-0.0583313 0.0296088 0.188756 51 25 40
-0.0569835 0.0294234 0.187574 51 24 40
-0.0576062 0.0302668 0.192951 52 26 42
-0.0561411 0.0300237 0.191401 51 25 41
-0.0545089 0.0296808 0.189215 51 23 40
-0.0525331 0.0291347 0.185734 52 25 41
-0.0526552 0.0297534 0.189678 52 28 45
-0.0510034 0.0293743 0.187261 53 30 47
-0.0497527 0.0292158 0.186251 56 38 51
-0.047477 0.0284371 0.181286 56 39 51
-0.0477963 0.0292126 0.18623 56 38 51
-0.047973 0.0299314 0.190813 55 38 53
-0.0461314 0.0293948 0.187392 56 40 54
-0.0448264 0.0291842 0.186049 56 40 55
-0.04389 0.0292095 0.186211 56 41 55
-0.0423977 0.0288576 0.183967 56 41 55
-0.0414698 0.0288825 0.184126 55 40 55
-0.0400718 0.0285733 0.182155 56 41 57
-0.0399176 0.0291576 0.18588 55 42 57
-0.039481 0.0295596 0.188443 55 42 57
-0.0380361 0.0292081 0.186201 56 42 58
-0.0363502 0.028648 0.182631 56 41 58
-0.0353835 0.0286398 0.182579 56 43 59
-0.0340484 0.0283247 0.18057 55 41 59
-0.03323 0.0284337 0.181265 53 40 58
-0.0323391 0.0284853 0.181594 56 44 60
-0.0308581 0.0280044 0.178528 56 43 59
-0.029901 0.0279839 0.178397 55 41 59
-0.0289839 0.0280005 0.178503 55 41 59
-0.0278396 0.0277915 0.177171 55 41 59
-0.0264859 0.0273519 0.174369 55 42 60
-0.0257959 0.0275908 0.175891 55 43 61
-0.0255601 0.0283511 0.180738 54 41 60
-0.0240936 0.0277523 0.176921 55 42 60
-0.0229652 0.0275107 0.175381 55 41 60
-0.0218901 0.0273154 0.174136 54 39 59
-0.0211653 0.0275593 0.17569 54 41 60
-0.0203689 0.0277278 0.176765 53 38 58
-0.0196931 0.0280844 0.179038 54 41 60
-0.0189932 0.0284406 0.181309 54 39 60
-0.0175427 0.0276512 0.176276 53 37 59
-0.0164981 0.0274494 0.17499 53 37 58
-0.0154918 0.0272912 0.173982 53 38 58
-0.0144682 0.027081 0.172641 54 39 59
-0.0134336 0.0268209 0.170983 53 37 58
-0.012703 0.0271738 0.173233 53 38 58
-0.0116949 0.0269418 0.171754 53 36 57
-0.0107953 0.0269418 0.171754 52 35 57
-0.00989896 0.0269506 0.17181 53 36 57
-0.00918306 0.0275016 0.175323 51 33 56
-0.00795124 0.0264584 0.168672 51 32 56
-0.00710251 0.0265884 0.169501 51 33 56
-0.00630705 0.0269836 0.17202 55 40 60
-0.00534814 0.0266946 0.170178 52 34 56
-0.00450469 0.0269815 0.172007 52 32 55
-0.00348991 0.0261292 0.166574 52 32 55
-0.00268115 0.0267653 0.170629 51 30 54
-0.00181786 0.0272208 0.173533 51 30 54
-0.000886715 0.0265556 0.169292 51 28 53
0 0.0269836 0.17202 51 28 53
0.000864165 0.0258802 0.164986 50 25 52
0.00176016 0.0263568 0.168025 50 24 50
0.00261142 0.0260691 0.166191 49 22 49
0.0034345 0.0257143 0.163929 48 20 48
0.00444078 0.0265987 0.169567 50 21 49
0.00526171 0.0262632 0.167428 49 19 46
0.00606477 0.025947 0.165412 47 17 44
0.00701441 0.0262587 0.167399 45 16 40
0.00788175 0.0262272 0.167198 45 15 39
0.0085157 0.025503 0.162582 47 17 41
0.00942742 0.0256668 0.163626 43 14 39
0.0102635 0.0256144 0.163292 45 15 41
0.0109117 0.0251374 0.160251 44 15 40
0.0112679 0.0241039 0.153663 46 17 41
0.0126677 0.0252916 0.161234 46 16 39
0.0132149 0.0247352 0.157687 45 16 40
0.0144337 0.0254273 0.162099 47 18 43
0.0150798 0.0250896 0.159946 48 18 43
0.0159073 0.0250734 0.159843 48 19 43
0.0168022 0.0251598 0.160393 49 20 45
0.0177095 0.0252556 0.161004 51 23 48
0.0183122 0.0249281 0.158916 52 26 49
0.018695 0.0243428 0.155185 51 24 48
0.0195282 0.0243681 0.155347 51 26 49
0.0206184 0.0246993 0.157458 51 27 50
0.0213204 0.024558 0.156557 52 30 51
0.0224232 0.0248716 0.158557 53 31 52
0.0235069 0.0251425 0.160284 51 30 51
0.0247382 0.025547 0.162862 53 32 51
0.0247299 0.0246872 0.157381 53 33 52
0.0255542 0.0246872 0.157381 52 33 53
0.026554 0.0248514 0.158428 52 33 53
0.0270154 0.0245171 0.156296 52 32 52
0.0278039 0.0244905 0.156127 52 34 53
0.0278066 0.0237931 0.151681 53 35 54
0.0298269 0.0248128 0.158182 52 34 53
0.0308271 0.0249518 0.159068 51 33 52
0.0314964 0.0248227 0.158244 51 32 51
0.0322639 0.0247756 0.157944 51 32 52
0.0326372 0.0244357 0.155778 50 30 51
0.0342166 0.0249933 0.159333 50 30 51
0.0345603 0.0246433 0.157101 50 30 52
0.0363985 0.0253505 0.161609 50 30 51
0.0361233 0.024587 0.156742 49 28 50
0.0378101 0.0251633 0.160416 49 28 50
0.0384798 0.0250522 0.159708 49 28 50
0.0393482 0.0250725 0.159837 50 28 50
0.039874 0.0248783 0.158599 50 28 51
0.0415066 0.0253684 0.161723 50 26 49
0.0419088 0.0251019 0.160025 50 27 50
0.0421514 0.0247521 0.157795 49 25 48
0.043177 0.0248669 0.158526 48 25 48
0.0445564 0.0251771 0.160504 48 26 48
0.0462475 0.0256487 0.163511 48 23 47
0.0481131 0.0261982 0.167014 46 21 45
0.0479724 0.0256552 0.163552 49 24 48
0.0486634 0.0255681 0.162997 48 22 45
0.0496969 0.025661 0.163589 46 20 44
0.0516192 0.0262018 0.167036 49 22 47
0.0503233 0.0251183 0.160129 49 23 47
0.0544785 0.0267465 0.170509 49 23 47
0.0540756 0.0261205 0.166518 48 22 46
0.0539099 0.0256271 0.163373 50 23 47
0.0568201 0.0265884 0.169501 50 24 48
0.057547 0.0265143 0.169029 50 24 47
0.0600827 0.0272632 0.173803 49 23 46
0.0639634 0.0285909 0.182267 49 22 46
0.0708363 0.0311974 0.198883 49 21 44
0.0791976 0.0343743 0.219136 48 20 42
0.0926839 0.0396531 0.252789 48 20 42
0.132247 0.0557828 0.355615 48 21 43
0.169137 0.0703521 0.448495 48 20 42
0.211418 0.086734 0.552929 49 20 42
0.308204 0.124732 0.795167 49 20 41
0.413627 0.165165 1.05293 48 18 40
0.439925 0.173355 1.10514 48 17 38
0.478143 0.185968 1.18555 47 16 37
0.492232 0.188993 1.20483 47 15 34
0.556145 0.21083 1.34404 43 13 29
0.612862 0.229427 1.46259 43 14 30
0.620523 0.229427 1.46259 44 14 31
0.628183 0.229427 1.46259 42 13 29
0.635844 0.229427 1.46259 42 13 29
0.659962 0.235294 1.5 42 14 29
0.667819 0.235294 1.5 44 14 31
0.692525 0.241162 1.53741 46 16 37
0.719608 0.247712 1.57917 49 19 40
0.75794 0.257943 1.64438 49 20 41
0.741356 0.249464 1.59033 49 21 41
0.766342 0.255006 1.62567 48 20 41
0.714959 0.235294 1.5 50 23 44
0.722816 0.235294 1.5 50 23 45
0.791886 0.255006 1.62567 51 24 46
0.82576 0.263086 1.67717 51 27 46
0.785779 0.247712 1.57917 52 28 47
0.826843 0.257943 1.64438 50 25 45
0.825946 0.255006 1.62567 50 26 46
0.769956 0.235294 1.5 51 27 47
0.884027 0.267425 1.70483 50 24 46
0.912549 0.273292 1.74224 51 27 47
0.887253 0.263086 1.67717 51 24 46
0.801383 0.235294 1.5 50 25 46
0.847245 0.246345 1.57045 49 23 45
0.909429 0.261883 1.6695 49 22 44
0.882775 0.251786 1.60514 50 24 46
0.882964 0.249464 1.59033 50 25 46
0.955464 0.267425 1.70483 49 23 44
0.936746 0.259758 1.65596 48 22 44
0.85638 0.235294 1.5 49 23 44
1.01275 0.275727 1.75776 49 23 44
0.991182 0.267425 1.70483 49 22 43
0.826957 0.221124 1.40967 49 22 43
0.887806 0.235294 1.5 50 22 43
1.01797 0.267425 1.70483 50 22 43
0.957932 0.249464 1.59033 49 21 42
0.966262 0.249464 1.59033 50 22 43
0.793707 0.203163 1.29517 50 24 43
0.849421 0.215582 1.37433 51 25 45
0.623298 0.156863 1 50 21 42
-0.361127 0.0931303 0.574554 70 61 58
-0.385843 0.10034 0.619035 72 64 62
-0.340863 0.0893943 0.551505 71 64 62
-0.347327 0.0918681 0.566767 73 66 63
-0.367672 0.0980876 0.605137 73 67 64
-0.372873 0.10034 0.619035 72 65 64
-0.352494 0.0956882 0.590334 71 65 62
-0.358163 0.0980876 0.605137 73 66 63
-0.394505 0.109005 0.67249 70 64 62
-0.356431 0.099372 0.613061 71 65 64
-0.380397 0.107018 0.660231 69 62 61
-0.366177 0.103963 0.641382 68 61 62
-0.361589 0.10361 0.639209 70 63 63
-0.339145 0.0980876 0.605137 69 63 63
-0.351483 0.102615 0.633068 66 59 60
-0.324665 0.0956882 0.590334 68 62 63
-0.364698 0.10852 0.669501 66 60 61
-0.329738 0.0990703 0.6112 65 59 61
-0.323298 0.0980876 0.605137 65 59 61
-0.323335 0.0990703 0.6112 65 58 60
-0.335943 0.103963 0.641382 64 57 60
-0.332583 0.103963 0.641382 63 57 59
-0.313731 0.0990703 0.6112 63 56 59
-0.313983 0.100172 0.617996 62 55 59
-0.291222 0.093878 0.579167 62 55 59
-0.331348 0.107937 0.665905 63 56 60
-0.315786 0.103963 0.641382 61 54 59
-0.287561 0.0956882 0.590334 61 54 58
-0.289996 0.0975473 0.601804 60 53 57
-0.281377 0.0956882 0.590334 61 54 58
-0.266636 0.0916828 0.565624 60 52 58
-0.300389 0.104449 0.644385 59 51 57
-0.280563 0.098664 0.608693 59 51 57
-0.293638 0.104449 0.644385 59 51 56
-0.23669 0.0851712 0.525451 58 50 56
-0.262824 0.0956882 0.590334 58 50 56
-0.250982 0.0924645 0.570447 57 49 56
-0.217369 0.0810458 0.5 57 49 56
-0.202869 0.076562 0.472338 59 51 57
-0.212131 0.0810458 0.5 58 50 56
-0.189032 0.0731236 0.451125 57 48 55
-0.177743 0.069627 0.429553 57 48 54
-0.161321 0.064004 0.394863 56 48 54
-0.138756 0.0557662 0.344042 55 46 54
-0.179581 0.0731236 0.451125 56 47 54
-0.139698 0.0576422 0.355615 58 48 55
-0.135356 0.0566052 0.349217 56 45 54
-0.129431 0.054869 0.338506 56 45 53
-0.135243 0.058129 0.358618 56 45 53
-0.131231 0.0571994 0.352883 55 42 51
-0.0957294 0.0423213 0.261095 56 42 51
-0.102965 0.0461799 0.2849 55 41 50
-0.0927178 0.0421955 0.260319 57 41 51
-0.0737919 0.0340836 0.210274 54 36 47
-0.0708096 0.0332016 0.204833 55 37 48
-0.0662966 0.0315638 0.194729 55 37 48
-0.0671715 0.03248 0.200381 54 34 47
-0.0660115 0.0324258 0.200046 54 32 45
-0.0624835 0.0311879 0.192409 54 31 44
-0.0632761 0.0321012 0.198044 52 28 42
-0.0601001 0.0309982 0.191239 51 24 39
-0.05802 0.0304325 0.187749 51 24 40
-0.0583402 0.031128 0.19204 50 22 39
-0.0560072 0.0304075 0.187594 51 25 41
-0.0571019 0.0315554 0.194677 51 24 39
-0.0532872 0.0299828 0.184974 52 26 42
-0.054322 0.031131 0.192058 51 25 41
-0.0529094 0.0308936 0.190594 52 27 44
-0.0509517 0.0303227 0.187071 53 32 47
-0.0505809 0.0306922 0.189351 55 37 50
-0.048959 0.0303022 0.186945 56 38 52
-0.0492278 0.0310904 0.191808 57 39 53
-0.0476121 0.0306964 0.189377 56 40 54
-0.0464004 0.0305517 0.188484 57 41 55
-0.0440422 0.0296294 0.182794 56 40 54
-0.0435397 0.0299422 0.184724 56 40 54
-0.0420362 0.0295653 0.182399 56 41 55
-0.0418083 0.0300889 0.185629 55 41 55
-0.040061 0.0295178 0.182106 56 42 56
-0.0401666 0.0303175 0.187039 56 42 57
-0.0379098 0.0293294 0.180944 55 42 57
-0.0376023 0.0298375 0.184078 56 42 57
-0.0360197 0.0293338 0.180971 56 41 58
-0.035174 0.0294193 0.181498 55 40 57
-0.0346119 0.0297533 0.183559 55 41 58
-0.0331942 0.0293498 0.18107 55 41 59
-0.0321335 0.0292477 0.180439 57 45 60
-0.0310128 0.0290829 0.179423 57 44 60
-0.0303913 0.0293908 0.181322 56 43 60
-0.02884 0.0287902 0.177617 55 40 59
-0.02733 0.0281923 0.173928 55 41 59
-0.0268772 0.0286812 0.176945 55 41 60
-0.0263579 0.0291316 0.179723 54 41 60
-0.0256838 0.0294379 0.181613 54 41 60
-0.0238914 0.0284367 0.175436 55 41 60
-0.023318 0.0288644 0.178075 54 38 59
-0.0223213 0.0287819 0.177566 52 35 57
-0.0223639 0.0300906 0.185639 54 40 59
-0.0208456 0.0293226 0.180902 53 39 59
-0.018933 0.0279005 0.172128 53 39 59
-0.0185871 0.0287603 0.177433 54 39 60
-0.0172502 0.0280964 0.173337 53 37 58
-0.0162812 0.0279915 0.17269 53 37 58
-0.0156129 0.0284214 0.175342 54 38 58
-0.0148588 0.0287392 0.177302 53 38 57
-0.0140537 0.0289941 0.178875 52 35 56
-0.0127106 0.0280964 0.173337 53 35 57
-0.011668 0.0277756 0.171357 52 33 56
-0.0108167 0.027895 0.172094 52 33 56
-0.00981267 0.0276062 0.170312 51 31 56
-0.00894979 0.0276965 0.170869 52 33 56
-0.00809151 0.0278227 0.171648 51 33 56
-0.00707797 0.0273798 0.168916 51 33 56
-0.00641096 0.0283424 0.174854 52 34 56
-0.00539333 0.0278175 0.171616 52 34 56
-0.00451518 0.0279458 0.172408 52 33 55
-0.00356523 0.0275829 0.170169 51 32 54
-0.00266987 0.027541 0.16991 52 31 54
-0.00180202 0.027883 0.17202 52 30 53
-0.000884431 0.0273701 0.168856 51 28 53
0 0.0274516 0.169359 50 26 52
0.000896567 0.0277456 0.171173 49 23 50
0.00172551 0.0266992 0.164717 49 21 49
0.00260692 0.0268917 0.165905 48 20 47
0.00341474 0.0264186 0.162985 49 22 49
0.00431039 0.0266783 0.164588 48 20 46
0.00522158 0.0269316 0.166151 46 17 43
0.0060937 0.0269398 0.166201 45 16 41
0.00697255 0.026972 0.1664 43 15 38
0.00781843 0.0268837 0.165855 44 15 38
0.0084401 0.0261192 0.161138 47 17 41
0.00916634 0.0257878 0.159094 44 14 39
0.0103037 0.0265719 0.163931 45 16 41
0.0110235 0.0262414 0.161893 46 17 41
0.0116063 0.0256554 0.158277 46 17 42
0.0126963 0.0261937 0.161598 47 17 42
0.0136731 0.0264459 0.163154 48 19 44
0.0142427 0.0259271 0.159953 48 19 44
0.015261 0.0262375 0.161868 49 19 44
0.0159364 0.0259566 0.160135 50 21 47
0.0165584 0.0256212 0.158066 49 20 46
0.0169779 0.0250194 0.154353 50 21 47
0.018601 0.0261652 0.161423 51 25 50
0.0187692 0.025254 0.155801 52 28 51
0.0197802 0.0255054 0.157352 51 27 51
0.0203611 0.0252042 0.155493 52 29 52
0.021176 0.0252048 0.155497 51 27 50
0.0225599 0.0258574 0.159523 53 32 52
0.0231894 0.0256296 0.158118 53 32 52
0.0240683 0.0256838 0.158452 52 32 52
0.025306 0.0261044 0.161047 53 34 53
0.0256416 0.0255973 0.157919 52 31 53
0.0263902 0.0255214 0.15745 52 32 53
0.02681 0.0251417 0.155108 52 33 53
0.0272187 0.0247742 0.152841 52 34 53
0.0287498 0.0254201 0.156826 53 36 55
0.0293748 0.0252513 0.155784 52 32 53
0.0306311 0.0256196 0.158056 52 34 54
0.0309709 0.0252221 0.155604 51 34 53
0.03197 0.0253682 0.156505 51 33 52
0.0329098 0.0254611 0.157078 51 31 52
0.033492 0.0252795 0.155958 50 30 51
0.0347321 0.0255914 0.157882 50 28 51
0.0356551 0.0256605 0.158309 50 29 51
0.036546 0.0257039 0.158576 50 29 51
0.0382148 0.0262804 0.162133 51 31 51
0.0386405 0.0259954 0.160375 50 30 51
0.039132 0.0257659 0.158959 49 26 50
0.0412556 0.0265983 0.164094 51 30 52
0.041901 0.0264631 0.16326 50 25 49
0.042045 0.0260229 0.160545 50 27 49
0.0423341 0.0256881 0.158479 49 26 49
0.0431859 0.025701 0.158559 48 24 48
0.0433608 0.0253182 0.156197 48 25 48
0.0458521 0.0262771 0.162113 48 24 48
0.0466853 0.0262681 0.162057 48 22 48
0.0484191 0.0267572 0.165075 49 23 47
0.0483338 0.0262414 0.161893 48 22 46
0.0498561 0.0266012 0.164112 47 21 45
0.0496862 0.0260612 0.160781 48 22 46
0.0526933 0.0271779 0.16767 49 22 47
0.0526098 0.02669 0.16466 49 22 47
0.0546216 0.0272637 0.168199 49 22 46
0.0548852 0.0269604 0.166328 49 23 47
0.0550102 0.0265996 0.164102 49 22 47
0.0586829 0.0279389 0.172365 47 21 45
0.0630682 0.0295718 0.182439 49 23 47
0.0684055 0.0315957 0.194925 50 24 47
0.0710063 0.0323146 0.199361 50 22 46
0.0992564 0.0445165 0.274638 48 20 43
0.133738 0.0591247 0.364762 47 20 42
0.185942 0.0810458 0.5 48 20 41
0.225209 0.0967977 0.59718 49 20 42
0.269499 0.114247 0.704833 49 19 40
0.346846 0.14505 0.894863 48 18 39
0.43101 0.177843 1.09718 48 18 38
0.460155 0.187371 1.15596 46 15 34
0.492859 0.198081 1.22203 45 14 33
0.540439 0.214419 1.32283 45 14 31
0.545326 0.213619 1.31789 43 13 30
0.586761 0.226977 1.4003 43 14 30
0.636392 0.243137 1.5 43 13 30
0.596489 0.225113 1.3888 44 14 32
0.666658 0.248563 1.53348 42 14 31
0.67642 0.2492 1.53741 42 14 31
0.651166 0.237074 1.46259 46 16 36
0.738382 0.265702 1.63921 45 16 35
0.666487 0.237074 1.46259 47 17 38
0.773052 0.271855 1.67717 49 20 41
0.741356 0.25778 1.59033 50 22 43
0.724735 0.2492 1.53741 50 22 44
0.738255 0.251059 1.54887 50 23 45
0.773479 0.260179 1.60514 51 25 46
0.75448 0.251059 1.54887 50 25 46
0.762593 0.251059 1.54887 52 29 49
0.770705 0.251059 1.54887 50 25 46
0.807108 0.260179 1.60514 51 27 46
0.807995 0.25778 1.59033 51 26 45
0.823923 0.260179 1.60514 51 25 47
0.803156 0.251059 1.54887 51 26 47
0.851491 0.263507 1.62567 52 27 47
0.849145 0.260179 1.60514 52 27 47
0.86852 0.263507 1.62567 51 25 46
0.900684 0.270612 1.6695 50 24 46
0.874367 0.260179 1.60514 50 23 45
0.918173 0.270612 1.6695 50 23 45
0.90258 0.263507 1.62567 50 25 46
0.840666 0.243137 1.5 49 22 44
0.91961 0.263507 1.62567 48 21 43
0.945419 0.268417 1.65596 48 22 44
0.954093 0.268417 1.65596 49 24 44
0.872093 0.243137 1.5 49 23 44
0.932943 0.25778 1.59033 49 23 44
0.887806 0.243137 1.5 50 24 44
0.895663 0.243137 1.5 50 23 44
0.979214 0.263507 1.62567 51 25 46
0.856491 0.228495 1.40967 51 25 44
1.10012 0.290981 1.79517 51 24 45
0.849421 0.222768 1.37433 50 23 45
0.856619 0.222768 1.37433 52 24 47
-0.397906 0.105925 0.633068 77 68 65
-0.403346 0.108276 0.647117 71 64 61
-0.405421 0.109755 0.655958 72 64 62
-0.383422 0.104687 0.625666 71 66 63
-0.384642 0.105925 0.633068 72 68 65
-0.386334 0.107316 0.641382 75 72 68
-0.386399 0.108276 0.647117 76 72 67
-0.370313 0.104687 0.625666 74 68 64
-0.37962 0.108276 0.647117 72 67 63
-0.395279 0.113758 0.67988 71 67 64
-0.380397 0.11047 0.660231 71 66 63
-0.369452 0.108276 0.647117 69 63 62
-0.385855 0.11413 0.682106 73 69 66
-0.354799 0.105925 0.633068 69 66 64
-0.343115 0.103403 0.617996 67 63 63
-0.366227 0.111419 0.665905 69 64 64
-0.398091 0.122278 0.730803 67 62 62
-0.359251 0.111419 0.665905 66 61 62
-0.357684 0.112021 0.669501 64 58 60
-0.385337 0.121876 0.7284 66 60 61
-0.335943 0.107316 0.641382 66 60 62
-0.359257 0.115923 0.692823 63 57 59
-0.348985 0.113758 0.67988 64 58 60
-0.344048 0.113304 0.677171 63 57 60
-0.310746 0.103403 0.617996 63 57 60
-0.311325 0.104687 0.625666 62 56 59
-0.317265 0.107819 0.644385 64 57 61
-0.322224 0.110681 0.661494 61 54 58
-0.293315 0.101847 0.608693 60 54 57
-0.302373 0.106146 0.634386 59 53 57
-0.281511 0.0999202 0.59718 61 54 59
-0.278384 0.0999202 0.59718 61 53 58
-0.275256 0.0999202 0.59718 60 53 58
-0.265471 0.097476 0.582571 58 51 56
-0.235841 0.0876035 0.523568 59 52 57
-0.244366 0.0918378 0.548874 58 50 56
-0.243275 0.0925163 0.552929 59 52 58
-0.217369 0.0836601 0.5 59 52 58
-0.237483 0.0925163 0.552929 59 51 57
-0.223867 0.0882885 0.527662 57 49 56
-0.209512 0.0836601 0.5 58 50 56
-0.186669 0.0754824 0.451125 57 49 55
-0.148599 0.0608585 0.363725 57 48 55
-0.19215 0.0797168 0.476432 57 48 55
-0.160352 0.0674 0.40282 56 46 54
-0.150624 0.0641553 0.383428 55 45 53
-0.151669 0.0654735 0.391307 56 45 53
-0.146063 0.063917 0.382004 57 46 53
-0.120724 0.0535625 0.32012 56 45 53
-0.109768 0.0493875 0.295167 58 46 54
-0.108222 0.0493875 0.295167 56 42 51
-0.106676 0.0493875 0.295167 57 43 53
-0.0874969 0.041104 0.245661 56 40 50
-0.0735131 0.0350502 0.20948 55 40 49
-0.0733391 0.035497 0.21215 53 34 45
-0.0781496 0.0384073 0.229543 54 37 48
-0.0706582 0.0352682 0.210782 54 35 47
-0.0650601 0.0329894 0.197163 54 32 44
-0.0638099 0.0328773 0.196493 53 29 43
-0.0622423 0.0325953 0.194808 52 28 42
-0.0611174 0.0325397 0.194476 52 27 41
-0.0591665 0.0320349 0.191459 51 26 41
-0.0578032 0.0318364 0.190272 50 23 39
-0.0561 0.0314404 0.187905 52 28 43
-0.0554473 0.0316295 0.189036 51 25 40
-0.0541709 0.0314632 0.188042 51 25 41
-0.0545216 0.0322533 0.192764 52 27 43
-0.0534007 0.0321863 0.192364 53 30 46
-0.0499194 0.0306666 0.183281 54 32 48
-0.0498996 0.0312555 0.186801 55 37 50
-0.0505707 0.0323094 0.193099 56 38 51
-0.0471798 0.0307581 0.183828 56 39 52
-0.0471003 0.031346 0.187341 57 41 54
-0.0461127 0.0313417 0.187316 56 41 54
-0.0455249 0.0316148 0.188948 56 42 55
-0.0439675 0.0312118 0.186539 55 40 54
-0.0422273 0.0306578 0.183228 56 41 55
-0.04083 0.0303327 0.181285 56 42 56
-0.0407646 0.0310051 0.185304 55 40 56
-0.0387838 0.030218 0.1806 56 41 56
-0.0381232 0.0304459 0.181962 56 43 57
-0.0375033 0.0307188 0.183593 56 43 58
-0.0357872 0.0300846 0.179803 56 42 58
-0.0346456 0.0299121 0.178771 57 43 59
-0.0340355 0.0302016 0.180502 56 42 59
-0.0330603 0.0301744 0.180339 55 41 58
-0.0319305 0.0300004 0.179299 55 41 58
-0.0308976 0.0299096 0.178756 55 41 58
-0.0300317 0.0299799 0.179176 55 41 58
-0.0292239 0.0301145 0.179981 55 41 59
-0.0274377 0.0292164 0.174613 54 41 59
-0.0271177 0.0298714 0.178528 55 41 59
-0.0261865 0.0298757 0.178554 54 40 59
-0.024565 0.0290639 0.173702 54 40 59
-0.0247228 0.0303756 0.181542 55 41 60
-0.0229627 0.0293415 0.175361 54 39 59
-0.0221051 0.0294226 0.175846 54 40 60
-0.0211184 0.0293314 0.175301 54 40 60
-0.0205542 0.0298455 0.178374 54 40 60
-0.0191538 0.0291364 0.174136 54 41 59
-0.0182184 0.0290991 0.173912 55 40 59
-0.0173644 0.0291948 0.174484 53 37 58
-0.0164133 0.0291289 0.174091 54 39 59
-0.0152412 0.0286398 0.171168 52 35 56
-0.0144337 0.0288176 0.17223 52 34 57
-0.0136376 0.0290433 0.173579 53 37 57
-0.0128074 0.0292235 0.174656 52 33 55
-0.0117485 0.0288695 0.17254 51 31 55
-0.0106846 0.0284432 0.169992 51 31 56
-0.00981346 0.028499 0.170326 50 30 55
-0.00928652 0.0296656 0.177298 51 30 55
-0.0081539 0.0289416 0.172971 51 32 56
-0.00704896 0.0281472 0.168223 52 33 56
-0.00629373 0.0287217 0.171657 52 32 56
-0.00531372 0.0282909 0.169083 51 30 55
-0.00446245 0.0285104 0.170394 50 30 54
-0.00359286 0.0286933 0.171487 53 33 54
-0.00265901 0.0283138 0.169219 52 29 53
-0.00175033 0.027957 0.167087 50 25 51
-0.000892431 0.0285085 0.170383 49 23 50
0 0.0281676 0.168345 50 25 51
0.000895166 0.0285959 0.170905 48 21 48
0.00171649 0.0274164 0.163856 49 21 48
0.00255914 0.0272504 0.162864 46 19 45
0.0034546 0.0275891 0.164888 46 18 44
0.00436272 0.0278732 0.166586 47 18 43
0.00525902 0.0279997 0.167342 45 16 41
0.00613972 0.0280189 0.167456 43 15 39
0.00694345 0.0277259 0.165706 44 14 38
0.00791409 0.0280904 0.167884 44 15 38
0.00847725 0.0270804 0.161848 46 16 41
0.00936916 0.0272087 0.162614 46 16 41
0.0101234 0.0269491 0.161063 48 18 43
0.0113195 0.0278153 0.16624 48 18 44
0.0117526 0.0268167 0.160272 49 20 45
0.0125631 0.0267551 0.159903 49 19 44
0.0136731 0.027299 0.163154 49 20 45
0.0138869 0.026095 0.155958 49 20 45
0.0151438 0.0268759 0.160625 49 20 45
0.0158073 0.026577 0.158839 49 20 46
0.0165466 0.0264289 0.157954 50 22 48
0.0179731 0.0273403 0.163401 51 24 49
0.0185511 0.0269369 0.16099 50 23 49
0.0191326 0.0265734 0.158817 51 27 51
0.0197632 0.0263055 0.157216 53 30 52
0.0208736 0.0266722 0.159408 52 30 52
0.0209208 0.0257042 0.153623 51 28 51
0.0224775 0.0265941 0.158941 51 29 51
0.0231056 0.0263609 0.157547 51 29 51
0.0236656 0.0260687 0.155801 51 29 51
0.0248603 0.0264719 0.158211 53 33 53
0.0261474 0.0269443 0.161034 53 33 53
0.0260259 0.025981 0.155277 52 32 53
0.0270154 0.0261515 0.156296 52 33 53
0.027743 0.026066 0.155785 52 34 53
0.029004 0.0264722 0.158213 52 34 54
0.0292091 0.0259188 0.154905 50 29 52
0.0308092 0.0265998 0.158975 51 32 53
0.0313238 0.0263324 0.157377 52 35 54
0.0317841 0.0260343 0.155596 50 31 52
0.0329075 0.0262805 0.157067 50 30 51
0.033735 0.0262843 0.15709 51 31 52
0.0343936 0.0261594 0.156343 50 30 51
0.0358764 0.0266527 0.159291 50 28 50
0.0360831 0.026197 0.156568 50 29 51
0.0381218 0.0270621 0.161738 49 27 49
0.0386526 0.0268423 0.160425 50 27 50
0.0384463 0.026131 0.156174 50 28 51
0.0397089 0.0264269 0.157942 51 28 51
0.0410054 0.0267328 0.15977 50 25 50
0.0420305 0.0268531 0.160489 49 23 48
0.0430207 0.0269468 0.161049 48 24 48
0.0441679 0.0271334 0.162164 47 22 47
0.0447115 0.0269491 0.161063 48 23 48
0.0460352 0.027233 0.16276 48 23 48
0.0467867 0.0271744 0.162409 46 20 45
0.0484317 0.0276275 0.165118 47 21 46
0.047828 0.0268045 0.160199 48 22 46
0.0501621 0.0276279 0.16512 47 20 44
0.0512177 0.0277312 0.165737 47 20 44
0.0512997 0.0273126 0.163236 50 23 47
0.0514928 0.026966 0.161164 49 21 46
0.0550444 0.028361 0.169501 49 22 46
0.0552003 0.0279899 0.167283 49 22 46
0.0613599 0.030627 0.183044 49 23 47
0.0643861 0.0316431 0.189117 49 23 47
0.0721542 0.0349235 0.208722 48 21 45
0.0823268 0.0392524 0.234594 50 24 47
0.0908779 0.0426923 0.255153 50 22 45
0.142003 0.0657428 0.392916 48 21 43
0.14677 0.066979 0.400304 48 20 42
0.210346 0.0946403 0.565624 50 21 43
0.23174 0.102818 0.614498 48 19 40
0.28626 0.125267 0.748668 46 16 37
0.367082 0.158464 0.947071 46 17 38
0.413627 0.176176 1.05293 45 16 35
0.471934 0.198366 1.18555 42 13 28
0.492859 0.204471 1.22203 43 13 29
0.561482 0.229954 1.37433 42 13 29
0.591529 0.239193 1.42955 41 12 27
0.58194 0.232374 1.3888 42 13 30
0.606504 0.239193 1.42955 41 13 30
0.628183 0.244722 1.46259 44 14 33
0.666658 0.256581 1.53348 42 14 32
0.641317 0.24389 1.45762 42 14 32
0.686686 0.258071 1.54238 47 17 38
0.675676 0.25098 1.5 46 17 38
0.700577 0.257239 1.53741 48 19 41
0.75794 0.275139 1.64438 50 21 44
0.757827 0.272007 1.62567 51 22 44
0.749686 0.266095 1.59033 50 22 44
0.774856 0.272007 1.62567 50 24 47
0.783371 0.272007 1.62567 51 26 48
0.774676 0.266095 1.59033 51 26 47
0.82576 0.280625 1.67717 50 24 46
0.746386 0.25098 1.5 52 29 49
0.754243 0.25098 1.5 51 27 46
0.708683 0.233389 1.39486 50 24 45
0.834461 0.272007 1.62567 51 26 47
0.807741 0.260637 1.55772 50 25 46
0.8159 0.260637 1.55772 50 24 46
0.793526 0.25098 1.5 51 25 47
0.884704 0.277075 1.65596 50 24 46
0.900684 0.279341 1.6695 48 21 44
0.817096 0.25098 1.5 50 24 46
0.824953 0.25098 1.5 49 23 45
0.919399 0.277075 1.65596 48 23 45
0.935662 0.279341 1.6695 48 22 44
0.936746 0.277075 1.65596 48 22 44
0.973323 0.285253 1.70483 48 24 45
0.916283 0.266095 1.59033 48 24 45
0.962766 0.277075 1.65596 49 23 44
0.826957 0.235866 1.40967 49 23 45
0.846111 0.239193 1.42955 49 23 45
0.841724 0.235866 1.40967 50 24 45
0.849107 0.235866 1.40967 50 24 44
0.856491 0.235866 1.40967 51 26 45
0.919233 0.25098 1.5 51 25 46
0.800491 0.216708 1.29517 51 26 47
0.934947 0.25098 1.5 51 26 48
-0.388433 0.106635 0.617996 76 72 67
-0.446951 0.12373 0.717074 75 72 67
-0.442531 0.123545 0.716 79 77 72
-0.42381 0.11933 0.691572 75 73 67
-0.406778 0.115522 0.669501 78 78 71
-0.362494 0.103841 0.601804 78 79 72
-0.436369 0.126099 0.730803 79 78 70
-0.39413 0.114901 0.665905 78 77 69
-0.390642 0.114901 0.665905 76 75 68
-0.416903 0.12373 0.717074 76 76 68
-0.413898 0.123955 0.718376 76 76 68
-0.41723 0.126099 0.730803 75 73 67
-0.37669 0.114901 0.665905 73 70 66
-0.395019 0.121618 0.704833 74 72 68
-0.398847 0.123955 0.718376 71 69 67
-0.416745 0.130751 0.757762 69 65 65
-0.398091 0.126099 0.730803 72 68 67
-0.380252 0.121618 0.704833 72 67 66
-0.369476 0.11933 0.691572 68 64 63
-0.380033 0.123955 0.718376 67 63 63
-0.354688 0.116845 0.677171 66 63 63
-0.351142 0.116845 0.677171 65 59 61
-0.341812 0.114901 0.665905 65 60 62
-0.32231 0.109463 0.634386 65 60 62
-0.35441 0.121618 0.704833 63 57 60
-0.34412 0.11933 0.691572 63 58 60
-0.308048 0.107958 0.625666 63 57 59
-0.349932 0.123955 0.718376 64 58 60
-0.353577 0.126608 0.73375 63 57 60
-0.317396 0.114901 0.665905 63 57 60
-0.303764 0.111188 0.644385 63 56 60
-0.278384 0.103043 0.59718 61 54 58
-0.275256 0.103043 0.59718 62 55 60
-0.250116 0.0947077 0.548874 61 54 59
-0.235841 0.0903411 0.523568 61 54 59
-0.234922 0.0910475 0.527662 61 54 59
-0.245381 0.0962333 0.557716 61 54 59
-0.217369 0.0862745 0.5 60 52 58
-0.237483 0.0954074 0.552929 60 52 59
-0.234587 0.0954074 0.552929 60 52 58
-0.209512 0.0862745 0.5 59 50 57
-0.163389 0.0681332 0.394863 58 49 56
-0.167368 0.0706874 0.409665 57 49 55
-0.15464 0.0661601 0.383428 57 49 55
-0.141561 0.0613611 0.355615 58 49 55
-0.143626 0.0630863 0.365614 58 49 55
-0.141711 0.0630863 0.365614 58 48 55
-0.122401 0.0552364 0.32012 58 47 54
-0.103179 0.0472086 0.273595 57 46 53
-0.10595 0.0491592 0.2849 56 44 52
-0.101458 0.0477477 0.27672 56 44 52
-0.0875467 0.0417979 0.242238 57 44 53
-0.0676831 0.0327895 0.19003 57 42 51
-0.0733054 0.0360434 0.208888 56 41 49
-0.0684432 0.0341626 0.197988 54 37 47
-0.0732322 0.0371153 0.2151 56 39 48
-0.0720155 0.0370689 0.214831 53 34 45
-0.0649815 0.0339792 0.196925 54 33 45
-0.065891 0.0350105 0.202902 52 30 43
-0.0621934 0.0335875 0.194655 54 32 45
-0.0598621 0.0328673 0.190481 52 27 42
-0.0596505 0.0333063 0.193025 51 25 41
-0.0573873 0.0325951 0.188903 51 25 40
-0.0564307 0.032614 0.189013 51 25 40
-0.0553824 0.0325797 0.188814 51 25 41
-0.0533415 0.0319497 0.185163 51 26 42
-0.0529886 0.0323261 0.187344 54 30 45
-0.0498853 0.0310071 0.1797 54 32 47
-0.0500662 0.0317179 0.18382 54 34 48
-0.0487299 0.0314767 0.182422 57 40 52
-0.0492769 0.0324667 0.188159 56 40 52
-0.0474436 0.0318967 0.184856 57 41 53
-0.046865 0.0321641 0.186406 56 40 53
-0.0467652 0.0327785 0.189966 57 42 56
-0.044986 0.0322169 0.186711 56 41 55
-0.0433613 0.0317434 0.183967 56 41 55
-0.0419464 0.0314055 0.182009 56 41 55
-0.0417344 0.0319735 0.185301 56 42 55
-0.0406929 0.0319178 0.184978 55 41 56
-0.0393302 0.0316014 0.183144 56 41 56
-0.0374092 0.0308094 0.178554 56 42 57
-0.0384494 0.0324779 0.188224 56 42 57
-0.0360666 0.0312669 0.181206 55 41 57
-0.0346664 0.0308653 0.178879 56 42 58
-0.0348247 0.0318675 0.184687 55 41 58
-0.0329258 0.0309908 0.179606 56 43 59
-0.032892 0.0318695 0.184698 55 42 58
-0.0305657 0.030513 0.176836 56 42 58
-0.0299588 0.0308417 0.178742 55 41 57
-0.0290932 0.0309167 0.179176 55 41 58
-0.0277705 0.0304948 0.176731 55 41 59
-0.0269286 0.03059 0.177283 56 42 59
-0.0256974 0.0302339 0.175219 56 42 59
-0.0254119 0.0310054 0.179691 54 40 58
-0.0242303 0.0307008 0.177925 55 40 59
-0.0233193 0.0307283 0.178085 55 41 60
-0.0221397 0.0303895 0.176121 54 39 59
-0.0210093 0.0300918 0.174396 54 39 59
-0.020292 0.0303855 0.176098 54 40 59
-0.0196478 0.0308219 0.178627 53 38 58
-0.0187235 0.0308404 0.178734 53 36 57
-0.0174907 0.0303261 0.175754 53 35 57
-0.0165931 0.0303681 0.175997 53 37 57
-0.015295 0.029639 0.171772 51 34 56
-0.0139302 0.0286814 0.166222 51 31 55
-0.0135479 0.0297539 0.172437 51 33 56
-0.0129131 0.0303855 0.176098 52 30 55
-0.0118395 0.0300022 0.173877 51 29 54
-0.0107585 0.0295348 0.171168 50 28 54
-0.0099115 0.0296832 0.172028 49 25 53
-0.00900822 0.0296758 0.171985 47 24 52
-0.00810095 0.0296522 0.171848 50 28 54
-0.00718028 0.0295675 0.171357 51 30 55
-0.00625515 0.0294377 0.170605 51 31 55
-0.00539885 0.0296424 0.171791 51 31 54
-0.00454595 0.0299515 0.173583 50 29 53
-0.00354526 0.0291979 0.169215 52 28 53
-0.00261963 0.0287662 0.166713 50 23 50
-0.00179298 0.0295331 0.171158 48 21 49
-0.000898429 0.029597 0.171528 50 22 50
0 0.0292973 0.169791 48 19 46
0.000891458 0.0293673 0.170197 47 18 45
0.00173026 0.0285 0.165171 47 17 43
0.00266863 0.0293042 0.169831 45 16 41
0.00348716 0.0287194 0.166442 45 17 42
0.00431263 0.0284142 0.164673 45 16 41
0.00537867 0.0295316 0.171149 45 16 41
0.00608839 0.0286529 0.166056 45 15 40
0.00686266 0.0282596 0.163777 45 16 40
0.00779712 0.0285401 0.165403 46 16 40
0.0085599 0.0281989 0.163426 48 18 43
0.00973128 0.0291435 0.1689 47 17 43
0.0103759 0.0284845 0.165081 49 19 44
0.0111883 0.028352 0.164313 51 23 48
0.0120098 0.0282599 0.163779 50 21 46
0.0129213 0.0283779 0.164463 49 20 45
0.0136222 0.0280473 0.162547 50 22 47
0.0141212 0.0273645 0.15859 49 20 45
0.0151818 0.0277853 0.161029 49 19 46
0.015658 0.0271485 0.157338 50 22 48
0.0168111 0.0276905 0.160479 51 23 49
0.0175912 0.0275956 0.159929 50 22 49
0.0181233 0.027138 0.157277 51 25 50
0.0192036 0.0275054 0.159407 52 28 51
0.0201352 0.0276381 0.160175 52 27 51
0.02067 0.0272374 0.157853 52 28 51
0.0212172 0.0268831 0.1558 51 30 52
0.0224206 0.0273556 0.158538 51 30 52
0.0236073 0.0277749 0.160968 51 30 52
0.0242424 0.0275386 0.159599 50 29 51
0.024891 0.0273328 0.158406 51 30 52
0.0261133 0.0277501 0.160824 52 32 53
0.0264837 0.0272642 0.158009 52 33 53
0.0273675 0.0273203 0.158334 51 30 52
0.0278951 0.0270279 0.156639 52 32 53
0.0288756 0.0271786 0.157512 52 33 54
0.0300301 0.0274801 0.159259 52 34 54
0.0303942 0.0270615 0.156834 51 32 53
0.0307612 0.0266676 0.154551 51 33 53
0.0321847 0.0271862 0.157556 51 32 52
0.0332091 0.0273502 0.158507 50 29 51
0.0345795 0.0277843 0.161023 50 29 51
0.0351525 0.0275722 0.159793 50 28 51
0.0356579 0.0273182 0.158321 50 29 50
0.036546 0.0273622 0.158576 50 29 50
0.0373867 0.0273696 0.158619 50 29 51
0.0386465 0.0276768 0.1604 50 28 50
0.0398266 0.0279151 0.161781 49 27 50
0.040824 0.0280181 0.162377 49 25 49
0.0412424 0.0277276 0.160694 50 26 50
0.0414506 0.0273102 0.158275 48 23 48
0.0429814 0.0277635 0.160902 49 24 48
0.042871 0.0271596 0.157402 49 24 48
0.0441252 0.0274268 0.158951 48 24 48
0.0460748 0.0281083 0.1629 48 22 48
0.0466256 0.0279271 0.16185 48 21 47
0.0475644 0.0279807 0.162161 48 21 46
0.0483466 0.0279419 0.161936 48 21 46
0.049218 0.027955 0.162012 47 20 44
0.04937 0.0275661 0.159758 48 20 45
0.0505589 0.0277594 0.160879 48 21 46
0.0532238 0.0287435 0.166582 49 21 47
0.052254 0.0277646 0.160909 49 22 47
0.0581204 0.0303915 0.176133 50 23 47
0.061473 0.0316423 0.183382 50 22 47
0.0692785 0.0351115 0.203487 50 22 47
0.0774765 0.0386714 0.224118 50 22 46
0.103584 0.0509308 0.295167 49 21 45
0.133327 0.064591 0.374334 48 19 42
0.167185 0.0798203 0.462595 48 20 41
0.202729 0.0954074 0.552929 48 19 40
0.232675 0.107958 0.625666 46 17 37
0.353193 0.161601 0.936549 48 17 38
0.382359 0.172549 1 45 15 35
0.436305 0.194233 1.12567 46 17 36
0.480058 0.210861 1.22203 46 16 34
0.552843 0.239636 1.3888 42 12 28
0.576554 0.246668 1.42955 41 13 28
0.549106 0.231913 1.34404 40 12 27
0.620679 0.258824 1.5 42 14 31
0.644209 0.265278 1.53741 43 14 32
0.650594 0.2646 1.53348 43 14 32
0.687068 0.276026 1.5997 45 16 37
0.682731 0.270979 1.57045 46 16 37
0.67642 0.265278 1.53741 48 18 40
0.667819 0.258824 1.5 49 20 42
0.675676 0.258824 1.5 47 19 40
0.734205 0.278011 1.6112 52 23 45
0.710922 0.266136 1.54238 51 22 44
0.722029 0.267257 1.54887 51 22 44
0.744422 0.272484 1.57917 51 24 46
0.758016 0.274411 1.59033 51 25 47
0.804495 0.288071 1.6695 51 26 48
0.791886 0.280507 1.62567 51 25 47
0.710113 0.248865 1.44228 51 26 48
0.770705 0.267257 1.54887 50 24 45
0.754243 0.258824 1.5 51 28 47
0.791423 0.268782 1.55772 50 26 47
0.860899 0.289394 1.67717 50 25 47
0.807741 0.268782 1.55772 50 25 47
0.892957 0.294167 1.70483 50 23 46
0.883195 0.288071 1.6695 50 23 46
0.910816 0.294167 1.70483 50 24 46
0.900684 0.288071 1.6695 50 23 46
0.855471 0.270979 1.57045 49 23 45
0.824953 0.258824 1.5 49 23 45
0.996688 0.309754 1.79517 49 24 45
0.955464 0.294167 1.70483 50 26 47
0.91961 0.280507 1.62567 50 26 47
1.0249 0.309754 1.79517 50 25 46
1.07991 0.323415 1.87433 50 24 45
1.07212 0.318188 1.84404 49 24 46
0.95367 0.280507 1.62567 51 28 48
0.887806 0.258824 1.5 51 26 47
0.895663 0.258824 1.5 51 25 47
0.979214 0.280507 1.62567 52 29 48
0.911376 0.258824 1.5 52 30 47
0.974592 0.274411 1.59033 51 27 46
0.92709 0.258824 1.5 51 27 47
0.934947 0.258824 1.5 53 29 49
-0.40904 0.115695 0.650783 80 86 70
-0.447762 0.127711 0.718376 76 81 69
-0.465268 0.133829 0.752789 81 85 73
-0.414985 0.120386 0.677171 77 81 69
-0.435683 0.12748 0.717074 79 84 72
-0.432711 0.127711 0.718376 81 85 73
-0.436369 0.12992 0.730803 81 84 72
-0.39413 0.118383 0.665905 81 84 74
-0.390642 0.118383 0.665905 80 83 73
-0.378362 0.115695 0.650783 79 82 73
-0.427646 0.131953 0.742238 78 81 71
-0.402403 0.125304 0.704833 80 81 73
-0.432115 0.135801 0.763883 75 74 67
-0.373202 0.118383 0.665905 74 74 68
-0.43044 0.137827 0.775279 76 76 71
-0.395084 0.127711 0.718376 73 72 68
-0.37672 0.122946 0.691572 72 70 66
-0.380252 0.125304 0.704833 73 70 66
-0.369476 0.122946 0.691572 72 67 67
-0.386607 0.12992 0.730803 71 68 67
-0.376271 0.127711 0.718376 72 69 69
-0.373344 0.127998 0.719988 70 65 66
-0.347595 0.120386 0.677171 69 64 65
-0.379166 0.132674 0.746293 68 63 64
-0.36203 0.127998 0.719988 66 61 63
-0.335278 0.119787 0.673803 68 63 64
-0.325688 0.117599 0.661494 62 57 59
-0.343335 0.125304 0.704833 64 59 61
-0.32469 0.119787 0.673803 63 57 60
-0.343174 0.127998 0.719988 65 60 63
-0.30922 0.116615 0.655958 63 57 61
-0.268525 0.102405 0.576031 63 57 61
-0.278923 0.10758 0.605137 62 56 60
-0.272128 0.106165 0.59718 62 55 60
-0.292255 0.115343 0.648805 63 57 61
-0.259368 0.103568 0.582571 63 57 62
-0.262744 0.106165 0.59718 61 54 59
-0.217369 0.0888889 0.5 61 53 59
-0.21475 0.0888889 0.5 61 54 59
-0.223867 0.0938065 0.527662 62 54 60
-0.187333 0.0794792 0.447071 59 51 58
-0.186669 0.0802001 0.451125 60 52 58
-0.156649 0.068165 0.383428 58 50 56
-0.167622 0.0738871 0.415615 58 50 56
-0.128509 0.0573918 0.322829 58 50 56
-0.121161 0.0548317 0.308428 59 50 56
-0.105271 0.0482843 0.271599 59 49 55
-0.125226 0.058224 0.32751 57 47 54
-0.115124 0.0542705 0.305271 57 46 53
-0.106693 0.0510044 0.2869 59 48 55
-0.0995808 0.0482843 0.271599 58 47 54
-0.0884896 0.0435283 0.244847 57 45 53
-0.0689307 0.0344059 0.193533 57 43 52
-0.0697135 0.0353159 0.198652 57 42 50
-0.0742213 0.0381693 0.214702 57 41 49
-0.0716435 0.0374104 0.210433 56 39 49
-0.0666314 0.0353369 0.19877 55 38 48
-0.0668215 0.0360001 0.202501 53 32 44
-0.0632937 0.0346495 0.194904 55 35 47
-0.061452 0.0341928 0.192335 53 32 44
-0.0595281 0.0336744 0.189419 52 29 42
-0.0596911 0.0343389 0.193156 52 28 42
-0.0575359 0.0336697 0.189392 51 28 41
-0.0574353 0.0342005 0.192378 53 29 42
-0.0555368 0.0336606 0.189341 52 27 41
-0.0559958 0.0345558 0.194377 52 27 42
-0.0536866 0.0337444 0.189812 53 30 44
-0.0511743 0.0327721 0.184343 54 34 48
-0.0504622 0.0329376 0.185274 55 37 50
-0.0493246 0.0328263 0.184648 56 40 52
-0.0483852 0.0328452 0.184754 57 41 53
-0.0474436 0.0328632 0.184856 57 42 54
-0.0472035 0.0333781 0.187752 57 42 54
-0.04615 0.0333275 0.187467 57 42 55
-0.0453079 0.0334306 0.188047 56 41 55
-0.0439675 0.0331626 0.186539 56 42 55
-0.0425354 0.0328116 0.184565 57 43 56
-0.040714 0.032137 0.18077 56 42 56
-0.0404466 0.032686 0.183859 56 42 56
-0.0396942 0.0328603 0.184839 55 41 56
-0.0378383 0.0321071 0.180602 55 41 56
-0.0381151 0.0331712 0.186588 56 42 57
-0.0361247 0.0322663 0.181498 56 42 57
-0.0357468 0.0327917 0.184453 55 41 57
-0.034092 0.0321424 0.180801 55 41 58
-0.0328281 0.0318352 0.179073 54 41 58
-0.0325511 0.032495 0.182784 55 42 58
-0.0319782 0.0328904 0.185008 55 41 58
-0.0299343 0.0317503 0.178595 55 41 58
-0.0285897 0.0313023 0.176076 55 41 58
-0.027581 0.0312045 0.175525 55 40 58
-0.0267261 0.03128 0.17595 55 40 58
-0.0258661 0.0313547 0.17637 55 41 59
-0.0255156 0.0320753 0.180423 55 41 59
-0.0235773 0.0307786 0.17313 55 41 59
-0.0236678 0.0321326 0.180746 55 41 59
-0.0221225 0.0312861 0.175984 54 38 58
-0.021604 0.0318812 0.179332 54 39 59
-0.0204157 0.0314971 0.177171 55 41 59
-0.0193284 0.0312396 0.175723 55 39 58
-0.0181875 0.0308655 0.173618 53 37 57
-0.0171254 0.0305926 0.172083 53 35 56
-0.0167037 0.0314971 0.177171 54 38 58
-0.0154365 0.0308197 0.173361 53 35 57
-0.0146547 0.0310875 0.174867 52 33 56
-0.0132894 0.0300708 0.169148 51 29 54
-0.0127702 0.0309599 0.174149 52 30 54
-0.0118604 0.030966 0.174184 51 29 54
-0.0108416 0.0306649 0.17249 50 27 53
-0.0100376 0.0309719 0.174217 49 24 52
-0.00874873 0.0296944 0.167031 49 25 52
-0.00789257 0.0297649 0.167428 49 27 53
-0.00718912 0.030501 0.171568 50 27 54
-0.00631236 0.0306071 0.172165 51 26 53
-0.0054549 0.0308578 0.173575 55 35 56
-0.00448547 0.0304486 0.171273 50 25 50
-0.00362061 0.030722 0.172812 52 30 53
-0.00273474 0.0309403 0.174039 49 22 49
-0.00181679 0.0308321 0.173431 49 21 48
-0.000873389 0.029644 0.166747 48 19 46
0 0.0301983 0.169866 48 19 45
0.000892169 0.0302814 0.170333 45 16 41
0.00176435 0.0299422 0.168425 45 15 40
0.00257473 0.0291299 0.163856 45 16 40
0.0034988 0.0296885 0.166998 43 15 39
0.00427898 0.0290469 0.163389 44 15 40
0.00521862 0.0295211 0.166056 44 15 39
0.0062198 0.0301583 0.169641 45 16 40
0.00675986 0.0286798 0.161324 47 17 42
0.00793516 0.0299255 0.168331 46 17 42
0.00850902 0.0288807 0.162454 47 18 43
0.00950778 0.029337 0.16502 48 18 43
0.0102965 0.0291231 0.163817 51 21 48
0.0114835 0.0299821 0.168649 51 23 48
0.0120489 0.0292112 0.164313 51 22 48
0.0126923 0.0287195 0.161547 51 23 48
0.0136196 0.0288917 0.162516 51 24 48
0.0142904 0.0285314 0.160489 50 22 47
0.0152908 0.0288327 0.162184 50 21 48
0.0153669 0.0274512 0.154413 50 22 48
0.0169722 0.0288029 0.162016 49 21 48
0.0176707 0.0285603 0.160652 50 22 49
0.0183348 0.0282868 0.159113 51 26 51
0.0193052 0.0284888 0.16025 52 28 52
0.0201609 0.0285121 0.16038 52 30 52
0.0208209 0.0282676 0.159005 51 27 51
0.0213925 0.0279265 0.157086 51 29 52
0.0221923 0.0278977 0.156924 52 30 52
0.0228012 0.0276393 0.155471 52 31 52
0.0235643 0.0275794 0.155134 51 30 52
0.0247439 0.0279947 0.15747 52 31 52
0.0255963 0.0280249 0.15764 51 29 52
0.0262547 0.0278475 0.156642 51 30 52
0.0266327 0.0273924 0.154082 51 31 52
0.027621 0.0275733 0.1551 52 32 53
0.0285907 0.0277259 0.155958 51 31 53
0.0291176 0.0274525 0.15442 51 30 53
0.0305917 0.0280627 0.157853 51 31 53
0.0315626 0.0281915 0.158577 50 29 52
0.0329837 0.0287054 0.161468 50 28 51
0.0332535 0.0282167 0.158719 51 29 51
0.0347047 0.0287298 0.161605 51 29 51
0.0349875 0.0282743 0.159043 50 28 51
0.0361489 0.0285336 0.160501 51 29 51
0.0370661 0.0285926 0.160833 50 27 50
0.0372481 0.0280944 0.158031 49 25 49
0.0388499 0.0286656 0.161244 49 26 49
0.0385001 0.0278031 0.156392 50 27 50
0.0399389 0.0282412 0.158857 49 23 49
0.0413701 0.0286562 0.161191 50 25 49
0.0430569 0.0292282 0.164408 49 23 48
0.0436523 0.0290513 0.163414 50 25 49
0.0440354 0.0287427 0.161678 49 22 48
0.0450978 0.0288807 0.162454 48 22 48
0.0456995 0.0287241 0.161573 48 22 48
0.0460664 0.0284282 0.159909 48 21 47
0.0491884 0.0298128 0.167697 48 21 45
0.0488681 0.0290991 0.163682 48 21 45
0.0488576 0.0285913 0.160826 48 21 45
0.0504735 0.0290362 0.163329 48 20 45
0.0521385 0.0294942 0.165905 48 20 45
0.054818 0.0305016 0.171571 48 21 46
0.0547333 0.0299632 0.168543 49 21 46
0.0601547 0.0324084 0.182297 49 21 45
0.0701492 0.0372025 0.209264 50 22 47
0.0829007 0.0432886 0.243499 49 21 45
0.110836 0.0569988 0.320618 51 23 47
0.140021 0.0709328 0.398997 49 20 44
0.178085 0.0888889 0.5 49 20 42
0.209315 0.102963 0.579167 48 18 39
0.251353 0.121875 0.685547 47 17 38
0.332785 0.159087 0.894863 44 16 35
0.353193 0.166498 0.936549 47 16 37
0.447169 0.207911 1.1695 45 16 34
0.448046 0.205504 1.15596 44 15 32
0.454101 0.205504 1.15596 41 13 28
0.51557 0.230252 1.29517 42 13 29
0.604965 0.266667 1.5 41 13 28
0.595508 0.259133 1.45762 42 13 30
0.594424 0.255386 1.43655 42 13 30
0.628536 0.266667 1.5 43 14 33
0.66628 0.27919 1.57045 45 15 35
0.658626 0.272618 1.53348 46 16 36
0.652106 0.266667 1.5 45 16 36
0.721211 0.291415 1.63921 47 18 38
0.717326 0.286435 1.6112 48 19 40
0.694765 0.274201 1.54238 51 22 44
0.664221 0.259133 1.45762 51 22 45
0.742644 0.286435 1.6112 51 22 45
0.771948 0.294393 1.65596 52 23 45
0.730142 0.275355 1.54887 51 24 46
0.774856 0.289007 1.62567 51 25 47
0.743237 0.274201 1.54238 51 25 47
0.774676 0.282726 1.59033 51 25 47
0.738529 0.266667 1.5 52 27 48
0.81823 0.292335 1.64438 51 26 47
0.857238 0.303081 1.70483 51 26 48
0.848217 0.2968 1.6695 51 26 48
0.816325 0.282726 1.59033 50 24 47
0.865706 0.2968 1.6695 50 25 47
0.822568 0.27919 1.57045 50 25 47
0.841314 0.282726 1.59033 50 25 47
0.86852 0.289007 1.62567 52 27 48
0.900684 0.2968 1.6695 50 25 47
0.909429 0.2968 1.6695 50 25 47
0.856695 0.276927 1.55772 50 27 47
0.946534 0.303081 1.70483 49 25 46
0.911095 0.289007 1.62567 50 27 48
0.797422 0.250607 1.40967 51 29 49
0.907953 0.282726 1.59033 49 24 45
0.954093 0.294393 1.65596 50 25 47
1.0437 0.319141 1.79517 50 27 47
0.95367 0.289007 1.62567 50 27 47
1.04037 0.312491 1.75776 52 27 48
0.895663 0.266667 1.5 52 27 47
0.957932 0.282726 1.59033 51 27 47
1.03583 0.303081 1.70483 53 33 49
1.0772 0.312491 1.75776 53 31 48
1.00476 0.289007 1.62567 52 29 48
0.750969 0.214192 1.20483 52 27 48
-0.434677 0.126562 0.691572 84 94 67
-0.439321 0.128989 0.704833 84 92 72
-0.45168 0.133742 0.730803 88 93 77
-0.457345 0.136576 0.746293 80 85 69
-0.428245 0.128989 0.704833 84 89 77
-0.424554 0.128989 0.704833 83 88 75
-0.397617 0.121865 0.665905 82 86 73
-0.441709 0.136576 0.746293 80 83 72
-0.420659 0.131229 0.717074 81 85 75
-0.426599 0.134281 0.73375 80 84 73
-0.429982 0.136576 0.746293 81 85 75
-0.393952 0.12628 0.69003 79 83 73
-0.398711 0.128989 0.704833 82 84 75
-0.386723 0.12628 0.69003 80 82 74
-0.383965 0.126562 0.691572 79 81 73
-0.401919 0.133742 0.730803 77 78 71
-0.406529 0.136576 0.746293 76 75 69
-0.40262 0.136576 0.746293 72 71 67
-0.368652 0.12628 0.69003 70 69 66
-0.394802 0.136576 0.746293 77 76 72
-0.386262 0.134958 0.737451 74 71 69
-0.386984 0.136576 0.746293 73 68 68
-0.376637 0.134281 0.73375 72 68 68
-0.358102 0.128989 0.704833 73 70 69
-0.35441 0.128989 0.704833 69 66 65
-0.329153 0.121058 0.661494 71 69 67
-0.347026 0.128989 0.704833 69 67 66
-0.336124 0.12628 0.69003 66 61 62
-0.32469 0.12331 0.673803 67 62 64
-0.298217 0.114501 0.625666 67 62 65
-0.339403 0.131762 0.719988 64 59 62
-0.275193 0.108035 0.590334 64 59 62
-0.278923 0.110744 0.605137 63 57 61
-0.298912 0.120045 0.655958 62 56 61
-0.272584 0.110744 0.605137 63 58 62
-0.222606 0.0915033 0.5 63 58 62
-0.231185 0.096161 0.525451 60 54 58
-0.206304 0.0868455 0.474549 62 56 60
-0.225681 0.096161 0.525451 62 56 61
-0.222929 0.096161 0.525451 62 54 60
-0.19049 0.0831955 0.454604 61 54 59
-0.161917 0.0716117 0.391307 60 53 58
-0.138296 0.0619488 0.338506 60 52 58
-0.169726 0.0770152 0.420833 58 50 55
-0.157184 0.0722625 0.394863 57 49 55
-0.124149 0.057836 0.316033 59 50 56
-0.121881 0.0575469 0.314453 59 49 55
-0.119264 0.0570828 0.311917 56 45 53
-0.0979896 0.0475516 0.259836 57 46 53
-0.0861714 0.0424056 0.231716 59 48 55
-0.0904534 0.0451487 0.246705 57 46 53
-0.0862431 0.043671 0.238631 56 44 51
-0.070329 0.0361363 0.197459 58 44 52
-0.0746068 0.0389065 0.212596 57 43 51
