ply
format ascii 1.0
element vertex 1242
property float x
property float y
property float z
property uchar red
property uchar green
property uchar blue
end_header
0.0235145 -0.00347761 0.166273 53 26 52
0.0242935 -0.00346452 0.165647 53 29 52
0.0243114 -0.00334751 0.160053 53 30 52
0.0255112 -0.00339562 0.162353 54 29 53
0.0259459 -0.00334208 0.159793 53 28 51
0.0268782 -0.00335397 0.160362 52 27 51
0.0276574 -0.00334663 0.160011 53 27 51
0.0285931 -0.00335809 0.160559 52 26 50
0.0304326 -0.00347201 0.166005 53 26 51
0.0304778 -0.00338058 0.161634 51 24 49
0.031446 -0.0033937 0.162261 53 25 50
0.0316281 -0.00332353 0.158906 54 26 49
0.0323763 -0.00331492 0.158495 52 21 47
0.033868 -0.00338095 0.161652 50 19 43
0.0342042 -0.00333124 0.159275 49 17 40
0.034846 -0.00331294 0.1584 49 17 40
0.0353999 -0.00328733 0.157175 49 16 38
0.0374668 -0.00340019 0.162572 49 16 38
0.0387452 -0.00343808 0.164383 48 14 34
0.0389876 -0.00338438 0.161816 45 13 30
0.0392227 -0.00333234 0.159327 44 13 31
0.0395079 -0.00328664 0.157143 46 14 34
0.0410246 -0.00334317 0.159845 48 16 38
0.0423459 -0.00338182 0.161693 49 16 39
0.0432138 -0.00338347 0.161772 49 18 41
0.0437371 -0.00335859 0.160583 50 21 44
0.0438881 -0.00330659 0.158096 53 25 48
0.045016 -0.00332876 0.159156 54 26 50
0.0470409 -0.00341525 0.163292 55 29 51
0.0469448 -0.00334741 0.160048 55 31 51
0.0491332 -0.003442 0.16457 56 34 52
0.0486769 -0.00335123 0.160231 55 33 51
0.0506245 -0.00342625 0.163817 56 36 53
0.0501836 -0.0033398 0.159684 56 37 54
0.0515392 -0.00337379 0.161309 56 37 54
0.0529562 -0.00341064 0.163071 56 38 54
0.0543743 -0.00344638 0.16478 56 37 53
0.0556144 -0.0034699 0.165905 56 38 53
0.0558873 -0.00343328 0.164154 55 37 53
0.0557816 -0.00337487 0.161361 55 37 53
0.0585053 -0.00348683 0.166714 54 36 53
0.0583603 -0.00342703 0.163855 55 37 53
0.0596669 -0.00345298 0.165096 54 34 52
0.0613163 -0.00349774 0.167236 53 35 51
0.0609765 -0.00342937 0.163967 55 35 53
0.0631199 -0.00350061 0.167373 55 36 53
0.0616781 -0.00337379 0.161309 56 38 53
0.0618493 -0.00333744 0.159571 55 36 52
0.0654763 -0.00348605 0.166677 54 34 52
0.0666595 -0.00350234 0.167456 54 32 51
0.0651432 -0.00337822 0.161521 54 32 51
0.0674745 -0.00345426 0.165157 52 29 49
0.0669179 -0.0033824 0.161721 53 32 50
0.0700812 -0.00349801 0.167249 53 30 49
0.0688645 -0.00339485 0.162316 53 31 49
0.0707958 -0.00344749 0.164833 53 33 50
0.0721485 -0.00347103 0.165959 53 31 49
0.0723018 -0.003437 0.164332 53 31 49
0.0717746 -0.0033718 0.161214 53 30 48
0.0732759 -0.0034023 0.162673 52 30 48
0.0746701 -0.00342718 0.163862 54 32 50
0.0747047 -0.00338981 0.162075 53 30 48
0.0764309 -0.00342917 0.163957 53 29 48
0.0767103 -0.00340346 0.162728 53 30 49
0.0775275 -0.00340192 0.162654 52 28 48
0.0781244 -0.00339085 0.162125 54 30 49
0.0789095 -0.0033881 0.161994 52 28 47
0.0800909 -0.00340224 0.16267 53 30 48
0.0807698 -0.00339496 0.162322 55 32 49
0.0869085 -0.00361494 0.172839 54 30 48
0.0851506 -0.0035053 0.167597 54 29 47
0.0847324 -0.0034525 0.165073 53 28 46
0.0866508 -0.003495 0.167105 53 26 45
0.0871092 -0.00347836 0.166309 52 24 44
0.0863794 -0.00341506 0.163283 51 24 44
0.0890133 -0.00348469 0.166612 53 27 47
0.0895044 -0.0034699 0.165905 51 24 45
0.0903734 -0.0034699 0.165905 52 25 45
0.0897036 -0.00341138 0.163107 53 29 47
0.0913622 -0.00344168 0.164555 53 29 47
0.0954976 -0.00356384 0.170396 54 30 48
0.0933323 -0.00345079 0.164991 53 28 46
0.0979712 -0.00358907 0.171602 52 27 46
0.0958026 -0.00347772 0.166278 53 28 47
0.099184 -0.00356803 0.170596 53 29 46
0.0997677 -0.00355698 0.170068 52 26 44
0.0987974 -0.00349122 0.166924 50 22 41
0.104394 -0.00365664 0.174833 53 28 47
0.100331 -0.00348377 0.166568 52 28 47
0.104004 -0.00358015 0.171176 53 31 48
0.105706 -0.00360764 0.17249 53 31 48
0.105414 -0.00356721 0.170557 53 32 48
0.106738 -0.00358164 0.171247 54 32 49
-0.373844 -0.00932998 0.594786 65 55 49
-0.378749 -0.00953181 0.607653 62 54 50
-0.412166 -0.0104607 0.666871 64 56 52
-0.383422 -0.00981437 0.625666 62 55 51
-0.383598 -0.00990353 0.63135 63 55 54
-0.37335 -0.00972275 0.619825 60 52 51
-0.362835 -0.00953181 0.607653 64 56 53
-0.349402 -0.00926015 0.590334 65 57 54
-0.36361 -0.00972275 0.619825 65 57 55
-0.35443 -0.00956267 0.60962 61 55 55
-0.363757 -0.00990353 0.63135 63 58 57
-0.337034 -0.00926015 0.590334 65 60 58
-0.340956 -0.00945466 0.602735 71 66 63
-0.328577 -0.00919654 0.58628 70 65 62
-0.323447 -0.00913837 0.582571 71 60 62
-0.310588 -0.00885862 0.564737 70 60 63
-0.293571 -0.00845378 0.538928 71 61 64
-0.284049 -0.00825899 0.52651 73 64 67
-0.299119 -0.00878245 0.559881 74 69 66
-0.285976 -0.00847969 0.54058 71 66 64
-0.26189 -0.00784314 0.5 73 67 68
-0.266007 -0.00804691 0.51299 74 69 66
-0.275852 -0.00842988 0.537405 74 69 65
-0.266964 -0.00824237 0.525451 72 72 70
-0.270223 -0.00842988 0.537405 75 75 70
-0.254772 -0.00803153 0.51201 72 71 68
-0.234987 -0.00748664 0.477273 71 72 72
-0.249195 -0.00802468 0.511574 77 78 76
-0.224222 -0.00729898 0.46531 76 77 72
-0.243836 -0.00802468 0.511574 81 82 77
-0.208493 -0.00693779 0.442284 79 82 77
-0.200242 -0.00673809 0.429553 84 87 81
-0.204789 -0.00696939 0.444299 81 83 76
-0.179934 -0.00619393 0.394863 80 85 78
-0.185919 -0.00647437 0.412741 79 89 83
-0.170363 -0.00600244 0.382655 76 93 86
-0.149248 -0.00532108 0.339219 75 103 89
-0.148597 -0.00536169 0.341808 80 110 96
-0.136535 -0.00498657 0.317894 86 111 99
-0.104668 -0.00386989 0.246705 92 118 105
-0.106768 -0.00399688 0.254801 90 124 106
-0.0883326 -0.00334861 0.213474 87 127 108
-0.083684 -0.00321306 0.204833 92 148 126
-0.0809688 -0.00314919 0.200761 95 153 132
-0.078067 -0.00307627 0.196112 110 169 154
-0.074859 -0.00298919 0.190561 109 170 157
-0.0738563 -0.00298901 0.190549 111 170 150
-0.071392 -0.00292886 0.186715 114 171 149
-0.0695138 -0.00289141 0.184327 122 176 161
-0.0698761 -0.00294742 0.187898 137 191 179
-0.0692074 -0.00296091 0.188758 163 209 197
-0.067831 -0.00294409 0.187686 130 193 175
-0.0663712 -0.00292309 0.186347 135 198 177
-0.0655989 -0.0029322 0.186927 120 195 165
-0.0652351 -0.00296011 0.188707 145 208 182
-0.0648929 -0.00298989 0.190606 169 218 197
-0.0630226 -0.00294909 0.188004 151 204 174
-0.0594814 -0.00282756 0.180257 157 210 182
-0.0603698 -0.00291608 0.1859 158 212 186
-0.0588088 -0.00288725 0.184062 161 212 187
-0.0593072 -0.00296025 0.188716 160 209 184
-0.0568657 -0.00288649 0.184014 158 209 183
-0.0547885 -0.002829 0.180349 158 209 183
-0.0545621 -0.00286673 0.182754 156 208 181
-0.0531926 -0.00284469 0.181349 156 208 179
-0.0533294 -0.00290385 0.185121 146 205 173
-0.049129 -0.00272468 0.173698 163 213 188
-0.0502846 -0.00284138 0.181138 158 211 185
-0.0492774 -0.00283802 0.180924 135 200 166
-0.0469566 -0.00275739 0.175784 169 214 193
-0.04696 -0.00281274 0.179312 167 211 192
-0.0457947 -0.00279892 0.178431 135 173 149
-0.0450522 -0.00281091 0.179195 115 141 118
-0.044148 -0.00281309 0.179335 88 109 93
-0.0436108 -0.00283927 0.181004 65 80 72
-0.0423144 -0.00281609 0.179526 56 69 71
-0.0413862 -0.00281692 0.179578 59 66 69
-0.0399034 -0.00277915 0.177171 59 62 66
-0.0381289 -0.0027188 0.173323 62 56 64
-0.038424 -0.00280666 0.178924 62 54 63
-0.0374622 -0.00280481 0.178807 61 53 63
-0.0361002 -0.00277215 0.176725 60 53 63
-0.0356441 -0.00280916 0.179084 60 53 63
-0.0349236 -0.00282676 0.180206 60 52 63
-0.0336729 -0.00280123 0.178579 59 50 62
-0.0326303 -0.00279206 0.177994 60 51 62
-0.0309517 -0.00272632 0.173803 60 51 62
-0.0299023 -0.0027137 0.172998 60 52 63
-0.0296738 -0.00277712 0.177041 59 50 62
-0.028727 -0.00277523 0.176921 59 50 62
-0.0272617 -0.00272146 0.173493 59 50 62
-0.0267459 -0.00276204 0.17608 59 50 62
-0.0259306 -0.00277348 0.17681 60 50 63
-0.0246028 -0.00272893 0.173969 59 49 62
-0.0234391 -0.00269984 0.172115 59 49 63
-0.0235152 -0.00281696 0.179581 59 49 63
-0.0221515 -0.00276416 0.176215 58 47 61
-0.0211277 -0.00275103 0.175378 58 47 62
-0.0203616 -0.00277178 0.176701 58 47 62
-0.0192806 -0.00274961 0.175288 57 45 61
-0.0183402 -0.00274629 0.175076 58 45 61
-0.0172739 -0.00272275 0.173575 57 45 60
-0.0161289 -0.00268351 0.171074 57 44 61
-0.0154493 -0.00272163 0.173504 57 44 61
-0.014594 -0.00273165 0.174142 57 43 61
-0.013552 -0.00270573 0.17249 57 43 61
-0.0128523 -0.00274932 0.175269 57 42 60
-0.0117513 -0.00270717 0.172582 56 41 60
-0.0110253 -0.00275158 0.175413 57 41 61
-0.00976595 -0.00265884 0.169501 56 39 60
-0.00904855 -0.00270988 0.172755 57 40 60
-0.00784812 -0.00261153 0.166485 56 39 60
-0.00700533 -0.00262246 0.167182 56 39 60
-0.00627482 -0.00268457 0.171141 55 38 59
-0.00538689 -0.0026888 0.171411 55 38 59
-0.00462252 -0.00276872 0.176506 56 38 59
-0.00361929 -0.00270978 0.172749 56 39 59
-0.00261654 -0.00261202 0.166516 55 37 58
-0.0018025 -0.00269909 0.172067 54 36 58
-0.000892108 -0.00267171 0.170321 54 38 58
0 -0.00262721 0.167485 55 37 58
0.000883999 -0.00264742 0.168773 55 36 57
0.00169714 -0.00254132 0.162009 54 33 56
0.00265611 -0.00265153 0.169035 54 33 56
0.00351613 -0.00263255 0.167825 53 33 56
0.00432955 -0.00259325 0.16532 52 30 55
0.00527793 -0.00263441 0.167944 53 30 55
0.006081 -0.00260165 0.165855 52 29 54
0.00693481 -0.00259607 0.165499 53 30 55
0.00801629 -0.00266749 0.170052 54 32 56
0.00882271 -0.00264225 0.168443 54 32 56
0.00983664 -0.00267809 0.170728 53 32 55
0.0104945 -0.0026191 0.166968 54 34 56
0.0114775 -0.00264409 0.168561 55 34 56
0.0122682 -0.00262437 0.167304 54 32 55
0.0130936 -0.0026142 0.166655 55 34 56
0.0141376 -0.00264623 0.168697 54 32 55
0.0145185 -0.00255768 0.163052 54 33 56
0.0155606 -0.00258896 0.165046 54 32 55
0.016548 -0.00260833 0.166281 54 31 54
0.0173683 -0.00260075 0.165798 54 31 54
0.0183919 -0.00262288 0.167208 55 32 55
0.0187932 -0.00255828 0.16309 54 31 55
0.0203325 -0.00264748 0.168777 54 31 55
0.0206505 -0.00257685 0.164274 54 29 54
0.0218281 -0.00261485 0.166697 54 29 53
0.0222638 -0.00256447 0.163485 55 30 53
0.0231324 -0.00256583 0.163572 53 26 52
0.0240132 -0.0025684 0.163736 54 29 52
0.0241879 -0.00249788 0.15924 53 28 52
0.0256211 -0.00255769 0.163053 52 25 51
0.0264103 -0.00255142 0.162653 53 28 52
0.0271676 -0.00254257 0.162089 54 30 52
0.0276879 -0.00251274 0.160187 53 25 50
0.0293618 -0.00258627 0.164875 52 26 50
0.0300684 -0.00257284 0.164019 53 27 51
0.0305461 -0.00254111 0.161996 52 24 49
0.0311545 -0.00252168 0.160757 51 22 48
0.0312233 -0.00246074 0.156872 51 20 44
0.0326303 -0.00250569 0.159738 49 18 42
0.0328965 -0.00246298 0.157015 49 18 42
0.0333416 -0.00243542 0.155258 50 18 40
0.0353403 -0.00251995 0.160647 50 17 40
0.0356681 -0.00248418 0.158366 48 15 37
0.0359031 -0.00244371 0.155787 47 14 32
0.0371175 -0.00247023 0.157477 46 13 31
0.0380637 -0.00247813 0.157981 45 13 32
0.0396765 -0.00252817 0.161171 45 14 33
0.0399343 -0.00249159 0.158839 45 14 34
0.0409845 -0.00250493 0.159689 47 15 37
0.0414262 -0.00248128 0.158182 48 16 39
0.0425305 -0.00249748 0.159214 51 21 45
0.0433895 -0.00249892 0.159306 52 22 46
0.0432455 -0.00244364 0.155782 53 25 48
0.0446239 -0.00247483 0.15777 54 28 50
0.0467904 -0.0025478 0.162422 55 32 52
0.0471256 -0.00252023 0.160664 55 32 51
0.0477629 -0.0025095 0.15998 56 34 52
0.049168 -0.00253879 0.161848 55 34 51
0.0500656 -0.00254132 0.162009 55 35 52
0.0515063 -0.00257087 0.163893 55 37 54
0.0517166 -0.00253905 0.161864 55 37 54
0.0525923 -0.0025404 0.16195 55 37 53
0.0543188 -0.00258215 0.164612 56 38 53
0.0546759 -0.00255851 0.163105 55 37 53
0.0557215 -0.00256732 0.163667 55 37 53
0.0581191 -0.00263722 0.168123 55 38 54
0.0574754 -0.00256909 0.163779 53 35 52
0.0577706 -0.0025443 0.162199 54 36 52
0.0608315 -0.00264029 0.168318 54 35 52
0.0586954 -0.00251118 0.160087 53 33 51
0.0614127 -0.00259043 0.16514 54 34 51
0.0626926 -0.00260769 0.16624 55 35 52
0.0624769 -0.00256311 0.163398 54 35 51
0.0641528 -0.0025963 0.165514 54 33 51
0.0659507 -0.00263348 0.167884 54 32 51
0.0662974 -0.00261249 0.166546 53 30 50
0.0656382 -0.00255292 0.162749 53 30 50
0.0677594 -0.00260163 0.165854 53 31 50
0.0688209 -0.00260894 0.16632 52 30 49
0.0683624 -0.00255917 0.163147 53 30 50
0.0722869 -0.00267267 0.170383 53 32 49
0.0723845 -0.00264364 0.168532 53 31 49
0.0720766 -0.00260068 0.165793 52 28 48
0.0730908 -0.00260588 0.166125 54 32 49
0.0736395 -0.00259456 0.165403 53 29 48
0.0735286 -0.00256053 0.163234 53 31 49
0.0760218 -0.00261692 0.166828 53 30 48
0.074772 -0.00254465 0.162221 54 30 49
0.0755475 -0.00254215 0.162062 54 30 49
0.0775187 -0.0025795 0.164443 54 30 49
0.0779629 -0.00256577 0.163568 54 31 49
0.079508 -0.00258818 0.164996 54 30 49
0.0809768 -0.00260765 0.166238 54 30 48
0.0816161 -0.00260027 0.165768 54 31 48
0.0832902 -0.00262568 0.167387 53 29 48
0.0821681 -0.00256332 0.163412 53 26 46
0.0831689 -0.0025678 0.163697 53 27 46
0.0848416 -0.00259271 0.165285 52 26 45
0.0861561 -0.00260629 0.166151 52 24 44
0.0870305 -0.00260641 0.166159 52 25 45
0.086402 -0.00256197 0.163325 51 23 44
0.0875983 -0.00257198 0.163963 52 26 46
0.090952 -0.00264452 0.168588 53 28 48
0.0902649 -0.0025993 0.165706 52 25 45
0.0942411 -0.00268796 0.171357 52 26 46
0.0938617 -0.00265188 0.169057 53 29 47
0.0942853 -0.00263895 0.168233 53 28 46
0.0923442 -0.00256069 0.163244 54 29 47
0.0936991 -0.00257442 0.16412 52 27 46
0.0992519 -0.0027022 0.172265 52 25 45
0.10283 -0.00277439 0.176867 52 27 46
0.0954737 -0.00255292 0.162749 52 27 46
0.102642 -0.00272032 0.17342 53 28 46
0.10366 -0.00272318 0.173603 53 29 47
0.10417 -0.00271278 0.17294 53 29 48
0.102669 -0.00265064 0.168978 52 28 47
0.104044 -0.0026632 0.169779 53 29 47
0.103862 -0.00263599 0.168045 53 30 48
0.110737 -0.00278687 0.177663 54 31 49
-0.42427 -0.00705896 0.675013 64 54 49
-0.370729 -0.00621999 0.594786 60 52 48
-0.356778 -0.00603665 0.577255 58 49 47
-0.393597 -0.00671654 0.64227 58 49 47
-0.387374 -0.00666733 0.637564 60 51 51
-0.363055 -0.00630311 0.602735 62 53 53
-0.355152 -0.00621999 0.594786 62 52 52
-0.366857 -0.00648184 0.619825 67 58 55
-0.357623 -0.00637511 0.60962 65 56 56
-0.35443 -0.00637511 0.60962 64 57 59
-0.330538 -0.00599942 0.573695 64 58 57
-0.332601 -0.00609225 0.582571 65 60 59
-0.331648 -0.00613103 0.58628 65 59 59
-0.341658 -0.00637511 0.60962 66 60 59
-0.332148 -0.00625613 0.598242 71 61 64
-0.304094 -0.00578227 0.552929 69 60 63
-0.286229 -0.00549491 0.525451 71 62 63
-0.304672 -0.00590575 0.564737 71 62 63
-0.301714 -0.00590575 0.564737 68 63 63
-0.285102 -0.00563585 0.538928 67 61 62
-0.268427 -0.00535928 0.512481 70 64 65
-0.271961 -0.00548469 0.524473 71 66 66
-0.249984 -0.00509291 0.48701 72 67 66
-0.247692 -0.00509824 0.487519 71 69 68
-0.245375 -0.00510316 0.48799 71 70 66
-0.230884 -0.00485232 0.464003 71 69 67
-0.234127 -0.00497283 0.475527 67 67 68
-0.221445 -0.00475403 0.454604 72 72 70
-0.225353 -0.00489053 0.467657 72 72 68
-0.21177 -0.00464626 0.444299 73 73 70
-0.225357 -0.00499928 0.478056 73 75 71
-0.228217 -0.00511963 0.489565 77 79 74
-0.210258 -0.00477035 0.456165 75 77 71
-0.19893 -0.00456522 0.436549 75 79 73
-0.190184 -0.00441525 0.422208 74 83 79
-0.185037 -0.0043463 0.415615 74 84 81
-0.161175 -0.00383087 0.366327 78 89 85
-0.14657 -0.00352572 0.337147 77 89 79
-0.124333 -0.00302728 0.289483 81 83 75
-0.102772 -0.00253321 0.242238 80 84 77
-0.0872563 -0.00217764 0.208237 80 95 84
-0.0824258 -0.00208313 0.199199 83 107 92
-0.0819267 -0.00209706 0.200531 83 114 99
-0.0786153 -0.00203843 0.194925 86 122 109
-0.0751509 -0.00197424 0.188787 89 129 120
-0.0767067 -0.00204198 0.195264 91 132 123
-0.0753423 -0.00203276 0.194383 92 132 120
-0.0721474 -0.00197323 0.18869 120 156 145
-0.071184 -0.00197392 0.188756 117 165 154
-0.0693966 -0.00195146 0.186609 100 160 146
-0.0697914 -0.0019906 0.190351 120 180 163
-0.0676523 -0.00195755 0.187191 114 177 158
-0.0663712 -0.00194873 0.186347 126 182 161
-0.0647002 -0.00192802 0.184367 123 179 150
-0.0651221 -0.00196999 0.18838 145 203 176
-0.0633638 -0.00194629 0.186114 142 203 177
-0.0636542 -0.00198576 0.189889 153 205 180
-0.0611968 -0.0019394 0.185455 158 209 187
-0.0609896 -0.00196401 0.187809 152 209 185
-0.0574635 -0.0018808 0.179851 168 215 194
-0.0572626 -0.00190546 0.18221 161 211 187
-0.0585587 -0.00198162 0.189492 159 210 184
-0.0556906 -0.00191705 0.183318 138 200 168
-0.0528214 -0.00185018 0.176924 148 205 175
-0.0528767 -0.00188519 0.180272 167 212 190
-0.0530039 -0.00192409 0.183991 166 211 190
-0.0515653 -0.00190653 0.182312 161 210 187
-0.0497714 -0.00187493 0.17929 155 209 181
-0.0498073 -0.00191236 0.182869 135 199 167
-0.0478312 -0.0018725 0.179058 164 210 188
-0.0466602 -0.00186319 0.178167 157 202 179
-0.0464446 -0.00189243 0.180963 119 157 133
-0.0455618 -0.00189513 0.181222 100 117 102
-0.0445589 -0.00189285 0.181004 78 88 76
-0.0428108 -0.00185813 0.177684 67 71 61
-0.0421278 -0.00186912 0.178734 60 63 66
-0.0414487 -0.00188078 0.17985 59 62 66
-0.0393725 -0.00182812 0.174814 60 60 66
-0.038356 -0.00182332 0.174355 63 57 64
-0.0379538 -0.00184821 0.176735 60 52 62
-0.0378705 -0.00189026 0.180756 61 54 63
-0.036704 -0.00187901 0.17968 60 53 62
-0.0350014 -0.001839 0.175854 61 53 64
-0.0349166 -0.00188413 0.18017 60 52 63
-0.0332755 -0.00184545 0.176471 60 52 63
-0.0321289 -0.00183277 0.175258 61 53 63
-0.0316701 -0.00185973 0.177837 60 52 63
-0.0302425 -0.00182971 0.174966 59 51 63
-0.0293338 -0.0018302 0.175013 59 51 63
-0.0280465 -0.00180633 0.17273 59 50 62
-0.0268425 -0.00178641 0.170826 58 49 62
-0.0264763 -0.0018228 0.174305 59 50 62
-0.0257759 -0.00183796 0.175755 60 49 63
-0.0250556 -0.00185277 0.177171 60 50 64
-0.0240465 -0.00184654 0.176575 59 48 63
-0.0227499 -0.00181685 0.173736 59 49 63
-0.0217938 -0.00181302 0.17337 58 47 62
-0.0211016 -0.00183176 0.175162 58 47 63
-0.019489 -0.00176867 0.169129 58 47 62
-0.0192962 -0.00183456 0.17543 58 47 63
-0.0179833 -0.00179523 0.171669 58 46 62
-0.0175965 -0.00184906 0.176817 58 46 62
-0.016726 -0.00185524 0.177407 57 44 61
-0.0155951 -0.00183155 0.175142 57 44 62
-0.014634 -0.00182609 0.17462 57 44 61
-0.0135409 -0.00180234 0.172349 57 43 61
-0.0126039 -0.00179745 0.171881 57 42 61
-0.0118865 -0.00182553 0.174566 56 40 60
-0.0107933 -0.00179579 0.171722 57 42 61
-0.0102012 -0.00185157 0.177056 56 40 60
-0.00871779 -0.00174055 0.16644 56 39 59
-0.00814369 -0.00180659 0.172755 56 40 60
-0.00722226 -0.00180245 0.172359 58 42 61
-0.0062956 -0.00179564 0.171708 54 37 59
-0.00527195 -0.00175428 0.167753 56 39 60
-0.00445755 -0.00177994 0.170207 55 38 59
-0.0034985 -0.00174623 0.166983 55 38 59
-0.00267651 -0.00178126 0.170333 55 37 58
-0.00178715 -0.00178407 0.170602 54 37 58
-0.000903468 -0.00180382 0.17249 54 37 58
0 -0.00176905 0.169165 55 36 58
0.000903679 -0.00180424 0.17253 55 36 57
0.00176941 -0.00176636 0.168908 55 36 57
0.00258793 -0.00172231 0.164696 54 33 56
0.00344107 -0.00171757 0.164242 53 33 56
0.00442855 -0.00176836 0.1691 53 32 56
0.00533548 -0.00177543 0.169775 53 31 56
0.00626054 -0.00178564 0.170752 53 31 56
0.00707584 -0.00176591 0.168865 54 33 56
0.00805746 -0.00178746 0.170926 54 34 56
0.00878389 -0.00175375 0.167702 54 32 56
0.00966954 -0.00175507 0.167828 54 31 55
0.0104378 -0.00173663 0.166066 53 30 55
0.0114868 -0.00176415 0.168697 54 33 56
0.0123713 -0.00176428 0.168709 54 32 55
0.0132095 -0.00175823 0.16813 54 32 55
0.0140595 -0.0017544 0.167765 54 32 55
0.0147581 -0.00173325 0.165742 54 31 55
0.0161321 -0.00178937 0.171108 54 31 55
0.016532 -0.00173721 0.166121 54 32 55
0.0170255 -0.00169961 0.162525 54 31 55
0.0179859 -0.00170998 0.163517 54 30 55
0.0188526 -0.00171091 0.163606 54 30 55
0.0196084 -0.00170214 0.162767 53 29 54
0.0204992 -0.00170532 0.163071 53 27 53
0.0216018 -0.00172516 0.164968 54 28 53
0.0222478 -0.00170842 0.163367 53 28 52
0.0228548 -0.00169003 0.161609 54 27 52
0.0239238 -0.0017059 0.163126 54 28 52
0.0243919 -0.00167929 0.160583 53 28 52
0.0252874 -0.00168292 0.160929 53 28 52
0.0263673 -0.00169818 0.162389 53 27 52
0.0264285 -0.00164893 0.157679 53 28 51
0.0283224 -0.00171355 0.163858 54 26 51
0.0284992 -0.00167353 0.160032 52 24 50
0.0292544 -0.0016688 0.159579 51 23 49
0.0299413 -0.00166053 0.158789 51 23 48
0.0305844 -0.00165036 0.157815 51 21 47
0.0321115 -0.00168716 0.161335 50 19 44
0.0322214 -0.00164953 0.157736 50 19 44
0.0331915 -0.00165671 0.158423 50 18 42
0.033492 -0.00163094 0.155958 49 17 39
0.0348435 -0.00165635 0.158389 49 16 38
0.035888 -0.00166633 0.159343 48 15 35
0.0359817 -0.00163271 0.156128 46 13 30
0.0365617 -0.00162216 0.155119 46 13 31
0.0378591 -0.00164321 0.157132 46 13 33
0.0381434 -0.00162032 0.154943 45 14 33
0.0389527 -0.00162023 0.154934 47 15 37
0.0412248 -0.00167974 0.160625 47 15 37
0.0422533 -0.00168722 0.16134 51 20 43
0.0420328 -0.0016455 0.157351 52 22 46
0.0443644 -0.00170338 0.162885 53 25 48
0.0438909 -0.0016534 0.158107 53 26 48
0.0446341 -0.00165026 0.157806 55 29 50
0.0471248 -0.00171067 0.163583 55 32 52
0.0469484 -0.00167384 0.160061 55 34 52
0.048329 -0.00169283 0.161877 55 34 52
0.0488587 -0.00168188 0.160829 56 36 53
0.0499235 -0.0016894 0.161549 54 33 52
0.0517856 -0.00172321 0.164782 55 37 54
0.0514004 -0.00168235 0.160875 56 38 54
0.0524093 -0.00168771 0.161387 55 37 53
0.0536277 -0.00169953 0.162517 55 36 52
0.0539748 -0.0016838 0.161014 54 35 52
0.0567286 -0.00174248 0.166625 55 37 53
0.057083 -0.0017268 0.165126 53 34 52
0.0580485 -0.0017298 0.165412 54 35 52
0.057724 -0.00169484 0.162069 53 35 52
0.0592188 -0.00171353 0.163856 53 35 52
0.0598214 -0.00170623 0.163159 54 35 52
0.0627178 -0.00176365 0.168649 54 35 52
0.0622555 -0.00172634 0.165081 53 32 51
0.0627105 -0.00171513 0.164009 53 32 51
0.0653104 -0.0017621 0.168501 54 33 52
0.0664798 -0.00176974 0.169231 54 31 51
0.066002 -0.0017339 0.165804 53 31 50
0.0662787 -0.00171856 0.164337 53 31 50
0.0674431 -0.00172633 0.16508 53 30 49
0.0680112 -0.00171883 0.164363 53 30 49
0.0689295 -0.00172026 0.1645 53 30 49
0.0700153 -0.00172579 0.165029 53 30 48
0.0695726 -0.00169397 0.161985 52 29 48
0.0719068 -0.0017297 0.165403 53 31 49
0.0739354 -0.00175733 0.168045 54 33 50
0.0749485 -0.00176045 0.168343 54 32 50
0.0749393 -0.00173977 0.166365 55 32 49
0.0741166 -0.00170089 0.162648 54 31 49
0.0757722 -0.00171912 0.164391 55 32 50
0.075956 -0.00170393 0.162938 54 29 49
0.0751794 -0.00166777 0.159481 54 29 49
0.0765592 -0.00167972 0.160623 54 30 49
0.0795262 -0.00172585 0.165034 53 28 48
0.0782377 -0.00167963 0.160614 55 32 49
0.0800527 -0.00170031 0.162592 54 29 47
0.0817677 -0.00171845 0.164327 54 30 48
0.079578 -0.00165501 0.158261 53 28 46
0.0856842 -0.00176364 0.168648 52 26 45
0.0828955 -0.00168883 0.161494 52 25 44
0.0844149 -0.00170241 0.162793 52 24 44
0.0846649 -0.00169038 0.161642 52 25 45
0.0863904 -0.00170775 0.163304 51 25 46
0.087233 -0.0017075 0.16328 52 27 47
0.0912189 -0.00176818 0.169083 53 28 48
0.0928057 -0.00178165 0.17037 53 28 48
0.0957332 -0.00182034 0.17407 53 29 47
0.0961462 -0.00181095 0.173172 53 27 46
0.0935969 -0.00174646 0.167005 53 27 45
0.0943686 -0.00174455 0.166823 54 30 47
0.0988045 -0.0018098 0.173062 53 27 46
0.100288 -0.00182028 0.174064 52 25 45
0.105876 -0.00190438 0.182106 52 26 45
0.10167 -0.0018124 0.173311 53 28 47
0.107249 -0.00189493 0.181203 52 26 44
0.106724 -0.00186912 0.178734 53 28 46
0.108463 -0.00188305 0.180067 53 29 48
0.101297 -0.00174349 0.166721 53 30 48
0.101538 -0.0017327 0.165689 54 31 48
0.101249 -0.00171312 0.163817 53 30 48
0.109085 -0.0018302 0.175013 52 27 48
-0.385331 -0.00320555 0.613061 60 49 46
-0.397392 -0.00333367 0.637564 59 49 47
-0.383089 -0.00324092 0.619825 56 46 44
-0.369369 -0.00315155 0.602735 59 49 48
-0.394204 -0.00339245 0.648805 60 51 50
-0.355586 -0.00308672 0.590334 62 53 53
-0.376632 -0.00329808 0.630759 61 50 51
-0.351645 -0.00310653 0.594124 63 53 52
-0.36361 -0.00324092 0.619825 64 56 55
-0.345421 -0.00310653 0.594124 63 56 58
-0.328667 -0.00298273 0.570447 63 56 56
-0.332601 -0.00304612 0.582571 63 57 56
-0.342315 -0.00316411 0.605137 65 59 59
-0.330849 -0.00308672 0.590334 66 60 60
-0.30699 -0.00289113 0.552929 69 60 62
-0.304094 -0.00289113 0.552929 66 56 60
-0.286806 -0.002753 0.52651 69 59 60
-0.297164 -0.00288011 0.550821 69 60 61
-0.280725 -0.00274746 0.525451 64 59 59
-0.264509 -0.00261438 0.5 69 64 64
-0.255352 -0.00254912 0.487519 66 61 62
-0.253043 -0.00255158 0.48799 66 60 62
-0.256652 -0.00261438 0.5 68 64 64
-0.259913 -0.00267489 0.511574 67 65 65
-0.222393 -0.0023126 0.442284 69 67 65
-0.231534 -0.00243299 0.46531 67 65 64
-0.240678 -0.00255599 0.488832 68 67 68
-0.227251 -0.00243934 0.466525 66 65 65
-0.19889 -0.00215812 0.412741 71 70 68
-0.198099 -0.00217315 0.415615 72 72 70
-0.19174 -0.00212677 0.406745 72 72 71
-0.185625 -0.00208207 0.398196 70 71 69
-0.19009 -0.00215639 0.41241 70 72 68
-0.185486 -0.00212834 0.407046 74 76 72
-0.173649 -0.0020157 0.385502 70 75 72
-0.152177 -0.00178723 0.341808 69 75 74
-0.158296 -0.00188123 0.359785 74 80 79
-0.135602 -0.00163094 0.311917 76 83 77
-0.120265 -0.00146412 0.280012 74 75 72
-0.0942007 -0.00116096 0.222035 78 78 79
-0.0807972 -0.00100822 0.192822 74 79 79
-0.0847569 -0.00107102 0.204833 78 86 79
-0.083684 -0.00107102 0.204833 77 85 75
-0.080339 -0.00104156 0.199199 78 82 78
-0.0724914 -0.000952188 0.182106 82 86 88
-0.074502 -0.000991646 0.189652 81 92 98
-0.0748596 -0.00100987 0.193138 84 99 103
-0.06981 -0.000954652 0.182577 82 105 105
-0.0697679 -0.000967326 0.185001 89 129 124
-0.069479 -0.000976889 0.18683 91 137 128
-0.0702917 -0.00100243 0.191716 92 141 124
-0.0691595 -0.00100058 0.191361 108 158 140
-0.0655822 -0.000962779 0.184132 108 159 141
-0.0656072 -0.000977522 0.186951 110 164 146
-0.0651221 -0.000984996 0.18838 125 180 160
-0.0631708 -0.000970181 0.185547 128 188 169
-0.0624498 -0.000974095 0.186296 142 195 177
-0.060921 -0.000965332 0.18462 138 196 172
-0.0594862 -0.0009578 0.183179 134 195 168
-0.0591681 -0.000968296 0.185187 154 204 184
-0.0577243 -0.000960411 0.183679 159 206 189
-0.0563235 -0.000952988 0.182259 152 205 179
-0.0549515 -0.000945805 0.180885 148 203 174
-0.0540796 -0.000947128 0.181138 150 204 175
-0.0538922 -0.0009607 0.183734 139 201 176
-0.0517223 -0.000938783 0.179542 162 211 191
-0.0517285 -0.000956283 0.182889 156 208 186
-0.0511685 -0.000963777 0.184322 145 202 175
-0.0496555 -0.000953266 0.182312 148 202 175
-0.0471255 -0.000922434 0.176416 138 194 163
-0.0454531 -0.000907494 0.173558 134 185 155
-0.0472639 -0.000962905 0.184156 111 149 126
-0.0444798 -0.000925064 0.176919 82 96 85
-0.0437094 -0.000928383 0.177553 66 74 64
-0.0431856 -0.000937197 0.179239 67 70 62
-0.0411666 -0.000913236 0.174656 59 61 65
-0.0414557 -0.000940549 0.17988 58 59 65
-0.0400282 -0.000929281 0.177725 58 58 64
-0.0401248 -0.000953705 0.182396 62 55 63
-0.0378618 -0.000921866 0.176307 59 52 62
-0.0372112 -0.000928674 0.177609 60 53 62
-0.0363697 -0.000930947 0.178044 60 53 63
-0.0351778 -0.000924133 0.176741 60 53 63
-0.0338136 -0.000912305 0.174478 60 53 63
-0.0330427 -0.000916269 0.175236 60 52 63
-0.0322805 -0.000920709 0.176086 59 50 62
-0.0312257 -0.000916819 0.175342 59 50 62
-0.02991 -0.0009048 0.173043 57 49 61
-0.0293148 -0.000914508 0.1749 59 51 63
-0.0283708 -0.000913609 0.174728 58 50 62
-0.0272147 -0.000905592 0.173194 59 50 62
-0.0265514 -0.000913987 0.1748 59 49 63
-0.0257047 -0.000916441 0.175269 59 49 63
-0.0250724 -0.000927004 0.177289 59 49 63
-0.0235837 -0.0009055 0.173177 59 48 63
-0.0231691 -0.000925167 0.176938 58 47 62
-0.0215976 -0.000898346 0.171809 58 47 63
-0.0208398 -0.000904513 0.172988 58 47 63
-0.0199445 -0.000905004 0.173082 58 48 63
-0.019128 -0.000909286 0.173901 57 46 62
-0.0178802 -0.000892469 0.170685 58 46 62
-0.0172704 -0.000907399 0.17354 57 44 62
-0.0162404 -0.000900688 0.172257 57 44 61
-0.0153464 -0.000901172 0.172349 56 42 60
-0.0144121 -0.000899199 0.171972 55 40 60
-0.0137006 -0.000911796 0.174381 55 41 61
-0.0125141 -0.000892323 0.170657 57 43 62
-0.0116975 -0.000898255 0.171791 56 41 60
-0.0107846 -0.000897165 0.171583 56 40 60
-0.00997452 -0.00090521 0.173121 55 39 60
-0.00905804 -0.000904241 0.172936 56 39 60
-0.0081039 -0.00089888 0.171911 55 37 58
-0.00722037 -0.000900988 0.172314 55 38 59
-0.00640125 -0.000912887 0.17459 56 40 61
-0.00541275 -0.000900568 0.172234 54 37 59
-0.00443178 -0.000884827 0.169223 56 39 60
-0.00361387 -0.000901909 0.17249 55 37 58
-0.0026656 -0.000887 0.169639 55 38 58
-0.0017713 -0.000884123 0.169088 54 36 58
-0.00091916 -0.000917574 0.175486 54 37 59
0 -0.000882092 0.1687 55 37 58
0.000900294 -0.000898741 0.171884 55 38 58
0.00179559 -0.000896247 0.171407 54 34 57
0.0026843 -0.000893223 0.170829 55 36 57
0.00360614 -0.00089998 0.172121 54 33 56
0.00428292 -0.000855106 0.163539 53 32 56
0.00511718 -0.000851392 0.162829 53 32 56
0.00605966 -0.000864173 0.165273 54 32 57
0.00690977 -0.000862231 0.164902 54 33 57
0.0080075 -0.000888187 0.169866 53 31 56
0.00898113 -0.000896563 0.171468 54 32 56
0.0097322 -0.000883219 0.168916 54 32 56
0.010539 -0.000876733 0.167675 55 34 56
0.0115218 -0.000884763 0.169211 56 35 56
0.0120065 -0.000856124 0.163734 54 31 55
0.0130346 -0.000867475 0.165905 54 30 55
0.0138768 -0.000865804 0.165585 54 31 55
0.0150928 -0.000886281 0.169501 54 32 55
0.0157138 -0.00087148 0.166671 54 32 55
0.0166245 -0.000873465 0.16705 54 31 55
0.0173509 -0.000866046 0.165631 54 32 55
0.0182126 -0.00086577 0.165578 54 31 55
0.018867 -0.000856112 0.163732 53 29 54
0.0197046 -0.000855243 0.163565 54 30 54
0.0204733 -0.000851581 0.162865 53 28 53
0.0215536 -0.000860656 0.164601 53 27 52
0.0217879 -0.000836548 0.15999 53 26 52
0.0231104 -0.000854463 0.163416 53 26 51
0.0241669 -0.000861614 0.164784 52 25 51
0.0246112 -0.000847198 0.162027 52 26 51
0.0255219 -0.000849261 0.162421 53 26 51
0.0264839 -0.000852846 0.163107 53 27 52
0.0260765 -0.000813485 0.155579 54 28 51
0.0273195 -0.000826434 0.158056 53 26 50
0.0281839 -0.000827507 0.158261 53 25 50
0.0296004 -0.000844266 0.161466 52 23 49
0.0298644 -0.000828136 0.158381 51 22 47
0.0303321 -0.000818372 0.156514 50 19 45
0.0323091 -0.000848773 0.162328 50 18 42
0.0328104 -0.00083984 0.160619 50 18 42
0.0320851 -0.000800743 0.153142 49 17 40
0.0336051 -0.000818222 0.156485 49 16 38
0.0342706 -0.000814558 0.155784 49 16 37
0.0351257 -0.000815468 0.155958 47 14 33
0.0352757 -0.000800338 0.153065 46 13 32
0.0364398 -0.000808376 0.154602 46 13 31
0.0387122 -0.000840118 0.160673 47 14 35
0.0386848 -0.00082166 0.157143 46 15 37
0.0408508 -0.000849589 0.162484 49 17 40
0.0399382 -0.000813659 0.155612 51 20 43
0.0407983 -0.000814558 0.155784 52 21 45
0.0430834 -0.000843315 0.161284 52 21 45
0.044161 -0.000847785 0.162139 52 23 47
0.0446267 -0.000840561 0.160757 54 28 49
0.0457638 -0.000846015 0.1618 54 29 50
0.0458498 -0.000832195 0.159157 54 32 51
0.0469855 -0.000837579 0.160187 56 36 53
0.0486417 -0.00085189 0.162924 55 35 53
0.0478477 -0.000823538 0.157502 55 36 53
0.0500288 -0.000846483 0.16189 55 36 53
0.0506285 -0.000842352 0.1611 55 37 53
0.0512014 -0.00083792 0.160252 55 35 53
0.0530862 -0.000854752 0.163471 56 38 54
0.0533438 -0.000845265 0.161657 53 33 50
0.0550571 -0.000858783 0.164242 55 37 53
0.0558381 -0.000857565 0.164009 54 37 54
0.0559907 -0.000846879 0.161966 54 36 53
0.0575864 -0.000858015 0.164095 54 36 52
0.0570924 -0.000838146 0.160295 53 34 52
0.059689 -0.000863565 0.165157 54 36 52
0.0599771 -0.000855337 0.163583 53 33 50
0.0612555 -0.000861264 0.164717 53 32 51
0.0626223 -0.000868254 0.166054 52 31 50
0.0624731 -0.000854319 0.163389 52 31 50
0.0633433 -0.000854513 0.163426 53 30 50
0.0644463 -0.000857801 0.164054 53 30 50
0.0663073 -0.000870958 0.166571 53 28 49
0.0656022 -0.000850506 0.162659 52 30 49
0.0663985 -0.000849794 0.162523 51 27 48
0.0675562 -0.000853667 0.163264 53 29 49
0.0682977 -0.000852248 0.162992 53 30 49
0.0689998 -0.00085038 0.162635 52 29 48
0.0712559 -0.000867475 0.165905 53 30 49
0.0712175 -0.000856561 0.163817 54 31 49
0.0720357 -0.000856088 0.163727 53 31 49
0.0732984 -0.000860847 0.164637 53 30 48
0.0749719 -0.000870262 0.166438 54 29 48
0.0748248 -0.000858571 0.164202 54 29 48
0.0743728 -0.000843687 0.161355 54 28 48
0.0759644 -0.00085206 0.162956 53 28 48
0.0744413 -0.000825698 0.157915 54 29 49
0.0782088 -0.000857955 0.164084 54 30 49
0.0805452 -0.00087398 0.167149 54 31 49
0.0811964 -0.000871573 0.166688 53 28 47
0.079795 -0.000847418 0.162069 52 25 45
0.0817543 -0.000859087 0.1643 52 25 44
0.0841874 -0.000875439 0.167428 50 22 42
0.0848436 -0.000873167 0.166993 51 23 44
0.083705 -0.000852659 0.163071 51 24 44
0.087062 -0.000877897 0.167898 51 23 44
0.0881171 -0.00087965 0.168233 51 23 44
0.0899526 -0.000889083 0.170037 51 25 45
0.090557 -0.000886281 0.169501 53 29 48
0.0921709 -0.000893319 0.170847 53 29 48
0.0882489 -0.000847083 0.162005 53 27 47
0.0968794 -0.000921069 0.176154 54 30 48
0.0958259 -0.000902458 0.172595 53 27 46
0.0930553 -0.000868175 0.166038 53 28 46
0.0988473 -0.000913674 0.17474 51 25 43
0.0964234 -0.000883092 0.168891 53 27 45
0.101695 -0.000922908 0.176506 52 26 46
0.100125 -0.000900466 0.172214 53 29 47
0.100844 -0.000898843 0.171904 52 27 46
0.101365 -0.000895488 0.171262 53 28 46
0.105041 -0.000919819 0.175915 53 30 47
0.104537 -0.000907445 0.173549 53 28 47
0.112535 -0.000968456 0.185217 52 27 46
0.108262 -0.000923719 0.176661 53 30 48
0.0993723 -0.000840685 0.160781 53 31 48
0.107513 -0.000901909 0.17249 53 30 48
-0.385331 0 0.613061 57 42 41
-0.415659 0 0.666871 58 47 46
-0.364862 0 0.590334 59 48 47
-0.383422 0 0.625666 57 45 45
-0.390233 0 0.64227 57 45 46
-0.3267 0 0.542379 58 46 48
-0.352494 0 0.590334 59 49 50
-0.354082 0 0.598242 58 48 49
-0.334643 0 0.570447 62 54 55
-0.357266 0 0.614498 60 53 54
-0.328667 0 0.570447 61 53 54
-0.308628 0 0.54058 62 55 56
-0.312782 0 0.552929 63 56 57
-0.287217 0 0.512481 63 56 57
-0.263472 0 0.474549 66 57 60
-0.262023 0 0.476432 66 56 60
-0.285697 0 0.524473 65 56 58
-0.263503 0 0.488426 67 58 60
-0.248594 0 0.46531 64 58 59
-0.264509 0 0.5 61 55 57
-0.244356 0 0.466525 63 58 60
-0.231362 0 0.446178 65 59 61
-0.235599 0 0.458985 65 60 60
-0.233844 0 0.460263 65 63 63
-0.210337 0 0.418307 66 63 63
-0.209403 0 0.420833 66 62 63
-0.20947 0 0.425446 66 64 66
-0.194533 0 0.399357 69 67 67
-0.188855 0 0.391916 68 67 66
-0.198622 0 0.416713 67 66 65
-0.17049 0 0.361667 68 67 66
-0.156716 0 0.336183 70 69 68
-0.157658 0 0.342046 70 70 69
-0.159374 0 0.349743 68 69 67
-0.143574 0 0.318735 66 67 67
-0.143728 0 0.322829 67 71 71
-0.133839 0 0.304197 68 73 73
-0.131986 0 0.303599 67 71 70
-0.111216 0 0.258943 69 70 70
-0.0869026 0 0.204833 70 70 71
-0.0746791 0 0.178222 69 71 72
-0.0905365 0 0.2188 70 76 71
-0.0843077 0 0.206359 75 81 73
-0.0822297 0 0.203887 74 76 75
-0.0776398 0 0.195039 74 76 78
-0.076154 0 0.193858 73 73 79
-0.0724878 0 0.187019 80 80 86
-0.0712456 0 0.186332 78 80 84
-0.0713858 0 0.189291 73 90 91
-0.0709364 0 0.190749 71 93 92
-0.0689435 0 0.188038 70 96 92
-0.0687638 0 0.190267 79 114 109
-0.0672701 0 0.188871 77 118 113
-0.0655666 0 0.186835 79 122 112
-0.0645806 0 0.186814 81 136 121
-0.0625182 0 0.18363 96 151 136
-0.0639914 0 0.190894 98 156 138
-0.0611354 0 0.185269 105 160 143
-0.0584829 0 0.180089 109 163 148
-0.059717 0 0.186905 107 174 159
-0.0586205 0 0.186531 119 184 169
-0.0553403 0 0.179077 118 187 163
-0.0553538 0 0.18221 151 203 181
-0.0538963 0 0.180524 150 202 179
-0.0526223 0 0.179404 137 199 174
-0.0530724 0 0.184229 158 208 188
-0.0530477 0 0.187553 162 208 190
-0.051241 0 0.184584 142 199 175
-0.0483235 0 0.177422 151 197 176
-0.0470268 0 0.176046 131 180 152
-0.0467258 0 0.178418 115 159 134
-0.0456648 0 0.177925 92 121 104
-0.044988 0 0.17894 71 82 71
-0.0438354 0 0.178065 60 63 58
-0.0428427 0 0.177816 63 62 65
-0.0431362 0 0.183013 59 59 64
-0.0401506 0 0.174217 58 58 64
-0.0398413 0 0.176895 58 56 63
-0.039934 0 0.181529 61 54 63
-0.038477 0 0.179171 61 54 63
-0.0363718 0 0.173603 60 53 63
-0.0369144 0 0.18071 59 52 62
-0.0359597 0 0.180669 59 52 63
-0.0337202 0 0.173996 60 51 63
-0.0332555 0 0.176365 60 51 63
-0.0323819 0 0.176639 60 51 63
-0.0307268 0 0.17254 58 49 61
-0.0309975 0 0.179335 59 51 63
-0.0291135 0 0.173698 59 50 63
-0.0286486 0 0.176439 58 49 61
-0.0276324 0 0.175853 59 50 63
-0.0271258 0 0.178581 59 49 63
-0.0261211 0 0.178109 60 51 64
-0.0252042 0 0.178222 60 50 64
-0.0239219 0 0.17566 60 50 64
-0.0235338 0 0.179723 60 50 64
-0.0215692 0 0.171583 59 48 64
-0.020572 0 0.170765 59 48 64
-0.0198398 0 0.172173 59 48 63
-0.0186441 0 0.169501 58 47 63
-0.01805 0 0.172305 58 46 63
-0.0170128 0 0.170952 57 45 63
-0.0165347 0 0.175378 57 45 62
-0.015765 0 0.17705 56 43 61
-0.014614 0 0.174381 56 42 61
-0.013552 0 0.17249 55 41 61
-0.012888 0 0.175755 54 39 60
-0.011991 0 0.176102 57 43 62
-0.0108992 0 0.173407 56 41 60
-0.0098939 0 0.171722 56 39 60
-0.00906977 0 0.17316 57 41 61
-0.00812489 0 0.172356 55 38 59
-0.00716885 0 0.171085 54 37 59
-0.00643069 0 0.175392 55 38 60
-0.00537592 0 0.171062 54 37 59
-0.00457981 0 0.174876 55 38 59
-0.00351944 0 0.167983 55 36 58
-0.00258162 0 0.164294 54 36 58
-0.00178836 0 0.170717 54 37 59
-0.000915892 0 0.174862 54 36 58
0 0 0.169635 53 33 57
0.000868975 0 0.165905 54 35 57
0.00176386 0 0.168379 55 35 57
0.00258275 0 0.164366 54 34 57
0.0035294 0 0.168458 53 33 56
0.00445199 0 0.169995 54 33 57
0.00524055 0 0.166754 54 32 57
0.00627361 0 0.171108 53 31 56
0.00702598 0 0.167675 54 31 56
0.00783356 0 0.166176 55 33 57
0.00866721 0 0.165474 54 32 56
0.00969835 0 0.168328 55 33 57
0.0106583 0 0.169574 55 33 56
0.0114191 0 0.167702 55 33 56
0.0123614 0 0.168575 54 31 55
0.0130636 0 0.166273 54 30 55
0.0140884 0 0.16811 54 31 55
0.0153029 0 0.17186 54 32 56
0.0155225 0 0.164642 54 32 55
0.0162812 0 0.163601 54 32 55
0.0175895 0 0.167909 54 32 55
0.0178336 0 0.162133 53 28 54
0.0186675 0 0.162 53 28 54
0.0195623 0 0.162384 53 29 54
0.0200285 0 0.159327 52 26 52
0.021255 0 0.16232 53 27 52
0.0215008 0 0.157882 53 27 52
0.0226476 0 0.160144 53 28 52
0.0234772 0 0.160081 53 26 52
0.0238325 0 0.1569 52 26 51
0.0256985 0 0.163546 54 28 51
0.0265675 0 0.163621 53 27 51
0.0273382 0 0.163107 53 26 50
0.0277029 0 0.160274 54 28 51
0.0279733 0 0.157078 51 22 48
0.0288983 0 0.157636 52 22 48
0.0300766 0 0.159506 50 20 44
0.0319345 0 0.164782 50 19 44
0.031838 0 0.159961 50 17 41
0.0326266 0 0.15972 49 17 40
0.0326016 0 0.155607 48 16 39
0.0338719 0 0.157728 47 14 35
0.0350385 0 0.159275 47 14 34
0.0353594 0 0.156996 45 13 33
0.0358242 0 0.155445 45 13 33
0.037202 0 0.157836 47 14 34
0.0377854 0 0.156826 46 14 36
0.038774 0 0.157505 50 19 42
0.0396045 0 0.157527 52 21 44
0.0402983 0 0.157015 53 22 46
0.0407511 0 0.155604 52 22 46
0.042813 0 0.160272 52 22 46
0.043595 0 0.160061 53 26 48
0.0431898 0 0.155581 54 30 50
0.0454616 0 0.160732 55 31 51
0.0452609 0 0.157113 54 33 51
0.0475905 0 0.16225 55 34 52
0.0473313 0 0.158535 54 32 52
0.0485683 0 0.159873 54 36 53
0.0498347 0 0.161262 54 36 53
0.0509491 0 0.16212 55 37 54
0.051347 0 0.160708 54 35 53
0.0518792 0 0.159754 53 33 52
0.0536927 0 0.162715 55 37 53
0.0544685 0 0.162486 55 37 53
0.0555186 0 0.163071 54 35 52
0.057439 0 0.166155 53 35 52
0.0591226 0 0.168473 53 34 51
0.0584039 0 0.163978 53 34 51
0.06074 0 0.168065 53 34 52
0.0606796 0 0.165499 53 32 51
0.0608174 0 0.163539 53 33 51
0.0625096 0 0.165755 53 33 51
0.0639513 0 0.167255 53 30 50
0.0642448 0 0.165752 53 29 49
0.065113 0 0.165752 52 28 49
0.0653103 0 0.164066 52 28 48
0.0672305 0 0.166697 52 28 49
0.0674294 0 0.165046 52 29 49
0.0677674 0 0.163774 53 28 48
0.0687915 0 0.164171 53 29 48
0.0698398 0 0.164615 52 28 48
0.0711098 0 0.165564 52 29 48
0.0736206 0 0.169345 53 30 49
0.0722776 0 0.164277 54 30 49
0.0743123 0 0.166914 53 28 48
0.074267 0 0.164873 53 28 47
0.0759994 0 0.166779 54 29 48
0.0754151 0 0.163616 53 28 48
0.0757302 0 0.162454 53 28 48
0.0773755 0 0.164139 53 27 48
0.0764879 0 0.160473 53 27 47
0.0812032 0 0.168514 54 28 47
0.0796825 0 0.16358 52 26 46
0.0819104 0 0.166365 51 24 45
0.0795422 0 0.159855 51 24 45
0.0837997 0 0.166657 51 22 43
0.0855751 0 0.168433 50 22 43
0.0859948 0 0.167532 50 22 43
0.0868182 0 0.167428 50 23 44
0.087575 0 0.167198 51 25 45
0.0873215 0 0.165064 53 28 47
0.089994 0 0.168448 53 28 47
0.0888753 0 0.164739 53 28 47
0.0919702 0 0.168836 53 28 47
0.0939869 0 0.170895 53 28 47
0.0940051 0 0.169316 53 29 47
0.0982692 0 0.175342 54 30 47
0.0972887 0 0.171985 52 26 44
0.0962734 0 0.168629 51 26 45
0.097258 0 0.168805 51 24 44
0.103006 0 0.177171 52 27 46
0.0978919 0 0.166871 51 26 45
0.10199 0 0.172318 54 30 47
0.10579 0 0.177171 54 30 47
0.1073 0 0.178137 51 26 45
0.10319 0 0.169836 52 28 47
0.118462 0 0.193306 52 29 47
0.111774 0 0.180847 52 29 47
0.110004 0 0.176487 52 27 47
-0.37693 0.00313566 0.599696 58 40 41
-0.357583 0.00299971 0.573695 57 42 41
-0.343159 0.00290311 0.555219 57 41 42
-0.332382 0.00283597 0.542379 57 44 45
-0.346594 0.00298273 0.570447 58 46 48
-0.35091 0.00304612 0.582571 58 47 49
-0.322785 0.00282656 0.54058 60 49 50
-0.332759 0.00293969 0.562215 60 49 50
-0.324367 0.00289113 0.552929 61 52 53
-0.29825 0.0026823 0.51299 62 54 56
-0.308819 0.0028026 0.535997 62 55 56
-0.292067 0.00267489 0.511574 63 55 56
-0.282841 0.00261438 0.5 64 57 58
-0.308705 0.00288011 0.550821 64 57 58
-0.264985 0.00249555 0.477273 64 55 59
-0.262916 0.00249964 0.478056 65 56 60
-0.24928 0.00239279 0.457621 64 56 58
-0.259017 0.00251039 0.480112 66 58 60
-0.218866 0.00214204 0.409665 64 57 59
-0.226186 0.0022356 0.427558 65 59 61
-0.206821 0.00206464 0.394863 63 58 60
-0.206201 0.00207924 0.397655 64 57 61
-0.195551 0.00199198 0.380965 65 60 60
-0.193342 0.00198978 0.380545 66 62 63
-0.183841 0.00191171 0.365614 64 59 61
-0.178003 0.00187049 0.35773 68 63 65
-0.160343 0.00170283 0.325667 67 62 65
-0.161538 0.00173397 0.331621 68 64 66
-0.150305 0.00163094 0.311917 64 63 64
-0.146238 0.00160424 0.306811 65 63 64
-0.142652 0.00158229 0.302613 65 64 64
-0.140787 0.00157915 0.302012 68 67 67
-0.13605 0.00154336 0.295167 67 66 65
-0.127253 0.00146016 0.279255 66 65 64
-0.122091 0.00141721 0.271042 64 63 64
-0.107322 0.00126043 0.241057 64 66 67
-0.112012 0.00133117 0.254587 65 67 67
-0.104846 0.00126103 0.241172 68 70 70
-0.0953637 0.00116096 0.222035 67 68 69
-0.0889233 0.00109592 0.209595 66 65 66
-0.0882659 0.00110142 0.210646 63 63 65
-0.0805759 0.00101819 0.194729 69 72 70
-0.0803497 0.00102835 0.196671 69 73 70
-0.0788141 0.00102179 0.195418 71 72 72
-0.0747264 0.000981545 0.18772 71 72 73
-0.0729423 0.000970886 0.185682 68 67 70
-0.0725894 0.000979245 0.187281 72 70 75
-0.0713668 0.00097594 0.186649 73 72 76
-0.0694538 0.000962971 0.184168 72 74 76
-0.0700459 0.000984859 0.188354 74 80 81
-0.0683639 0.000974943 0.186458 77 87 86
-0.0684823 0.000990784 0.189487 71 86 86
-0.064649 0.00094908 0.181512 70 85 85
-0.0673237 0.0010031 0.191842 74 91 88
-0.0616312 0.000932195 0.178282 71 103 93
-0.0619035 0.000950718 0.181825 77 111 99
-0.0616355 0.000961393 0.183866 86 119 105
-0.0616893 0.000977506 0.186948 83 120 107
-0.0593852 0.000956173 0.182868 90 139 126
-0.0592254 0.000969233 0.185366 91 147 134
-0.058029 0.000965481 0.184648 102 157 150
-0.0562599 0.000951912 0.182053 94 163 154
-0.0553538 0.000952729 0.18221 100 173 152
-0.0541367 0.000948128 0.181329 112 182 159
-0.0542213 0.000966566 0.184856 121 186 167
-0.0530039 0.000962044 0.183991 126 187 171
-0.0514336 0.000950831 0.181846 134 190 176
-0.049951 0.000940846 0.179937 122 183 161
-0.0485984 0.000932972 0.178431 114 173 148
-0.0485632 0.000950577 0.181798 116 158 135
-0.047477 0.000947902 0.181286 97 113 98
-0.0459908 0.000936969 0.179195 84 87 78
-0.0448902 0.000933598 0.178551 67 66 61
-0.0449835 0.000955444 0.182729 62 61 61
-0.0437107 0.000948594 0.181419 61 58 63
-0.0434133 0.000963075 0.184188 58 57 63
-0.0418169 0.000948743 0.181447 58 57 63
-0.0400253 0.000929216 0.177713 59 55 63
-0.0394052 0.0009366 0.179125 60 54 62
-0.0394899 0.000961507 0.183888 61 53 63
-0.038238 0.000954301 0.18251 60 52 62
-0.0369889 0.000946797 0.181075 60 52 63
-0.0343106 0.000901352 0.172384 60 52 63
-0.0343095 0.000925683 0.177037 60 52 63
-0.0341032 0.000945677 0.180861 58 50 62
-0.0321696 0.000917544 0.17548 60 51 63
-0.0313469 0.000920377 0.176022 60 51 63
-0.0299925 0.000907296 0.17352 58 50 63
-0.0289917 0.000904426 0.172971 58 49 62
-0.0288669 0.000929583 0.177783 59 50 63
-0.0279145 0.000928878 0.177648 59 49 63
-0.02627 0.0009043 0.172947 59 50 63
-0.0261392 0.000931931 0.178232 60 50 63
-0.025353 0.000937381 0.179274 60 50 65
-0.0234902 0.000901909 0.17249 59 49 63
-0.0231845 0.000925778 0.177055 58 48 63
-0.0217626 0.00090521 0.173121 58 47 63
-0.0210206 0.000912363 0.174489 59 48 64
-0.019661 0.000892138 0.170621 57 45 63
-0.018744 0.000891033 0.17041 57 46 63
-0.0184216 0.000919492 0.175853 58 46 63
-0.0170709 0.000896916 0.171535 57 45 63
-0.0161948 0.000898159 0.171773 57 44 62
-0.0152607 0.000896142 0.171387 56 43 62
-0.0141855 0.000885064 0.169268 56 43 62
-0.0134263 0.00089354 0.17089 56 42 61
-0.0120747 0.000860988 0.164664 56 42 61
-0.0119826 0.000920145 0.175978 56 41 61
-0.0106774 0.000888245 0.169877 57 41 61
-0.00974036 0.00088396 0.169057 56 40 61
-0.00894757 0.000893213 0.170827 56 39 60
-0.00816458 0.00090561 0.173198 55 38 59
-0.00698499 0.000871617 0.166697 55 37 59
-0.00642263 0.000915935 0.175173 56 39 61
-0.00540867 0.000899889 0.172104 55 38 60
-0.00448837 0.000896124 0.171384 55 37 59
-0.00357553 0.000892339 0.17066 54 35 58
-0.00270975 0.00090169 0.172448 54 36 58
-0.00180044 0.000898669 0.17187 53 36 58
-0.000874129 0.00087262 0.166889 54 36 58
0 0.000895721 0.171307 54 36 58
0.000864019 0.000862528 0.164958 54 35 58
0.00175994 0.000878452 0.168004 54 33 57
0.00262532 0.000873597 0.167075 54 33 57
0.00350843 0.000875595 0.167457 54 34 57
0.00439525 0.000877533 0.167828 54 32 56
0.00526662 0.000876255 0.167584 54 32 57
0.00633914 0.000904028 0.172895 54 33 57
0.00705967 0.000880936 0.168479 53 31 56
0.00794283 0.000881014 0.168494 54 32 56
0.00879844 0.000878326 0.16798 54 32 56
0.0095075 0.000862827 0.165016 54 31 56
0.010252 0.000852856 0.163109 55 33 56
0.0112788 0.000866103 0.165642 54 32 56
0.0123721 0.000882198 0.16872 54 32 56
0.0129031 0.000858723 0.164231 53 29 55
0.0138276 0.000862733 0.164998 53 30 55
0.0146366 0.000859491 0.164378 55 33 56
0.0152344 0.000844896 0.161586 54 32 56
0.0167636 0.000880772 0.168448 54 32 55
0.0173971 0.000868353 0.166073 53 30 54
0.0176528 0.00083916 0.160489 53 30 55
0.0189013 0.000857668 0.164029 53 29 54
0.0197954 0.000859182 0.164319 53 29 54
0.0206341 0.000858272 0.164145 53 30 54
0.0210306 0.000839772 0.160606 53 29 53
0.0224225 0.000860915 0.16465 52 27 52
0.0228624 0.000845295 0.161663 53 27 52
0.0236966 0.000844847 0.161577 53 28 52
0.0245768 0.000846015 0.1618 52 25 51
0.0249127 0.000828991 0.158545 53 26 51
0.0254724 0.000820271 0.156877 53 26 50
0.0264514 0.000825178 0.157815 53 25 50
0.0274665 0.000830883 0.158906 52 22 49
0.0280365 0.00082318 0.157433 51 22 48
0.0294441 0.000839808 0.160613 52 22 47
0.0298622 0.000828073 0.158369 50 20 44
0.0304743 0.000822208 0.157247 50 17 42
0.0314424 0.000826005 0.157973 48 15 39
0.0317834 0.000813553 0.155592 48 15 38
0.0321478 0.000802307 0.153441 48 15 37
0.0337233 0.0008211 0.157035 48 15 35
0.0347375 0.000825656 0.157907 47 14 34
0.0361105 0.00083833 0.160331 45 13 33
0.0357383 0.000810832 0.155072 46 14 36
0.0360616 0.000799986 0.152997 46 14 36
0.0383681 0.000832649 0.159244 49 17 40
0.038956 0.000827422 0.158244 52 21 44
0.0395205 0.000821923 0.157193 51 20 42
0.0402995 0.00082102 0.15702 54 25 48
0.04146 0.000827769 0.158311 54 26 48
0.0421991 0.000826005 0.157973 55 28 49
0.0425287 0.000816448 0.156146 54 30 50
0.0434534 0.000818461 0.156531 54 32 51
0.0450348 0.000832538 0.159223 55 33 51
0.0447011 0.000811344 0.15517 54 33 52
0.046383 0.000826839 0.158133 55 36 53
0.0484384 0.00084833 0.162243 54 35 53
0.0488599 0.000840959 0.160833 54 36 53
0.0514031 0.000869736 0.166337 54 37 53
0.0501349 0.000834139 0.159529 54 36 53
0.0510805 0.00083594 0.159873 54 36 53
0.0526027 0.000846966 0.161982 54 35 53
0.0544121 0.000862194 0.164895 54 34 52
0.0552911 0.000862433 0.16494 54 36 53
0.0555124 0.000852564 0.163053 52 33 52
0.0567998 0.000859118 0.164306 52 33 52
0.0575173 0.000856986 0.163899 52 33 52
0.0578254 0.000848906 0.162353 53 35 52
