ply
format ascii 1.0
element vertex 1195
property float x
property float y
property float z
property uchar red
property uchar green
property uchar blue
end_header
-0.079078 -0.0321998 0.198652 183 224 191
-0.0785243 -0.0324007 0.199891 181 223 190
-0.0764008 -0.0319505 0.197114 180 222 190
-0.0742838 -0.0314907 0.194278 183 224 192
-0.0725753 -0.0311938 0.192446 183 224 192
-0.0735173 -0.0320437 0.197689 182 223 191
-0.0733238 -0.0324159 0.199985 183 223 192
-0.0699357 -0.0313662 0.193509 179 222 190
-0.0696104 -0.0316794 0.195441 179 222 191
-0.0689622 -0.0318528 0.196511 179 223 192
-0.0675949 -0.0316943 0.195534 177 222 190
-0.0668276 -0.0318166 0.196288 177 222 190
-0.0664788 -0.0321451 0.198315 177 222 190
-0.0648135 -0.0318373 0.196416 175 220 192
-0.0621201 -0.0310064 0.19129 172 217 192
-0.0627413 -0.0318299 0.19637 167 214 189
-0.0623702 -0.032169 0.198462 121 192 154
-0.0595585 -0.0312395 0.192727 138 186 152
-0.0579946 -0.0309436 0.190902 159 195 171
-0.0580858 -0.031536 0.194557 151 187 165
-0.0594489 -0.0328524 0.202678 140 175 148
-0.0557174 -0.0313501 0.19341 114 144 112
-0.0550772 -0.0315638 0.194729 113 125 96
-0.0531809 -0.0310522 0.191572 98 112 90
-0.0536599 -0.0319343 0.197014 85 100 81
-0.0512291 -0.0310855 0.191778 79 90 72
-0.0512789 -0.0317381 0.195803 76 86 69
-0.0491577 -0.0310461 0.191534 78 87 74
-0.0481727 -0.0310579 0.191607 77 84 71
-0.0470775 -0.0309975 0.191235 79 78 75
-0.0459983 -0.0309454 0.190913 76 73 71
-0.0457239 -0.0314443 0.193991 77 75 71
-0.0436185 -0.0306782 0.189265 75 72 69
-0.0422663 -0.0304185 0.187662 73 69 68
-0.0420206 -0.0309617 0.191014 71 67 68
-0.0408784 -0.0308548 0.190354 70 66 67
-0.0399744 -0.0309267 0.190798 71 66 68
-0.0394205 -0.0312802 0.192979 69 64 67
-0.0372123 -0.030305 0.186963 66 62 65
-0.036631 -0.0306379 0.189016 69 64 68
-0.0355673 -0.0305746 0.188625 66 60 65
-0.0348133 -0.0307815 0.189902 67 59 65
-0.034292 -0.0312122 0.192559 66 58 64
-0.0326556 -0.0306236 0.188928 64 56 62
-0.0311972 -0.0301701 0.18613 65 57 63
-0.0302887 -0.0302365 0.186539 66 56 63
-0.0299997 -0.0309462 0.190918 64 55 61
-0.0286725 -0.030597 0.188764 63 54 61
-0.0267568 -0.0295724 0.182443 61 50 59
-0.0268382 -0.030761 0.189776 61 49 59
-0.0256284 -0.0305042 0.188191 62 50 59
-0.024122 -0.0298597 0.184215 63 52 60
-0.0241331 -0.0311182 0.191979 63 52 60
-0.0227574 -0.0306201 0.188906 63 50 60
-0.0217964 -0.0306601 0.189153 61 47 58
-0.0201121 -0.0296381 0.182848 63 48 59
-0.0191106 -0.0295704 0.18243 62 46 58
-0.0184467 -0.0300453 0.18536 61 45 57
-0.017235 -0.0296313 0.182806 61 43 56
-0.0162291 -0.0295433 0.182263 60 42 55
-0.0155135 -0.0300055 0.185114 59 39 54
-0.0140339 -0.0289534 0.178624 59 39 53
-0.0132509 -0.0292907 0.180704 58 36 51
-0.0126862 -0.0301996 0.186312 56 30 47
-0.0117734 -0.0303623 0.187316 57 31 48
-0.0107865 -0.0303459 0.187215 57 33 48
-0.0099135 -0.0306788 0.189269 56 31 48
-0.00871595 -0.0299698 0.184894 57 32 48
-0.00781972 -0.0302491 0.186618 59 36 50
-0.0068549 -0.030305 0.186963 58 34 50
-0.00585736 -0.0302108 0.186381 57 30 47
-0.00483711 -0.0299384 0.1847 57 29 47
-0.00392076 -0.0303335 0.187138 55 28 46
-0.00296504 -0.0305859 0.188695 57 30 48
-0.00194372 -0.0300756 0.185547 57 31 49
-0.000958732 -0.0296694 0.183041 56 31 48
0 -0.0296139 0.182698 60 44 57
0.000961812 -0.0297647 0.183629 60 42 56
0.00189628 -0.0293417 0.181019 60 44 57
0.00286305 -0.0295338 0.182204 61 45 58
0.00378161 -0.0292569 0.180496 61 46 60
0.00478074 -0.0295894 0.182548 61 47 61
0.00588044 -0.0303298 0.187116 62 48 62
0.00664305 -0.0293685 0.181185 60 45 61
0.00756757 -0.0292737 0.1806 61 47 61
0.00841248 -0.0289263 0.178457 60 45 60
0.00948803 -0.0293621 0.181145 61 47 62
0.0104644 -0.0294398 0.181625 60 47 62
0.0111504 -0.0287554 0.177402 60 47 61
0.0123575 -0.0294169 0.181484 61 48 62
0.0130599 -0.0288685 0.1781 60 47 62
0.0141036 -0.0290972 0.179511 60 46 61
0.0149845 -0.0289824 0.178803 60 46 62
0.0157862 -0.0287369 0.177288 60 47 62
0.0172324 -0.0296267 0.182778 60 47 62
0.0177572 -0.0289223 0.178432 59 46 61
0.0184881 -0.0286071 0.176487 59 45 61
0.0199592 -0.0294127 0.181457 59 46 62
0.0209421 -0.0294585 0.18174 58 45 61
0.0211979 -0.0285218 0.175961 58 46 62
0.0229256 -0.0295611 0.182373 59 47 62
0.0233828 -0.0289446 0.17857 58 45 61
0.0245566 -0.0292285 0.180321 58 46 61
0.0255678 -0.029305 0.180793 60 49 63
0.026139 -0.0288897 0.178231 61 49 63
0.0274002 -0.0292393 0.180388 61 49 62
0.0278724 -0.0287518 0.17738 61 48 62
0.0292807 -0.0292302 0.180331 61 49 63
0.0298885 -0.0289045 0.178322 61 50 63
0.031124 -0.0291873 0.180067 60 47 62
0.0308898 -0.0281157 0.173455 59 46 61
0.0327428 -0.0289507 0.178607 60 48 62
0.0334463 -0.0287512 0.177377 60 48 63
0.0342155 -0.0286176 0.176552 60 48 62
0.0351805 -0.0286504 0.176754 58 44 60
0.0353671 -0.0280638 0.173135 59 46 61
0.0366634 -0.0283651 0.174994 59 47 61
0.0380249 -0.0287009 0.177066 59 47 61
0.0391585 -0.0288528 0.178003 59 45 60
0.0405346 -0.0291722 0.179974 60 45 60
0.0402778 -0.0283286 0.174769 58 44 59
0.0425695 -0.0292751 0.180608 58 43 59
0.0426117 -0.028667 0.176857 57 44 60
0.0441595 -0.0290762 0.179382 57 43 59
0.0453919 -0.029265 0.180546 59 44 60
0.0461666 -0.029157 0.17988 58 43 59
0.0463993 -0.0287179 0.177171 59 44 60
0.0467756 -0.0283832 0.175106 59 43 60
0.0490186 -0.0291722 0.179974 59 43 60
0.0491546 -0.0287012 0.177068 58 43 60
0.04982 -0.028551 0.176141 58 43 60
0.0504391 -0.0283803 0.175088 59 44 60
0.0501659 -0.0277225 0.17103 58 43 59
0.0537872 -0.0292022 0.180159 58 42 59
0.0522915 -0.0279007 0.172129 58 44 59
0.0555592 -0.0291417 0.179786 58 43 59
0.0541697 -0.0279394 0.172368 59 44 59
0.0560022 -0.028411 0.175278 59 43 58
0.0559617 -0.0279326 0.172326 59 43 59
0.0572835 -0.0281385 0.173596 58 40 57
0.0594263 -0.0287349 0.177276 58 40 57
0.0598165 -0.0284787 0.175695 59 42 59
0.0622656 -0.0291955 0.180117 58 41 57
0.0622867 -0.0287695 0.177489 58 39 57
0.0636327 -0.028959 0.178658 58 40 57
0.0657027 -0.0294677 0.181797 57 37 55
0.0659613 -0.029161 0.179905 58 39 56
0.0660096 -0.0287714 0.177501 58 38 55
0.0681341 -0.0292849 0.180669 57 37 55
0.067743 -0.0287179 0.177171 57 38 55
0.0690241 -0.0288656 0.178082 58 38 54
0.0711773 -0.0293692 0.181189 56 35 52
0.0728518 -0.0296646 0.183011 56 34 51
0.0703173 -0.0282607 0.17435 57 33 50
0.0734593 -0.029145 0.179806 56 32 49
0.0722224 -0.0282915 0.17454 55 31 47
0.0752315 -0.0291019 0.17954 55 29 46
0.0752605 -0.0287537 0.177392 57 30 47
0.0762829 -0.0287889 0.177609 56 26 44
0.076213 -0.028416 0.175308 55 23 41
0.0769927 -0.028365 0.174993 53 20 39
0.0793167 -0.0288774 0.178155 52 18 36
0.0787192 -0.0283266 0.174757 54 20 38
0.0821389 -0.0292174 0.180252 52 19 36
0.0824352 -0.0289896 0.178847 52 18 35
0.0812843 -0.0282637 0.174369 52 18 35
0.0820209 -0.0282029 0.173994 54 22 39
0.0825349 -0.0280678 0.17316 56 26 42
0.0839719 -0.028246 0.17426 55 23 39
0.0841337 -0.0279962 0.172718 55 27 42
0.0871137 -0.0286794 0.176934 60 38 50
0.0887664 -0.0289159 0.178392 60 40 53
0.0883962 -0.0284954 0.175798 59 40 54
0.089437 -0.0285337 0.176034 62 45 57
0.089871 -0.0283795 0.175083 62 46 58
0.0930553 -0.0290883 0.179456 62 47 57
0.0909338 -0.0281408 0.173611 62 45 56
0.0931322 -0.0285358 0.176048 62 46 56
0.0921239 -0.0279501 0.172434 61 46 57
0.0958217 -0.0287898 0.177614 60 44 55
0.0946298 -0.0281583 0.173719 60 47 57
0.0965879 -0.0284672 0.175624 60 46 56
0.0961771 -0.0280787 0.173228 60 44 56
0.0978202 -0.0282915 0.17454 60 45 56
0.0985869 -0.0282493 0.17428 60 46 57
0.100949 -0.0286608 0.176818 60 45 56
0.100609 -0.0283045 0.17462 60 45 56
0.103438 -0.0288382 0.177913 60 46 57
0.102929 -0.0284402 0.175458 61 46 56
0.103606 -0.0283737 0.175048 60 45 56
0.10579 -0.0287179 0.177171 60 45 56
0.107195 -0.0288461 0.177962 60 45 57
0.106423 -0.0283916 0.175158 60 44 56
0.104194 -0.0275593 0.170023 60 45 57
0.108452 -0.0284424 0.175471 59 45 56
0.10876 -0.0282836 0.174492 60 47 56
-0.126774 -0.0316387 0.201697 185 222 187
-0.126302 -0.0317859 0.202635 184 221 186
-0.124892 -0.0316974 0.202071 185 222 188
-0.121023 -0.030978 0.197485 185 222 188
-0.120962 -0.0312292 0.199086 185 223 189
-0.123013 -0.0320349 0.204222 185 223 189
-0.120902 -0.0317615 0.202479 185 223 190
-0.123635 -0.0327667 0.208888 186 223 190
-0.11789 -0.0315233 0.200961 187 224 192
-0.112519 -0.0303581 0.193533 186 224 191
-0.113744 -0.0309676 0.197418 186 223 189
-0.113674 -0.0312325 0.199107 185 222 189
-0.114447 -0.0317359 0.202316 187 224 192
-0.110633 -0.030965 0.197402 186 224 191
-0.110763 -0.031294 0.199499 185 223 190
-0.105059 -0.0299649 0.191026 186 224 192
-0.106275 -0.0306034 0.195096 186 224 192
-0.106103 -0.0308504 0.196671 185 223 192
-0.104223 -0.0306008 0.19508 186 224 193
-0.105811 -0.0313746 0.200013 187 224 192
-0.100828 -0.0301963 0.192502 188 225 193
-0.101081 -0.0305778 0.194933 188 225 194
-0.0995079 -0.030409 0.193858 188 225 193
-0.101132 -0.031224 0.199053 188 225 193
-0.0983333 -0.0306761 0.19556 186 224 191
-0.0960573 -0.0302815 0.193045 186 225 193
-0.0964518 -0.0307294 0.1959 186 225 193
-0.0960634 -0.0309347 0.197209 186 225 193
-0.0932591 -0.0303581 0.193533 185 224 192
-0.0967202 -0.0318307 0.202921 184 224 191
-0.0938221 -0.0312201 0.199028 185 224 192
-0.0927796 -0.0312201 0.199028 186 225 193
-0.0922735 -0.0314026 0.200192 186 225 193
-0.0893662 -0.0307627 0.196112 187 225 193
-0.088646 -0.0308697 0.196794 186 225 192
-0.0881466 -0.0310569 0.197988 185 225 192
-0.0882796 -0.031474 0.200647 184 224 191
-0.0850521 -0.0306887 0.19564 184 224 192
-0.0841388 -0.0307294 0.1959 185 224 192
-0.0838906 -0.031017 0.197733 184 224 192
-0.0819071 -0.0306622 0.195471 184 224 192
-0.0796672 -0.0302012 0.192532 184 224 192
-0.0818219 -0.0314156 0.200275 184 225 192
-0.080933 -0.0314779 0.200672 184 224 191
-0.077208 -0.0304243 0.193955 182 223 191
-0.0785519 -0.0313665 0.199962 182 223 191
-0.0749535 -0.0303341 0.19338 182 224 192
-0.0739659 -0.0303445 0.193446 182 224 192
-0.0745902 -0.0310256 0.197788 183 224 192
-0.0741272 -0.0312673 0.199329 183 223 191
-0.0726921 -0.0311 0.198262 182 223 191
-0.0728292 -0.0316102 0.201515 180 223 191
-0.0697582 -0.0307226 0.195856 179 222 190
-0.0690949 -0.0308846 0.19689 177 222 190
-0.0688388 -0.0312364 0.199132 176 222 189
-0.0656724 -0.0302581 0.192895 175 221 188
-0.0653606 -0.0305849 0.194979 173 220 186
-0.0641733 -0.030506 0.194476 173 218 188
-0.0626925 -0.0302827 0.193052 174 218 190
-0.0609318 -0.0299147 0.190706 176 219 192
-0.0608769 -0.0303859 0.19371 166 215 185
-0.0611992 -0.0310645 0.198036 144 207 173
-0.0616627 -0.0318395 0.202977 137 202 176
-0.0594593 -0.0312404 0.199157 144 202 182
-0.0582814 -0.0311683 0.198698 171 215 199
-0.0567827 -0.0309189 0.197108 129 195 167
-0.0557658 -0.0309275 0.197163 142 179 149
-0.0527263 -0.0297936 0.189934 139 173 143
-0.0522913 -0.030116 0.19199 115 140 117
-0.0524709 -0.030812 0.196426 106 125 102
-0.0504982 -0.0302467 0.192822 98 113 91
-0.0494883 -0.0302467 0.192822 84 98 80
-0.0473772 -0.0295596 0.188443 78 91 78
-0.04642 -0.0295786 0.188564 76 82 76
-0.046357 -0.0301806 0.192402 82 80 75
-0.0445342 -0.0296383 0.188944 79 78 72
-0.0452447 -0.0307954 0.196321 80 81 75
-0.0428769 -0.0298625 0.190373 80 79 75
-0.0418191 -0.0298192 0.190097 74 71 70
-0.0413742 -0.0302215 0.192662 72 67 67
-0.0396367 -0.0296762 0.189186 70 65 67
-0.0393239 -0.0301969 0.192505 68 63 65
-0.0386086 -0.0304279 0.193978 67 63 65
-0.0364433 -0.0294976 0.188047 69 64 68
-0.0354789 -0.0295148 0.188157 66 60 64
-0.0349192 -0.0298791 0.190479 67 61 66
-0.0335277 -0.0295322 0.188268 68 61 66
-0.0324341 -0.0294347 0.187646 66 60 65
-0.0317208 -0.0296869 0.189254 67 59 65
-0.0315543 -0.0304837 0.194334 63 55 61
-0.0296901 -0.0296389 0.188948 64 55 62
-0.0278829 -0.0287946 0.183565 64 54 62
-0.0273916 -0.0292975 0.186772 64 55 62
-0.026217 -0.0290798 0.185384 64 55 62
-0.0257751 -0.0296892 0.189269 64 53 61
-0.0246717 -0.029555 0.188413 64 52 60
-0.023453 -0.0292656 0.186568 63 51 60
-0.0221539 -0.0288466 0.183897 63 51 60
-0.0214532 -0.0292039 0.186175 62 49 59
-0.0203687 -0.029048 0.185181 62 47 58
-0.0197711 -0.0296055 0.188735 61 45 57
-0.0183257 -0.0288854 0.184144 61 45 57
-0.0173117 -0.0288031 0.18362 61 44 56
-0.0162759 -0.0286726 0.182788 61 42 55
-0.0157465 -0.0294737 0.187895 60 40 54
-0.0144701 -0.0288904 0.184176 58 38 53
-0.0133351 -0.0285259 0.181853 58 37 51
-0.0124973 -0.0287901 0.183537 57 34 48
-0.0113842 -0.0284113 0.181122 56 30 46
-0.0107049 -0.0291448 0.185798 56 30 46
-0.00949429 -0.0284337 0.181265 56 32 48
-0.00870387 -0.0289628 0.184638 57 31 48
-0.00771242 -0.0288717 0.184057 58 33 48
-0.00679073 -0.0290529 0.185212 57 33 48
-0.00581794 -0.0290395 0.185127 55 29 46
-0.0048615 -0.0291187 0.185631 57 33 49
-0.00385722 -0.0288792 0.184105 55 29 47
-0.00287861 -0.0287365 0.183195 57 31 49
-0.00189993 -0.0284497 0.181367 57 34 51
-0.000966566 -0.0289469 0.184537 58 36 53
0 -0.029211 0.18622 58 41 55
0.000942605 -0.0282294 0.179962 59 42 56
0.00192527 -0.0288292 0.183786 61 45 58
0.00286692 -0.0286198 0.182451 60 43 58
0.00386473 -0.0289354 0.184463 61 46 60
0.00474982 -0.0284497 0.181367 61 47 61
0.00580258 -0.0289628 0.184638 61 47 61
0.00662162 -0.0283294 0.1806 61 47 61
0.0076347 -0.0285807 0.182202 61 48 62
0.00875837 -0.0291442 0.185794 61 47 61
0.00942875 -0.0282374 0.180014 60 46 61
0.0107521 -0.0292733 0.186618 59 45 60
0.0112761 -0.0281417 0.179403 60 48 62
0.0122247 -0.0281622 0.179534 60 47 62
0.0129134 -0.0276238 0.176102 59 46 61
0.014162 -0.0282752 0.180255 60 46 61
0.01469 -0.0274961 0.175288 60 45 62
0.0159338 -0.02807 0.178946 60 46 62
0.0170629 -0.0283892 0.180981 59 46 61
0.0175274 -0.0276271 0.176122 59 45 60
0.0186444 -0.0279183 0.177979 59 46 61
0.0199788 -0.0284919 0.181636 60 46 63
0.0208188 -0.0283402 0.180669 60 47 63
0.0215728 -0.0280898 0.179073 59 46 62
0.022892 -0.0285656 0.182106 59 47 62
0.0235385 -0.0281974 0.179758 58 46 61
0.0248534 -0.0286275 0.1825 59 47 62
0.0251922 -0.0279431 0.178137 60 49 64
0.0262647 -0.0280922 0.179088 61 49 64
0.0274429 -0.0283402 0.180669 63 51 64
0.0283892 -0.0283402 0.180669 62 50 63
0.0288862 -0.0279062 0.177902 62 50 63
0.029209 -0.0273361 0.174268 61 49 62
0.0304971 -0.0276768 0.17644 61 49 63
0.0316997 -0.0279221 0.178003 61 49 63
0.0324606 -0.0277754 0.177068 60 48 62
0.0339488 -0.0282419 0.180042 60 47 62
0.0343155 -0.0277754 0.177068 60 48 62
0.0357563 -0.02818 0.179647 59 47 62
0.0364427 -0.0279844 0.178401 59 46 61
0.0373999 -0.0280015 0.17851 59 46 61
0.0380474 -0.0277915 0.177171 59 46 61
0.0394323 -0.0281173 0.179248 58 44 59
0.0399977 -0.0278572 0.17759 58 44 59
0.0407108 -0.0277095 0.176648 58 43 59
0.0418581 -0.0278572 0.17759 58 43 60
0.0424852 -0.0276599 0.176332 58 44 60
0.0448302 -0.0285656 0.182106 59 45 60
0.0443305 -0.0276588 0.176325 58 43 59
0.0459885 -0.0281077 0.179186 58 43 59
0.0465099 -0.0278578 0.177593 58 43 60
0.0473831 -0.0278243 0.17738 58 42 60
0.0491086 -0.028283 0.180304 58 43 60
0.0479401 -0.0270891 0.172693 58 43 60
0.0494902 -0.0274471 0.174975 58 43 60
0.0499501 -0.0271985 0.17339 58 43 59
0.0517824 -0.0276927 0.176541 58 42 59
0.0532034 -0.0279535 0.178204 59 45 60
0.0536965 -0.0277261 0.176754 57 42 59
0.0535563 -0.027185 0.173305 59 43 60
0.0558768 -0.0278902 0.1778 58 42 58
0.0572764 -0.0281201 0.179266 58 42 58
0.0567853 -0.0274294 0.174862 57 40 57
0.0580847 -0.0276117 0.176024 59 43 59
0.0598477 -0.0280052 0.178533 59 42 58
0.0607526 -0.0279913 0.178444 57 39 56
0.0617567 -0.0280228 0.178645 57 40 57
0.0631089 -0.0282089 0.179832 57 38 56
0.0632173 -0.0278419 0.177492 56 37 55
0.0645782 -0.028029 0.178685 58 39 57
0.0659973 -0.0282357 0.180003 58 39 56
0.0673321 -0.0284011 0.181057 58 37 55
0.0680848 -0.0283197 0.180538 58 38 56
0.0687304 -0.0281966 0.179753 58 38 55
0.0702283 -0.0284218 0.181189 58 37 54
0.0705553 -0.0281734 0.179606 57 35 53
0.0698719 -0.0275334 0.175525 55 30 48
0.0714103 -0.0277742 0.17706 56 32 49
0.0726515 -0.0278947 0.177829 54 27 46
0.0722718 -0.0273976 0.17466 55 29 45
0.0752914 -0.0281856 0.179683 55 26 43
0.0750275 -0.02774 0.176843 53 22 40
0.0771309 -0.0281699 0.179583 54 22 39
0.0758687 -0.0273751 0.174516 53 19 36
0.0781929 -0.0278778 0.177721 52 19 36
0.0789779 -0.0278265 0.177394 53 19 36
0.07896 -0.0274967 0.175291 51 18 35
0.0807853 -0.0278089 0.177282 51 18 35
0.0814563 -0.0277213 0.176723 53 20 37
0.0830076 -0.0279318 0.178065 52 19 36
0.0804156 -0.026759 0.170588 55 24 40
0.0840043 -0.0276459 0.176243 54 21 39
0.0833394 -0.027129 0.172947 54 21 38
0.0844987 -0.0272106 0.173468 55 28 43
0.0846261 -0.0269617 0.171881 56 32 46
0.0875403 -0.0275966 0.175928 60 40 53
0.0877499 -0.0273745 0.174513 61 44 56
0.0875079 -0.0270176 0.172237 62 47 58
0.0879909 -0.0268895 0.171421 62 46 57
0.0891436 -0.0269666 0.171912 62 46 57
0.0926542 -0.0277483 0.176895 62 46 56
0.0908137 -0.0269278 0.171665 62 46 56
0.0906552 -0.0266173 0.169685 61 45 56
0.0924265 -0.0268739 0.171321 60 44 55
0.0939282 -0.0270479 0.172431 60 45 56
0.0931098 -0.0265569 0.1693 60 45 56
0.0950296 -0.0268488 0.171161 60 44 55
0.0969292 -0.0271295 0.172951 59 43 55
0.0984548 -0.0273014 0.174046 60 45 56
0.0994006 -0.0273108 0.174106 60 45 56
0.103236 -0.0281067 0.17918 60 44 55
0.103438 -0.027908 0.177913 60 43 55
0.100975 -0.0270002 0.172126 60 44 55
0.102652 -0.0272057 0.173436 60 44 55
0.103971 -0.0273134 0.174123 59 43 55
0.106834 -0.0278217 0.177363 59 44 55
0.106682 -0.0275425 0.175583 59 44 55
0.108698 -0.0278232 0.177373 59 43 56
0.110152 -0.0279563 0.178222 59 45 56
0.11002 -0.0276882 0.176512 61 49 58
-0.124907 -0.0301337 0.198726 184 222 187
-0.126776 -0.0308417 0.203396 184 221 186
-0.125758 -0.0308533 0.203472 183 221 186
-0.125133 -0.0309624 0.204192 185 222 188
-0.122585 -0.0305933 0.201757 184 222 188
-0.124094 -0.0312394 0.206018 185 222 189
-0.120572 -0.0306188 0.201926 185 223 189
-0.118903 -0.0304621 0.200893 186 223 190
-0.120482 -0.0311423 0.205378 187 224 192
-0.113556 -0.0296165 0.195316 186 223 190
-0.115369 -0.0303629 0.200238 186 223 190
-0.111848 -0.0297064 0.195909 186 224 191
-0.112586 -0.0301794 0.199028 186 224 191
-0.109432 -0.0296081 0.19526 186 224 191
-0.113211 -0.0309193 0.203907 186 224 192
-0.109907 -0.0303028 0.199842 186 224 191
-0.106796 -0.0297282 0.196052 187 224 192
-0.106813 -0.0300217 0.197988 188 225 194
-0.105657 -0.0299878 0.197764 188 225 194
-0.104924 -0.0300746 0.198337 189 225 195
-0.102229 -0.0295952 0.195176 188 225 193
-0.104537 -0.030569 0.201597 186 225 192
-0.103137 -0.0304674 0.200927 186 224 192
-0.101311 -0.0302366 0.199405 187 225 192
-0.0984555 -0.0296904 0.195803 185 224 191
-0.0991523 -0.0302153 0.199265 186 225 193
-0.0958751 -0.0295275 0.194729 186 224 192
-0.096683 -0.0300964 0.198481 186 225 193
-0.0930461 -0.0292792 0.193091 186 225 193
-0.0915567 -0.0291271 0.192088 186 225 193
-0.0958886 -0.0308441 0.203412 186 225 193
-0.0919708 -0.0299163 0.197293 186 225 193
-0.0910784 -0.0299627 0.197599 185 225 192
-0.0902897 -0.0300446 0.198139 186 225 192
-0.0924275 -0.0311136 0.205189 185 224 192
-0.0868196 -0.0295697 0.195007 185 224 192
-0.0893411 -0.0307907 0.203059 185 224 192
-0.0868741 -0.0303012 0.199831 185 225 193
-0.0848685 -0.0299627 0.197599 186 225 193
-0.0850248 -0.0303885 0.200407 185 225 193
-0.0815473 -0.0295099 0.194613 185 225 193
-0.0823864 -0.0301909 0.199104 184 224 192
-0.0809188 -0.0300333 0.198064 184 225 192
-0.0786915 -0.0295859 0.195114 184 224 192
-0.0800092 -0.0304771 0.200991 183 224 192
-0.0773207 -0.0298457 0.196828 182 223 191
-0.0757342 -0.0296284 0.195394 183 224 192
-0.0740775 -0.0293773 0.193738 183 224 193
-0.073745 -0.0296516 0.195547 182 223 191
-0.0736283 -0.0300217 0.197988 182 223 191
-0.072564 -0.0300104 0.197913 181 223 190
-0.0715138 -0.0300046 0.197875 179 222 190
-0.0687246 -0.0292584 0.192954 180 223 191
-0.0685147 -0.0296044 0.195236 178 222 190
-0.0693226 -0.0304074 0.200531 176 222 189
-0.0655549 -0.0291971 0.19255 175 221 189
-0.065589 -0.0296687 0.19566 174 220 187
-0.063228 -0.0290548 0.191611 175 217 186
-0.0648981 -0.0303032 0.199844 141 200 157
-0.0628296 -0.0298183 0.196646 146 203 163
-0.0624548 -0.0301344 0.198731 189 227 205
-0.0613644 -0.0301101 0.198571 141 209 176
-0.0583332 -0.0291163 0.192017 136 203 169
-0.0586753 -0.0298008 0.196531 140 202 176
-0.0587051 -0.0303484 0.200142 176 223 207
-0.0563814 -0.0296771 0.195715 118 201 172
-0.0550952 -0.0295371 0.194792 138 199 169
-0.0539369 -0.0294617 0.194295 159 206 181
-0.0525959 -0.0292817 0.193108 159 195 170
-0.0524145 -0.0297529 0.196215 136 172 133
-0.0501211 -0.0290201 0.191382 130 160 119
-0.0500208 -0.0295531 0.194897 113 138 111
-0.0474347 -0.028609 0.188671 89 109 91
-0.0483006 -0.0297511 0.196203 84 97 81
-0.0466203 -0.0293404 0.193495 85 87 77
-0.0442248 -0.0284512 0.187631 83 84 76
-0.0445442 -0.029308 0.193281 79 83 73
-0.0427996 -0.0288151 0.19003 82 85 77
-0.0412834 -0.028456 0.187662 78 80 73
-0.0409252 -0.0288971 0.190572 78 76 70
-0.0393747 -0.0284974 0.187935 75 71 68
-0.0388856 -0.0288651 0.19036 77 73 73
-0.0373544 -0.0284582 0.187677 73 69 70
-0.0365728 -0.0286157 0.188716 70 66 67
-0.0359797 -0.0289337 0.190813 71 67 68
-0.0352806 -0.0291821 0.192451 70 65 68
-0.0336201 -0.0286265 0.188787 68 61 67
-0.0329599 -0.0289148 0.190688 66 58 64
-0.0322657 -0.0291904 0.192505 67 59 65
-0.0301138 -0.0281224 0.185462 62 55 61
-0.0307023 -0.0296277 0.19539 65 56 63
-0.0283989 -0.0283499 0.186963 65 56 63
-0.0275155 -0.028449 0.187616 66 56 63
-0.0269377 -0.0288832 0.190479 65 55 63
-0.0265007 -0.0295075 0.194597 64 53 61
-0.0243981 -0.0282529 0.186323 64 53 61
-0.0232377 -0.0280304 0.184856 64 52 60
-0.0227937 -0.0286903 0.189208 61 48 58
-0.021486 -0.0282736 0.186459 62 49 58
-0.0205535 -0.0283345 0.186861 62 48 58
-0.0196254 -0.0284077 0.187344 62 46 58
-0.0181393 -0.0276385 0.182271 61 46 57
-0.0171842 -0.0276379 0.182267 60 43 55
-0.0163701 -0.0278774 0.183846 60 40 54
-0.0154985 -0.0280426 0.184936 60 40 54
-0.0143629 -0.0277204 0.182811 58 36 51
-0.0137186 -0.0283681 0.187083 58 36 50
-0.0125765 -0.0280069 0.1847 56 33 47
-0.0114772 -0.0276886 0.182602 55 31 46
-0.0104461 -0.0274922 0.181306 55 31 46
-0.00970105 -0.0280845 0.185212 56 32 47
-0.00854968 -0.0275014 0.181367 57 32 48
-0.00755118 -0.0273258 0.180209 57 34 48
-0.0068933 -0.0285087 0.18801 56 31 47
-0.0057779 -0.0278783 0.183853 56 33 48
-0.00490359 -0.0283917 0.187239 56 32 48
-0.00388212 -0.0280968 0.185294 56 31 49
-0.00287081 -0.0277033 0.182698 58 37 54
-0.00194106 -0.0280968 0.185294 59 39 55
-0.000961666 -0.0278402 0.183601 60 42 56
0 -0.0284466 0.1876 60 44 57
0.000922214 -0.026698 0.176069 61 45 58
0.00189299 -0.0274009 0.180704 60 45 58
0.00281834 -0.0271969 0.179359 60 45 58
0.00373969 -0.027066 0.178495 60 44 59
0.00478215 -0.0276886 0.182602 60 46 60
0.00577866 -0.027882 0.183877 60 46 60
0.0066697 -0.0275839 0.181911 61 47 61
0.00752842 -0.0272434 0.179666 60 47 61
0.00869977 -0.0279842 0.184551 60 46 61
0.00949534 -0.027489 0.181285 59 45 61
0.0103239 -0.0271706 0.179185 60 46 62
0.0113514 -0.0273851 0.1806 60 47 61
0.0127358 -0.0283615 0.187039 60 47 62
0.0132279 -0.0273534 0.180391 60 47 61
0.0140969 -0.027207 0.179425 60 45 61
0.0152079 -0.0275168 0.181468 59 44 61
0.0160841 -0.0273903 0.180634 60 47 62
0.0170629 -0.0274429 0.180981 60 46 61
0.01762 -0.0268472 0.177053 59 45 61
0.0188827 -0.0273327 0.180255 59 46 62
0.0197308 -0.0272003 0.179382 60 46 62
0.0207608 -0.0273193 0.180166 60 47 63
0.0216124 -0.0272035 0.179402 60 46 62
0.0223695 -0.0269832 0.177949 58 45 61
0.0235024 -0.0272157 0.179483 60 48 62
0.0244666 -0.0272426 0.17966 59 47 62
0.0254525 -0.0272907 0.179977 59 47 62
0.0262818 -0.0271735 0.179204 61 48 63
0.0276278 -0.0275801 0.181886 61 49 63
0.0282272 -0.0272392 0.179638 60 48 62
0.029246 -0.0273119 0.180117 61 48 62
0.0300304 -0.0271681 0.179169 61 48 62
0.0303875 -0.0266581 0.175806 61 48 63
0.0313682 -0.026709 0.176141 61 48 63
0.0328602 -0.0271801 0.179248 60 49 63
0.0335819 -0.0270054 0.178096 60 48 62
0.0353001 -0.0276199 0.182149 59 46 61
0.0357839 -0.0272616 0.179786 60 47 62
0.036678 -0.0272263 0.179553 60 48 62
0.037903 -0.0274322 0.180911 59 47 61
0.0378012 -0.0266913 0.176024 59 46 61
0.0390901 -0.0269442 0.177693 58 44 59
0.0397856 -0.0267858 0.176648 59 45 60
0.0405878 -0.0267049 0.176114 58 43 59
0.0428003 -0.0275348 0.181588 58 44 60
0.0423555 -0.0266563 0.175794 58 44 60
0.0436414 -0.0268812 0.177277 58 43 60
0.0439525 -0.0265088 0.174821 57 41 59
0.0450311 -0.0266051 0.175456 58 43 60
0.0462314 -0.0267679 0.17653 56 41 59
0.0464513 -0.0263679 0.173892 57 41 60
0.0482265 -0.0268491 0.177065 58 44 61
0.0492124 -0.0268811 0.177276 57 43 60
0.049962 -0.0267852 0.176643 58 43 60
0.051281 -0.0269924 0.178011 58 43 59
0.0524328 -0.0271058 0.178758 58 45 60
0.0531458 -0.0269924 0.178011 58 43 59
0.0524011 -0.0261554 0.17249 58 41 58
0.0551069 -0.0270397 0.178322 58 42 59
0.0563125 -0.0271707 0.179186 58 43 59
0.0563044 -0.0267215 0.176224 58 43 59
0.057945 -0.0270565 0.178433 57 42 58
0.0580488 -0.0266748 0.175915 59 43 58
0.0592142 -0.0267852 0.176643 58 41 58
0.059636 -0.0265609 0.175165 57 40 57
0.062233 -0.0272976 0.180023 58 40 57
0.0624749 -0.0269947 0.178025 56 37 55
0.0631788 -0.0268974 0.177384 58 39 57
0.06407 -0.0268815 0.177279 57 39 57
0.0655999 -0.0271302 0.178919 58 39 56
0.0670435 -0.0273367 0.180281 58 38 56
0.0663107 -0.0266624 0.175834 57 36 55
0.0684634 -0.0271509 0.179055 57 37 55
0.068671 -0.0268652 0.177171 58 38 54
0.0689465 -0.0266133 0.17551 58 36 52
0.0710061 -0.0270477 0.178375 56 33 50
0.0721599 -0.0271302 0.178919 55 29 47
0.0717579 -0.0266332 0.175641 56 30 47
0.072499 -0.0265676 0.175209 54 26 44
0.0720806 -0.0260841 0.17202 54 24 42
0.0746536 -0.0266817 0.175961 55 24 41
0.076571 -0.0270333 0.17828 54 21 38
0.0770228 -0.0268652 0.177171 52 18 35
0.0767404 -0.026448 0.17442 50 17 34
0.0775454 -0.026411 0.174176 52 19 36
0.0782616 -0.026345 0.173741 47 16 30
0.0808363 -0.0268989 0.177394 54 22 39
0.0823377 -0.0270872 0.178635 54 21 39
0.0807989 -0.0262823 0.173327 54 21 39
0.081961 -0.0263641 0.173867 56 25 42
0.0837266 -0.0266361 0.17566 53 23 40
0.0855461 -0.0269191 0.177527 55 26 44
0.0847274 -0.0263748 0.173937 57 34 48
0.0852327 -0.0262498 0.173113 60 40 53
0.0875989 -0.0266946 0.176046 59 39 52
0.0839073 -0.0253033 0.166871 62 45 56
0.0873797 -0.0260787 0.171985 62 47 57
0.0892328 -0.0263601 0.17384 62 46 57
0.0913077 -0.0267006 0.176086 63 47 57
0.0922863 -0.0267168 0.176193 62 46 56
0.091691 -0.0262817 0.173323 61 45 56
0.0899571 -0.0255319 0.168379 60 44 55
0.0967298 -0.0271876 0.179298 60 46 56
0.0941572 -0.0262101 0.172851 61 47 57
0.0980548 -0.0270351 0.178292 61 47 57
0.0970684 -0.0265106 0.174833 60 44 55
0.095548 -0.0258515 0.170486 60 45 56
0.0983171 -0.0263544 0.173803 60 45 56
0.0996941 -0.0264784 0.17462 59 43 55
0.101453 -0.0267006 0.176086 60 44 56
0.101846 -0.0265626 0.175176 60 45 56
0.10404 -0.0268926 0.177352 60 43 55
0.105523 -0.0270343 0.178287 58 42 54
0.107027 -0.0271793 0.179243 59 43 55
0.104078 -0.0262004 0.172787 59 43 55
0.107998 -0.0269529 0.177749 60 45 56
0.109315 -0.0270485 0.17838 59 45 56
0.111206 -0.0272832 0.179928 59 44 56
0.108487 -0.0263923 0.174053 60 46 55
-0.122092 -0.028439 0.194249 185 222 188
-0.126333 -0.0296741 0.202684 185 221 186
-0.128259 -0.0303818 0.207519 182 221 186
-0.124743 -0.0298014 0.203554 184 222 188
-0.118491 -0.028552 0.195021 184 222 188
-0.122304 -0.029727 0.203046 184 222 188
-0.120618 -0.0295743 0.202003 186 223 190
-0.117986 -0.0291851 0.199345 186 223 190
-0.118612 -0.0296018 0.202191 185 223 190
-0.115813 -0.0291638 0.199199 186 223 191
-0.113701 -0.0288921 0.197343 185 223 190
-0.113094 -0.0290016 0.198091 184 223 189
-0.112921 -0.0292252 0.199619 185 223 191
-0.110341 -0.0288244 0.196881 186 224 191
-0.111725 -0.0294613 0.201231 187 224 192
-0.108148 -0.0287897 0.196644 187 224 192
-0.108122 -0.0290597 0.198488 187 223 192
-0.106766 -0.0289736 0.1979 187 225 193
-0.104102 -0.0285278 0.194855 186 224 192
-0.105673 -0.0292448 0.199752 187 224 192
-0.101417 -0.0283476 0.193624 189 226 194
-0.102285 -0.0288791 0.197254 186 224 191
-0.100928 -0.0287867 0.196624 186 224 192
-0.098669 -0.0284326 0.194205 188 225 194
-0.0963836 -0.0280634 0.191683 185 224 192
-0.0987969 -0.0290688 0.198551 186 224 192
-0.0942326 -0.0280208 0.191392 186 225 193
-0.0972696 -0.0292349 0.199685 187 225 193
-0.0940964 -0.0285886 0.195271 186 225 193
-0.094054 -0.0288898 0.197327 186 225 193
-0.0936761 -0.0290934 0.198718 186 225 193
-0.0938815 -0.0294848 0.201392 184 224 191
-0.0934702 -0.0296892 0.202788 185 225 192
-0.0877795 -0.0282021 0.192631 186 225 193
-0.0911941 -0.0296399 0.202451 185 224 191
-0.0882943 -0.029035 0.198319 184 224 191
-0.0850956 -0.0283163 0.19341 185 225 192
-0.086436 -0.0291088 0.198824 185 224 192
-0.0850684 -0.0289976 0.198064 186 225 194
-0.0852456 -0.0294168 0.200927 185 224 192
-0.0840573 -0.0293693 0.200603 184 224 192
-0.0820324 -0.0290246 0.198248 183 224 192
-0.0817595 -0.0292989 0.200122 183 225 192
-0.0797927 -0.0289655 0.197845 184 224 192
-0.0791675 -0.0291166 0.198877 182 224 191
-0.0773428 -0.0288248 0.196884 183 224 192
-0.0745197 -0.028148 0.192261 183 224 192
-0.0752644 -0.0288187 0.196842 181 223 191
-0.0729491 -0.0283201 0.193437 183 224 192
-0.0718699 -0.0282941 0.193259 181 223 190
-0.07081 -0.0282751 0.193129 181 223 191
-0.0709416 -0.0287382 0.196292 181 223 192
-0.0677654 -0.0278552 0.190261 179 223 190
-0.0686928 -0.0286579 0.195744 178 222 190
-0.0665688 -0.0281926 0.192565 175 221 189
-0.0669129 -0.0287743 0.196539 175 221 189
-0.0662927 -0.028953 0.197759 176 221 189
-0.0648751 -0.0287836 0.196603 159 210 174
-0.0646149 -0.0291306 0.198972 124 190 141
-0.0625431 -0.0286588 0.19575 156 206 170
-0.0618308 -0.0288046 0.196745 185 222 201
-0.0591247 -0.0280108 0.191323 137 201 165
-0.0598966 -0.0288657 0.197163 159 209 180
-0.0583677 -0.0286224 0.195501 153 208 177
-0.0574744 -0.0286876 0.195947 184 223 203
-0.0564028 -0.0286646 0.195789 157 211 187
-0.053799 -0.0278476 0.190209 130 197 167
-0.0538424 -0.028396 0.193955 149 206 182
-0.0533729 -0.0286897 0.195961 174 214 195
-0.0526794 -0.0288721 0.197207 148 198 165
-0.0513728 -0.0287191 0.196162 166 198 168
-0.0497618 -0.0283862 0.193888 132 170 138
-0.0480747 -0.0279952 0.191217 117 156 119
-0.0464749 -0.0276394 0.188787 119 155 125
-0.0466064 -0.0283201 0.193437 99 135 112
-0.045084 -0.0280038 0.191276 90 110 86
-0.0425672 -0.0270415 0.184703 86 96 77
-0.0428957 -0.0278839 0.190457 84 88 77
-0.042123 -0.0280335 0.191479 81 85 75
-0.0405472 -0.027643 0.188811 82 83 70
-0.0397427 -0.0277719 0.189692 81 79 71
-0.0384902 -0.0275863 0.188424 82 81 78
-0.036793 -0.0270638 0.184856 75 74 72
-0.037421 -0.0282698 0.193093 72 71 68
-0.0368031 -0.0285752 0.195179 73 71 68
-0.034556 -0.0275971 0.188498 69 65 69
-0.0339131 -0.0278802 0.190432 67 61 65
-0.0324638 -0.0274975 0.187818 71 63 69
-0.0313914 -0.0274201 0.187289 69 60 66
-0.0309952 -0.0279473 0.19089 66 57 63
-0.029912 -0.0278697 0.19036 68 59 65
-0.0285188 -0.0274879 0.187752 65 56 63
-0.0276532 -0.0276055 0.188555 66 57 63
-0.0263598 -0.027289 0.186393 65 56 63
-0.0253725 -0.0272771 0.186312 65 54 62
-0.0244872 -0.0273784 0.187004 65 54 62
-0.0232249 -0.027049 0.184754 63 50 59
-0.0231488 -0.0281325 0.192155 63 51 60
-0.0216456 -0.0275014 0.187844 62 50 59
-0.020679 -0.0275244 0.188001 62 48 58
-0.0198535 -0.027747 0.189522 62 46 57
-0.0181502 -0.0267014 0.18238 61 45 56
-0.0172448 -0.0267789 0.18291 61 46 56
-0.0162759 -0.0267611 0.182788 61 42 55
-0.0154612 -0.0270105 0.184491 60 41 54
-0.0143952 -0.0268247 0.183222 60 40 54
-0.013475 -0.0269035 0.18376 59 37 51
-0.0124846 -0.0268435 0.18335 59 37 50
-0.0114832 -0.026748 0.182698 57 35 49
-0.0104318 -0.0265078 0.181058 56 33 47
-0.009661 -0.0270041 0.184448 55 31 46
-0.00855371 -0.0265656 0.181453 55 30 46
-0.00774632 -0.0270653 0.184866 57 35 49
-0.00676211 -0.0270018 0.184432 57 34 48
-0.00574032 -0.0267419 0.182657 56 33 48
-0.00475476 -0.0265807 0.181556 57 34 51
-0.00395137 -0.0276119 0.188599 58 35 52
-0.00287957 -0.0268296 0.183256 60 41 56
-0.00191872 -0.0268157 0.183161 59 39 56
-0.000958854 -0.0268016 0.183064 62 46 59
0 -0.0271401 0.185376 61 46 58
0.000955687 -0.0267131 0.18246 61 47 59
0.00189151 -0.0264354 0.180563 60 46 58
0.00290365 -0.027054 0.184788 60 45 59
0.00371947 -0.0259914 0.17753 60 46 59
0.00481317 -0.0269072 0.183786 60 46 60
0.0057399 -0.02674 0.182644 60 46 60
0.00670003 -0.0267539 0.182739 61 47 61
0.00772645 -0.0269959 0.184392 61 47 61
0.00854107 -0.0265264 0.181185 60 46 61
0.00944136 -0.0263902 0.180255 61 47 62
0.0103593 -0.0263235 0.179799 61 48 63
0.0111804 -0.0260426 0.17788 60 47 62
0.0124763 -0.0268256 0.183228 60 47 62
0.0130704 -0.0260956 0.178242 58 45 61
0.0138537 -0.0258156 0.17633 60 48 63
0.0151292 -0.0264304 0.180529 60 47 62
0.0160841 -0.0264458 0.180634 59 45 61
0.0172339 -0.026762 0.182794 58 44 60
0.0176198 -0.0259213 0.177052 59 46 61
0.0186827 -0.0261106 0.178345 59 46 62
0.020141 -0.0268084 0.183111 60 46 62
0.0212337 -0.0269781 0.18427 59 45 62
0.0212892 -0.0258726 0.176719 60 46 62
0.0230524 -0.0268481 0.183382 59 47 62
0.0240092 -0.0268439 0.183354 59 47 62
0.0247997 -0.0266613 0.182106 59 47 62
0.0256475 -0.0265515 0.181356 60 48 63
0.0265653 -0.0265194 0.181137 60 48 63
0.0266683 -0.0257043 0.175569 61 48 63
0.0281251 -0.0262048 0.178988 62 49 63
0.0299359 -0.0269922 0.184367 61 48 62
0.0305227 -0.0266613 0.182106 60 48 62
0.0316924 -0.0268441 0.183355 60 47 62
0.0316067 -0.0259841 0.177481 60 47 62
0.0327655 -0.0261671 0.178731 60 47 62
0.0342259 -0.0265742 0.181512 60 48 63
0.0348786 -0.0263491 0.179974 59 46 62
0.035635 -0.0262121 0.179038 60 47 62
0.0358307 -0.0256802 0.175405 60 48 62
0.0371629 -0.0259691 0.177378 58 45 60
0.0385885 -0.0263076 0.179691 59 46 61
0.039947 -0.0265854 0.181588 58 45 60
0.0405941 -0.0263878 0.180238 58 44 59
0.0402251 -0.0255536 0.17454 58 43 59
0.0426942 -0.0265194 0.181137 58 43 59
0.0424798 -0.0258126 0.176309 59 44 60
0.0447319 -0.0266028 0.181707 57 42 59
0.0441939 -0.0257353 0.175781 57 43 59
0.0455259 -0.0259699 0.177384 57 42 59
0.0461736 -0.0258126 0.176309 57 41 59
0.0460435 -0.0252352 0.172365 57 41 59
0.0473866 -0.0254718 0.173982 57 42 60
0.0488009 -0.0257371 0.175794 58 43 60
0.0504426 -0.0261103 0.178343 57 42 59
0.0504663 -0.0256476 0.175182 58 44 60
0.0520291 -0.0259697 0.177382 59 45 60
0.0530213 -0.0260006 0.177593 58 43 59
0.0536318 -0.0258465 0.176541 58 43 59
0.0548817 -0.0260006 0.177593 58 43 59
0.056178 -0.0261712 0.178758 59 44 59
0.0562724 -0.0257854 0.176123 58 42 58
0.0576711 -0.0260001 0.17759 57 42 58
0.0575648 -0.0255402 0.174449 58 42 58
0.0587991 -0.0256802 0.175405 57 41 58
0.0608883 -0.0261836 0.178843 57 41 57
0.0626811 -0.0265461 0.181319 57 40 56
0.0625081 -0.0260777 0.17812 57 40 56
0.062608 -0.0257353 0.175781 57 40 57
0.0635242 -0.0257335 0.175769 56 39 56
0.0643611 -0.0257 0.17554 58 40 56
0.0644032 -0.0253546 0.173181 58 38 56
0.066899 -0.0259714 0.177394 58 39 56
0.0680405 -0.0260527 0.177949 57 37 55
0.0685856 -0.0259065 0.176951 57 36 53
0.0690785 -0.0257448 0.175846 57 35 52
0.0703072 -0.025858 0.176619 57 34 50
0.070879 -0.0257297 0.175743 57 34 50
0.0731387 -0.0262096 0.179021 57 32 49
0.0720055 -0.0254769 0.174016 53 24 42
0.0741925 -0.0259226 0.17706 56 25 43
0.0733279 -0.0253042 0.172837 50 19 36
0.0748912 -0.0255285 0.174369 54 21 39
0.0763905 -0.0257258 0.175717 52 18 35
0.0779021 -0.0259226 0.17706 52 19 37
0.0784294 -0.025791 0.176162 50 18 34
0.0786109 -0.0255501 0.174516 50 17 33
0.0798702 -0.025661 0.175274 55 22 40
0.0806213 -0.025608 0.174912 54 21 39
0.0794263 -0.0249449 0.170383 53 19 38
0.0818235 -0.0254123 0.173575 54 23 41
0.0829205 -0.02547 0.173969 55 29 44
0.0839441 -0.0255041 0.174202 57 35 49
0.085367 -0.0256576 0.17525 59 37 51
0.0845729 -0.0251485 0.171773 60 40 53
0.0869602 -0.0255861 0.174763 62 46 56
0.08857 -0.0257883 0.176144 61 45 56
0.0877653 -0.0252906 0.172744 61 45 56
0.0870935 -0.0248409 0.169672 61 45 56
0.0908027 -0.0256373 0.175112 63 47 57
0.0941183 -0.0263076 0.179691 62 47 56
0.0921358 -0.0254985 0.174164 62 46 56
0.0903574 -0.0247612 0.169128 60 44 55
0.094694 -0.0256976 0.175524 60 46 56
0.095514 -0.0256709 0.175342 61 47 56
0.0970029 -0.0258228 0.176379 60 45 55
0.0945178 -0.0249239 0.170239 60 44 55
0.0953633 -0.0249118 0.170157 60 44 55
0.0995328 -0.0257603 0.175952 59 43 55
0.101353 -0.0259906 0.177525 58 41 53
0.102282 -0.0259906 0.177525 59 43 55
0.103212 -0.0259906 0.177525 59 43 55
0.103829 -0.0259124 0.176991 59 42 55
0.103994 -0.0257241 0.175705 59 43 55
0.104462 -0.0256131 0.174946 57 41 54
0.108071 -0.0262674 0.179416 59 43 55
0.108119 -0.0260527 0.177949 58 43 54
0.109815 -0.0262351 0.179195 59 44 55
0.112499 -0.0266486 0.182019 59 43 54
0.105295 -0.0247326 0.168933 59 43 53
-0.127347 -0.0286037 0.202609 182 221 185
-0.125912 -0.028519 0.20201 184 221 185
-0.122057 -0.0278802 0.197485 182 220 185
-0.123953 -0.0285552 0.202266 184 221 188
-0.12483 -0.0290051 0.205453 184 222 188
-0.120205 -0.0281734 0.199562 184 222 188
-0.118617 -0.028045 0.198652 183 222 188
-0.116656 -0.0278254 0.197096 185 223 190
-0.116775 -0.0281026 0.19906 184 222 189
-0.118207 -0.0287034 0.203316 185 223 189
-0.114896 -0.028153 0.199417 185 223 190
-0.11421 -0.0282418 0.200046 186 224 192
-0.113222 -0.0282567 0.200152 186 224 191
-0.110499 -0.0278348 0.197163 185 224 191
-0.110317 -0.028051 0.198695 187 224 192
-0.108208 -0.0277769 0.196753 186 224 191
-0.105894 -0.0274443 0.194397 185 223 191
-0.106394 -0.0278416 0.197211 184 223 191
-0.105086 -0.0277689 0.196696 186 223 191
-0.103774 -0.0276938 0.196164 185 223 191
-0.102613 -0.0276577 0.195909 186 224 191
-0.10049 -0.0273592 0.193794 186 224 192
-0.102184 -0.0281042 0.199072 186 224 192
-0.10063 -0.027962 0.198064 186 224 192
-0.0993084 -0.0278823 0.1975 186 224 192
-0.0983523 -0.0279045 0.197657 185 224 192
-0.0960587 -0.0275437 0.195101 186 224 192
-0.095396 -0.0276478 0.195839 186 224 192
-0.0964462 -0.028256 0.200147 186 225 193
-0.0917571 -0.0271776 0.192508 185 224 192
-0.0921455 -0.027596 0.195471 186 225 193
-0.0900338 -0.0272665 0.193138 186 225 193
-0.0922754 -0.0282629 0.200196 185 225 192
-0.0922773 -0.0285884 0.202501 186 225 193
-0.0892643 -0.0279765 0.198167 185 225 192
-0.0896785 -0.0284369 0.201428 185 225 192
-0.0884763 -0.0283897 0.201094 183 224 191
-0.0876998 -0.0284796 0.201731 185 224 193
-0.0856779 -0.0281623 0.199483 184 225 193
-0.0834497 -0.0277686 0.196694 184 225 192
-0.0827738 -0.0278879 0.19754 184 224 192
-0.080976 -0.0276276 0.195695 183 224 192
-0.0802888 -0.0277443 0.196522 183 224 192
-0.0820823 -0.0287324 0.203521 183 224 192
-0.0796136 -0.028235 0.199998 183 224 192
-0.0765363 -0.0275055 0.194831 182 223 191
-0.0765104 -0.0278678 0.197397 182 223 192
-0.0759804 -0.0280538 0.198715 182 223 192
-0.0748698 -0.0280277 0.19853 182 224 192
-0.0717968 -0.0272559 0.193063 183 224 192
-0.0716518 -0.0275895 0.195425 180 222 190
-0.0705028 -0.0275404 0.195078 180 223 190
-0.0694637 -0.0275336 0.19503 179 223 190
-0.0674758 -0.0271448 0.192276 180 223 192
-0.0678419 -0.0277056 0.196248 177 222 189
-0.0679096 -0.0281599 0.199466 175 221 188
-0.0668457 -0.0281519 0.199409 174 219 187
-0.0629999 -0.0269534 0.19092 145 204 165
-0.0616843 -0.0268162 0.189948 140 202 162
-0.0614757 -0.0271636 0.192409 177 220 194
-0.0603135 -0.0270943 0.191918 149 208 175
-0.0604757 -0.0276276 0.195695 142 204 169
-0.0614016 -0.0285342 0.202117 154 209 177
-0.0580808 -0.0274645 0.19454 154 209 176
-0.057335 -0.027596 0.195471 137 204 167
-0.0562872 -0.0275842 0.195388 173 218 196
-0.0535289 -0.0267182 0.189254 157 211 185
-0.0532437 -0.0270774 0.191798 144 205 179
-0.0516225 -0.0267578 0.189534 167 213 188
-0.0518666 -0.0274114 0.194164 145 202 168
-0.0511581 -0.0275777 0.195342 155 206 177
-0.0494376 -0.0271941 0.192625 163 203 175
-0.0481369 -0.0270303 0.191465 163 201 173
-0.0478078 -0.0274166 0.194201 150 192 160
-0.0463847 -0.0271788 0.192517 130 177 139
-0.0453638 -0.0271713 0.192464 130 172 133
-0.0440975 -0.0270131 0.191343 120 151 119
-0.0424436 -0.0266046 0.188449 114 136 116
-0.0429227 -0.0275455 0.195114 94 107 89
-0.0411066 -0.0270235 0.191417 93 96 82
-0.0400144 -0.0269631 0.190989 81 81 72
-0.039411 -0.0272375 0.192932 82 82 77
-0.038226 -0.0271137 0.192056 81 81 76
-0.0358403 -0.0261086 0.184936 76 77 72
-0.0358066 -0.0268086 0.189894 76 74 70
-0.0351084 -0.0270369 0.191511 73 70 70
-0.0336691 -0.0266911 0.189062 71 64 68
-0.0332135 -0.0271278 0.192155 70 63 67
-0.0316466 -0.0266557 0.188811 67 59 64
-0.0301134 -0.0261825 0.18546 67 59 64
-0.0297139 -0.0266964 0.189099 71 63 68
-0.0281708 -0.0261827 0.185461 67 58 64
-0.0279551 -0.0269102 0.190614 66 57 63
-0.0266146 -0.0265687 0.188195 66 57 63
-0.0247929 -0.025702 0.182056 65 55 62
-0.0242507 -0.0261455 0.185197 64 52 60
-0.0236288 -0.0265365 0.187967 62 49 58
-0.0229012 -0.0268377 0.1901 62 50 59
-0.0214235 -0.0262471 0.185917 63 51 60
-0.020831 -0.0267365 0.189384 63 51 60
-0.0190884 -0.0257249 0.182218 62 48 58
-0.0182634 -0.0259085 0.183519 62 48 57
-0.0169619 -0.025399 0.179909 62 47 57
-0.016451 -0.0260829 0.184754 62 45 56
-0.015586 -0.026256 0.18598 60 42 54
-0.0143781 -0.025836 0.183005 58 38 51
-0.0134518 -0.025898 0.183444 58 36 50
-0.0128342 -0.0266096 0.188484 58 36 49
-0.0116201 -0.0261001 0.184876 57 36 49
-0.0108323 -0.0265425 0.18801 56 34 48
-0.00967423 -0.0260753 0.1847 55 31 47
-0.00850833 -0.0254809 0.18049 57 35 49
-0.00757952 -0.0255367 0.180885 57 35 49
-0.0067682 -0.0260609 0.184598 56 34 49
-0.00570712 -0.0256377 0.1816 58 36 51
-0.00476521 -0.0256877 0.181955 57 36 52
-0.00379118 -0.0255463 0.180953 60 42 56
-0.00291153 -0.0261586 0.18529 61 43 57
-0.00190873 -0.0257233 0.182207 61 45 58
-0.000962853 -0.0259522 0.183828 61 45 58
0 -0.0257514 0.182406 61 46 59
0.000941316 -0.0253717 0.179716 61 46 58
0.00194812 -0.0262542 0.185967 61 46 58
0.00291951 -0.0262303 0.185798 60 46 59
0.00385953 -0.0260068 0.184215 60 45 59
0.00475771 -0.0256473 0.181668 60 46 60
0.00580529 -0.0260787 0.184724 60 46 60
0.00664305 -0.025579 0.181185 60 45 60
0.0075274 -0.0253611 0.179641 60 47 61
0.00841307 -0.0251957 0.178469 60 47 62
0.00959224 -0.0258544 0.183135 60 46 61
0.0103794 -0.0254328 0.180149 61 48 62
0.0111735 -0.025097 0.177771 60 47 62
0.0123232 -0.0255503 0.180981 59 46 61
0.0132356 -0.0254818 0.180496 61 49 63
0.0142414 -0.0255904 0.181265 59 46 62
0.0153966 -0.025937 0.18372 59 45 62
0.0157125 -0.024912 0.17646 60 46 62
0.0169265 -0.0253459 0.179534 59 45 61
0.0176902 -0.0250954 0.177759 59 46 61
0.0189404 -0.0255255 0.180806 59 47 62
0.020301 -0.0260563 0.184565 60 47 62
0.0207457 -0.0254167 0.180035 59 45 62
0.0216977 -0.0254272 0.180109 60 47 62
0.0230058 -0.0258369 0.183011 59 46 62
0.0234285 -0.0252592 0.178919 59 46 62
0.0244636 -0.0253607 0.179638 58 45 61
0.0251618 -0.0251183 0.177922 59 47 62
0.0267009 -0.0257029 0.182062 59 46 62
0.027569 -0.0256234 0.181499 60 47 62
0.0282917 -0.0254186 0.180048 61 49 63
0.0296823 -0.0258077 0.182805 59 46 62
0.0309255 -0.0260483 0.184509 60 46 62
0.0309348 -0.0252666 0.178972 60 46 61
0.0319042 -0.025292 0.179151 60 46 62
0.0325569 -0.025072 0.177593 60 48 63
0.0337595 -0.0252759 0.179038 59 46 62
0.0340146 -0.0247786 0.175515 58 45 61
0.0355766 -0.0252345 0.178745 59 46 61
0.0366391 -0.0253217 0.179362 60 46 61
0.0372953 -0.0251309 0.178011 59 45 60
0.0380927 -0.0250422 0.177382 58 45 60
0.0392085 -0.025162 0.178231 57 43 59
0.0389897 -0.0244396 0.173114 57 42 59
0.0419384 -0.0256905 0.181974 57 43 59
0.0422151 -0.0252854 0.179105 58 43 59
0.0423464 -0.0248126 0.175756 57 42 59
0.0436153 -0.0250124 0.177171 57 42 59
0.0449828 -0.0252592 0.178919 57 43 59
0.0466225 -0.0256456 0.181657 56 41 58
0.0466546 -0.02515 0.178146 56 40 58
0.0471267 -0.0249064 0.17642 57 41 59
0.0481103 -0.0249372 0.176639 58 43 61
0.0495399 -0.0251937 0.178456 58 43 61
0.0490572 -0.0244863 0.173444 57 42 59
0.0498319 -0.0244207 0.17298 59 45 60
0.050292 -0.0242061 0.17146 59 44 60
0.0523014 -0.0247316 0.175182 58 43 59
0.0530935 -0.0246733 0.174769 59 44 60
0.0551039 -0.0251735 0.178312 58 43 59
0.0548236 -0.0246281 0.174449 58 42 59
0.0574353 -0.0253783 0.179763 57 41 57
0.0568893 -0.0247316 0.175182 56 40 57
0.0586352 -0.025086 0.177693 58 43 58
0.0596019 -0.0251012 0.1778 58 42 58
0.0599624 -0.0248645 0.176123 57 41 58
0.060306 -0.0246281 0.174449 58 41 57
0.0624361 -0.0251174 0.177915 58 40 57
0.063329 -0.0251019 0.177805 57 39 56
0.0625068 -0.024417 0.172954 58 42 57
0.0646373 -0.0248885 0.176294 58 39 56
0.0660107 -0.0250594 0.177504 58 39 56
0.0657216 -0.0246031 0.174272 57 37 54
0.067658 -0.024981 0.176949 57 39 55
0.0699521 -0.025479 0.180476 58 35 53
0.0688738 -0.0247518 0.175325 56 33 50
0.070009 -0.0248287 0.17587 55 31 48
0.0700471 -0.0245196 0.17368 56 33 49
0.0744357 -0.0257218 0.182196 54 25 43
0.0734473 -0.0250589 0.177501 53 24 42
0.0751142 -0.0253073 0.17926 54 22 41
0.0742345 -0.0247021 0.174974 49 17 34
0.0778613 -0.025593 0.181284 49 16 33
0.0755585 -0.0245369 0.173803 50 17 34
0.077055 -0.0247249 0.175135 51 18 36
0.0784251 -0.0248685 0.176152 53 21 39
0.0789359 -0.0247395 0.175238 52 18 36
0.0812495 -0.0251719 0.178301 51 18 36
0.0817694 -0.025045 0.177402 55 22 42
0.0826449 -0.0250288 0.177287 56 26 44
0.0828577 -0.0248144 0.175769 58 31 48
0.0836603 -0.0247795 0.175521 59 36 50
0.085891 -0.0251636 0.178242 62 44 56
0.0837701 -0.0242784 0.171972 59 39 52
0.0872307 -0.0250124 0.177171 59 41 53
0.0828733 -0.0235128 0.166549 61 45 56
0.0875701 -0.0245866 0.174155 61 45 56
0.0866183 -0.0240686 0.170486 62 46 57
0.0891189 -0.0245108 0.173618 63 48 58
0.0907022 -0.0246943 0.174918 62 46 56
0.0915917 -0.0246871 0.174867 62 47 57
0.088632 -0.0236528 0.167541 60 44 55
0.0936656 -0.0247511 0.17532 60 45 55
0.092776 -0.024278 0.171969 59 44 54
0.0938301 -0.0243177 0.17225 60 45 54
0.0969128 -0.0248774 0.176215 60 44 55
0.0970053 -0.0246663 0.174719 60 44 55
0.100982 -0.0254374 0.180182 60 44 55
0.0981807 -0.0245028 0.173562 60 44 55
0.0960879 -0.0237605 0.168304 59 42 55
0.100498 -0.0246251 0.174428 59 42 54
0.102701 -0.0249383 0.176647 59 41 54
0.105061 -0.0252836 0.179092 58 40 54
0.105179 -0.025088 0.177706 59 42 54
0.106888 -0.0252719 0.179009 59 43 55
0.107172 -0.0251188 0.177925 58 42 54
0.11142 -0.0258892 0.183382 58 42 55
0.111294 -0.0256389 0.181609 59 44 55
0.10859 -0.024804 0.175695 59 44 55
0.109332 -0.0247636 0.175409 59 41 52
-0.129671 -0.0280469 0.206306 180 220 186
-0.126805 -0.0276576 0.203443 181 220 184
-0.127827 -0.0281167 0.20682 183 220 185
-0.122825 -0.0272473 0.200425 181 220 184
-0.123721 -0.0276826 0.203627 184 222 189
-0.120897 -0.0272861 0.20071 183 222 188
-0.120618 -0.0274619 0.202003 183 222 189
-0.120599 -0.0277006 0.203759 185 223 190
-0.118322 -0.0274202 0.201697 184 222 189
-0.112658 -0.0263427 0.193771 185 223 189
-0.119693 -0.0282423 0.207744 184 222 189
-0.112692 -0.0268343 0.197387 184 223 190
-0.113261 -0.0272194 0.20022 183 223 189
-0.112285 -0.0272371 0.20035 182 223 188
-0.111793 -0.0273736 0.201354 185 223 190
-0.110317 -0.0272696 0.200589 188 225 193
-0.106318 -0.0265337 0.195176 186 224 192
-0.104987 -0.0264559 0.194604 185 223 192
-0.10466 -0.0266321 0.1959 185 223 191
-0.103364 -0.0265626 0.195388 184 223 190
-0.103037 -0.0267435 0.196719 185 224 191
-0.103606 -0.0271628 0.199803 184 223 191
-0.0986357 -0.0261235 0.192158 183 222 190
-0.100553 -0.0269059 0.197913 183 223 189
-0.0994068 -0.0268762 0.197695 185 224 192
-0.100062 -0.0273383 0.201094 186 224 192
-0.0967368 -0.0267108 0.196479 186 224 192
-0.0955954 -0.0266795 0.196248 186 224 192
-0.0944372 -0.0266427 0.195978 186 224 192
-0.0945193 -0.0269589 0.198304 185 224 192
-0.0940936 -0.0271357 0.199604 185 224 192
-0.0942768 -0.027494 0.20224 185 224 192
-0.0907678 -0.0267715 0.196925 184 224 191
-0.0900434 -0.0268631 0.197599 185 225 192
-0.0891517 -0.0269063 0.197917 185 225 193
-0.0879055 -0.0268424 0.197446 185 225 193
-0.0878924 -0.0271579 0.199767 184 224 192
-0.0861545 -0.0269416 0.198176 184 224 192
-0.084374 -0.0267066 0.196447 184 224 192
