ply
format ascii 1.0
element vertex 1173
property float x
property float y
property float z
property uchar red
property uchar green
property uchar blue
end_header
-0.0369061 -0.0173978 0.195725 130 169 142
-0.0364566 -0.0176769 0.198866 126 157 135
-0.0349706 -0.0174551 0.19637 118 148 125
-0.0335905 -0.0172744 0.194337 104 122 97
-0.0322502 -0.0171033 0.192412 100 112 89
-0.0315944 -0.0172961 0.194581 90 100 81
-0.0303266 -0.0171554 0.192999 83 88 73
-0.0298797 -0.0174855 0.196711 82 79 79
-0.0278695 -0.0168916 0.19003 77 72 73
-0.0273291 -0.0171775 0.193247 77 71 73
-0.0264618 -0.0172721 0.194311 74 68 70
-0.0256918 -0.0174403 0.196203 75 68 71
-0.0248301 -0.0175576 0.197523 71 63 67
-0.0241232 -0.0177994 0.200243 72 63 68
-0.0225272 -0.0173773 0.195495 70 62 67
-0.0216951 -0.0175324 0.197239 68 60 65
-0.0200751 -0.0170344 0.191637 69 60 66
-0.0192818 -0.0172224 0.193752 67 58 65
-0.0180645 -0.0170314 0.191604 65 54 62
-0.0169588 -0.0169295 0.190457 66 55 63
-0.0160519 -0.0170257 0.19154 64 53 62
-0.0149301 -0.0168916 0.19003 63 51 61
-0.0137564 -0.0166754 0.187598 63 51 61
-0.0131138 -0.0171193 0.192592 62 50 60
-0.0118902 -0.0168154 0.189174 62 49 60
-0.0109037 -0.0168221 0.189249 62 49 60
-0.00981998 -0.0166652 0.187483 62 48 60
-0.00895473 -0.0168853 0.18996 63 49 60
-0.00790955 -0.0167788 0.188761 61 47 59
-0.00683698 -0.0165755 0.186474 64 50 62
-0.00597204 -0.0168916 0.19003 61 44 57
-0.00484743 -0.0164528 0.185094 60 41 56
-0.00388931 -0.016501 0.185637 59 40 55
-0.00294506 -0.0166599 0.187424 56 37 53
-0.00198997 -0.0168856 0.189963 57 39 54
-0.000983107 -0.016684 0.187695 59 41 56
0 -0.0166265 0.187048 57 38 53
0.00098832 -0.0167724 0.18869 56 37 53
0.00200183 -0.0169862 0.191095 57 36 53
0.00286706 -0.0162186 0.18246 57 37 53
0.00396886 -0.0168385 0.189434 57 37 54
0.00495416 -0.0168151 0.18917 57 38 55
0.00584715 -0.0165383 0.186056 58 38 55
0.00691227 -0.016758 0.188527 59 41 58
0.0079955 -0.0169611 0.190813 62 45 63
0.00890608 -0.0167936 0.188928 62 47 64
0.00980718 -0.0166434 0.187239 64 51 67
0.0105295 -0.0162448 0.182754 66 55 70
0.0116146 -0.0164256 0.184788 65 55 70
0.0128516 -0.0167769 0.18874 68 61 75
0.0138653 -0.0168074 0.189083 69 63 76
0.0147011 -0.0166325 0.187116 68 63 76
0.0156587 -0.0166087 0.186848 68 64 77
0.0166526 -0.0166239 0.187019 67 64 77
0.0178222 -0.0168031 0.189034 69 67 79
0.0184975 -0.0165218 0.185871 69 67 80
0.0198163 -0.0168148 0.189166 69 66 80
0.0205067 -0.016572 0.186435 69 68 81
0.0216127 -0.0166719 0.187559 69 68 81
0.0223721 -0.0165074 0.185708 69 70 82
0.0241064 -0.0170459 0.191766 71 72 84
0.0238209 -0.0161703 0.181916 70 71 83
0.0254992 -0.0166438 0.187242 68 69 82
0.0270922 -0.0170286 0.191572 70 71 83
0.0278967 -0.0169081 0.190216 72 73 86
0.0280347 -0.0164058 0.184565 71 72 85
0.0298899 -0.0169084 0.190219 71 72 85
0.0302324 -0.0165504 0.186192 71 72 86
0.0310995 -0.0164931 0.185547 71 73 87
0.0320995 -0.0165076 0.18571 71 75 88
0.0340804 -0.0170108 0.191372 72 75 88
0.0345329 -0.0167442 0.188372 71 75 87
0.0352392 -0.016612 0.186885 73 76 89
0.0368648 -0.0169087 0.190223 71 76 89
0.0378229 -0.0168916 0.19003 72 77 91
0.0391213 -0.0170235 0.191514 74 79 93
0.0395679 -0.0167873 0.188858 76 81 95
0.041293 -0.017092 0.192285 74 78 92
0.0418337 -0.0169035 0.190164 76 80 94
0.0424645 -0.0167593 0.188543 76 82 96
0.0433822 -0.0167324 0.188239 75 82 96
0.0459536 -0.0173303 0.194966 77 86 100
0.0459214 -0.0169417 0.190594 76 85 100
0.0452636 -0.0163437 0.183866 75 85 99
0.0487721 -0.0172437 0.193991 77 87 100
0.0483986 -0.0167624 0.188577 78 86 101
0.0506066 -0.0171766 0.193236 78 86 101
0.0514597 -0.0171236 0.192641 79 89 103
0.0518393 -0.0169182 0.19033 79 93 106
0.0541711 -0.0173457 0.195139 80 96 108
0.0541748 -0.0170256 0.191538 82 98 111
0.0562294 -0.01735 0.195188 84 100 112
0.0571023 -0.0173047 0.194678 86 104 113
0.0585764 -0.01744 0.1962 86 102 116
0.0586892 -0.0171723 0.193189 85 101 115
0.0617977 -0.0177754 0.199973 91 108 118
0.0616037 -0.0174243 0.196023 88 116 122
0.061219 -0.0170316 0.191605 87 118 124
0.0644086 -0.0176299 0.198337 91 116 124
0.0644083 -0.01735 0.195188 96 121 127
0.0651906 -0.0172864 0.194472 99 126 131
0.0656268 -0.0171343 0.192761 98 127 128
0.0668086 -0.0171786 0.193259 104 134 130
0.0687588 -0.0174162 0.195932 112 140 136
0.070041 -0.01748 0.19665 114 136 133
0.0709575 -0.0174521 0.196336 116 133 130
0.072246 -0.0175152 0.197046 102 112 115
0.0722854 -0.0172779 0.194377 99 101 107
0.0710077 -0.0167368 0.188289 97 105 105
0.0734193 -0.0170681 0.192017 97 109 109
0.0726998 -0.0166725 0.187566 95 112 115
0.0741218 -0.016772 0.188685 89 110 113
0.0759236 -0.0169536 0.190728 97 117 119
0.0764152 -0.0168418 0.18947 97 117 119
0.0799219 -0.0173888 0.195624 102 119 122
0.0772606 -0.016597 0.186716 113 127 129
0.0817715 -0.0173465 0.195148 115 134 131
0.0815308 -0.0170819 0.192171 116 136 133
0.0807977 -0.0167218 0.188121 118 140 136
0.0822461 -0.0168165 0.189186 118 145 139
0.0811915 -0.0164033 0.184537 120 145 140
0.0837043 -0.016712 0.18801 124 147 141
0.0830116 -0.016381 0.184286 126 151 144
0.0840433 -0.0163939 0.184432 124 155 143
0.0865897 -0.0166987 0.18786 130 160 148
0.0875232 -0.0166891 0.187752 134 162 152
0.0875475 -0.0165082 0.185717 138 165 155
0.0908593 -0.0169444 0.190625 140 174 158
0.0899969 -0.0166012 0.186763 138 180 161
0.0903828 -0.0164931 0.185547 143 183 164
0.0912241 -0.0164695 0.185282 149 186 168
0.091886 -0.0164144 0.184662 154 188 173
0.09375 -0.0165729 0.186445 155 187 171
0.0924411 -0.0161731 0.181947 156 188 171
0.0943555 -0.0163395 0.18382 155 190 170
0.0959716 -0.0164515 0.18508 174 203 182
0.0971362 -0.0164847 0.185452 179 208 186
0.0989108 -0.0166196 0.186971 176 209 184
0.0969556 -0.0161314 0.181478 176 207 182
0.0968729 -0.0159611 0.179563 187 212 180
0.0999938 -0.0163169 0.183565 202 220 191
0.10154 -0.0164115 0.184629 216 231 209
0.102265 -0.0163727 0.184193 208 229 206
0.103509 -0.016417 0.184691 202 224 201
0.10305 -0.0161929 0.18217 185 213 188
0.103488 -0.0161124 0.181265 201 225 206
0.104501 -0.0161222 0.181375 201 226 205
0.104818 -0.0160255 0.180287 212 233 212
0.108779 -0.0164826 0.18543 213 234 212
0.107482 -0.0161419 0.181597 210 233 209
0.109499 -0.0163006 0.183382 209 234 215
0.111605 -0.0164697 0.185284 205 232 211
0.109772 -0.0160595 0.180669 209 235 212
0.113794 -0.0165056 0.185689 215 236 211
0.117803 -0.0169423 0.190601 223 240 217
0.115651 -0.0164931 0.185547 224 240 215
-0.153803 -0.0204717 0.244701 165 210 187
-0.146653 -0.0196841 0.235286 168 212 188
-0.14048 -0.0190153 0.227292 174 214 189
-0.147961 -0.0201991 0.241442 172 213 189
-0.140465 -0.0193411 0.231187 168 210 184
-0.142106 -0.0197372 0.235921 181 216 191
-0.135131 -0.018933 0.226309 177 215 187
-0.136349 -0.0192727 0.230369 178 217 190
-0.124385 -0.0177386 0.212032 181 219 191
-0.126963 -0.0182693 0.218376 185 221 192
-0.121742 -0.0176774 0.2113 182 220 188
-0.124029 -0.0181747 0.217244 184 221 189
-0.12261 -0.0181331 0.216747 180 222 189
-0.119431 -0.017828 0.2131 183 223 190
-0.12031 -0.0181286 0.216694 181 223 187
-0.117365 -0.0178534 0.213404 186 225 189
-0.115281 -0.0177049 0.211629 183 223 190
-0.119896 -0.0185925 0.222239 183 222 189
-0.117341 -0.0183747 0.219635 185 224 189
-0.114469 -0.0181024 0.21638 183 224 189
-0.115776 -0.0184922 0.221039 183 224 190
-0.110977 -0.0179047 0.214018 185 225 190
-0.110557 -0.018019 0.215383 186 225 191
-0.105798 -0.0174211 0.208237 183 225 189
-0.104292 -0.017352 0.20741 184 225 189
-0.105599 -0.0177544 0.212221 186 225 190
-0.102902 -0.0174851 0.209001 184 224 189
-0.103875 -0.0178402 0.213246 182 224 187
-0.101326 -0.0175915 0.210274 181 223 186
-0.0971323 -0.0170487 0.203786 184 224 188
-0.0989215 -0.0175557 0.209845 183 224 189
-0.0983841 -0.0176565 0.21105 183 224 189
-0.095696 -0.0173692 0.207617 182 224 187
-0.0954269 -0.0175195 0.209413 183 224 189
-0.0952644 -0.017693 0.211487 184 225 190
-0.0923494 -0.0173534 0.207428 184 225 189
-0.0899349 -0.0171009 0.204409 183 224 187
-0.0890484 -0.0171363 0.204833 183 224 188
-0.0881523 -0.0171708 0.205244 182 224 188
-0.0867287 -0.017102 0.204423 181 224 187
-0.0868611 -0.0173422 0.207294 182 224 188
-0.0850959 -0.0172049 0.205652 182 224 188
-0.0854982 -0.0175078 0.209273 182 224 187
-0.0826112 -0.0171363 0.204833 183 224 189
-0.0837724 -0.0176059 0.210445 180 223 186
-0.0804654 -0.0171363 0.204833 180 222 187
-0.0800141 -0.0172705 0.206436 179 222 186
-0.0801873 -0.017545 0.209717 180 223 187
-0.0784811 -0.0174102 0.208106 178 221 188
-0.0782611 -0.0176059 0.210445 167 216 184
-0.0739441 -0.0168724 0.201677 171 218 188
-0.0731905 -0.0169424 0.202515 178 220 195
-0.0726879 -0.0170735 0.204082 164 215 188
-0.0693581 -0.0165346 0.19764 160 213 184
-0.0706875 -0.0171068 0.20448 157 211 180
-0.0700938 -0.0172241 0.205882 170 213 185
-0.0682029 -0.0170213 0.203458 147 204 169
-0.0665783 -0.0168796 0.201764 169 218 192
-0.0652974 -0.0168219 0.201074 157 215 187
-0.0637123 -0.0166826 0.199409 164 218 192
-0.063413 -0.016881 0.20178 149 211 179
-0.0623661 -0.0168837 0.201812 141 205 169
-0.061214 -0.0168575 0.2015 157 212 180
-0.0605432 -0.0169653 0.202788 174 219 192
-0.0602823 -0.0171938 0.20552 174 218 190
-0.0591078 -0.0171653 0.205179 164 213 181
-0.0569403 -0.0168421 0.201316 156 210 178
-0.0568622 -0.0171363 0.204833 151 208 177
-0.0556904 -0.017106 0.20447 152 211 180
-0.052941 -0.0165803 0.198186 173 223 196
-0.0536436 -0.0171363 0.204833 156 214 182
-0.0507196 -0.0165329 0.19762 178 222 197
-0.0511126 -0.0170082 0.203301 156 209 176
-0.0492043 -0.0167215 0.199874 152 208 171
-0.046684 -0.0162099 0.193759 157 210 176
-0.0470077 -0.016685 0.199438 151 207 174
-0.0458846 -0.0166565 0.199098 166 216 190
-0.0452901 -0.016823 0.201088 185 225 204
-0.0423275 -0.016097 0.192409 151 209 178
-0.0426828 -0.016628 0.198756 164 212 185
-0.0414808 -0.0165637 0.197988 159 211 182
-0.0402097 -0.0164678 0.196842 162 208 171
-0.0390335 -0.0164068 0.196112 175 210 179
-0.0370294 -0.0159851 0.191072 157 198 172
-0.0369061 -0.0163744 0.195725 147 192 168
-0.035851 -0.0163608 0.195562 150 190 166
-0.0352174 -0.0165443 0.197756 112 149 114
-0.0338758 -0.0163963 0.195987 113 149 108
-0.0326952 -0.0163194 0.195068 116 149 109
-0.0325673 -0.0167799 0.200572 105 125 90
-0.0310848 -0.01655 0.197824 92 107 80
-0.0293775 -0.0161803 0.193405 82 91 71
-0.0290808 -0.0165889 0.198289 80 82 75
-0.0273882 -0.016202 0.193665 78 73 73
-0.0261435 -0.0160605 0.191974 79 75 75
-0.0252411 -0.0161264 0.192761 76 70 72
-0.0239545 -0.0159421 0.190558 71 64 67
-0.0233539 -0.0162182 0.193858 73 66 69
-0.0221435 -0.0160766 0.192165 72 64 68
-0.0211113 -0.0160571 0.191932 70 63 68
-0.0202474 -0.0161699 0.193281 69 60 66
-0.0191377 -0.0160882 0.192304 68 59 65
-0.0182174 -0.0161653 0.193226 67 57 64
-0.0171541 -0.0161171 0.19265 67 56 64
-0.0159254 -0.015898 0.19003 66 56 64
-0.014986 -0.0159575 0.190742 63 52 61
-0.0142404 -0.0162466 0.194198 63 52 61
-0.0129249 -0.0158801 0.189817 62 50 60
-0.0119306 -0.0158801 0.189817 65 53 62
-0.010908 -0.0158388 0.189323 63 49 60
-0.00985768 -0.0157451 0.188203 63 50 60
-0.0089185 -0.0158278 0.189191 61 46 58
-0.00801549 -0.0160033 0.19129 63 48 59
-0.00676953 -0.0154465 0.184634 63 47 58
-0.00594567 -0.0158278 0.189191 59 41 54
-0.00506154 -0.016169 0.19327 58 39 54
-0.00398994 -0.0159322 0.19044 58 39 54
-0.00297535 -0.0158412 0.189351 56 37 52
-0.00193817 -0.0154786 0.185018 58 38 53
-0.000981954 -0.0156842 0.187475 57 37 53
0 -0.0157064 0.187741 57 37 52
0.000983347 -0.0157064 0.187741 56 36 52
0.00197616 -0.015782 0.188644 56 35 51
0.00300467 -0.0159973 0.191217 57 37 53
0.00393205 -0.015701 0.187677 58 38 54
0.00499034 -0.0159415 0.190551 58 38 55
0.00599232 -0.015952 0.190676 61 43 59
0.00693642 -0.0158273 0.189186 62 44 61
0.00763889 -0.0152514 0.182302 63 46 64
0.00883244 -0.015675 0.187366 65 50 67
0.00973601 -0.0155507 0.18588 65 53 69
0.0106033 -0.0153964 0.184036 66 54 70
0.0117561 -0.0156477 0.187039 67 58 73
0.0129132 -0.0158657 0.189645 68 60 75
0.0137083 -0.0156397 0.186943 67 61 75
0.0146741 -0.0156253 0.186772 68 62 75
0.0156793 -0.0156523 0.187094 66 62 75
0.0166725 -0.0156647 0.187242 67 64 77
0.0178578 -0.0158463 0.189412 67 64 77
0.0186171 -0.0156505 0.187072 68 65 78
0.0198876 -0.0158826 0.189847 69 66 80
0.0209424 -0.0159286 0.190396 67 65 78
0.0213992 -0.0155362 0.185706 68 66 79
0.0229369 -0.0159286 0.190396 68 68 80
0.0236907 -0.0157665 0.188459 68 69 81
0.0244742 -0.0156365 0.186905 68 67 81
0.0255059 -0.0156688 0.187292 72 71 84
0.0274567 -0.0162426 0.19415 70 70 83
0.0278874 -0.0159082 0.190152 70 70 83
0.0288276 -0.0158774 0.189785 71 70 83
0.0294719 -0.0156912 0.187559 72 72 85
0.0309946 -0.0159696 0.190887 70 70 84
0.0319134 -0.0159291 0.190403 72 74 87
0.032782 -0.0158669 0.189659 71 73 86
0.0329419 -0.0154753 0.184978 70 72 86
0.0346664 -0.0158202 0.1891 69 71 85
0.0354854 -0.0157441 0.188191 69 71 85
0.0363597 -0.015696 0.187616 74 76 90
0.0373571 -0.0157022 0.18769 71 74 87
0.0397158 -0.0162656 0.194424 72 75 89
0.040761 -0.0162763 0.194552 72 76 90
0.0412839 -0.016083 0.192242 75 78 93
0.0414005 -0.0157444 0.188195 75 79 93
0.0431133 -0.0160145 0.191423 75 79 93
0.0430042 -0.0156109 0.186599 75 80 94
0.0448383 -0.015915 0.190234 75 80 94
0.0458864 -0.0159329 0.190448 75 81 96
0.0454526 -0.0154465 0.184634 76 82 97
0.0478643 -0.0159272 0.19038 76 82 96
0.0492815 -0.0160641 0.192017 76 82 97
0.0500458 -0.015987 0.191095 79 85 100
0.0508974 -0.0159403 0.190536 79 86 101
0.0512611 -0.0157454 0.188207 77 87 101
0.0528543 -0.0159285 0.190395 78 89 102
0.0540558 -0.0159889 0.191117 79 92 106
0.0548488 -0.0159285 0.190395 82 98 110
0.0575863 -0.0164248 0.196328 82 98 109
0.0575857 -0.0161365 0.192882 85 98 114
0.0580394 -0.0159833 0.19105 87 101 115
0.0599419 -0.0162274 0.193968 85 100 109
0.0607679 -0.0161768 0.193363 86 100 110
0.0624096 -0.0163415 0.195332 88 102 110
0.0617352 -0.0159042 0.190105 92 106 114
0.0633129 -0.0160517 0.191868 90 112 117
0.0661309 -0.0165042 0.197277 90 112 117
0.0662447 -0.0162782 0.194576 96 117 125
0.0668046 -0.0161671 0.193247 101 124 131
0.0684805 -0.0163253 0.195139 103 121 129
0.0695026 -0.0163253 0.195139 105 114 124
0.0706535 -0.0163551 0.195495 105 115 120
0.0723747 -0.0165142 0.197397 93 100 104
0.0719299 -0.0161816 0.19342 91 91 94
0.0732497 -0.0162496 0.194234 88 95 95
0.0744747 -0.0162951 0.194777 88 100 101
0.0744722 -0.0160743 0.192138 86 99 103
0.0745121 -0.0158685 0.189678 86 101 103
0.0757852 -0.0159272 0.19038 87 109 109
0.0769492 -0.0159619 0.190794 91 111 113
0.0784805 -0.0160708 0.192096 98 118 120
0.078097 -0.0157898 0.188738 103 124 123
0.0781193 -0.0155969 0.186432 106 126 125
0.0799725 -0.0157698 0.188498 112 132 130
0.0808295 -0.0157444 0.188195 110 133 130
0.0808495 -0.0155586 0.185973 107 135 129
0.0806973 -0.0153444 0.183413 112 139 132
0.0820382 -0.0154158 0.184267 111 139 132
0.0837319 -0.0155511 0.185885 116 146 139
0.0857581 -0.0157444 0.188195 121 150 140
0.0891967 -0.0161896 0.193516 126 152 143
0.0845584 -0.0151753 0.181392 128 153 146
0.0890508 -0.0158039 0.188906 126 154 148
0.0876197 -0.0153791 0.183828 131 162 152
0.0894942 -0.0155374 0.18572 130 165 153
0.0913979 -0.0156972 0.187631 130 165 154
0.0937275 -0.0159261 0.190367 139 171 159
0.0925483 -0.0155602 0.185993 145 173 159
0.0945737 -0.0157351 0.188083 152 178 163
0.0938547 -0.0154545 0.184729 155 181 165
0.0950541 -0.0154923 0.185181 153 183 164
0.0948247 -0.0152988 0.182868 156 191 168
0.0971858 -0.0155229 0.185547 161 196 175
0.0983596 -0.0155548 0.185929 164 198 177
0.0956174 -0.0149729 0.178973 171 199 178
0.100474 -0.0155808 0.186239 187 209 176
0.0976001 -0.0149895 0.179171 192 216 187
0.105243 -0.0160093 0.191361 201 219 199
0.103477 -0.0155922 0.186375 199 217 197
0.100832 -0.0150517 0.179914 187 210 185
0.105269 -0.0155686 0.186093 190 215 193
0.10568 -0.0154859 0.185105 193 218 199
0.107231 -0.0155703 0.186114 192 219 198
0.108491 -0.0156113 0.186604 197 223 203
0.109758 -0.0156527 0.187099 198 223 202
0.110113 -0.0155643 0.186042 201 224 204
0.111025 -0.0155555 0.185937 197 224 203
0.111683 -0.0155117 0.185413 197 224 203
0.110399 -0.0152012 0.181701 202 227 198
0.115223 -0.0157298 0.18802 221 235 209
0.117232 -0.0158685 0.189678 223 237 211
0.116662 -0.0156585 0.187168 217 237 209
-0.175998 -0.0219618 0.280012 155 201 180
-0.152965 -0.0192481 0.245413 155 203 184
-0.164998 -0.0209381 0.266961 163 208 190
-0.153181 -0.0196048 0.249961 165 209 189
-0.151648 -0.0195758 0.249591 162 206 184
-0.154032 -0.0200564 0.255719 169 211 187
-0.152354 -0.020012 0.255153 172 213 187
-0.147649 -0.0195656 0.249462 171 214 188
-0.143577 -0.0191959 0.244748 169 216 191
-0.137149 -0.0185016 0.235896 169 217 187
-0.129127 -0.0175779 0.224118 177 220 190
-0.134573 -0.0184872 0.235712 177 220 189
-0.132519 -0.0183736 0.234264 179 221 189
-0.131292 -0.0183736 0.234264 177 220 189
-0.123753 -0.017482 0.222896 178 219 191
-0.125613 -0.0179138 0.2284 179 219 193
-0.120356 -0.0173291 0.220946 182 219 196
-0.115789 -0.0168334 0.214626 180 221 191
-0.112516 -0.0165178 0.210603 183 224 189
-0.116377 -0.0172539 0.219987 183 224 190
-0.11347 -0.0169912 0.216637 184 224 191
-0.112741 -0.0170525 0.21742 182 224 189
-0.110085 -0.0168207 0.214465 183 224 189
-0.111218 -0.0171689 0.218904 183 225 189
-0.106899 -0.0166742 0.212596 181 223 186
-0.112688 -0.0177622 0.226468 180 223 185
-0.103529 -0.0164921 0.210274 181 223 186
-0.106105 -0.0170842 0.217823 183 224 188
-0.0999096 -0.0162615 0.207334 182 224 186
-0.101609 -0.0167198 0.213177 183 224 187
-0.101117 -0.0168238 0.214504 184 225 189
-0.0985189 -0.0165757 0.21134 182 224 187
-0.0953764 -0.0162293 0.206923 182 224 188
-0.0947191 -0.0163027 0.207859 183 224 188
-0.0940236 -0.0163712 0.208732 181 223 187
-0.0941597 -0.0165877 0.211494 182 224 187
-0.0911398 -0.0162469 0.207148 182 224 187
-0.0914138 -0.0164921 0.210274 181 224 187
-0.0887414 -0.0162052 0.206616 184 225 189
-0.0878503 -0.0162405 0.207066 182 224 188
-0.0849067 -0.0158925 0.20263 181 224 188
-0.085853 -0.0162731 0.207482 181 223 186
-0.0849405 -0.0163065 0.207908 181 223 187
-0.0826112 -0.0160653 0.204833 179 223 186
-0.0824213 -0.0162393 0.207051 179 223 186
-0.0816736 -0.0163065 0.207908 177 222 186
-0.0815881 -0.0165096 0.210497 179 222 187
-0.0774832 -0.0158937 0.202645 179 222 187
-0.0780662 -0.0162357 0.207006 168 217 182
-0.076331 -0.0160984 0.205255 179 222 194
-0.0734262 -0.015707 0.200265 162 214 184
-0.0744648 -0.0161601 0.206041 156 211 183
-0.0716933 -0.0157874 0.201289 166 216 194
-0.0708211 -0.0158281 0.201808 150 210 180
-0.0702954 -0.0159487 0.203345 143 203 168
-0.0687537 -0.0158389 0.201946 165 211 182
-0.0684248 -0.0160094 0.20412 153 205 172
-0.0675909 -0.0160653 0.204833 165 213 187
-0.0651595 -0.0157372 0.200649 164 215 189
-0.065667 -0.0161198 0.205527 171 219 194
-0.064046 -0.0159839 0.203794 175 221 197
-0.0641614 -0.0162841 0.207622 170 217 191
-0.0619128 -0.0159843 0.2038 159 212 182
-0.0598102 -0.0157124 0.200333 168 216 189
-0.0581175 -0.0155403 0.198139 166 215 186
-0.0592136 -0.0161213 0.205546 169 216 188
-0.0574221 -0.0159231 0.203019 169 218 190
-0.0544135 -0.0153735 0.196012 170 218 192
-0.055485 -0.0159777 0.203715 176 222 198
-0.054112 -0.0158878 0.20257 170 221 195
-0.0526571 -0.0157699 0.201066 151 211 178
-0.0516991 -0.0157989 0.201436 159 213 182
-0.0491233 -0.0153246 0.195388 164 214 181
-0.050425 -0.0160653 0.204833 163 213 179
-0.0481502 -0.0156741 0.199844 154 209 174
-0.0479224 -0.0159466 0.203319 150 207 172
-0.0462531 -0.0157409 0.200696 160 214 183
-0.0441236 -0.0153654 0.195909 168 219 193
-0.0432295 -0.0154125 0.196509 153 212 179
-0.0433848 -0.0158451 0.202025 174 219 192
-0.0416833 -0.0156043 0.198954 157 212 181
-0.0406254 -0.0155982 0.198877 152 208 169
-0.0387173 -0.0152568 0.194524 146 201 156
-0.0379485 -0.015358 0.195814 161 208 173
-0.0377556 -0.0157044 0.200231 161 208 175
-0.0355191 -0.0151962 0.193752 151 196 165
-0.0346695 -0.015269 0.19468 151 189 151
-0.0336583 -0.0152728 0.194729 147 184 143
-0.0322042 -0.0150697 0.192138 143 178 141
-0.0324782 -0.0156881 0.200024 120 164 123
-0.0309128 -0.0154297 0.196729 131 171 140
-0.0298265 -0.0154009 0.196361 97 135 100
-0.0282277 -0.0150959 0.192473 95 111 96
-0.0274463 -0.0152216 0.194076 91 92 88
-0.0268922 -0.015488 0.197471 79 77 74
-0.0251925 -0.0150894 0.19239 78 74 74
-0.0245844 -0.0153387 0.195569 76 71 72
-0.0238556 -0.0155312 0.198022 75 69 71
-0.0229122 -0.015595 0.198836 72 65 68
-0.0213702 -0.0152381 0.194285 72 66 69
-0.0207197 -0.0155129 0.19779 71 64 69
-0.0192976 -0.0152086 0.19391 70 63 68
-0.0176255 -0.0146626 0.186948 69 60 66
-0.0171436 -0.0151006 0.192532 66 57 63
-0.0157656 -0.0147548 0.188123 64 54 62
-0.0148568 -0.0148312 0.189098 65 55 63
-0.0140501 -0.0150277 0.191604 64 52 62
-0.0130901 -0.0150779 0.192243 65 53 62
-0.0119034 -0.0148536 0.189384 63 51 60
-0.010738 -0.0146174 0.186372 62 48 59
-0.00979525 -0.0146675 0.187011 60 46 57
-0.00893165 -0.0148604 0.18947 61 46 57
-0.0079159 -0.0148167 0.188913 62 47 58
-0.0070112 -0.0149981 0.191225 61 45 57
-0.00593296 -0.0148068 0.188787 59 42 54
-0.00495326 -0.0148341 0.189135 59 41 54
-0.00403642 -0.0151105 0.192658 57 38 53
-0.00295724 -0.0147607 0.188199 57 37 52
-0.00198073 -0.0148299 0.189081 57 37 52
-0.000998175 -0.0149468 0.190572 56 36 51
0 -0.0147751 0.188382 57 38 53
0.000974124 -0.0145866 0.18598 59 39 54
0.00204371 -0.0153014 0.195092 57 36 52
0.00300842 -0.0150161 0.191456 56 36 52
0.00387336 -0.0145 0.184876 56 36 52
0.00493434 -0.0147775 0.188413 58 38 55
0.00589711 -0.0147173 0.187646 58 38 56
0.0070239 -0.0150252 0.191572 61 43 60
0.00781644 -0.0146305 0.186539 63 47 65
0.0088289 -0.0146894 0.18729 65 52 68
0.0099135 -0.0148446 0.189269 65 53 69
0.0108824 -0.0148141 0.188879 65 53 69
0.0117656 -0.0146817 0.187191 67 59 74
0.0127681 -0.014707 0.187514 67 60 74
0.0139029 -0.0148702 0.189595 65 58 72
0.0147633 -0.0147378 0.187907 68 62 75
0.015704 -0.0146971 0.187388 66 62 75
0.0169481 -0.0149284 0.190337 69 64 77
0.0178239 -0.0148276 0.189052 67 63 77
0.0187485 -0.0147759 0.188392 67 63 77
0.019362 -0.0144965 0.18483 68 65 78
0.0201999 -0.0144036 0.183646 67 64 77
0.022031 -0.0149952 0.191189 68 66 79
0.0226089 -0.0147195 0.187673 67 65 78
0.0238578 -0.0148854 0.189789 68 66 80
0.024225 -0.0145099 0.185001 68 67 80
0.0257805 -0.0148477 0.189309 70 69 82
0.026527 -0.0147118 0.187575 70 69 82
0.0280119 -0.0149805 0.191001 71 70 83
0.0279925 -0.0144539 0.184287 70 70 83
0.0304155 -0.0151815 0.193564 70 69 83
0.0306069 -0.0147843 0.188499 69 69 83
0.0319533 -0.0149523 0.190641 71 72 85
0.0325816 -0.0147843 0.188499 71 72 85
0.033445 -0.0147297 0.187804 69 70 83
0.0343706 -0.0147048 0.187487 71 71 84
0.0356912 -0.0148457 0.189282 70 72 85
0.0371208 -0.015023 0.191544 71 73 86
0.0373571 -0.0147208 0.18769 74 75 89
0.0386248 -0.0148301 0.189083 72 74 87
0.0398269 -0.0149093 0.190094 71 73 87
0.0404922 -0.0147886 0.188555 71 73 87
0.0419627 -0.0149608 0.190751 72 74 88
0.0420778 -0.014653 0.186825 71 73 88
0.0435084 -0.0148068 0.188787 72 74 89
0.0453455 -0.0150891 0.192386 70 73 89
0.045492 -0.0148087 0.188811 71 75 90
0.0470482 -0.0149895 0.191116 72 76 91
0.0472869 -0.0147516 0.188083 72 76 91
0.0490177 -0.0149795 0.190989 74 77 93
0.0483787 -0.0144886 0.184729 73 77 93
0.049589 -0.0145598 0.185638 76 82 96
0.0515037 -0.0148312 0.189098 75 82 96
0.0529507 -0.0149602 0.190742 74 81 96
0.0535061 -0.0148372 0.189174 74 79 94
0.0546401 -0.0148761 0.189671 75 84 99
0.0569162 -0.0152191 0.194044 76 89 104
0.0581225 -0.015269 0.19468 78 91 107
0.0577955 -0.0149213 0.190247 80 94 109
0.0584308 -0.0148297 0.189078 82 95 107
0.0599489 -0.0149614 0.190757 82 95 106
0.0610415 -0.0149843 0.19105 91 103 111
0.0640764 -0.0154756 0.197314 85 98 105
0.063707 -0.0151422 0.193063 83 104 106
0.0641418 -0.0150073 0.191343 88 106 111
0.0643006 -0.014813 0.188866 89 105 115
0.0671768 -0.0152411 0.194324 89 101 112
0.0673924 -0.0150618 0.192038 95 100 107
0.0673648 -0.0148343 0.189137 97 99 107
0.0722983 -0.0156899 0.200046 90 90 99
0.0713404 -0.0152609 0.194576 82 81 89
0.0712424 -0.0150252 0.191572 82 82 88
0.0726955 -0.0151188 0.192764 79 84 89
0.073552 -0.0150873 0.192364 81 90 95
0.0753826 -0.0152539 0.194487 80 90 96
0.0745121 -0.0148767 0.189678 83 99 98
0.0749496 -0.0147672 0.188281 84 103 100
0.0762802 -0.0148341 0.189135 85 106 105
0.0774122 -0.0148613 0.189481 87 108 108
0.078434 -0.0148668 0.189552 92 114 113
0.0798227 -0.0149409 0.190497 96 116 115
0.0798919 -0.0147693 0.188308 102 121 120
0.0819872 -0.0149718 0.19089 98 119 120
0.0829263 -0.0149608 0.190751 99 123 122
0.0826062 -0.0147256 0.187752 104 128 123
0.0824567 -0.0145261 0.185208 102 128 122
0.085071 -0.0148124 0.188858 101 130 123
0.0847488 -0.0145866 0.18598 105 134 128
0.0870389 -0.0148106 0.188835 108 134 126
0.0856939 -0.0144179 0.183828 115 139 133
0.0873441 -0.0145322 0.185286 120 144 139
0.0895943 -0.0147428 0.187971 120 149 140
0.0883209 -0.0143753 0.183285 120 153 145
0.0901689 -0.0145183 0.185108 125 159 153
0.0930228 -0.0148185 0.188935 131 164 154
0.0929502 -0.014651 0.186801 140 164 150
0.0957628 -0.0149371 0.190448 142 166 148
0.0951967 -0.0146957 0.187371 141 166 149
0.0942895 -0.0144072 0.183691 138 169 151
0.0952361 -0.0144048 0.183661 141 176 155
0.09834 -0.0147255 0.187751 146 180 161
0.0976963 -0.0144843 0.184675 157 188 173
0.0980885 -0.0143999 0.183599 160 190 168
0.0980545 -0.0142551 0.181753 175 199 174
0.0993273 -0.0143013 0.182342 186 211 186
0.106151 -0.0151383 0.193014 186 209 186
0.1029 -0.0145362 0.185336 186 206 184
0.100929 -0.0141245 0.180088 171 198 177
0.101617 -0.0140892 0.179637 176 202 183
0.104228 -0.0143186 0.182562 178 204 182
0.106372 -0.0144803 0.184623 181 207 186
0.107051 -0.0144414 0.184127 181 210 181
0.104868 -0.0140206 0.178763 183 212 183
0.108679 -0.0144016 0.18362 184 212 187
0.106694 -0.0140145 0.178685 184 211 186
0.110031 -0.0143271 0.182671 193 217 193
0.111776 -0.0144288 0.183967 209 228 202
0.111975 -0.014331 0.18272 211 231 204
0.11516 -0.0146138 0.186326 208 231 203
0.112052 -0.0140999 0.179773 207 232 203
-0.27956 -0.0325591 0.444781 154 192 175
-0.269296 -0.0316272 0.43205 151 199 180
-0.246826 -0.029234 0.399357 150 200 180
-0.240175 -0.0286893 0.391916 151 199 181
-0.216747 -0.026114 0.356736 154 200 182
-0.228997 -0.0278298 0.380174 159 204 184
-0.223518 -0.0274022 0.374334 158 209 185
-0.205601 -0.0254287 0.347375 160 211 186
-0.207456 -0.0258872 0.353638 162 213 188
-0.204527 -0.0257517 0.351786 161 214 189
-0.191066 -0.0242756 0.331621 159 214 187
-0.183834 -0.023571 0.321997 159 213 187
-0.183839 -0.0237899 0.324987 171 217 192
-0.165425 -0.021607 0.295167 170 215 191
-0.163879 -0.021607 0.295167 169 214 191
-0.15758 -0.0209744 0.286526 170 214 193
-0.145719 -0.0195821 0.267506 170 215 192
-0.140732 -0.0190956 0.26086 179 221 193
-0.140095 -0.0191955 0.262224 181 223 192
-0.134075 -0.0185526 0.253441 178 222 190
-0.133272 -0.0186259 0.254443 177 222 191
-0.126527 -0.0178619 0.244006 183 224 193
-0.123078 -0.0175523 0.239777 182 224 191
-0.117727 -0.0169622 0.231716 179 223 187
-0.108923 -0.0158572 0.216621 181 224 188
-0.108321 -0.0159356 0.217692 181 223 187
-0.109581 -0.0162925 0.222567 185 225 190
-0.108039 -0.0162359 0.221793 181 223 186
-0.100736 -0.0153029 0.209049 184 225 188
-0.101377 -0.0155696 0.212692 183 224 187
-0.0992991 -0.0154199 0.210646 182 224 188
-0.0996743 -0.015652 0.213818 182 224 188
-0.0970722 -0.0154167 0.210603 182 224 187
-0.0977517 -0.015703 0.214514 182 224 188
-0.0967432 -0.0157217 0.21477 181 223 187
-0.0921817 -0.0151567 0.207051 181 223 187
-0.0919948 -0.015306 0.209091 182 224 187
-0.091085 -0.0153372 0.209518 181 223 186
-0.0886312 -0.015106 0.206359 182 224 188
-0.0883809 -0.0152493 0.208317 181 224 188
-0.0870405 -0.0152058 0.207722 182 224 188
-0.0835485 -0.0147805 0.201913 181 223 187
-0.0834859 -0.0149588 0.204348 179 222 185
-0.0826112 -0.0149943 0.204833 179 223 186
-0.0861524 -0.0158428 0.216424 179 222 186
-0.0821928 -0.0153162 0.20923 178 222 186
-0.0820539 -0.0154969 0.211699 179 222 186
-0.0785017 -0.0150291 0.205309 178 221 186
-0.0772468 -0.0149943 0.204833 170 218 185
-0.0760052 -0.0149611 0.204379 193 229 205
-0.0765568 -0.0152849 0.208803 143 207 173
-0.0735646 -0.0149004 0.20355 139 204 170
-0.0723671 -0.0148734 0.203181 177 222 202
-0.0724524 -0.0151132 0.206457 151 212 184
-0.0697321 -0.0147661 0.201716 157 210 182
-0.0688287 -0.0147991 0.202166 161 210 182
-0.0680416 -0.0148584 0.202977 173 216 191
-0.0681963 -0.0151286 0.206667 171 215 189
-0.0646258 -0.0145677 0.199006 157 209 179
-0.0649834 -0.0148885 0.203388 164 214 185
-0.0631449 -0.0147084 0.200927 169 217 191
-0.0630767 -0.0149415 0.204112 179 223 201
-0.0610334 -0.0147068 0.200905 172 219 194
-0.0612625 -0.015021 0.205197 178 221 197
-0.0592243 -0.0147805 0.201913 153 210 179
-0.0584733 -0.0148584 0.202977 178 222 198
-0.0576134 -0.014911 0.203695 165 217 190
-0.0559023 -0.0147412 0.201375 152 212 178
-0.0548476 -0.0147412 0.201375 147 211 175
-0.0540936 -0.0148236 0.202501 146 211 175
-0.0525341 -0.0146842 0.200596 170 219 191
-0.0501323 -0.0142988 0.195332 161 215 182
-0.0516891 -0.01505 0.205593 169 217 186
-0.0489307 -0.0145499 0.198763 174 217 188
-0.0488943 -0.0148552 0.202932 168 214 185
-0.0475535 -0.0147689 0.201754 157 211 179
-0.0455442 -0.0144663 0.19762 171 217 190
-0.0451308 -0.0146684 0.200381 172 218 191
-0.0437163 -0.014547 0.198722 153 210 176
-0.0432407 -0.0147396 0.201354 160 212 180
-0.0410206 -0.0143324 0.195791 157 212 181
-0.0396737 -0.0142173 0.194218 182 222 200
-0.0392578 -0.0144384 0.197239 171 218 189
-0.0382463 -0.0144466 0.197351 177 221 194
-0.0362928 -0.0140895 0.192473 183 220 195
-0.0358834 -0.0143286 0.195739 155 204 172
-0.0346264 -0.0142333 0.194437 175 217 192
-0.0337088 -0.014276 0.195021 154 208 175
-0.0320987 -0.0140189 0.191509 156 200 166
-0.0321371 -0.0144885 0.197923 150 187 155
-0.030764 -0.0143317 0.195782 125 171 131
-0.0292716 -0.0141067 0.192708 114 160 123
-0.0281426 -0.014047 0.191893 102 128 98
-0.0275743 -0.0142731 0.194981 107 125 102
-0.0265812 -0.0142883 0.195188 94 104 87
-0.0258431 -0.0144472 0.197359 82 83 78
-0.0245365 -0.0142883 0.195188 79 78 74
-0.0233737 -0.0142029 0.194022 79 76 74
-0.0229122 -0.0145553 0.198836 72 65 68
-0.0211708 -0.0140895 0.192473 74 68 71
-0.0206617 -0.0144382 0.197236 75 69 72
-0.0196286 -0.0144382 0.197236 72 65 70
-0.0180039 -0.0139789 0.190962 70 61 67
-0.0169334 -0.0139211 0.190172 67 57 63
-0.0162704 -0.0142121 0.194147 67 59 65
-0.015154 -0.0141193 0.19288 66 57 65
-0.0142579 -0.0142333 0.194437 67 57 64
-0.0130747 -0.0140561 0.192017 65 53 62
-0.0119441 -0.0139107 0.19003 64 51 60
-0.0107649 -0.0136772 0.18684 63 49 59
-0.00988694 -0.0138178 0.188761 60 46 57
-0.00900108 -0.0139775 0.190943 62 47 58
-0.00786962 -0.0137481 0.187809 62 45 57
-0.00682314 -0.0136227 0.186096 61 44 56
-0.00592821 -0.0138086 0.188636 59 41 54
-0.00497313 -0.0139007 0.189894 59 39 53
-0.00390981 -0.0136607 0.186615 57 37 51
-0.00293079 -0.0136534 0.186516 57 38 53
-0.00198997 -0.0139058 0.189963 57 38 53
-0.000996756 -0.0139305 0.190301 58 38 53
0 -0.0138764 0.189561 57 37 53
0.000967826 -0.0135262 0.184777 57 37 52
0.00201268 -0.0140644 0.19213 56 36 52
0.00290762 -0.0135455 0.185041 56 36 52
0.00390516 -0.0136445 0.186393 58 37 54
0.00481076 -0.0134469 0.183694 58 37 55
0.00594387 -0.0138451 0.189134 61 42 59
0.00694632 -0.0138687 0.189456 63 46 64
0.00787514 -0.0137577 0.18794 61 45 64
0.00884773 -0.0137394 0.18769 65 53 69
0.00996653 -0.0139291 0.190281 66 55 70
0.0106764 -0.0135647 0.185304 66 55 71
0.0118418 -0.0137915 0.188402 68 60 75
0.012838 -0.0138016 0.18854 68 60 75
0.0136778 -0.0136542 0.186526 66 58 73
0.0148324 -0.0138197 0.188787 66 60 75
0.0159358 -0.0139198 0.190154 67 62 75
0.0167689 -0.0137859 0.188325 66 60 75
0.0180147 -0.0139873 0.191076 66 61 75
0.0184892 -0.0136001 0.185787 68 63 77
0.0195289 -0.0136467 0.186423 67 63 77
0.020775 -0.0138261 0.188875 68 63 78
0.0216534 -0.0137557 0.187912 68 64 78
0.0225402 -0.0136965 0.187103 68 64 78
0.0241357 -0.0140549 0.191999 68 65 79
0.0244291 -0.0136567 0.18656 69 65 79
0.0256275 -0.0137756 0.188185 69 66 80
0.0258768 -0.0133944 0.182978 70 67 81
0.0276935 -0.0138229 0.18883 68 66 80
0.0285384 -0.0137534 0.187881 70 68 82
0.0298507 -0.0139063 0.18997 71 69 83
0.0304341 -0.0137207 0.187435 71 70 83
0.0308203 -0.0134606 0.183882 70 70 84
0.0325698 -0.0137937 0.188431 70 70 84
0.0339399 -0.0139511 0.190582 68 68 82
0.033853 -0.0135178 0.184663 71 71 84
0.0357035 -0.0138607 0.189348 69 70 84
0.0367791 -0.0138924 0.18978 69 70 84
0.0373367 -0.0137319 0.187587 72 73 87
0.03943 -0.0141299 0.193025 72 73 87
0.0393537 -0.01375 0.187835 71 71 86
0.0408905 -0.0139385 0.19041 71 72 86
0.0415511 -0.0138265 0.188879 71 72 86
0.0427412 -0.0138917 0.189771 73 74 88
0.0436004 -0.0138489 0.189186 71 73 88
0.0454984 -0.0141306 0.193034 70 72 88
0.0476441 -0.0144754 0.197744 71 73 89
0.0468462 -0.0139301 0.190295 72 75 90
0.0472394 -0.0137544 0.187895 71 73 88
0.0484088 -0.0138072 0.188617 74 76 92
0.0492873 -0.0137766 0.188199 74 77 92
0.0512983 -0.0140576 0.192037 74 77 92
0.0513235 -0.013794 0.188436 73 77 92
0.0531457 -0.0140143 0.191445 74 78 93
0.0539878 -0.0139727 0.190877 76 80 95
0.0555976 -0.0141277 0.192994 75 81 96
0.0552388 -0.0137859 0.188325 73 82 97
0.0569026 -0.013952 0.190594 78 86 102
0.0596931 -0.0143838 0.196493 76 85 100
0.0594612 -0.0140851 0.192412 75 85 98
0.0586074 -0.0136515 0.186489 79 90 102
0.0617218 -0.0141412 0.193179 94 106 113
0.0630592 -0.0142146 0.194182 79 92 101
0.0644867 -0.0143056 0.195425 78 97 101
0.0642292 -0.0140259 0.191604 80 98 104
0.0652545 -0.0140306 0.191667 82 98 106
0.0666171 -0.0141065 0.192705 85 98 102
0.068581 -0.0143056 0.195425 87 91 96
0.0694287 -0.0142695 0.194931 88 84 93
0.0708137 -0.0143432 0.195938 81 78 88
0.0697813 -0.0139322 0.190324 78 78 88
0.071023 -0.0139804 0.190982 75 75 84
0.0716373 -0.0139054 0.189958 74 77 85
0.0742534 -0.0142158 0.194198 76 81 89
0.0724519 -0.0136835 0.186926 78 84 91
0.0759231 -0.0141479 0.19327 81 93 96
0.0743601 -0.0136743 0.186801 81 93 94
0.0770019 -0.0139762 0.190925 87 99 100
0.0792721 -0.0142038 0.194034 86 104 107
0.0776391 -0.0137351 0.187631 87 105 107
0.0804354 -0.0140519 0.191959 93 111 111
0.0798749 -0.0137817 0.188268 94 114 114
0.0822301 -0.0140151 0.191456 94 113 115
0.0816553 -0.0137494 0.187827 96 116 116
0.0817099 -0.0135948 0.185715 97 116 116
0.0820464 -0.0134902 0.184286 97 116 116
0.0830442 -0.0134955 0.184358 102 121 119
0.0847077 -0.0136076 0.18589 104 123 120
0.0856032 -0.0135952 0.18572 104 127 123
0.0874526 -0.0137328 0.1876 106 129 126
0.088002 -0.0136656 0.186681 109 136 133
0.089182 -0.0136966 0.187106 112 141 135
0.0885701 -0.0134548 0.183802 111 141 132
0.0901249 -0.0135438 0.185018 117 149 140
0.0911351 -0.0135499 0.185101 125 156 149
0.0933003 -0.0137258 0.187504 126 156 147
0.0917024 -0.0133502 0.182373 131 159 143
0.0934298 -0.0134614 0.183893 135 160 144
0.0949084 -0.0135349 0.184897 131 161 146
0.0950911 -0.013424 0.183382 132 167 148
0.0954132 -0.0133348 0.182163 134 169 150
0.0970122 -0.013424 0.183382 145 176 158
0.0952623 -0.0130527 0.178309 157 184 165
0.100593 -0.0136492 0.186458 172 196 175
0.103213 -0.0138701 0.189475 172 198 173
0.102334 -0.013621 0.186073 173 199 173
0.102664 -0.0135361 0.184912 167 193 172
0.102168 -0.0133447 0.182297 154 186 166
0.103713 -0.013421 0.183341 162 192 174
0.105675 -0.0135495 0.185096 170 197 180
0.10731 -0.013634 0.186251 170 198 178
0.109505 -0.0137876 0.188348 170 202 172
0.109145 -0.0136195 0.186053 171 204 176
0.108282 -0.0133923 0.182948 173 205 179
0.111358 -0.0136519 0.186495 178 205 178
0.111513 -0.0135521 0.185131 194 214 190
0.112824 -0.0135931 0.185692 197 219 196
0.112036 -0.0133829 0.18282 201 225 205
0.11261 -0.0133375 0.1822 197 226 204
0.114722 -0.0134735 0.184057 191 222 199
-0.332443 -0.0359526 0.528917 138 183 173
-0.360993 -0.0393682 0.579167 147 189 177
-0.347482 -0.0382159 0.562215 146 191 176
-0.314372 -0.0348699 0.51299 144 189 178
-0.310824 -0.0347736 0.511574 152 193 183
-0.301173 -0.0339869 0.5 147 195 181
-0.298554 -0.0339869 0.5 145 201 182
-0.302112 -0.0346963 0.510435 145 203 182
-0.299646 -0.0347203 0.510789 148 205 182
-0.290698 -0.0339869 0.5 154 207 186
-0.288079 -0.0339869 0.5 153 207 186
-0.279869 -0.0333212 0.490207 144 204 181
-0.271931 -0.032676 0.480714 155 209 184
-0.265155 -0.0321596 0.473117 156 208 183
-0.244709 -0.0299597 0.440754 167 212 192
-0.246658 -0.0304859 0.448495 169 214 194
-0.240092 -0.0299597 0.440754 165 213 192
-0.238609 -0.0300638 0.442284 168 215 194
-0.235475 -0.0299597 0.440754 166 216 193
-0.215571 -0.0276989 0.407493 173 220 197
-0.208826 -0.0271005 0.39869 173 218 192
-0.200249 -0.0262499 0.386177 170 215 186
-0.187922 -0.0248854 0.366102 171 216 187
-0.178731 -0.0239123 0.351786 177 220 192
-0.167227 -0.0226062 0.332572 177 221 188
-0.157255 -0.0214819 0.316033 181 223 190
-0.14087 -0.0194484 0.286116 184 224 189
-0.130592 -0.0182233 0.268093 184 224 189
-0.122507 -0.0172809 0.254229 182 224 186
-0.113362 -0.0161666 0.237835 182 224 188
-0.109915 -0.0158492 0.233166 180 223 188
-0.108475 -0.0158173 0.232696 180 224 187
-0.104591 -0.0154243 0.226915 182 224 187
-0.0974839 -0.0145414 0.213927 182 224 188
-0.0963265 -0.0145359 0.213845 182 224 188
-0.0988526 -0.0150925 0.222035 181 223 187
-0.0969364 -0.0149762 0.220323 181 224 188
-0.0922294 -0.0144206 0.21215 181 223 187
-0.0906301 -0.0143434 0.211013 179 223 186
-0.0894268 -0.0143277 0.210782 181 224 187
-0.0886776 -0.0143852 0.211629 178 222 184
-0.0889676 -0.014615 0.215009 180 224 186
-0.0852549 -0.0141846 0.208678 179 222 186
-0.0843728 -0.0142202 0.209201 179 223 186
-0.0834827 -0.0142553 0.209717 176 221 183
-0.0828226 -0.0143312 0.210833 176 221 183
-0.0825424 -0.0144757 0.212959 177 220 183
-0.0799755 -0.0142176 0.209163 148 206 159
-0.0801864 -0.0144531 0.212628 159 210 175
-0.0774696 -0.0141601 0.208317 194 228 205
-0.0744053 -0.0137943 0.202935 179 222 198
-0.0750199 -0.0141098 0.207577 145 206 171
-0.0716815 -0.0136802 0.201256 181 223 202
-0.0724912 -0.0140412 0.206567 182 224 203
-0.070088 -0.0137814 0.202745 179 222 198
-0.0693223 -0.0138405 0.203616 153 209 177
-0.0683997 -0.0138697 0.204045 178 220 194
-0.0677209 -0.01395 0.205226 176 218 191
-0.0646556 -0.0135334 0.199098 152 207 173
-0.0658148 -0.0140019 0.20599 166 216 188
-0.0646099 -0.0139747 0.205589 148 208 175
-0.0628344 -0.013821 0.203328 161 214 187
-0.0614307 -0.0137452 0.202213 163 215 187
-0.0602454 -0.0137165 0.20179 173 220 195
-0.058061 -0.0134552 0.197947 142 207 170
-0.059008 -0.0139233 0.204833 168 218 190
-0.0594931 -0.0142977 0.210341 163 218 189
-0.0555499 -0.0136019 0.200105 169 221 194
-0.0566585 -0.0141402 0.208024 169 221 192
-0.0550332 -0.0140039 0.206018 169 219 190
-0.0527214 -0.0136839 0.201311 158 214 180
-0.0520711 -0.0137909 0.202886 156 213 177
-0.0506337 -0.0136896 0.201396 154 210 174
-0.0498544 -0.0137657 0.202515 179 221 195
-0.048524 -0.0136896 0.201396 170 217 189
-0.0475579 -0.0137152 0.201772 153 209 175
-0.0453033 -0.013362 0.196575 155 210 178
-0.0440676 -0.0132998 0.19566 167 216 187
-0.0434959 -0.0134398 0.19772 155 211 178
-0.0427389 -0.013528 0.199017 147 205 168
-0.0420839 -0.0136537 0.200866 154 209 177
-0.0406562 -0.0135287 0.199028 145 204 171
-0.0393399 -0.0134352 0.197652 144 206 173
-0.0383889 -0.0134647 0.198087 152 210 177
-0.0365539 -0.0131773 0.193858 188 225 203
-0.0358138 -0.0132793 0.195359 147 205 173
-0.0356659 -0.0136134 0.200275 178 221 198
-0.0334579 -0.0131576 0.193569 167 216 188
-0.032912 -0.0133474 0.196361 151 200 162
-0.0315792 -0.01322 0.194487 154 200 163
-0.0307962 -0.013322 0.195987 155 201 165
-0.0296673 -0.0132762 0.195313 132 187 153
-0.0282443 -0.0130908 0.192586 141 171 134
-0.0277528 -0.0133394 0.196243 116 147 108
-0.025889 -0.0129222 0.190105 103 124 99
-0.0252571 -0.013111 0.192883 100 107 90
-0.0240363 -0.0129972 0.191209 90 95 86
-0.0236046 -0.0133187 0.195938 80 80 75
-0.0223758 -0.0131993 0.194182 77 71 71
-0.020831 -0.0128732 0.189384 75 70 71
-0.020399 -0.0132364 0.194729 75 71 73
-0.0194081 -0.0132563 0.195021 71 65 69
-0.0179365 -0.0129318 0.190247 72 64 69
-0.0169781 -0.0129609 0.190674 71 63 68
-0.0162989 -0.01322 0.194487 70 62 68
-0.0148344 -0.0128343 0.188813 66 56 64
-0.0138038 -0.0127957 0.188245 66 54 62
-0.0128618 -0.0128396 0.18889 65 54 62
-0.0118546 -0.0128203 0.188607 66 54 62
-0.0111329 -0.0131343 0.193226 65 51 60
-0.0101116 -0.0131224 0.19305 61 47 57
-0.00895473 -0.0129123 0.18996 62 46 58
-0.0080725 -0.0130952 0.19265 60 44 56
-0.00711341 -0.0131878 0.194013 61 44 56
-0.00595254 -0.0128749 0.18941 58 40 53
-0.00484985 -0.0125878 0.185187 60 40 54
-0.00397706 -0.0129031 0.189825 59 38 53
-0.00294757 -0.0127508 0.187584 58 39 54
-0.00196949 -0.0127796 0.188007 56 37 52
-0.00100059 -0.0129852 0.191033 56 35 51
0 -0.0127592 0.187708 58 37 53
0.00101165 -0.0131288 0.193145 58 37 53
0.00200375 -0.0130019 0.191278 57 36 52
0.00297985 -0.0128904 0.189638 58 38 54
0.00395433 -0.0128294 0.18874 59 38 55
0.00485929 -0.0126124 0.185547 57 37 55
0.00599425 -0.0129651 0.190737 63 47 64
0.00683359 -0.012669 0.186381 64 49 66
0.00778881 -0.012635 0.18588 66 52 69
0.00859831 -0.0123984 0.182399 66 53 69
0.00987981 -0.0128216 0.188625 66 55 71
0.0110922 -0.0130863 0.19252 66 55 71
0.0118349 -0.0127991 0.188294 67 58 73
0.012546 -0.0125243 0.184252 66 58 73
0.0137069 -0.0127059 0.186923 67 59 74
0.0147689 -0.0127776 0.187978 67 61 75
0.015853 -0.0128583 0.189166 67 61 75
0.0168933 -0.0128961 0.189722 67 60 75
0.0176831 -0.0127491 0.187559 65 59 74
0.018355 -0.012537 0.184439 66 61 76
0.0194538 -0.0126231 0.185706 66 62 76
0.0204864 -0.0126602 0.186251 67 62 77
0.0213628 -0.0126017 0.18539 68 63 77
0.0227404 -0.0128311 0.188765 68 64 78
0.0236265 -0.0127756 0.187949 67 62 77
0.0244178 -0.0126753 0.186474 67 63 77
0.0252156 -0.0125861 0.18516 67 64 78
0.0263939 -0.0126862 0.186634 68 66 79
0.0275643 -0.0127756 0.187949 67 64 78
0.0286103 -0.0128032 0.188354 69 66 81
0.0297942 -0.0128886 0.18961 69 67 81
0.0312608 -0.0130867 0.192526 70 67 82
0.0322017 -0.0130594 0.192123 71 69 82
0.0328462 -0.0129171 0.19003 68 66 79
0.0335883 -0.0128204 0.188608 69 67 80
0.0337335 -0.0125079 0.184011 68 66 80
0.035325 -0.0127342 0.18734 69 67 81
0.0374783 -0.0131453 0.193388 68 66 80
0.0382577 -0.0130656 0.192215 69 68 83
0.038831 -0.0129213 0.190093 69 69 83
0.0389431 -0.0126347 0.185875 70 69 84
0.04062 -0.0128573 0.18915 70 70 84
0.0409269 -0.012646 0.186042 70 71 86
0.0427568 -0.0129042 0.18984 72 72 87
0.0447263 -0.0131918 0.194072 71 72 87
0.0438326 -0.0126409 0.185967 70 71 86
0.0455532 -0.0128515 0.189066 69 70 86
0.0459251 -0.0126808 0.186554 70 71 86
0.0475115 -0.0128455 0.188977 69 70 86
0.0483106 -0.012795 0.188234 72 74 89
0.050116 -0.0130077 0.191363 72 74 89
0.0500585 -0.012738 0.187395 71 74 88
0.0517018 -0.0129031 0.189825 73 76 91
0.0507706 -0.0124317 0.182889 73 77 91
0.0533539 -0.0128223 0.188636 73 77 92
0.0564006 -0.0133081 0.195782 73 77 92
0.0558 -0.0129312 0.190238 72 79 94
0.0569026 -0.0129554 0.190594 74 81 96
0.0576427 -0.0128976 0.189744 76 83 96
0.0578334 -0.012721 0.187145 75 82 94
0.0585791 -0.0126702 0.186399 74 82 93
0.0609259 -0.0129618 0.190688 76 84 95
0.0618526 -0.0129467 0.190466 76 87 98
0.063183 -0.0130153 0.191475 77 93 100
0.0639405 -0.0129655 0.190742 78 94 101
0.0658226 -0.0131418 0.193336 78 91 99
0.0663578 -0.0130479 0.191955 78 88 93
0.0666878 -0.0129171 0.19003 77 81 87
0.0688653 -0.0131427 0.193349 81 76 87
0.0714829 -0.0134446 0.19779 75 74 84
0.0701211 -0.013 0.19125 72 73 83
0.0711952 -0.0130133 0.191445 72 74 83
0.0715587 -0.012898 0.18975 75 78 86
0.0726865 -0.0129218 0.1901 76 80 88
0.0732798 -0.0128513 0.189062 79 85 93
0.074597 -0.0129078 0.189894 80 90 93
0.07602 -0.012981 0.19097 81 90 93
0.0778332 -0.013118 0.192986 85 93 96
0.0785174 -0.0130636 0.192186 83 98 101
0.0782825 -0.0128597 0.189186 85 100 103
0.0773622 -0.0125497 0.184625 89 103 103
0.0805145 -0.0128998 0.189776 88 103 102
0.0819993 -0.0129775 0.190918 91 108 109
0.0810956 -0.0126798 0.186539 95 111 112
0.0816726 -0.012618 0.18563 90 108 108
0.0824966 -0.0125954 0.185297 93 112 111
0.0828682 -0.012505 0.183967 95 114 112
0.0861784 -0.012855 0.189117 100 116 116
0.0861951 -0.0127114 0.187004 97 117 115
0.0848678 -0.012375 0.182056 102 124 120
0.0877108 -0.0126475 0.186064 100 126 127
0.0878639 -0.0125303 0.18434 105 132 132
0.0869541 -0.0122658 0.180449 108 138 130
0.0888069 -0.0123925 0.182312 110 141 130
0.0907425 -0.0125278 0.184304 110 142 133
0.0918792 -0.0125513 0.184648 113 146 139
0.0912131 -0.0123305 0.1814 116 147 141
0.0930481 -0.0124488 0.183142 118 147 135
0.0939329 -0.012439 0.182997 120 150 138
0.0969643 -0.0127107 0.186994 126 153 142
0.0951703 -0.0123508 0.181699 137 160 148
0.0969539 -0.0124577 0.183272 135 164 149
0.0963648 -0.0122606 0.180372 145 173 159
0.0999329 -0.0125911 0.185235 154 182 169
0.0983201 -0.0122688 0.180493 153 181 163
0.0984521 -0.0121683 0.179014 157 184 166
0.0997715 -0.012215 0.179702 150 179 160
0.104618 -0.0126887 0.18667 145 178 156
0.101149 -0.0121543 0.178809 158 188 170
0.106599 -0.0126917 0.186715 154 185 167
0.104676 -0.0123494 0.181679 156 185 165
0.108904 -0.0127326 0.187316 164 193 174
0.108393 -0.0125596 0.184772 163 195 180
0.108538 -0.0124652 0.183382 163 195 177
0.110466 -0.0125752 0.185001 174 203 179
0.110045 -0.0124184 0.182694 183 209 185
0.111654 -0.0124913 0.183767 183 210 188
0.11238 -0.0124652 0.183382 190 217 197
0.115681 -0.0127225 0.187168 189 218 196
0.114301 -0.0124652 0.183382 184 210 181
-0.401765 -0.0401072 0.639209 126 179 172
-0.397392 -0.040004 0.637564 127 178 171
-0.401001 -0.0407094 0.648805 131 179 175
-0.370841 -0.0379694 0.605137 132 176 175
-0.370396 -0.0382507 0.60962 138 181 180
-0.367202 -0.0382507 0.60962 142 186 179
-0.345826 -0.0363399 0.579167 145 191 175
-0.349402 -0.0370406 0.590334 141 196 178
-0.344258 -0.0368211 0.586837 140 197 180
-0.334902 -0.0361431 0.576031 146 197 182
-0.323924 -0.0352762 0.562215 149 196 180
-0.333188 -0.0366179 0.583598 140 201 182
-0.316715 -0.0351298 0.559881 147 203 185
-0.334686 -0.0374701 0.59718 151 201 185
-0.309647 -0.0349939 0.557716 147 197 184
-0.294063 -0.0335492 0.53469 146 202 185
-0.284745 -0.0327985 0.522727 147 206 184
-0.282007 -0.0327985 0.522727 150 206 184
-0.30343 -0.0356361 0.56795 148 204 181
-0.269854 -0.0320065 0.510104 150 205 179
-0.273383 -0.0327494 0.521944 161 210 182
-0.259271 -0.0313726 0.5 170 214 190
-0.276433 -0.0337905 0.538536 166 213 188
-0.264137 -0.0326204 0.519888 166 214 186
-0.23665 -0.0295302 0.470638 166 215 185
-0.214812 -0.0270873 0.431704 174 218 186
-0.219376 -0.0279571 0.445566 178 221 185
-0.211034 -0.0271833 0.433233 177 220 181
-0.197408 -0.0257045 0.409665 178 221 183
-0.175713 -0.023131 0.36865 180 223 189
-0.158477 -0.0210938 0.336183 183 224 192
-0.153111 -0.0206085 0.328448 183 225 189
-0.126883 -0.0172724 0.275279 182 224 188
-0.118978 -0.0163824 0.261095 181 223 187
-0.113213 -0.0157698 0.251332 181 223 187
-0.107071 -0.0150898 0.240494 181 224 188
-0.101547 -0.0144817 0.230803 178 222 186
-0.092453 -0.0133436 0.212664 180 222 187
-0.0892552 -0.0130392 0.207812 178 222 185
-0.0906537 -0.013407 0.213674 180 223 186
-0.0904514 -0.0135443 0.215862 179 222 186
-0.0890548 -0.013504 0.21522 178 222 186
-0.0887943 -0.0136371 0.217341 177 222 186
-0.0866019 -0.0134731 0.214728 174 220 184
-0.084098 -0.0132557 0.211263 175 221 185
-0.0834844 -0.0133345 0.212518 180 222 187
-0.0808701 -0.0130914 0.208645 169 216 177
-0.0816345 -0.0133962 0.213502 134 196 148
-0.0754585 -0.0125547 0.200091 180 219 190
-0.075965 -0.012817 0.204271 164 212 179
-0.0743178 -0.0127182 0.202696 156 208 174
-0.073846 -0.0128206 0.204329 147 203 166
-0.0731275 -0.0128826 0.205316 156 210 180
-0.0736801 -0.0131737 0.209955 156 211 182
-0.0728371 -0.0132203 0.210698 157 211 181
-0.0683979 -0.0126055 0.2009 142 205 168
-0.0679453 -0.0127178 0.202689 175 219 191
