ply
format ascii 1.0
element vertex 1236
property float x
property float y
property float z
property uchar red
property uchar green
property uchar blue
end_header
0.728671 -0.689129 1.8305 163 222 183
0.708924 -0.661746 1.75776 183 229 201
0.71813 -0.661746 1.75776 179 227 198
0.742815 -0.675828 1.79517 187 229 201
0.726482 -0.652706 1.73375 178 224 194
0.723295 -0.641819 1.70483 174 223 189
0.771023 -0.675828 1.79517 170 220 185
0.77018 -0.666955 1.7716 178 224 192
0.70622 -0.604287 1.60514 184 227 199
0.834477 -0.705632 1.87433 164 216 180
0.752028 -0.628518 1.6695 168 218 178
0.776872 -0.641819 1.70483 214 241 219
0.803043 -0.655901 1.74224 201 236 213
0.890217 -0.718933 1.90967 177 225 195
0.780621 -0.62342 1.65596 175 221 190
0.903166 -0.71336 1.89486 174 222 190
0.86505 -0.675828 1.79517 200 236 215
0.887927 -0.686241 1.82283 190 231 207
0.815316 -0.62342 1.65596 184 226 194
0.866921 -0.655901 1.74224 194 230 199
0.952791 -0.71336 1.89486 201 235 210
0.893059 -0.661746 1.75776 194 231 205
0.85001 -0.62342 1.65596 177 223 190
0.858684 -0.62342 1.65596 195 233 206
0.992491 -0.71336 1.89486 202 237 215
0.901886 -0.641819 1.70483 182 230 200
0.939093 -0.661746 1.75776 182 228 196
1.07899 -0.752941 2 182 227 192
0.977883 -0.675828 1.79517 189 233 206
0.937604 -0.641819 1.70483 200 237 213
0.946534 -0.641819 1.70483 205 239 217
0.840666 -0.564706 1.5 180 228 198
0.964393 -0.641819 1.70483 189 231 203
1.0528 -0.694227 1.84404 200 236 212
0.982252 -0.641819 1.70483 195 232 206
0.872093 -0.564706 1.5 181 226 193
0.586633 -0.376471 1 205 238 216
0.295935 -0.188235 0.5 178 229 200
0.597109 -0.376471 1 162 224 190
0.90352 -0.564706 1.5 187 234 209
0.303792 -0.188235 0.5 197 237 215
0.383422 -0.235545 0.625666 179 230 201
0.30903 -0.188235 0.5 201 239 216
0.439321 -0.265349 0.704833 167 224 193
-0.451525 -0.266691 0.718376 110 113 108
-0.484904 -0.288813 0.777965 97 110 108
-0.428206 -0.257205 0.692823 97 109 112
-0.464373 -0.281313 0.757762 93 105 108
-0.460404 -0.281313 0.757762 92 103 106
-0.462773 -0.285219 0.768284 95 105 107
-0.428171 -0.266208 0.717074 91 102 105
-0.460455 -0.288813 0.777965 93 104 110
-0.45638 -0.288813 0.777965 86 98 105
-0.482848 -0.308316 0.830499 90 103 110
-0.482558 -0.310932 0.837546 96 105 108
-0.429782 -0.279467 0.752789 93 102 107
-0.454745 -0.298437 0.803887 92 105 111
-0.455034 -0.301417 0.811916 93 108 114
-0.446323 -0.298437 0.803887 88 103 110
-0.450606 -0.30417 0.819331 85 101 106
-0.456237 -0.310932 0.837546 91 112 115
-0.455355 -0.313344 0.844042 86 107 111
-0.464397 -0.322699 0.869241 90 99 106
-0.456925 -0.320651 0.863725 90 99 112
-0.438689 -0.310932 0.837546 88 98 110
-0.456407 -0.326758 0.880174 88 97 109
-0.422361 -0.305468 0.822829 86 91 109
-0.418052 -0.305468 0.822829 86 90 107
-0.442577 -0.326758 0.880174 84 91 105
-0.432526 -0.322699 0.869241 88 98 111
-0.419088 -0.315999 0.851194 87 99 113
-0.459001 -0.349815 0.942284 90 100 114
-0.406724 -0.313344 0.844042 89 96 111
-0.392193 -0.305468 0.822829 86 95 110
-0.419727 -0.330546 0.89038 85 94 110
-0.424053 -0.337706 0.909666 86 99 115
-0.403003 -0.324589 0.874334 87 102 118
-0.429388 -0.349815 0.942284 86 105 120
-0.398875 -0.328735 0.885502 88 107 120
-0.4183 -0.348801 0.939552 88 109 117
-0.439975 -0.371242 1 92 109 128
-0.395465 -0.337706 0.909666 91 107 126
-0.403537 -0.348801 0.939552 93 107 123
-0.410768 -0.359435 0.968195 95 108 124
-0.392436 -0.347686 0.936549 98 107 124
-0.413786 -0.371242 1 100 110 128
-0.394872 -0.358814 0.966525 102 116 134
-0.387284 -0.35649 0.960263 98 124 139
-0.398072 -0.371242 1 105 136 149
-0.392835 -0.371242 1 113 143 153
-0.374622 -0.358814 0.966525 114 144 153
-0.367165 -0.35649 0.960263 122 153 162
-0.377121 -0.371242 1 126 158 167
-0.357973 -0.357356 0.962595 128 167 167
-0.366646 -0.371242 1 138 180 174
-0.361408 -0.371242 1 142 187 181
-0.372339 -0.388095 1.0454 142 190 184
-0.350932 -0.371242 1 145 194 186
-0.36259 -0.389386 1.04887 142 194 183
-0.373542 -0.407319 1.09718 148 196 187
-0.39461 -0.437015 1.17717 157 202 193
-0.364674 -0.410273 1.10514 167 209 195
-0.358886 -0.410273 1.10514 176 213 198
-0.373662 -0.434168 1.1695 179 216 194
-0.329627 -0.389386 1.04887 176 215 190
-0.30903 -0.371242 1 192 224 200
-0.346083 -0.422922 1.13921 191 227 199
-0.35395 -0.440125 1.18555 193 230 198
-0.339062 -0.42914 1.15596 191 228 196
-0.328182 -0.422922 1.13921 187 226 193
-0.305233 -0.400632 1.07917 191 229 194
-0.320898 -0.42914 1.15596 192 229 193
-0.272365 -0.371242 1 188 228 190
-0.314455 -0.437015 1.17717 192 229 195
-0.308289 -0.437015 1.17717 190 229 193
-0.344951 -0.498965 1.34404 191 230 194
-0.295958 -0.437015 1.17717 190 229 193
-0.351922 -0.53071 1.42955 189 229 193
-0.299303 -0.461171 1.24224 191 229 194
-0.25436 -0.400632 1.07917 190 229 193
-0.324876 -0.523327 1.40967 191 229 193
-0.321971 -0.53071 1.42955 191 230 194
-0.329981 -0.556863 1.5 192 231 196
-0.302725 -0.523327 1.40967 192 231 197
-0.260264 -0.461171 1.24224 190 230 195
-0.274553 -0.498965 1.34404 190 230 195
-0.257785 -0.48082 1.29517 191 230 195
-0.315052 -0.603515 1.62567 189 230 194
-0.321464 -0.632905 1.70483 191 230 196
-0.274984 -0.556863 1.5 190 230 196
-0.289507 -0.603515 1.62567 193 231 199
-0.259271 -0.556863 1.5 209 240 217
-0.285746 -0.632905 1.70483 208 242 218
-0.265685 -0.607454 1.63628 203 240 217
-0.264316 -0.624468 1.68211 172 226 195
-0.252727 -0.617679 1.66382 164 222 188
-0.247571 -0.626687 1.68808 183 227 201
-0.238371 -0.625746 1.68555 178 226 195
-0.232169 -0.632905 1.70483 160 217 179
-0.21141 -0.599369 1.6145 182 226 196
-0.207267 -0.612106 1.64881 192 232 210
-0.201124 -0.619789 1.6695 153 214 180
-0.204144 -0.657692 1.7716 172 221 191
-0.181358 -0.612106 1.64881 170 221 190
-0.178591 -0.632905 1.70483 168 220 189
-0.163131 -0.608543 1.63921 192 233 211
-0.148062 -0.583015 1.57045 175 227 196
-0.148151 -0.617679 1.66382 181 228 197
-0.142873 -0.632905 1.70483 180 223 189
-0.130721 -0.617679 1.66382 176 223 189
-0.123347 -0.624468 1.68211 182 226 194
-0.117689 -0.641654 1.7284 172 219 181
-0.111981 -0.661413 1.78162 164 216 175
-0.0944443 -0.608543 1.63921 186 227 195
-0.0863611 -0.612106 1.64881 176 222 187
-0.0787006 -0.619789 1.6695 170 219 184
-0.0722699 -0.640288 1.72472 175 222 189
-0.062507 -0.632905 1.70483 183 226 197
-0.0535774 -0.632905 1.70483 183 226 196
-0.0437225 -0.619789 1.6695 171 220 185
-0.0348589 -0.617679 1.66382 181 224 193
-0.0251366 -0.593874 1.5997 180 223 189
-0.0178591 -0.632905 1.70483 168 217 179
-0.00882855 -0.625746 1.68555 201 235 210
0 -0.612106 1.64881 183 227 196
0.00845641 -0.599369 1.6145 183 226 196
0.0178591 -0.632905 1.70483 176 222 190
0.0277538 -0.655706 1.76625 172 219 187
0.0357183 -0.632905 1.70483 175 224 195
0.0428524 -0.607454 1.63628 181 228 201
0.0510894 -0.603515 1.62567 185 228 200
0.062507 -0.632905 1.70483 184 226 197
0.0714365 -0.632905 1.70483 188 227 201
0.0784326 -0.617679 1.66382 199 232 208
0.0801536 -0.568108 1.53029 201 233 209
0.0982252 -0.632905 1.70483 182 225 195
0.105943 -0.625746 1.68555 185 227 198
0.109709 -0.598145 1.6112 179 225 194
0.120905 -0.612106 1.64881 166 218 185
0.132428 -0.625746 1.68555 189 229 202
0.139436 -0.617679 1.66382 190 231 204
0.153573 -0.640288 1.72472 196 234 209
0.156124 -0.614761 1.65596 194 234 208
0.161783 -0.603515 1.62567 202 236 213
0.176211 -0.624468 1.68211 187 230 202
0.183635 -0.619789 1.6695 184 227 197
0.194228 -0.625746 1.68555 186 228 199
0.203057 -0.625746 1.68555 172 220 181
0.21681 -0.640288 1.72472 176 222 182
0.225492 -0.639291 1.72203 205 236 212
0.232169 -0.632905 1.70483 197 235 211
0.241098 -0.632905 1.70483 172 223 191
0.236296 -0.598145 1.6112 202 233 211
0.265616 -0.649179 1.74867 193 227 200
0.267887 -0.632905 1.70483 176 222 190
0.270157 -0.617679 1.66382 186 228 199
0.274747 -0.608543 1.63921 175 224 190
0.298113 -0.640288 1.72472 201 235 212
0.291919 -0.608543 1.63921 195 233 208
0.319392 -0.646792 1.74224 187 231 203
0.321464 -0.632905 1.70483 178 226 195
0.338889 -0.649179 1.74867 180 225 192
0.335485 -0.625746 1.68555 186 226 196
0.326776 -0.593874 1.5997 174 221 181
0.353142 -0.625746 1.68555 197 238 213
0.375526 -0.649179 1.74867 194 238 215
0.360605 -0.608543 1.63921 186 231 206
0.379628 -0.625746 1.68555 196 235 212
0.383448 -0.617679 1.66382 202 237 214
0.40183 -0.632905 1.70483 172 223 190
0.425558 -0.655706 1.76625 182 228 197
0.424586 -0.640288 1.72472 194 235 210
0.466528 -0.688882 1.85562 199 236 213
0.442653 -0.640288 1.72472 187 231 205
0.457958 -0.649179 1.74867 180 228 200
0.4654 -0.646792 1.74224 196 232 207
0.464337 -0.632905 1.70483 182 226 194
0.485436 -0.649179 1.74867 179 225 191
0.487822 -0.640288 1.72472 180 226 194
0.47931 -0.617679 1.66382 193 232 206
0.512913 -0.649179 1.74867 187 230 202
0.531912 -0.661413 1.78162 184 226 196
0.523141 -0.639291 1.72203 173 224 189
0.526844 -0.632905 1.70483 201 235 213
0.535774 -0.632905 1.70483 179 225 196
0.573566 -0.666441 1.79517 172 222 191
0.573578 -0.655706 1.76625 185 228 201
0.587902 -0.661413 1.78162 184 229 199
0.578159 -0.640288 1.72472 172 225 189
0.572684 -0.624468 1.68211 202 237 213
0.589351 -0.632905 1.70483 206 237 216
0.613664 -0.649179 1.74867 194 228 201
0.599116 -0.624468 1.68211 191 228 199
0.648788 -0.666441 1.79517 194 231 203
0.668332 -0.67671 1.82283 197 233 207
0.667593 -0.666441 1.79517 174 222 189
0.651817 -0.641654 1.7284 187 226 197
0.668619 -0.649179 1.74867 166 217 178
0.669923 -0.641654 1.7284 208 239 216
0.669717 -0.632905 1.70483 190 233 207
0.667636 -0.622636 1.67717 166 223 189
0.655648 -0.603515 1.62567 207 240 219
0.714415 -0.649179 1.74867 197 235 212
0.672678 -0.603515 1.62567 188 230 202
0.736544 -0.652555 1.75776 197 233 208
0.735563 -0.643641 1.73375 194 231 205
0.732224 -0.632905 1.70483 193 231 205
0.77018 -0.657692 1.7716 178 223 192
0.762806 -0.643641 1.73375 193 230 205
0.788738 -0.657692 1.7716 167 218 182
0.844295 -0.695831 1.87433 174 221 183
0.807297 -0.657692 1.7716 189 230 198
0.840189 -0.67671 1.82283 192 233 206
0.812168 -0.646792 1.74224 180 228 198
0.835135 -0.657692 1.7716 174 220 190
0.812591 -0.632905 1.70483 195 231 208
0.804495 -0.619789 1.6695 208 241 221
0.84867 -0.646792 1.74224 182 227 199
0.839379 -0.632905 1.70483 173 221 184
0.893258 -0.666441 1.79517 172 221 184
0.902661 -0.666441 1.79517 205 236 213
0.825946 -0.603515 1.62567 190 229 203
0.962103 -0.695831 1.87433 173 218 182
0.884027 -0.632905 1.70483 195 232 204
0.965871 -0.684585 1.84404 202 240 216
0.876031 -0.614761 1.65596 186 234 205
0.910816 -0.632905 1.70483 188 234 205
0.877035 -0.603515 1.62567 192 235 208
0.817096 -0.556863 1.5 183 231 202
0.966714 -0.652555 1.75776 183 231 201
0.996688 -0.666441 1.79517 204 239 216
1.03348 -0.684585 1.84404 174 226 192
0.964393 -0.632905 1.70483 182 229 198
0.85638 -0.556863 1.5 198 235 213
1.15232 -0.742484 2 182 228 200
0.581395 -0.371242 1 185 229 200
0.706795 -0.447284 1.20483 203 237 215
0.887806 -0.556863 1.5 191 232 210
0.597109 -0.371242 1 176 226 197
0.355586 -0.219157 0.590334 187 231 203
0.22744 -0.138968 0.374334 188 233 207
0.306411 -0.185621 0.5 180 230 202
0.364862 -0.219157 0.590334 202 237 217
0.150986 -0.0899288 0.242238 176 225 192
-0.443012 -0.257978 0.704833 105 104 110
-0.462635 -0.271669 0.742238 94 107 108
-0.453502 -0.268562 0.73375 93 106 107
-0.470821 -0.281202 0.768284 92 102 105
-0.494849 -0.2981 0.814453 91 99 102
-0.473243 -0.287564 0.785666 91 100 102
-0.480008 -0.294233 0.803887 91 101 104
-0.460455 -0.284746 0.777965 91 101 106
-0.466471 -0.291042 0.795167 90 99 106
-0.446677 -0.281202 0.768284 89 98 105
-0.458142 -0.291042 0.795167 89 96 101
-0.444156 -0.284746 0.777965 90 96 102
-0.477459 -0.30893 0.844042 87 95 104
-0.455034 -0.297172 0.811916 84 93 101
-0.431931 -0.284746 0.777965 84 95 104
-0.441535 -0.293849 0.802837 86 95 104
-0.410067 -0.27553 0.752789 86 91 101
-0.46895 -0.318154 0.869241 87 91 102
-0.437732 -0.299886 0.819331 86 91 100
-0.459844 -0.318154 0.869241 87 91 103
-0.412162 -0.288016 0.7869 84 92 104
-0.444769 -0.31394 0.85773 82 89 103
-0.440276 -0.31394 0.85773 82 87 103
-0.435784 -0.31394 0.85773 84 87 103
-0.445255 -0.324105 0.885502 84 87 102
-0.413248 -0.303973 0.830499 83 85 101
-0.419088 -0.311548 0.851194 84 86 99
-0.440943 -0.33132 0.905214 83 87 99
-0.410171 -0.311548 0.851194 82 86 102
-0.422065 -0.324105 0.885502 80 87 103
-0.426719 -0.33132 0.905214 85 93 109
-0.393462 -0.30893 0.844042 86 94 111
-0.43168 -0.342789 0.936549 84 92 110
-0.401085 -0.322155 0.880174 87 95 113
-0.423222 -0.343888 0.939552 82 89 108
-0.403013 -0.33132 0.905214 88 96 112
-0.40023 -0.332949 0.909666 86 90 111
-0.407153 -0.342789 0.936549 88 97 117
-0.414324 -0.353081 0.964669 93 103 121
-0.410768 -0.354372 0.968195 94 103 121
-0.389505 -0.340229 0.929553 96 102 120
-0.370282 -0.327532 0.894863 100 106 123
-0.393266 -0.352322 0.962595 104 111 127
-0.40331 -0.366013 1 99 109 124
-0.398072 -0.366013 1 94 118 129
-0.406714 -0.378945 1.03533 99 127 128
-0.356912 -0.337037 0.920833 107 136 139
-0.382359 -0.366013 1 110 136 148
-0.391228 -0.379704 1.03741 111 147 156
-0.371884 -0.366013 1 121 156 162
-0.366646 -0.366013 1 116 154 153
-0.361408 -0.366013 1 129 169 168
-0.372339 -0.382629 1.0454 131 172 172
-0.365804 -0.381524 1.04238 132 176 174
-0.395608 -0.41886 1.14438 139 181 176
-0.373542 -0.401582 1.09718 139 183 177
-0.354566 -0.387138 1.05772 150 191 185
-0.347447 -0.385386 1.05293 151 197 187
-0.324743 -0.366013 1 153 200 184
-0.33401 -0.382629 1.0454 162 204 190
-0.347309 -0.404495 1.10514 166 206 193
-0.347865 -0.412008 1.12567 172 211 194
-0.325193 -0.391797 1.07045 174 217 195
-0.277522 -0.340229 0.929553 181 222 199
-0.293317 -0.366013 1 189 225 202
-0.347087 -0.440985 1.20483 190 226 203
-0.347442 -0.449611 1.2284 190 226 202
-0.341008 -0.449611 1.2284 192 228 197
-0.338343 -0.454675 1.24224 189 228 193
-0.321844 -0.440985 1.20483 191 229 194
-0.339191 -0.474048 1.29517 191 229 194
-0.283636 -0.404495 1.10514 190 229 193
-0.295958 -0.43086 1.17717 191 229 194
-0.31884 -0.474048 1.29517 190 229 194
-0.312056 -0.474048 1.29517 192 230 195
-0.339948 -0.527895 1.44228 193 230 196
-0.309752 -0.491937 1.34404 194 230 196
-0.302712 -0.491937 1.34404 191 230 194
-0.314484 -0.523235 1.42955 191 230 195
-0.306996 -0.523235 1.42955 191 230 195
-0.299508 -0.523235 1.42955 189 229 195
-0.264569 -0.474048 1.29517 189 229 195
-0.267513 -0.491937 1.34404 188 229 194
-0.290698 -0.54902 1.5 190 230 195
-0.217968 -0.423096 1.15596 189 229 195
-0.298022 -0.595015 1.62567 190 229 195
-0.279673 -0.574804 1.57045 182 226 189
-0.294676 -0.623991 1.70483 192 231 203
-0.262049 -0.572244 1.56345 189 233 209
-0.270157 -0.608979 1.66382 204 240 220
-0.267887 -0.623991 1.70483 171 226 196
-0.253591 -0.611059 1.6695 185 230 204
-0.252945 -0.63127 1.72472 164 221 187
-0.238371 -0.616932 1.68555 156 216 180
-0.224539 -0.603484 1.64881 172 223 192
-0.220714 -0.616932 1.68555 164 219 185
-0.211885 -0.616932 1.68555 194 231 208
-0.207452 -0.630287 1.72203 176 223 194
-0.189994 -0.603484 1.64881 186 227 201
-0.180303 -0.599972 1.63921 176 223 196
-0.174295 -0.608979 1.66382 160 216 184
-0.171641 -0.63127 1.72472 195 234 214
-0.157401 -0.611059 1.6695 182 230 203
-0.144753 -0.595015 1.62567 185 230 202
-0.144315 -0.630287 1.72203 186 226 195
-0.130721 -0.608979 1.66382 182 225 192
-0.1236 -0.616932 1.68555 182 224 190
-0.114537 -0.615673 1.68211 187 227 196
-0.100547 -0.58551 1.5997 185 225 195
-0.0982252 -0.623991 1.70483 197 231 204
-0.0863611 -0.603484 1.64881 179 223 189
-0.077725 -0.603484 1.64881 158 213 171
-0.0721573 -0.630287 1.72203 190 228 200
-0.0617999 -0.616932 1.68555 191 229 202
-0.0522884 -0.608979 1.66382 174 223 191
-0.0451687 -0.63127 1.72472 167 220 185
-0.0357183 -0.623991 1.70483 174 222 189
-0.024677 -0.574804 1.57045 189 227 199
-0.0170298 -0.595015 1.62567 172 221 184
-0.00871474 -0.608979 1.66382 203 235 213
0 -0.608979 1.66382 192 231 205
0.00901967 -0.630287 1.72203 178 224 193
0.0171717 -0.599972 1.63921 172 222 189
0.0251366 -0.58551 1.5997 177 223 193
0.0348589 -0.608979 1.66382 200 236 214
0.0451687 -0.63127 1.72472 198 235 214
0.0528632 -0.615673 1.68211 183 226 198
0.060715 -0.606102 1.65596 182 226 196
0.0666388 -0.582083 1.59033 162 215 181
0.0787006 -0.611059 1.6695 157 213 176
0.0912549 -0.637682 1.74224 171 219 186
0.0961896 -0.611059 1.6695 168 218 182
0.104934 -0.611059 1.6695 182 226 195
0.118631 -0.637682 1.74224 195 232 207
0.11839 -0.590927 1.6145 179 226 197
0.133943 -0.623991 1.70483 186 229 202
0.149309 -0.652098 1.78162 193 231 206
0.146814 -0.603484 1.64881 189 229 204
0.160732 -0.623991 1.70483 183 228 200
0.167742 -0.616932 1.68555 190 231 206
0.18251 -0.637682 1.74224 179 227 198
0.175956 -0.58551 1.5997 201 235 213
0.19645 -0.623991 1.70483 178 224 193
0.192714 -0.58551 1.5997 194 229 203
0.202954 -0.590927 1.6145 180 224 188
0.223239 -0.623991 1.70483 177 224 189
0.215519 -0.579242 1.58257 207 240 219
0.241098 -0.623991 1.70483 164 221 186
0.247199 -0.616932 1.68555 184 226 198
0.250447 -0.603484 1.64881 178 223 191
0.267887 -0.623991 1.70483 157 213 171
0.273685 -0.616932 1.68555 169 218 182
0.272477 -0.595015 1.62567 169 219 181
0.284992 -0.603484 1.64881 185 228 197
0.314543 -0.64647 1.76625 192 232 206
0.303575 -0.606102 1.65596 185 230 202
0.3109 -0.603484 1.64881 183 229 197
0.333728 -0.630287 1.72203 185 228 197
0.339324 -0.623991 1.70483 170 219 184
0.332081 -0.595015 1.62567 172 219 182
0.357183 -0.623991 1.70483 203 238 215
0.358525 -0.611059 1.6695 198 237 215
0.355169 -0.590927 1.6145 168 223 192
0.366141 -0.595015 1.62567 167 223 191
0.398332 -0.632617 1.7284 197 236 213
0.40183 -0.623991 1.70483 191 233 207
0.41076 -0.623991 1.70483 187 230 202
0.41969 -0.623991 1.70483 167 225 193
0.445405 -0.648428 1.7716 195 235 211
0.423169 -0.603484 1.64881 179 228 200
0.457958 -0.640035 1.74867 179 228 198
0.46072 -0.63127 1.72472 188 230 202
0.485253 -0.652098 1.78162 206 237 215
0.478788 -0.63127 1.72472 192 231 203
0.476742 -0.616932 1.68555 193 232 205
0.513248 -0.652098 1.78162 193 234 209
0.480807 -0.599972 1.63921 201 237 215
0.520153 -0.637682 1.74224 204 237 214
0.517915 -0.623991 1.70483 185 228 199
0.53299 -0.63127 1.72472 192 231 205
0.542024 -0.63127 1.72472 182 226 198
0.561615 -0.643364 1.75776 207 238 217
0.540314 -0.608979 1.66382 190 230 203
0.577028 -0.640035 1.74867 175 225 192
0.578159 -0.63127 1.72472 193 233 207
0.62443 -0.671303 1.8341 173 225 190
0.604505 -0.640035 1.74867 200 234 209
0.629982 -0.657055 1.79517 194 228 197
0.607211 -0.623991 1.70483 189 227 195
0.654137 -0.662473 1.80997 175 220 183
0.631377 -0.630287 1.72203 181 224 192
0.633999 -0.623991 1.70483 206 236 215
0.651817 -0.632617 1.7284 188 229 201
0.699908 -0.669986 1.8305 171 222 185
0.635352 -0.599972 1.63921 202 236 213
0.66079 -0.615673 1.68211 205 238 217
0.696097 -0.640035 1.74867 164 218 182
0.697082 -0.632617 1.7284 181 224 193
0.71813 -0.643364 1.75776 177 223 193
0.750795 -0.664113 1.81445 185 226 196
0.714365 -0.623991 1.70483 176 222 187
0.723295 -0.623991 1.70483 208 238 217
0.779306 -0.664113 1.81445 191 232 205
0.808955 -0.681074 1.86079 167 222 187
0.750084 -0.623991 1.70483 183 227 197
0.759013 -0.623991 1.70483 200 234 209
0.780969 -0.634575 1.73375 181 226 193
0.776872 -0.623991 1.70483 186 228 198
0.827439 -0.657055 1.79517 199 236 212
0.808212 -0.634575 1.73375 199 236 214
0.817293 -0.634575 1.73375 175 221 190
0.79575 -0.611059 1.6695 186 227 198
0.888602 -0.674943 1.84404 181 229 200
0.83045 -0.623991 1.70483 200 236 214
0.800401 -0.595015 1.62567 183 228 198
0.942866 -0.693545 1.89486 180 226 193
0.789665 -0.574804 1.57045 182 226 190
0.866168 -0.623991 1.70483 183 226 193
0.875097 -0.623991 1.70483 170 219 180
0.814342 -0.574804 1.57045 204 236 210
0.892957 -0.623991 1.70483 197 236 211
0.901886 -0.623991 1.70483 181 232 202
1.00137 -0.686031 1.87433 186 234 207
1.02227 -0.693545 1.89486 191 235 211
1.00451 -0.674943 1.84404 199 237 214
0.910725 -0.606102 1.65596 200 237 212
0.782655 -0.515956 1.40967 211 242 222
0.955464 -0.623991 1.70483 178 227 195
1.01549 -0.657055 1.79517 189 232 203
0.57092 -0.366013 1 206 239 220
0.864236 -0.54902 1.5 196 234 210
0.581395 -0.366013 1 175 225 193
0.293317 -0.183007 0.5 189 232 207
0.174701 -0.108035 0.295167 181 229 204
0.223518 -0.137011 0.374334 180 230 203
0.301173 -0.183007 0.5 191 233 209
0.179339 -0.108035 0.295167 183 231 205
0.306411 -0.183007 0.5 184 229 203
0.231361 -0.137011 0.374334 187 224 196
0.183977 -0.108035 0.295167 186 223 189
-0.469071 -0.269251 0.746293 103 104 110
-0.495626 -0.286884 0.795167 93 106 106
-0.45168 -0.263662 0.730803 93 106 106
-0.457345 -0.269251 0.746293 88 96 99
-0.477358 -0.283456 0.785666 94 100 103
-0.409523 -0.24529 0.67988 87 97 98
-0.484802 -0.292927 0.811916 90 101 102
-0.52699 -0.321235 0.89038 87 96 101
-0.420659 -0.258709 0.717074 85 93 101
-0.467376 -0.29003 0.803887 87 96 103
-0.490422 -0.307098 0.851194 90 96 101
-0.463539 -0.292927 0.811916 86 92 98
-0.449812 -0.286884 0.795167 84 91 98
-0.459189 -0.295602 0.819331 83 90 98
-0.426556 -0.277185 0.768284 83 92 100
-0.450606 -0.295602 0.819331 84 91 100
-0.423782 -0.280678 0.777965 83 86 96
-0.442023 -0.295602 0.819331 86 89 100
-0.461449 -0.311618 0.863725 81 85 95
-0.439348 -0.299631 0.830499 81 86 94
-0.429149 -0.295602 0.819331 76 82 92
-0.444769 -0.309456 0.85773 79 84 97
-0.440276 -0.309456 0.85773 79 83 96
-0.432463 -0.307098 0.851194 78 80 95
-0.417598 -0.299631 0.830499 79 81 95
-0.432526 -0.313609 0.869241 79 81 97
-0.425257 -0.311618 0.863725 81 82 94
-0.431341 -0.319475 0.885502 81 84 94
-0.410171 -0.307098 0.851194 79 81 96
-0.422065 -0.319475 0.885502 80 84 99
-0.394178 -0.301682 0.836183 77 81 99
-0.410305 -0.317553 0.880174 80 86 103
-0.410399 -0.321235 0.89038 80 87 104
-0.38462 -0.304517 0.844042 81 87 107
-0.421869 -0.337892 0.936549 79 85 105
-0.389265 -0.315446 0.874334 81 88 107
-0.40023 -0.328193 0.909666 84 89 108
-0.404111 -0.335368 0.929553 82 91 109
-0.388789 -0.326587 0.905214 82 91 110
-0.398616 -0.338976 0.939552 85 92 112
-0.404997 -0.348707 0.966525 86 95 110
-0.370282 -0.322853 0.894863 87 95 111
-0.393266 -0.347289 0.962595 87 92 110
-0.40331 -0.360784 1 86 94 113
-0.384747 -0.348707 0.966525 88 102 120
-0.365161 -0.335368 0.929553 88 111 121
-0.387597 -0.360784 1 89 114 125
-0.353853 -0.333886 0.925446 97 120 132
-0.363015 -0.347289 0.962595 94 127 140
-0.342443 -0.332222 0.920833 97 131 145
-0.366646 -0.360784 1 108 142 148
-0.346092 -0.345495 0.957621 110 148 148
-0.372339 -0.377162 1.0454 116 156 156
-0.382634 -0.393376 1.09033 113 154 153
-0.36259 -0.378417 1.04887 122 163 160
-0.358477 -0.37988 1.05293 125 167 162
-0.354566 -0.381607 1.05772 133 174 167
-0.329981 -0.360784 1 130 173 166
-0.324743 -0.360784 1 135 179 164
-0.353097 -0.398716 1.10514 137 182 168
-0.353761 -0.406123 1.12567 137 185 177
-0.3308 -0.3862 1.07045 139 192 180
-0.325193 -0.3862 1.07045 148 199 177
-0.345116 -0.417052 1.15596 154 205 181
-0.353397 -0.434685 1.20483 159 209 191
-0.308373 -0.3862 1.07045 170 215 194
-0.305233 -0.389346 1.07917 174 218 193
-0.29958 -0.389346 1.07917 179 222 195
-0.342571 -0.453781 1.25776 188 226 197
-0.345975 -0.467276 1.29517 188 227 195
-0.26189 -0.360784 1 189 228 195
-0.315271 -0.443188 1.2284 188 229 193
-0.337911 -0.484909 1.34404 189 229 193
-0.31884 -0.467276 1.29517 189 229 194
-0.290291 -0.434685 1.20483 189 229 193
-0.332259 -0.508585 1.40967 190 229 194
-0.289868 -0.453781 1.25776 191 229 193
-0.309535 -0.495838 1.37433 190 229 193
-0.310109 -0.508585 1.40967 189 229 193
-0.341524 -0.573768 1.59033 188 229 194
-0.242187 -0.417052 1.15596 186 228 192
-0.274553 -0.484909 1.34404 188 228 195
-0.329596 -0.597444 1.65596 189 229 195
-0.320922 -0.597444 1.65596 187 229 193
-0.269558 -0.51576 1.42955 190 229 197
-0.285565 -0.561999 1.55772 176 222 185
-0.267128 -0.541176 1.5 145 209 157
-0.288569 -0.60233 1.6695 192 230 202
-0.285746 -0.615077 1.70483 167 222 191
-0.283934 -0.630892 1.74867 188 232 208
-0.27059 -0.621283 1.72203 166 222 190
-0.265616 -0.630892 1.74867 154 215 178
-0.250028 -0.615077 1.70483 176 224 194
-0.233175 -0.594863 1.64881 192 231 207
-0.227357 -0.60233 1.6695 178 226 198
-0.225492 -0.621283 1.72203 157 217 181
-0.212204 -0.609034 1.68808 205 237 217
-0.19863 -0.594863 1.64881 178 227 198
-0.189994 -0.594863 1.64881 164 217 182
-0.181358 -0.594863 1.64881 161 214 177
-0.178591 -0.615077 1.70483 161 213 179
-0.16558 -0.600279 1.66382 154 210 173
-0.154545 -0.591401 1.63921 169 217 185
-0.155133 -0.628572 1.74224 192 229 203
-0.139436 -0.600279 1.66382 172 221 188
-0.126846 -0.582486 1.6145 181 225 192
-0.114647 -0.564069 1.56345 166 215 175
-0.114771 -0.608119 1.68555 200 231 207
-0.104934 -0.60233 1.6695 163 213 176
-0.0944443 -0.591401 1.63921 176 219 186
-0.0882855 -0.608119 1.68555 189 226 196
-0.079457 -0.608119 1.68555 176 220 186
-0.0704842 -0.606877 1.68211 164 215 179
-0.0612116 -0.60233 1.6695 193 231 206
-0.0510894 -0.586515 1.62567 192 230 205
-0.0435737 -0.600279 1.66382 175 222 190
-0.0357183 -0.615077 1.70483 170 219 185
-0.0259083 -0.594863 1.64881 189 229 201
-0.0174295 -0.600279 1.66382 171 220 187
-0.00832985 -0.573768 1.59033 156 213 177
0 -0.577145 1.5997 163 216 184
0.00851491 -0.586515 1.62567 181 225 198
0.0171717 -0.591401 1.63921 188 228 201
0.0259083 -0.594863 1.64881 158 216 179
0.0340596 -0.586515 1.62567 174 224 194
0.0435737 -0.600279 1.66382 196 233 210
0.0522884 -0.600279 1.66382 167 218 183
0.0601009 -0.591401 1.63921 197 232 206
0.0681193 -0.586515 1.62567 178 222 188
0.0792947 -0.606877 1.68211 188 227 201
0.0863611 -0.594863 1.64881 169 219 185
0.0949972 -0.594863 1.64881 175 223 189
0.10303 -0.591401 1.63921 167 219 182
0.114537 -0.606877 1.68211 185 228 198
0.120202 -0.591401 1.63921 176 224 193
0.128557 -0.590342 1.63628 162 217 182
0.138178 -0.594863 1.64881 164 216 180
0.146814 -0.594863 1.64881 173 223 191
0.162954 -0.62358 1.7284 160 218 183
0.171641 -0.622252 1.72472 180 228 199
0.178591 -0.615077 1.70483 175 225 195
0.183009 -0.600279 1.66382 178 226 197
0.188889 -0.591401 1.63921 170 221 188
0.203362 -0.609034 1.68808 161 215 177
0.207267 -0.594863 1.64881 160 214 171
0.217868 -0.600279 1.66382 188 228 197
0.232169 -0.615077 1.70483 199 235 211
0.235298 -0.600279 1.66382 168 222 188
0.234609 -0.577145 1.5997 184 227 199
0.256028 -0.608119 1.68555 177 224 192
0.259083 -0.594863 1.64881 194 230 203
0.273685 -0.608119 1.68555 193 229 204
0.285746 -0.615077 1.70483 179 225 193
0.287586 -0.600279 1.66382 186 229 199
0.307147 -0.622252 1.72472 186 230 203
0.308999 -0.608119 1.68555 196 234 210
0.3109 -0.594863 1.64881 178 226 193
0.330394 -0.615077 1.70483 178 225 191
0.328172 -0.594863 1.64881 174 221 186
0.355894 -0.628572 1.74224 174 221 188
0.361349 -0.622252 1.72472 175 224 194
0.357304 -0.600279 1.66382 178 227 199
0.388553 -0.637235 1.76625 184 229 201
0.388451 -0.622252 1.72472 180 227 197
0.377777 -0.591401 1.63921 163 220 183
0.397883 -0.609034 1.68808 193 233 205
0.406113 -0.608119 1.68555 191 233 204
0.428898 -0.628572 1.74224 196 235 209
0.414533 -0.594863 1.64881 183 230 202
0.453312 -0.637235 1.76625 185 230 200
0.446478 -0.615077 1.70483 181 228 196
0.46072 -0.622252 1.72472 202 236 211
0.449078 -0.594863 1.64881 201 234 213
0.478042 -0.621283 1.72203 183 226 198
0.482197 -0.615077 1.70483 187 229 201
0.501902 -0.628572 1.74224 183 229 201
0.511027 -0.628572 1.74224 178 227 199
0.508985 -0.615077 1.70483 177 227 196
0.517915 -0.615077 1.70483 206 237 214
0.545824 -0.637235 1.76625 176 223 187
0.552408 -0.634173 1.75776 193 231 202
0.564327 -0.637235 1.76625 201 236 210
0.570822 -0.634173 1.75776 189 230 199
0.556199 -0.608119 1.68555 168 222 184
0.589235 -0.634173 1.75776 190 232 204
0.611177 -0.647668 1.79517 175 227 191
0.620579 -0.647668 1.79517 176 224 182
0.629982 -0.647668 1.79517 173 218 176
0.622823 -0.630892 1.74867 169 217 175
0.624658 -0.62358 1.7284 174 219 181
0.641142 -0.630892 1.74867 168 217 180
0.653683 -0.634173 1.75776 182 224 194
0.642929 -0.615077 1.70483 205 238 216
0.611658 -0.577145 1.5997 196 234 209
0.677778 -0.630892 1.74867 165 221 184
0.69051 -0.634173 1.75776 205 237 215
0.707759 -0.641462 1.77797 198 233 208
0.743721 -0.665301 1.84404 187 228 201
0.706135 -0.62358 1.7284 188 230 203
0.705436 -0.615077 1.70483 174 222 187
0.74501 -0.641462 1.77797 195 232 205
0.76162 -0.647668 1.79517 172 224 190
0.722463 -0.606877 1.68211 187 230 201
0.78881 -0.654626 1.81445 207 238 216
0.699707 -0.573768 1.59033 184 228 199
0.759013 -0.615077 1.70483 201 235 210
0.780969 -0.62551 1.73375 190 231 201
0.807297 -0.639165 1.7716 196 233 206
0.816576 -0.639165 1.7716 211 243 225
0.845832 -0.654626 1.81445 189 234 210
0.87718 -0.671344 1.86079 204 235 214
0.844414 -0.639165 1.7716 190 230 201
0.839545 -0.628572 1.74224 182 228 197
0.874453 -0.647668 1.79517 207 239 218
0.800401 -0.586515 1.62567 194 233 208
0.917578 -0.665301 1.84404 190 231 203
0.902661 -0.647668 1.79517 214 243 221
0.841336 -0.597444 1.65596 189 230 199
0.894298 -0.628572 1.74224 177 223 188
0.990241 -0.688977 1.90967 196 232 205
0.940272 -0.647668 1.79517 181 228 199
0.793526 -0.541176 1.5 200 238 217
0.801383 -0.541176 1.5 202 239 219
0.96848 -0.647668 1.79517 200 239 217
0.817096 -0.541176 1.5 201 234 211
0.824953 -0.541176 1.5 171 221 187
1.02382 -0.665301 1.84404 204 237 214
0.840666 -0.541176 1.5 185 229 200
0.848523 -0.541176 1.5 204 237 213
0.57092 -0.360784 1 176 225 193
0.576158 -0.360784 1 176 226 192
0.462306 -0.286884 0.795167 203 237 214
0.173155 -0.106492 0.295167 209 241 222
0.203628 -0.124125 0.344042 183 230 206
0.223518 -0.135054 0.374334 190 233 210
0.301173 -0.180392 0.5 197 236 215
0.196146 -0.116472 0.322829 175 228 204
0.148449 -0.0873956 0.242238 191 234 213
0.182431 -0.106492 0.295167 190 229 203
0.171581 -0.0993165 0.275279 195 230 199
-0.466523 -0.263907 0.742238 104 106 110
-0.439321 -0.250607 0.704833 91 102 103
-0.461254 -0.265349 0.746293 90 99 101
-0.475108 -0.275655 0.775279 91 97 100
-0.477358 -0.279348 0.785666 89 94 96
-0.468605 -0.27661 0.777965 85 91 94
-0.469128 -0.279348 0.785666 89 97 99
-0.45133 -0.271128 0.762549 84 91 96
-0.476297 -0.288681 0.811916 85 92 98
-0.443342 -0.271128 0.762549 86 92 99
-0.433725 -0.267658 0.752789 84 89 94
-0.467772 -0.291318 0.819331 85 89 95
-0.473785 -0.297794 0.837546 86 91 98
-0.449945 -0.285453 0.802837 81 86 94
-0.465011 -0.297794 0.837546 82 87 95
-0.43277 -0.279787 0.7869 79 84 92
-0.44822 -0.292561 0.822829 81 84 94
-0.438023 -0.288681 0.811916 80 80 91
-0.429481 -0.285827 0.803887 80 81 91
-0.416284 -0.279787 0.7869 81 83 92
-0.42106 -0.285827 0.803887 77 79 90
-0.412327 -0.282726 0.795167 76 78 90
-0.457036 -0.316579 0.89038 78 80 92
-0.447187 -0.312951 0.880174 77 78 91
-0.421142 -0.297794 0.837546 77 79 92
-0.404002 -0.288681 0.811916 77 79 93
-0.422306 -0.304971 0.85773 80 80 93
-0.420733 -0.307102 0.863725 76 77 89
-0.440301 -0.324878 0.91372 78 79 93
-0.405713 -0.302647 0.851194 76 79 94
-0.417427 -0.314845 0.885502 75 78 96
-0.399843 -0.304971 0.85773 78 82 99
-0.446964 -0.344785 0.969708 80 85 100
-0.428143 -0.334063 0.939552 79 82 100
-0.425577 -0.335922 0.944781 77 82 101
-0.431053 -0.344247 0.968195 79 85 103
-0.426647 -0.344785 0.969708 80 84 103
-0.395465 -0.323437 0.909666 76 81 100
-0.402247 -0.332995 0.936549 79 84 103
-0.397342 -0.332995 0.936549 80 84 104
-0.404997 -0.343653 0.966525 82 89 105
-0.374565 -0.321854 0.905214 82 89 105
-0.394113 -0.342993 0.964669 84 88 107
-0.387284 -0.341427 0.960263 86 89 109
-0.398072 -0.355556 1 91 94 113
-0.392835 -0.355556 1 88 98 112
-0.387597 -0.355556 1 89 104 118
-0.36885 -0.342993 0.964669 88 103 117
-0.377121 -0.355556 1 97 112 125
-0.371884 -0.355556 1 97 115 130
-0.381215 -0.369684 1.03974 96 122 131
-0.361408 -0.355556 1 104 131 138
-0.35617 -0.355556 1 108 134 141
-0.350932 -0.355556 1 107 140 144
-0.345695 -0.355556 1 115 150 152
-0.340457 -0.355556 1 117 152 152
-0.350436 -0.371696 1.0454 121 156 153
-0.364674 -0.392938 1.10514 119 154 153
-0.358886 -0.392938 1.10514 129 161 159
-0.319506 -0.355556 1 132 163 157
-0.330902 -0.374375 1.05293 135 163 159
-0.30903 -0.355556 1 136 168 161
-0.323068 -0.378116 1.06345 132 182 166
-0.319587 -0.380603 1.07045 131 183 167
-0.334149 -0.405052 1.13921 147 200 181
-0.341531 -0.421528 1.18555 143 198 179
-0.326952 -0.411007 1.15596 159 210 187
-0.334465 -0.428385 1.20483 175 218 195
-0.342571 -0.447204 1.25776 179 219 196
-0.32814 -0.436765 1.2284 176 219 192
-0.308289 -0.41855 1.17717 178 223 197
-0.309223 -0.428385 1.20483 182 225 199
-0.334506 -0.473066 1.3305 185 226 196
-0.338329 -0.488652 1.37433 189 229 195
-0.320569 -0.473066 1.3305 190 229 196
-0.305272 -0.460504 1.29517 189 229 193
-0.251282 -0.387674 1.09033 190 229 193
-0.279783 -0.441685 1.24224 191 230 195
-0.329981 -0.533333 1.5 187 228 191
-0.278137 -0.460504 1.29517 188 229 194
-0.299508 -0.508286 1.42955 186 228 193
-0.280741 -0.488652 1.37433 186 227 193
-0.287067 -0.512812 1.44228 188 228 194
-0.290698 -0.533333 1.5 186 228 193
-0.299874 -0.565452 1.59033 192 229 198
-0.298022 -0.578015 1.62567 181 220 186
-0.277406 -0.553855 1.55772 179 219 188
-0.284227 -0.58467 1.64438 190 229 205
-0.281937 -0.598082 1.68211 189 232 208
-0.266161 -0.58283 1.63921 199 236 215
-0.259083 -0.586242 1.64881 181 227 200
-0.264639 -0.619462 1.74224 165 219 185
-0.255514 -0.619462 1.74224 162 213 178
-0.241098 -0.606163 1.70483 183 226 199
-0.241261 -0.629902 1.7716 198 235 212
-0.220714 -0.599306 1.68555 152 217 177
-0.205691 -0.581787 1.63628 179 228 198
-0.191586 -0.565452 1.59033 195 235 210
-0.189994 -0.586242 1.64881 180 227 198
-0.185679 -0.600207 1.68808 159 214 177
-0.176571 -0.599306 1.68555 182 223 194
-0.162839 -0.581787 1.63628 194 227 203
-0.160732 -0.606163 1.70483 174 220 185
-0.146814 -0.586242 1.64881 171 220 186
-0.14454 -0.613234 1.72472 172 221 188
-0.129542 -0.586242 1.64881 182 225 194
-0.1236 -0.599306 1.68555 176 223 189
-0.111616 -0.58283 1.63921 177 222 190
-0.107155 -0.606163 1.70483 191 228 202
-0.10038 -0.619462 1.74224 174 220 188
-0.0892957 -0.606163 1.70483 174 221 188
-0.0824325 -0.621749 1.74867 185 225 197
-0.067031 -0.568781 1.5997 185 226 197
-0.0617999 -0.599306 1.68555 187 227 200
-0.0529713 -0.599306 1.68555 188 228 201
-0.0446478 -0.606163 1.70483 164 215 181
-0.0335155 -0.568781 1.5997 157 212 175
-0.0255447 -0.578015 1.62567 191 229 202
-0.0176571 -0.599306 1.68555 182 226 196
-0.00851491 -0.578015 1.62567 161 214 178
0 -0.599306 1.68555 152 209 172
0.00874451 -0.593601 1.6695 150 210 171
0.0166597 -0.565452 1.59033 180 225 193
0.0264857 -0.599306 1.68555 176 224 192
0.0348589 -0.591579 1.66382 192 230 204
0.0425745 -0.578015 1.62567 180 223 192
0.0514229 -0.581787 1.63628 168 218 182
0.062507 -0.606163 1.70483 195 232 204
0.0714365 -0.606163 1.70483 174 221 187
0.0766342 -0.578015 1.62567 189 228 202
0.0832985 -0.565452 1.59033 167 218 184
0.0971141 -0.599306 1.68555 196 231 206
0.104577 -0.591579 1.66382 192 230 201
0.112269 -0.586242 1.64881 163 218 177
0.126275 -0.612279 1.72203 207 237 215
0.127724 -0.578015 1.62567 179 225 195
0.139912 -0.593601 1.6695 203 233 210
0.155706 -0.621749 1.74867 191 229 201
0.158914 -0.599306 1.68555 180 226 193
0.175774 -0.628 1.76625 179 227 196
0.178591 -0.606163 1.70483 207 239 217
0.180303 -0.58283 1.63921 184 229 199
0.187328 -0.578015 1.62567 186 228 199
0.207776 -0.613234 1.72472 174 222 187
0.21431 -0.606163 1.70483 157 214 173
0.215903 -0.586242 1.64881 181 226 195
0.227357 -0.593601 1.6695 192 232 206
0.231403 -0.581787 1.63628 170 223 186
0.244846 -0.593601 1.6695 198 235 209
0.26157 -0.612279 1.72203 196 234 207
0.262335 -0.593601 1.6695 184 227 196
0.267719 -0.586242 1.64881 178 224 192
0.274747 -0.58283 1.63921 179 227 196
0.290747 -0.598082 1.68211 185 231 201
0.293628 -0.586242 1.64881 179 229 196
0.305016 -0.591579 1.66382 179 227 196
0.308537 -0.581787 1.63628 199 235 212
0.319536 -0.586242 1.64881 194 232 207
0.343282 -0.613234 1.72472 184 226 196
0.348253 -0.606163 1.70483 202 236 213
0.348589 -0.591579 1.66382 183 229 203
0.366112 -0.606163 1.70483 193 234 210
0.38327 -0.619462 1.74224 196 233 210
0.383971 -0.606163 1.70483 166 219 185
0.388456 -0.599306 1.68555 177 225 190
0.410647 -0.619462 1.74224 180 227 190
0.41076 -0.606163 1.70483 191 233 202
0.438594 -0.633466 1.78162 175 227 194
0.422905 -0.598082 1.68211 182 228 199
0.437549 -0.606163 1.70483 186 227 197
0.431805 -0.586242 1.64881 201 236 211
0.460003 -0.612279 1.72203 182 227 197
0.488941 -0.638282 1.79517 201 235 213
0.473267 -0.606163 1.70483 190 231 206
0.476742 -0.599306 1.68555 181 228 199
0.491126 -0.606163 1.70483 180 226 196
0.515581 -0.624982 1.75776 204 236 215
0.508985 -0.606163 1.70483 175 224 194
0.517915 -0.606163 1.70483 186 228 198
0.526844 -0.606163 1.70483 162 217 174
0.529713 -0.599306 1.68555 179 225 191
0.538542 -0.599306 1.68555 196 233 207
0.54737 -0.599306 1.68555 185 228 196
0.569125 -0.613234 1.72472 195 232 205
0.557743 -0.591579 1.66382 209 238 215
0.580422 -0.606163 1.70483 207 237 212
0.604505 -0.621749 1.74867 212 241 217
0.635177 -0.643545 1.80997 195 230 204
0.592602 -0.591579 1.66382 192 227 198
0.623328 -0.613234 1.72472 189 227 199
0.614928 -0.596327 1.67717 168 218 182
0.642764 -0.614542 1.7284 167 218 182
0.662889 -0.624982 1.75776 176 226 195
0.675342 -0.628 1.76625 194 233 209
0.651979 -0.598082 1.68211 178 225 194
0.705204 -0.638282 1.79517 200 234 209
0.696097 -0.621749 1.74867 201 235 212
0.708924 -0.624982 1.75776 179 225 196
0.71813 -0.624982 1.75776 202 235 213
0.742815 -0.638282 1.79517 171 220 184
0.736544 -0.624982 1.75776 209 238 216
0.745751 -0.624982 1.75776 196 233 209
0.732224 -0.606163 1.70483 168 221 185
0.729128 -0.596327 1.67717 200 235 209
0.773371 -0.624982 1.75776 204 235 212
0.737253 -0.588785 1.65596 185 227 196
0.808634 -0.638282 1.79517 175 221 184
0.800991 -0.624982 1.75776 174 221 186
0.799131 -0.616444 1.73375 204 240 220
0.808212 -0.616444 1.73375 193 236 214
0.817293 -0.616444 1.73375 215 243 226
0.903166 -0.673729 1.89486 192 230 204
0.853693 -0.629902 1.7716 174 222 188
0.930227 -0.678992 1.90967 210 239 220
0.839379 -0.606163 1.70483 195 233 210
0.848309 -0.606163 1.70483 174 224 194
0.817431 -0.578015 1.62567 216 243 224
0.762099 -0.533333 1.5 210 240 219
0.946554 -0.655659 1.84404 211 240 217
0.930869 -0.638282 1.79517 188 229 200
0.867357 -0.588785 1.65596 196 234 209
0.876031 -0.588785 1.65596 189 233 208
0.69195 -0.460504 1.29517 165 225 192
0.877035 -0.578015 1.62567 169 224 192
0.748642 -0.488652 1.37433 186 228 199
0.755841 -0.488652 1.37433 176 222 189
0.719085 -0.460504 1.29517 185 228 199
0.840666 -0.533333 1.5 166 221 184
0.653905 -0.411007 1.15596 172 221 184
0.57092 -0.355556 1 169 220 182
0.406095 -0.250607 0.704833 186 229 199
0.238178 -0.145659 0.409665 182 228 199
0.201826 -0.122326 0.344042 207 239 221
0.135184 -0.0812091 0.2284 170 223 193
0.20543 -0.122326 0.344042 167 218 185
0.202498 -0.119532 0.336183 198 235 215
0.156612 -0.0916487 0.257762 184 233 211
0.163164 -0.0946666 0.26625 204 241 222
0.120354 -0.0692368 0.194729 190 231 204
0.0972084 -0.0554518 0.155958 200 233 198
-0.47628 -0.265464 0.757762 101 105 101
-0.475295 -0.267141 0.762549 91 102 101
-0.474845 -0.26915 0.768284 89 95 99
-0.513267 -0.293415 0.837546 88 93 97
-0.47268 -0.272542 0.777965 89 94 97
-0.459319 -0.267141 0.762549 86 90 92
-0.480008 -0.281623 0.803887 88 92 95
-0.48055 -0.284436 0.811916 86 91 95
-0.471587 -0.281623 0.803887 84 88 95
-0.452305 -0.272542 0.777965 82 86 92
-0.478498 -0.290946 0.830499 85 88 93
-0.432621 -0.265464 0.757762 81 84 89
-0.441239 -0.273259 0.780012 80 84 90
-0.437153 -0.273259 0.780012 83 87 93
-0.450781 -0.284436 0.811916 80 83 91
-0.478055 -0.304518 0.869241 78 80 89
-0.452398 -0.290946 0.830499 79 81 90
-0.445728 -0.289439 0.826197 83 83 93
-0.437732 -0.287034 0.819331 82 82 92
-0.446513 -0.29569 0.844042 78 80 88
-0.416492 -0.278568 0.795167 79 80 90
-0.424857 -0.287034 0.819331 75 74 87
-0.443353 -0.302586 0.863725 75 75 87
-0.418052 -0.288259 0.822829 77 78 90
-0.445255 -0.310215 0.885502 79 79 91
-0.437967 -0.308349 0.880174 76 77 90
-0.440588 -0.313495 0.894863 74 73 87
-0.41463 -0.298196 0.851194 78 77 90
-0.429054 -0.311924 0.89038 76 76 89
-0.422065 -0.310215 0.885502 78 78 92
-0.445371 -0.330982 0.944781 75 77 92
-0.393462 -0.29569 0.844042 78 80 96
-0.410399 -0.311924 0.89038 75 78 93
-0.414524 -0.31868 0.909666 77 78 93
-0.407754 -0.317121 0.905214 75 79 95
-0.404995 -0.31868 0.909666 77 82 99
-0.426647 -0.339715 0.969708 78 81 99
-0.421568 -0.339715 0.969708 79 81 98
-0.390701 -0.31868 0.909666 79 82 99
-0.410059 -0.338599 0.966525 80 82 100
-0.377249 -0.315401 0.900304 79 83 98
-0.374565 -0.317121 0.905214 79 83 99
-0.393266 -0.337223 0.962595 80 84 102
-0.374898 -0.325647 0.929553 84 87 105
-0.398072 -0.350327 1 88 90 107
-0.378141 -0.337223 0.962595 85 91 105
-0.3587 -0.324209 0.925446 83 93 106
-0.397553 -0.364248 1.03974 86 96 108
-0.392107 -0.364248 1.03974 88 99 111
-0.371884 -0.350327 1 95 107 116
-0.366646 -0.350327 1 95 112 120
-0.375769 -0.364248 1.03974 97 114 124
-0.371264 -0.365173 1.04238 95 114 124
-0.350932 -0.350327 1 105 123 131
-0.345695 -0.350327 1 107 128 133
-0.358477 -0.368869 1.05293 107 134 138
-0.350436 -0.36623 1.0454 108 136 143
-0.35979 -0.381973 1.09033 110 139 148
-0.324743 -0.350327 1 112 141 146
-0.337946 -0.370546 1.05772 119 148 148
-0.353761 -0.394351 1.12567 121 145 146
-0.344413 -0.390439 1.1145 131 156 155
-0.366019 -0.422085 1.20483 129 161 155
-0.359708 -0.422085 1.20483 133 168 163
-0.316537 -0.378061 1.07917 134 183 172
-0.333007 -0.404963 1.15596 133 187 169
-0.305233 -0.378061 1.07917 144 197 179
-0.334465 -0.422085 1.20483 146 200 183
-0.334574 -0.430342 1.2284 161 204 189
-0.32814 -0.430342 1.2284 159 205 190
-0.3653 -0.488658 1.39486 169 212 194
-0.309223 -0.422085 1.20483 170 213 193
-0.308837 -0.430342 1.2284 173 216 195
-0.302403 -0.430342 1.2284 183 223 201
-0.26627 -0.387159 1.10514 185 225 200
-0.323932 -0.481466 1.37433 187 227 196
-0.324876 -0.493844 1.40967 190 229 195
-0.309535 -0.481466 1.37433 187 229 193
-0.28492 -0.453732 1.29517 187 228 193
-0.306996 -0.500811 1.42955 187 229 194
-0.299508 -0.500811 1.42955 187 228 193
-0.324864 -0.557137 1.59033 183 226 190
-0.284533 -0.500811 1.42955 187 228 193
-0.308204 -0.557137 1.59033 188 228 193
-0.321464 -0.597249 1.70483 178 220 183
-0.298022 -0.569514 1.62567 162 209 171
-0.289507 -0.569514 1.62567 200 229 206
-0.259271 -0.52549 1.5 179 225 197
-0.278872 -0.58288 1.66382 147 212 176
-0.27108 -0.584871 1.6695 175 223 196
-0.264857 -0.590492 1.68555 188 228 205
-0.253591 -0.584871 1.6695 157 213 181
-0.252551 -0.603275 1.72203 149 206 169
-0.23873 -0.591381 1.68808 157 209 171
-0.238501 -0.613539 1.75133 191 230 205
-0.218613 -0.584871 1.6695 157 218 181
-0.209154 -0.58288 1.66382 161 216 180
-0.19863 -0.577621 1.64881 194 232 208
-0.205299 -0.624151 1.78162 173 225 193
-0.187521 -0.597249 1.70483 165 217 182
-0.170298 -0.569514 1.62567 166 216 185
-0.162839 -0.573231 1.63628 183 224 197
-0.157401 -0.584871 1.6695 169 218 181
-0.148657 -0.584871 1.6695 184 226 195
-0.136239 -0.569514 1.62567 172 221 187
-0.132428 -0.590492 1.68555 177 223 192
-0.125014 -0.597249 1.70483 180 224 193
-0.113679 -0.584871 1.6695 172 220 186
-0.105943 -0.590492 1.68555 184 223 194
-0.0944443 -0.574259 1.63921 184 225 195
-0.0863611 -0.577621 1.64881 195 230 205
-0.0803661 -0.597249 1.70483 152 210 170
-0.0686867 -0.574259 1.63921 164 215 178
-0.0586522 -0.560416 1.5997 188 227 199
-0.0528632 -0.589287 1.68211 171 219 186
-0.0435737 -0.58288 1.66382 174 221 189
-0.034978 -0.584871 1.6695 174 221 191
-0.0264857 -0.590492 1.68555 195 230 206
-0.0169128 -0.565602 1.6145 185 228 202
-0.00845641 -0.565602 1.6145 170 223 191
0 -0.590492 1.68555 191 230 207
0.00874451 -0.584871 1.6695 188 229 202
0.0176837 -0.591381 1.68808 179 226 195
0.0259083 -0.577621 1.64881 161 217 179
0.0340596 -0.569514 1.62567 182 225 195
0.0406696 -0.544033 1.55293 175 221 185
0.0510894 -0.569514 1.62567 184 227 194
0.0604527 -0.577621 1.64881 184 227 196
0.0686867 -0.574259 1.63921 170 220 185
0.077725 -0.577621 1.64881 196 231 206
0.0874451 -0.584871 1.6695 176 222 190
0.0916283 -0.557137 1.59033 170 217 182
0.102846 -0.573231 1.63628 175 219 181
0.113679 -0.584871 1.6695 171 216 176
0.119209 -0.569514 1.62567 204 235 212
0.127724 -0.569514 1.62567 158 216 179
0.146008 -0.610353 1.74224 199 232 208
0.151803 -0.597249 1.70483 201 232 207
0.156124 -0.580127 1.65596 177 223 189
0.169662 -0.597249 1.70483 188 230 202
0.166597 -0.557137 1.59033 197 235 209
0.1854 -0.590492 1.68555 199 234 211
0.186041 -0.565602 1.6145 179 224 192
0.20538 -0.597249 1.70483 177 223 189
0.211885 -0.590492 1.68555 188 228 198
0.21141 -0.565602 1.6145 199 233 208
0.229542 -0.590492 1.68555 178 226 195
0.229902 -0.569514 1.62567 179 226 193
0.250028 -0.597249 1.70483 178 227 194
0.258957 -0.597249 1.70483 191 233 204
0.265255 -0.591381 1.68808 194 231 204
0.267719 -0.577621 1.64881 181 225 192
0.274255 -0.573231 1.63628 212 245 226
0.284992 -0.577621 1.64881 192 236 208
0.296301 -0.58288 1.66382 179 228 193
0.306058 -0.584871 1.6695 173 224 189
0.321464 -0.597249 1.70483 197 234 210
0.340652 -0.615791 1.75776 178 224 194
0.33599 -0.591381 1.68808 172 219 186
0.334848 -0.574259 1.63921 193 231 206
0.345444 -0.577621 1.64881 203 238 218
0.361971 -0.590492 1.68555 180 229 202
0.38327 -0.610353 1.74224 180 226 198
0.388451 -0.604216 1.72472 197 233 208
0.401521 -0.610353 1.74224 188 230 198
0.388625 -0.577621 1.64881 181 229 194
0.402247 -0.584871 1.6695 185 232 201
0.424586 -0.604216 1.72472 204 239 218
0.418307 -0.58288 1.66382 165 220 187
0.457257 -0.624151 1.78162 168 218 183
0.456274 -0.610353 1.74224 190 228 200
0.450934 -0.591381 1.68808 187 230 202
0.449078 -0.577621 1.64881 187 229 202
0.498344 -0.628895 1.79517 175 225 195
0.472203 -0.584871 1.6695 196 234 210
0.513248 -0.624151 1.78162 168 221 187
0.500056 -0.597249 1.70483 206 237 217
0.520153 -0.610353 1.74224 187 228 203
0.517915 -0.597249 1.70483 203 234 210
0.526844 -0.597249 1.70483 188 226 197
0.54955 -0.612605 1.74867 194 231 205
0.564327 -0.618765 1.76625 203 236 216
0.540314 -0.58288 1.66382 169 219 185
0.574906 -0.610353 1.74224 174 220 183
0.571492 -0.597249 1.70483 186 229 198
0.580422 -0.597249 1.70483 185 229 201
0.575173 -0.58288 1.66382 195 233 208
0.60526 -0.604216 1.72472 189 231 204
0.600341 -0.590492 1.68555 171 221 186
0.623328 -0.604216 1.72472 180 223 194
0.610031 -0.58288 1.66382 177 221 190
0.673098 -0.634081 1.80997 174 220 187
0.642929 -0.597249 1.70483 201 234 211
0.66087 -0.605505 1.7284 188 229 203
0.651979 -0.589287 1.68211 190 229 205
0.669717 -0.597249 1.70483 187 224 191
0.696097 -0.612605 1.74867 200 233 208
0.667865 -0.580127 1.65596 163 218 181
0.714415 -0.612605 1.74867 194 231 205
0.715188 -0.605505 1.7284 175 220 186
0.704842 -0.589287 1.68211 184 225 193
0.754322 -0.622869 1.77797 207 237 217
0.792015 -0.646017 1.84404 178 224 196
0.780426 -0.628895 1.79517 198 234 210
0.773371 -0.615791 1.75776 189 230 203
0.748895 -0.589287 1.68211 178 225 193
0.808634 -0.628895 1.79517 193 229 201
0.776872 -0.597249 1.70483 175 220 186
0.857687 -0.651885 1.86079 179 224 191
0.778261 -0.584871 1.6695 188 228 199
0.707102 -0.52549 1.5 204 236 215
0.826374 -0.607379 1.73375 168 217 184
0.86505 -0.628895 1.79517 172 218 186
0.887927 -0.638586 1.82283 174 223 189
0.883856 -0.628895 1.79517 201 235 211
0.907022 -0.638586 1.82283 166 217 183
0.91657 -0.638586 1.82283 173 221 186
0.893059 -0.615791 1.75776 187 230 199
0.875097 -0.597249 1.70483 184 228 197
0.858684 -0.580127 1.65596 172 224 188
0.851491 -0.569514 1.62567 180 227 195
0.745738 -0.493844 1.40967 194 232 205
0.86852 -0.569514 1.62567 201 235 211
0.847245 -0.55017 1.57045 190 229 203
0.817096 -0.52549 1.5 177 223 192
0.755841 -0.481466 1.37433 193 230 204
0.83281 -0.52549 1.5 208 238 216
0.560444 -0.350327 1 179 226 195
0.449812 -0.278568 0.795167 189 228 198
0.213715 -0.131139 0.374334 181 224 189
0.340126 -0.20681 0.590334 182 224 190
0.229572 -0.138331 0.394863 204 236 213
