ply
format ascii 1.0
element vertex 1273
property float x
property float y
property float z
property uchar red
property uchar green
property uchar blue
end_header
-0.10662 0.182851 0.521944 79 81 73
-0.104584 0.18408 0.525451 80 80 73
-0.107157 0.193706 0.552929 81 81 74
-0.12053 0.223932 0.639209 76 74 70
-0.137248 0.262279 0.748668 73 68 66
-0.136458 0.268438 0.76625 73 69 66
-0.140001 0.283754 0.80997 72 68 65
-0.125484 0.262279 0.748668 68 63 62
-0.153 0.330107 0.942284 70 62 62
-0.147164 0.328098 0.936549 66 58 59
-0.160663 0.370546 1.05772 65 57 59
-0.146658 0.350327 1 65 56 59
-0.14142 0.350327 1 65 56 59
-0.143391 0.368869 1.05293 65 56 59
-0.139253 0.372555 1.06345 65 55 59
-0.133683 0.372555 1.06345 67 59 61
-0.127422 0.370546 1.05772 64 55 58
-0.131273 0.399095 1.13921 64 55 58
-0.109994 0.350327 1 63 54 57
-0.104756 0.350327 1 63 55 58
-0.105833 0.372555 1.06345 63 54 58
-0.105075 0.390439 1.1145 62 53 58
-0.0833927 0.328098 0.936549 62 52 57
-0.063504 0.265464 0.757762 60 50 57
-0.0624739 0.278568 0.795167 61 51 58
-0.0308593 0.147429 0.420833 60 49 58
-0.0214115 0.110161 0.314453 58 46 56
-0.01692 0.094307 0.269197 57 46 56
-0.0139567 0.0848624 0.242238 58 47 57
-0.0102384 0.0684789 0.195471 56 45 56
-0.00953723 0.0708769 0.202316 57 46 58
-0.00870881 0.0728104 0.207836 56 44 56
-0.00683888 0.0653449 0.186526 56 45 56
-0.00587739 0.0655176 0.187019 55 42 55
-0.00516989 0.069157 0.197407 54 39 53
-0.00394384 0.0659453 0.188239 53 38 53
-0.00288727 0.0643712 0.183746 51 35 52
-0.0019341 0.0646806 0.184629 51 37 53
-0.000985471 0.0659126 0.188146 52 38 54
0 0.0637394 0.181943 50 35 51
0.000964739 0.064526 0.184188 50 33 51
0.00196432 0.0656912 0.187514 49 31 49
0.00282718 0.0630313 0.179921 48 28 47
0.00384012 0.064211 0.183289 47 26 47
0.00455809 0.060973 0.174046 48 27 47
0.00583115 0.0650021 0.185547 48 27 47
0.00659523 0.0630168 0.17988 47 25 45
0.00764793 0.0639409 0.182518 48 25 46
0.00873023 0.0648796 0.185197 45 21 43
0.0094297 0.06307 0.180032 46 23 45
0.0106159 0.064549 0.184254 44 20 42
0.0113805 0.0634313 0.181063 44 20 42
0.0121785 0.0626576 0.178855 46 22 44
0.0127309 0.0608212 0.173613 45 21 42
0.0138661 0.0618282 0.176487 47 24 44
0.0146211 0.0611203 0.174466 48 25 45
0.0153946 0.0605682 0.17289 47 23 44
0.0168169 0.0624883 0.178372 47 23 44
0.0170574 0.0600459 0.1714 48 24 44
0.0183737 0.0614458 0.175396 47 22 44
0.0195861 0.062381 0.178065 47 22 44
0.0202688 0.0616212 0.175896 47 21 44
0.0211877 0.0616143 0.175877 46 22 44
0.0224843 0.0626604 0.178863 50 27 48
0.0224074 0.0599483 0.171121 51 30 50
0.024287 0.0624776 0.178341 52 31 52
0.0251968 0.0624175 0.178169 53 34 53
0.0252391 0.0602893 0.172094 53 35 54
0.0262497 0.0605412 0.172814 54 36 55
0.0263086 0.0586544 0.167428 53 36 55
0.0278672 0.0601251 0.171626 53 35 55
0.0284344 0.0594319 0.169647 53 36 56
0.0292725 0.0593294 0.169355 53 35 55
0.029998 0.0590117 0.168448 53 36 56
0.0322493 0.0616279 0.175915 54 37 56
0.0323113 0.0600311 0.171357 54 36 56
0.0338976 0.0612762 0.174912 52 35 55
0.0356922 0.0628223 0.179325 50 33 54
0.0361225 0.0619495 0.176833 51 33 54
0.0359802 0.0601628 0.171733 50 31 54
0.0365869 0.0596851 0.17037 47 27 51
0.040818 0.0650021 0.185547 49 29 51
0.046504 0.0723347 0.206478 46 25 49
0.0518707 0.0788487 0.225072 45 24 48
0.059038 0.0877493 0.250478 44 25 49
0.0878851 0.127786 0.364762 47 29 53
0.11388 0.162059 0.462595 48 30 54
0.125707 0.175163 0.5 49 30 53
0.160578 0.219188 0.625666 49 31 53
0.157054 0.21009 0.599696 48 31 54
0.221849 0.290946 0.830499 49 31 53
0.272365 0.350327 1 49 31 53
0.312488 0.394351 1.12567 50 33 53
0.318384 0.394351 1.12567 48 31 52
0.357862 0.435189 1.24224 48 32 52
0.358443 0.428111 1.22203 48 34 53
0.404725 0.474908 1.35562 48 33 52
0.411825 0.474908 1.35562 50 34 53
0.431054 0.488658 1.39486 48 32 52
0.456042 0.508368 1.45113 46 31 51
0.479258 0.52549 1.5 47 32 51
0.461406 0.497756 1.42083 47 32 51
0.521095 0.553225 1.57917 48 32 52
0.53311 0.557137 1.59033 49 34 53
0.52342 0.538594 1.53741 47 31 51
0.503892 0.510644 1.45762 47 32 51
0.563294 0.562322 1.60514 47 32 51
0.551663 0.542612 1.54887 49 34 52
0.559775 0.542612 1.54887 49 34 52
0.596043 0.569514 1.62567 48 32 51
0.573585 0.540337 1.54238 49 33 52
0.599749 0.557137 1.59033 49 34 53
0.621588 0.569514 1.62567 49 35 53
0.647094 0.584871 1.6695 49 35 52
0.611925 0.54571 1.55772 48 33 52
0.633068 0.557137 1.59033 51 37 54
0.581688 0.505271 1.44228 51 35 53
0.655776 0.562322 1.60514 49 32 50
0.717401 0.607379 1.73375 50 33 51
0.681192 0.569514 1.62567 49 31 49
0.689707 0.569514 1.62567 50 32 49
0.71705 0.584871 1.6695 47 26 45
0.757415 0.610353 1.74224 48 28 46
0.685356 0.54571 1.55772 47 25 44
0.723767 0.569514 1.62567 48 26 44
0.732282 0.569514 1.62567 48 25 43
0.760772 0.584871 1.6695 46 21 40
0.613262 0.466109 1.3305 45 19 38
0.849737 0.638586 1.82283 42 17 34
0.835135 0.620639 1.7716 42 18 35
0.878943 0.646017 1.84404 43 18 36
0.783371 0.569514 1.62567 41 17 35
0.887927 0.638586 1.82283 39 17 33
0.883856 0.628895 1.79517 42 19 37
0.893258 0.628895 1.79517 44 20 40
0.832663 0.580127 1.65596 48 26 42
0.885172 0.610353 1.74224 49 27 43
0.806117 0.55017 1.57045 49 26 44
0.884027 0.597249 1.70483 51 34 47
0.822568 0.55017 1.57045 53 36 49
0.901886 0.597249 1.70483 54 37 51
0.849644 0.557137 1.59033 53 38 52
0.80924 0.52549 1.5 54 41 54
0.902051 0.580127 1.65596 55 41 54
0.894065 0.569514 1.62567 55 42 55
0.83281 0.52549 1.5 54 41 54
0.840666 0.52549 1.5 54 42 54
0.964393 0.597249 1.70483 54 42 54
0.85638 0.52549 1.5 54 43 55
0.864236 0.52549 1.5 55 45 56
0.872093 0.52549 1.5 55 44 56
0.95367 0.569514 1.62567 53 41 54
0.713105 0.422085 1.20483 55 45 56
0.597109 0.350327 1 54 42 54
1.08131 0.628895 1.79517 53 42 54
0.835024 0.481466 1.37433 55 43 55
0.793707 0.453732 1.29517 54 42 54
0.92709 0.52549 1.5 54 41 54
1.06262 0.597249 1.70483 54 40 52
-0.155381 0.0878974 0.247211 150 205 171
-0.183977 0.104948 0.295167 137 202 168
-0.151548 0.0871818 0.245199 144 206 175
-0.151186 0.0877174 0.246705 133 204 168
-0.142858 0.0836 0.235125 141 206 176
-0.148354 0.0875707 0.246293 162 214 188
-0.127089 0.0756765 0.21284 155 209 180
-0.127479 0.0765808 0.215383 152 208 180
-0.131533 0.0797213 0.224216 146 202 172
-0.1279 0.0782178 0.219987 143 202 171
-0.120403 0.0743024 0.208976 148 206 178
-0.122925 0.0765551 0.215311 156 210 183
-0.119366 0.075027 0.211013 150 207 177
-0.114152 0.0724201 0.203682 152 208 178
-0.109538 0.0701485 0.197293 144 205 171
-0.116084 0.0750485 0.211074 155 208 177
-0.111039 0.0724774 0.203843 146 203 170
-0.107374 0.0707655 0.199028 136 195 161
-0.105396 0.0701429 0.197277 148 203 173
-0.104949 0.0705365 0.198384 157 209 182
-0.105414 0.0715578 0.201256 138 203 166
-0.106214 0.0728294 0.204833 155 210 179
-0.102685 0.0711276 0.200046 153 208 177
-0.100264 0.0701666 0.197343 145 204 171
-0.0965514 0.0682726 0.192017 148 205 175
-0.0995912 0.0711633 0.200147 153 208 179
-0.0939965 0.0678801 0.190913 172 214 190
-0.0935342 0.0682726 0.192017 138 199 165
-0.0945402 0.0697569 0.196191 149 205 172
-0.0910071 0.067888 0.190935 145 204 170
-0.0872384 0.0657997 0.185062 155 207 176
-0.0915551 0.0698315 0.196401 153 205 171
-0.0880296 0.0679055 0.190984 142 200 166
-0.086753 0.0676899 0.190378 165 212 187
-0.0868158 0.0685266 0.192731 177 219 198
-0.0871054 0.0695641 0.195649 144 203 172
-0.0844825 0.0682726 0.192017 180 218 197
-0.083671 0.0684315 0.192464 139 205 172
-0.0817118 0.0676441 0.190249 156 213 183
-0.0816549 0.0684315 0.192464 166 217 188
-0.0781653 0.0663259 0.186541 164 214 187
-0.078676 0.0676043 0.190137 146 204 173
-0.0789557 0.0687144 0.193259 159 211 184
-0.0771101 0.0679797 0.191193 180 221 201
-0.0738612 0.0659723 0.185547 156 208 177
-0.0714133 0.0646363 0.18179 125 190 151
-0.0756188 0.0693676 0.195096 170 215 191
-0.0718913 0.0668517 0.18802 150 207 177
-0.0712414 0.0671675 0.188909 138 195 164
-0.0692768 0.0662351 0.186286 153 204 174
-0.0681952 0.0661324 0.185997 152 204 170
-0.070203 0.0690662 0.194249 148 200 161
-0.0682904 0.0681726 0.191735 144 194 150
-0.0657526 0.0666189 0.187366 149 204 167
-0.0664325 0.0683275 0.192171 135 194 159
-0.0652014 0.068093 0.191511 144 192 165
-0.0641155 0.0680052 0.191265 120 176 149
-0.0640705 0.0690361 0.194164 136 183 161
-0.0619859 0.0678673 0.190877 136 186 149
-0.0598848 0.0666416 0.18743 149 193 157
-0.0608899 0.0688894 0.193752 136 186 142
-0.0599917 0.0690236 0.194129 125 179 131
-0.0581779 0.0680909 0.191506 133 180 138
-0.0556347 0.0662567 0.186347 134 171 126
-0.0566345 0.0686518 0.193083 142 172 129
-0.0555884 0.0686089 0.192962 121 157 119
-0.0524803 0.0659723 0.185547 122 156 123
-0.0524078 0.0671242 0.188787 118 151 111
-0.0549879 0.0717831 0.20189 118 148 107
-0.0528546 0.0703512 0.197863 126 147 108
-0.0507693 0.0689272 0.193858 108 127 88
-0.0559566 0.07752 0.218025 105 125 85
-0.061219 0.0865772 0.243499 106 121 93
-0.062038 0.0896022 0.252006 107 117 91
-0.0686434 0.101298 0.2849 101 111 84
-0.0778988 0.117511 0.330499 95 108 80
-0.0982476 0.151575 0.426305 93 111 82
-0.0910519 0.143741 0.404271 90 109 76
-0.0860825 0.139131 0.391307 90 107 82
-0.112436 0.186157 0.523568 93 103 81
-0.133307 0.226231 0.636275 88 95 75
-0.12059 0.209897 0.590334 83 88 72
-0.136449 0.24375 0.685547 86 88 76
-0.163574 0.300104 0.844042 83 85 74
-0.156599 0.295288 0.830499 80 80 71
-0.152249 0.295288 0.830499 79 77 70
-0.147899 0.295288 0.830499 79 77 69
-0.172847 0.355556 1 78 76 68
-0.175801 0.372933 1.04887 74 71 67
-0.162372 0.355556 1 74 70 66
-0.148065 0.335034 0.942284 73 67 64
-0.161534 0.378116 1.06345 73 66 65
-0.171517 0.415823 1.1695 70 62 62
-0.157613 0.396266 1.1145 66 57 59
-0.145776 0.380603 1.07045 66 57 59
-0.154145 0.41855 1.17717 67 58 60
-0.145312 0.411007 1.15596 65 58 59
-0.130006 0.383704 1.07917 67 60 61
-0.122543 0.378116 1.06345 67 59 61
-0.122588 0.396266 1.1145 65 58 59
-0.111403 0.378116 1.06345 65 57 60
-0.105833 0.378116 1.06345 62 52 56
-0.0942803 0.355556 1 63 54 58
-0.0946924 0.378116 1.06345 62 53 57
-0.0610434 0.258987 0.7284 60 50 57
-0.0330636 0.14963 0.420833 60 50 57
-0.0242352 0.117511 0.330499 60 50 57
-0.0160775 0.0839526 0.236117 60 50 58
-0.0143558 0.0812091 0.2284 58 48 57
-0.013268 0.0818787 0.230284 58 48 57
-0.0111813 0.0759019 0.213474 57 44 56
-0.00893956 0.0674268 0.189638 56 44 55
-0.00800733 0.0679448 0.191095 56 44 55
-0.00687077 0.0666295 0.187395 56 43 55
-0.00599271 0.0678002 0.190688 54 40 53
-0.00504067 0.0684348 0.192473 54 40 54
-0.00394835 0.0670062 0.188455 53 37 52
-0.00287324 0.0650144 0.182853 55 39 54
-0.00194061 0.0658669 0.185251 52 37 53
-0.00100162 0.0679928 0.19123 51 35 52
0 0.0655821 0.18445 51 33 51
0.000967608 0.0656838 0.184736 51 33 50
0.00191428 0.0649731 0.182737 48 29 47
0.00286871 0.0649118 0.182564 49 30 48
0.00376957 0.0639721 0.179921 48 27 47
0.00485608 0.0659288 0.185425 46 25 45
0.00565552 0.0639853 0.179959 46 24 45
0.00686389 0.0665628 0.187208 47 24 45
0.00755811 0.0641331 0.180374 46 22 44
0.00865711 0.0652964 0.183646 47 24 46
0.00935128 0.063479 0.178535 45 23 45
0.0103461 0.0638474 0.179571 48 26 47
0.0111358 0.0629942 0.177171 46 23 44
0.0122509 0.0639711 0.179919 45 22 44
0.0132704 0.0643451 0.180971 46 23 44
0.013906 0.0629319 0.176996 46 23 44
0.015115 0.0641278 0.180359 47 23 45
0.0154015 0.0614997 0.172968 49 25 46
0.0167868 0.0633074 0.178052 49 27 47
0.0173465 0.0619751 0.174305 48 25 46
0.0178045 0.0604308 0.169962 48 25 46
0.0190042 0.0614313 0.172776 47 23 45
0.0205012 0.063258 0.177913 46 22 45
0.0209315 0.0617776 0.173749 45 21 44
0.0224948 0.0636253 0.178946 49 29 50
0.0222793 0.0604951 0.170142 52 34 53
0.0238742 0.0623325 0.17531 50 31 52
0.0237256 0.0596504 0.167767 51 33 53
0.0246329 0.0597195 0.167961 51 34 53
0.02579 0.0603687 0.169787 51 34 54
0.0283057 0.0640488 0.180137 54 38 56
0.0281881 0.0617254 0.173603 52 36 55
0.0283839 0.0602116 0.169345 52 35 55
0.0295539 0.0607939 0.170983 54 38 57
0.0313129 0.0625178 0.175831 53 36 56
0.0316418 0.0613694 0.172601 53 36 57
0.0327724 0.0617965 0.173803 54 38 58
0.0330174 0.0605759 0.17037 54 38 57
0.0341812 0.0610607 0.171733 53 36 56
0.0373887 0.0650781 0.183032 50 32 53
0.0391051 0.0663639 0.186649 51 33 53
0.0424164 0.0702278 0.197516 46 27 50
0.0476699 0.0770467 0.216694 45 25 48
0.0549267 0.0867109 0.243874 45 25 49
0.0610439 0.0941777 0.264875 45 26 49
0.0912018 0.137578 0.386939 46 28 52
0.115182 0.169976 0.478056 46 29 53
0.141805 0.204811 0.576031 48 30 54
0.166893 0.236024 0.663817 48 30 53
0.204081 0.282726 0.795167 49 32 54
0.217499 0.295288 0.830499 48 31 54
0.285946 0.380603 1.07045 50 33 54
0.293928 0.383704 1.07917 50 32 54
0.326786 0.41855 1.17717 50 33 54
0.340776 0.428385 1.20483 50 34 54
0.390524 0.481997 1.35562 48 33 53
0.390257 0.473066 1.3305 47 32 51
0.416442 0.495951 1.39486 48 32 51
0.455688 0.533333 1.5 47 31 50
0.496035 0.570715 1.60514 47 31 51
0.48472 0.548401 1.54238 47 32 52
0.465718 0.518265 1.45762 47 33 52
0.51645 0.565452 1.59033 47 32 51
0.494972 0.533333 1.5 49 33 52
0.519212 0.550711 1.54887 50 34 53
0.49795 0.520034 1.46259 49 34 53
0.556983 0.572871 1.6112 48 33 52
0.588574 0.596327 1.67717 48 34 53
0.549349 0.548401 1.54238 48 33 51
0.542112 0.533333 1.5 48 33 51
0.612116 0.593601 1.6695 49 33 51
0.557825 0.533333 1.5 50 35 52
0.584114 0.550711 1.54887 48 33 52
0.573539 0.533333 1.5 47 32 51
0.581395 0.533333 1.5 48 33 51
0.638618 0.578015 1.62567 51 37 54
0.597109 0.533333 1.5 52 36 53
0.687577 0.606163 1.70483 51 34 53
0.636402 0.553855 1.55772 49 31 51
0.680423 0.58467 1.64438 50 33 52
0.681192 0.578015 1.62567 52 35 52
0.708305 0.593601 1.6695 50 31 49
0.669038 0.553855 1.55772 52 33 49
0.77018 0.629902 1.7716 50 30 47
0.789828 0.638282 1.79517 47 25 44
0.723767 0.578015 1.62567 47 25 42
0.675676 0.533333 1.5 47 22 40
0.800991 0.624982 1.75776 45 20 39
0.596976 0.460504 1.29517 45 19 36
0.778261 0.593601 1.6695 41 16 32
0.707102 0.533333 1.5 41 17 35
0.868832 0.648117 1.82283 40 17 35
0.82152 0.606163 1.70483 42 18 36
0.774676 0.565452 1.59033 44 20 39
0.839379 0.606163 1.70483 45 21 40
0.781439 0.558381 1.57045 45 23 42
0.754243 0.533333 1.5 49 29 44
0.807995 0.565452 1.59033 51 31 46
0.875097 0.606163 1.70483 50 31 47
0.956213 0.655659 1.84404 53 38 52
0.981738 0.66643 1.87433 53 38 52
0.830793 0.558381 1.57045 55 41 54
0.939093 0.624982 1.75776 53 40 52
0.919745 0.606163 1.70483 55 43 55
0.928675 0.606163 1.70483 55 42 54
0.987286 0.638282 1.79517 54 42 55
0.83281 0.533333 1.5 54 41 54
0.955464 0.606163 1.70483 54 42 54
1.04314 0.655659 1.84404 54 44 55
0.784634 0.488652 1.37433 54 44 55
0.93664 0.578015 1.62567 53 42 55
1.07212 0.655659 1.84404 56 47 58
0.87995 0.533333 1.5 56 47 57
0.887806 0.533333 1.5 54 44 56
1.19422 0.711111 2 55 44 56
1.0269 0.606163 1.70483 53 42 54
0.911376 0.533333 1.5 54 42 55
0.919233 0.533333 1.5 52 40 53
0.92709 0.533333 1.5 53 40 54
0.934947 0.533333 1.5 54 43 54
-0.154116 0.0884639 0.245199 166 213 187
-0.15778 0.0913282 0.253138 143 205 173
-0.143696 0.0838803 0.232494 158 212 184
-0.137929 0.0812024 0.225072 161 213 183
-0.12917 0.0767013 0.212596 139 203 171
-0.129565 0.0776047 0.2151 145 206 176
-0.131577 0.0795013 0.220357 136 201 167
-0.12831 0.0782132 0.216787 145 206 175
-0.128957 0.0793095 0.219825 158 212 184
-0.121305 0.0752758 0.208645 151 207 176
-0.132116 0.08273 0.229306 152 207 177
-0.120823 0.0763525 0.211629 156 209 180
-0.12015 0.07663 0.212398 154 208 178
-0.113068 0.0727873 0.201747 165 214 187
-0.112613 0.0731782 0.202831 148 206 173
-0.109507 0.0718375 0.199115 146 204 169
-0.107523 0.0712142 0.197387 147 204 172
-0.107511 0.0718975 0.199281 150 206 171
-0.107495 0.0725917 0.201205 158 210 178
-0.105584 0.0720075 0.199586 158 210 181
-0.102841 0.0708382 0.196345 137 202 168
-0.0994263 0.0691776 0.191742 157 211 182
-0.0995079 0.0699408 0.193858 145 205 172
-0.0988761 0.0702132 0.194613 142 202 168
-0.099888 0.0716706 0.198652 133 198 161
-0.0973606 0.0705925 0.195664 134 197 162
-0.0943531 0.0691397 0.191637 131 195 161
-0.0916183 0.0678576 0.188083 154 206 179
-0.0904891 0.0677497 0.187785 151 206 175
-0.092057 0.069681 0.193138 150 206 174
-0.0894628 0.0684698 0.18978 165 212 184
-0.0886421 0.0686039 0.190152 153 206 174
-0.0873717 0.0683891 0.189557 139 200 163
-0.0879984 0.0696714 0.193111 145 202 168
-0.087967 0.0704564 0.195287 136 198 163
-0.0854287 0.0692284 0.191883 129 198 162
-0.0820959 0.0673196 0.186592 168 218 193
-0.0807288 0.0669961 0.185696 163 217 190
-0.0816179 0.06856 0.19003 140 207 170
-0.0775928 0.0659835 0.182889 142 207 168
-0.0815959 0.070255 0.194729 148 205 171
-0.0778001 0.0678348 0.18802 143 203 171
-0.0769964 0.0679946 0.188463 138 203 167
-0.0743195 0.066483 0.184274 140 205 171
-0.0770732 0.0698536 0.193616 133 195 162
-0.0744382 0.068365 0.18949 138 201 170
-0.0703533 0.0654865 0.181512 183 223 204
-0.0713557 0.0673295 0.18662 158 210 185
-0.0738767 0.0706764 0.195896 146 206 176
-0.0720416 0.0698914 0.193721 139 204 173
-0.0705865 0.069458 0.19252 154 210 185
-0.0702173 0.0700961 0.194288 156 212 182
-0.0678722 0.0687515 0.190561 150 208 176
-0.064799 0.0666182 0.184648 158 208 177
-0.0657415 0.0686112 0.190172 143 202 166
-0.0662966 0.070255 0.194729 149 203 172
-0.0652767 0.070255 0.194729 143 199 171
-0.0652403 0.0713304 0.197709 169 213 193
-0.0601891 0.0668691 0.185344 163 212 186
-0.0613213 0.0692437 0.191925 149 206 174
-0.0615424 0.0706516 0.195828 154 207 178
-0.0595037 0.069469 0.19255 145 200 167
-0.0587938 0.0698237 0.193533 151 196 161
-0.0568992 0.0687592 0.190582 154 196 162
-0.0565099 0.0695082 0.192658 159 196 161
-0.0546161 0.0684001 0.189587 138 182 144
-0.0588648 0.0750864 0.20812 146 188 154
-0.0575925 0.0748495 0.207463 165 198 170
-0.0562154 0.0744648 0.206397 140 182 148
-0.0598682 0.0808584 0.224118 157 187 157
-0.0699371 0.0963466 0.267048 146 178 143
-0.0686041 0.096439 0.267304 136 170 131
-0.0822053 0.117966 0.326972 147 171 142
-0.097206 0.14246 0.394863 135 161 130
-0.0951378 0.14246 0.394863 127 156 123
-0.11785 0.180392 0.5 117 148 113
-0.109366 0.17121 0.474549 125 153 119
-0.146127 0.234079 0.648805 111 142 101
-0.116658 0.191321 0.530292 112 140 112
-0.13727 0.230617 0.639209 111 133 108
-0.160538 0.276451 0.76625 100 121 97
-0.169649 0.299631 0.830499 98 114 90
-0.167995 0.304517 0.844042 96 108 85
-0.209141 0.389346 1.07917 97 107 85
-0.177678 0.339961 0.942284 91 99 79
-0.183323 0.360784 1 92 96 78
-0.205859 0.417052 1.15596 87 91 73
-0.172847 0.360784 1 84 86 73
-0.188672 0.406123 1.12567 82 81 74
-0.184975 0.411009 1.13921 82 78 72
-0.198971 0.456843 1.26625 80 75 70
-0.173041 0.411009 1.13921 79 75 70
-0.195129 0.480023 1.3305 76 73 68
-0.170388 0.434685 1.20483 75 70 67
-0.16642 0.440891 1.22203 73 67 66
-0.162665 0.44818 1.24224 71 64 65
-0.147979 0.424705 1.17717 69 63 65
-0.135608 0.406123 1.12567 73 69 68
-0.136612 0.427727 1.18555 72 66 65
-0.135116 0.443188 1.2284 70 63 63
-0.110802 0.381607 1.05772 67 60 61
-0.113372 0.411009 1.13921 67 59 61
-0.106128 0.406123 1.12567 67 59 62
-0.065335 0.264726 0.73375 66 58 61
-0.0454539 0.195682 0.542379 63 55 59
-0.0275923 0.126705 0.351194 62 53 58
-0.0167484 0.0824033 0.2284 61 53 59
-0.0151186 0.0801066 0.222035 61 53 60
-0.0143558 0.0824033 0.2284 60 50 58
-0.0119878 0.0750663 0.208064 59 50 58
-0.0107287 0.0739004 0.204833 57 46 57
-0.00953484 0.0729743 0.202266 59 48 58
-0.0078233 0.0673595 0.186703 56 45 56
-0.0070958 0.0698237 0.193533 57 45 57
-0.00589228 0.0676442 0.187492 57 44 56
-0.00487323 0.0671346 0.18608 56 43 54
-0.00407435 0.0701613 0.194469 52 36 50
-0.00293519 0.067393 0.186796 54 39 53
-0.00193298 0.0665726 0.184522 52 37 52
-0.000952519 0.0656104 0.181855 50 32 49
0 0.0674901 0.187065 48 29 47
0.000961843 0.0662526 0.183635 49 30 48
0.00191266 0.0658729 0.182582 49 29 47
0.00292388 0.0671332 0.186076 48 28 47
0.00388204 0.0668497 0.18529 47 27 46
0.00468735 0.0645738 0.178982 46 26 45
0.00576887 0.0662275 0.183565 48 26 47
0.00654736 0.0644269 0.178574 45 23 44
0.00746727 0.0642941 0.178207 47 24 45
0.00840068 0.0642941 0.178207 46 23 45
0.00966155 0.0665497 0.184458 46 24 46
0.0101878 0.0637952 0.176824 46 23 45
0.0111798 0.0641727 0.17787 46 24 45
0.0121946 0.0646137 0.179092 47 24 46
0.0128635 0.0632894 0.175422 47 24 46
0.0135575 0.0622567 0.172559 48 27 48
0.0149529 0.0643731 0.178425 49 27 48
0.0157919 0.0639858 0.177352 49 27 47
0.0166695 0.0637895 0.176808 48 26 47
0.017595 0.0637875 0.176802 48 26 48
0.0188346 0.0648674 0.179796 49 27 48
0.0195719 0.0641968 0.177937 50 29 50
0.0205068 0.0642059 0.177962 49 26 48
0.020724 0.0620648 0.172028 49 30 51
0.0223494 0.0641435 0.177789 51 33 53
0.0221594 0.0610545 0.169227 53 36 54
0.0233861 0.0619561 0.171726 49 33 53
0.0246063 0.0627742 0.173994 51 36 55
0.0256733 0.0631572 0.175055 52 37 56
0.0269848 0.0640943 0.177653 52 37 56
0.0275219 0.0631911 0.175149 51 36 55
0.0284172 0.063142 0.175013 51 36 55
0.0291832 0.0628178 0.174114 51 36 56
0.0293958 0.0613579 0.170068 52 37 56
0.029599 0.0599649 0.166207 53 38 57
0.0309908 0.0609908 0.16905 51 35 56
0.0322018 0.0616137 0.170777 54 38 58
0.0344235 0.0640845 0.177625 53 36 56
0.0364712 0.0661098 0.183239 54 38 57
0.041842 0.0739004 0.204833 49 31 52
0.0444479 0.0765404 0.21215 47 28 51
0.046567 0.0782336 0.216843 49 32 54
0.0585716 0.0960588 0.26625 46 27 50
0.0630659 0.101024 0.280012 46 26 50
0.0862702 0.135054 0.374334 46 27 50
0.123849 0.189575 0.525451 44 24 49
0.138788 0.207823 0.576031 46 26 51
0.179315 0.262795 0.7284 47 29 52
0.236904 0.339961 0.942284 50 32 54
0.240367 0.337892 0.936549 48 30 54
0.26189 0.360784 1 49 31 54
0.284077 0.383676 1.06345 50 33 54
0.334574 0.443188 1.2284 49 31 53
0.359542 0.467276 1.29517 49 32 52
0.398711 0.508585 1.40967 50 34 53
0.395916 0.495838 1.37433 48 33 53
0.413478 0.508585 1.40967 48 33 52
0.43324 0.523543 1.45113 49 34 52
0.470536 0.55881 1.54887 48 32 52
0.463545 0.541176 1.5 48 32 51
0.449263 0.51576 1.42955 45 31 51
0.492799 0.556466 1.54238 47 34 53
0.499262 0.554672 1.53741 46 31 51
0.521095 0.569739 1.57917 49 34 53
0.551229 0.593268 1.64438 49 34 52
0.527325 0.55881 1.54887 48 32 51
0.54977 0.573768 1.59033 48 32 52
0.577068 0.593268 1.64438 48 35 53
0.585681 0.593268 1.64438 49 34 53
0.562971 0.561999 1.55772 48 33 52
0.60715 0.597444 1.65596 48 32 50
0.591419 0.573768 1.59033 50 35 53
0.620132 0.593268 1.64438 49 35 54
0.589742 0.556466 1.54238 50 35 53
0.622146 0.579108 1.60514 51 36 53
0.645971 0.593268 1.64438 49 35 52
0.620084 0.561999 1.55772 52 37 54
0.628243 0.561999 1.55772 50 33 52
0.685205 0.605097 1.67717 50 32 52
0.620679 0.541176 1.5 49 32 51
0.689036 0.593268 1.64438 51 33 51
0.697649 0.593268 1.64438 49 30 49
0.74829 0.628572 1.74224 50 30 47
0.682731 0.566592 1.57045 48 26 44
0.715252 0.586515 1.62567 48 26 44
0.699183 0.566592 1.57045 47 23 40
0.767943 0.615077 1.70483 46 20 38
0.740797 0.586515 1.62567 44 19 37
0.717992 0.561999 1.55772 40 17 33
0.794731 0.615077 1.70483 40 16 34
0.821294 0.628572 1.74224 42 18 36
0.748537 0.566592 1.57045 41 18 36
0.783371 0.586515 1.62567 43 19 38
0.856232 0.634173 1.75776 45 21 39
0.883856 0.647668 1.79517 46 22 40
0.711332 0.51576 1.42955 48 27 44
0.883853 0.634173 1.75776 50 31 47
0.841336 0.597444 1.65596 51 33 48
0.875097 0.615077 1.70483 54 39 53
0.858684 0.597444 1.65596 54 39 53
0.832985 0.573768 1.59033 54 39 52
0.841314 0.573768 1.59033 54 39 53
0.86852 0.586515 1.62567 53 40 53
0.80924 0.541176 1.5 53 40 54
0.705517 0.467276 1.29517 53 41 54
1.03082 0.67623 1.87433 52 41 54
0.946534 0.615077 1.70483 53 42 54
0.840666 0.541176 1.5 54 43 55
0.964393 0.615077 1.70483 54 44 56
1.0528 0.665301 1.84404 54 44 56
0.982252 0.615077 1.70483 55 46 57
0.872093 0.541176 1.5 56 48 58
1.00011 0.615077 1.70483 55 45 57
1.06251 0.647668 1.79517 54 45 57
0.820627 0.495838 1.37433 54 43 55
1.0269 0.615077 1.70483 53 42 55
0.786923 0.467276 1.29517 53 41 54
0.431937 0.254293 0.704833 52 40 54
1.23612 0.721569 2 53 41 54
0.311649 0.180392 0.5 54 41 54
-0.139557 0.0812675 0.222035 144 205 170
-0.136423 0.0801106 0.218874 134 203 169
-0.13393 0.0793128 0.216694 147 207 180
-0.13636 0.0814423 0.222512 157 211 185
-0.12834 0.0773132 0.211231 150 208 179
-0.130416 0.0792464 0.216513 144 205 174
-0.129696 0.0795003 0.217206 144 205 172
-0.123537 0.0763951 0.208722 164 212 184
-0.124538 0.0777019 0.212293 150 208 176
-0.121104 0.0762401 0.208299 154 208 178
-0.118652 0.0753753 0.205936 157 209 182
-0.121741 0.0780473 0.213236 146 205 173
-0.122795 0.0794519 0.217074 150 206 176
-0.117521 0.0767501 0.209692 166 214 187
-0.116304 0.0766722 0.20948 148 206 173
-0.111645 0.0743019 0.203003 148 205 171
-0.108212 0.0727093 0.198652 147 204 170
-0.113759 0.0771785 0.210863 165 214 185
-0.106668 0.0730771 0.199657 162 213 182
-0.109265 0.0755978 0.206544 154 208 177
-0.109879 0.0767824 0.20978 145 203 170
-0.104138 0.073506 0.200829 156 210 182
-0.103607 0.0738775 0.201844 155 210 181
-0.101142 0.0728628 0.199072 144 203 169
-0.0992218 0.0722244 0.197327 150 205 173
-0.0986906 0.0725939 0.198337 150 205 173
-0.0953941 0.0709156 0.193752 132 194 161
-0.0902958 0.0678473 0.185369 169 212 190
-0.0937478 0.0712068 0.194547 156 208 179
-0.0880355 0.0676027 0.1847 144 201 166
-0.0911402 0.0707645 0.193339 152 206 172
-0.0876777 0.068841 0.188083 139 199 161
-0.0883759 0.0701777 0.191735 141 201 164
-0.0879115 0.0706113 0.19292 142 202 165
-0.0885309 0.0719357 0.196539 142 202 166
-0.0864819 0.0710975 0.194249 136 200 159
-0.0814337 0.0677443 0.185087 158 215 182
-0.0817377 0.0688165 0.188016 159 216 185
-0.0819196 0.0698107 0.190733 183 224 200
-0.0789799 0.0681365 0.186159 144 204 167
-0.0791783 0.0691615 0.188959 147 204 172
-0.0770905 0.0681902 0.186305 156 209 180
-0.0759889 0.0680775 0.185997 161 212 184
-0.0781848 0.0709544 0.193858 163 213 187
-0.0764233 0.0702685 0.191983 134 196 164
-0.0733671 0.0683578 0.186763 130 197 162
-0.0710554 0.0670986 0.183323 171 218 196
-0.0730969 0.069972 0.191173 172 218 196
-0.06978 0.0677246 0.185033 156 210 183
-0.0707659 0.0696488 0.19029 132 201 167
-0.0725686 0.0724434 0.197926 143 208 179
-0.0689256 0.0698039 0.190714 160 214 187
-0.0688799 0.0707835 0.193391 165 215 189
-0.0675024 0.0704032 0.192352 145 204 171
-0.068823 0.0728681 0.199086 160 211 182
-0.0638558 0.0686491 0.187559 164 214 188
-0.0647252 0.070671 0.193083 130 197 160
-0.0640307 0.0710225 0.194044 138 204 169
-0.0645815 0.0727888 0.198869 149 210 181
-0.0629342 0.0720949 0.196974 155 208 181
-0.0597204 0.0695536 0.19003 153 208 180
-0.0597915 0.0708167 0.193481 137 199 179
-0.0578649 0.0697165 0.190475 146 204 179
-0.0602018 0.0738045 0.201644 168 214 190
-0.0600808 0.0749715 0.204833 154 205 176
-0.0611159 0.0776496 0.21215 137 194 159
-0.0614456 0.0795143 0.217244 146 202 166
-0.0661551 0.0872239 0.238308 159 208 178
-0.0698621 0.0938829 0.256501 132 188 156
-0.0831336 0.113908 0.311213 152 198 173
-0.0793099 0.110842 0.302837 161 202 177
-0.108498 0.15473 0.422745 137 189 158
-0.104492 0.152121 0.415615 154 196 170
-0.123088 0.183007 0.5 148 190 156
-0.133222 0.202379 0.552929 125 176 136
-0.12499 0.194094 0.530292 125 173 136
-0.162438 0.257978 0.704833 151 183 154
-0.154402 0.250919 0.685547 122 161 123
-0.161416 0.268562 0.73375 141 172 144
-0.178349 0.303973 0.830499 140 169 140
-0.19742 0.344888 0.942284 121 155 118
-0.218664 0.391797 1.07045 128 160 125
-0.199036 0.366013 1 112 140 99
-0.207451 0.391797 1.07045 111 135 92
-0.203488 0.394989 1.07917 109 128 88
-0.183323 0.366013 1 102 117 87
-0.211128 0.433926 1.18555 95 109 82
-0.223866 0.474048 1.29517 85 98 75
-0.190942 0.416965 1.13921 86 95 76
-0.180963 0.407921 1.1145 85 86 69
-0.179008 0.416965 1.13921 85 84 68
-0.18008 0.433926 1.18555 86 87 71
-0.186491 0.465422 1.2716 81 86 71
-0.165391 0.428053 1.1695 80 85 69
-0.161451 0.433926 1.18555 79 82 68
-0.165809 0.463464 1.26625 74 74 68
-0.159849 0.465422 1.2716 73 70 66
-0.147985 0.449611 1.2284 73 69 67
-0.129712 0.412008 1.12567 72 68 67
-0.127148 0.423096 1.15596 74 69 67
-0.121093 0.423096 1.15596 73 68 67
-0.0995181 0.366013 1 70 62 64
-0.0876386 0.340229 0.929553 68 60 62
-0.0496604 0.204131 0.557716 67 60 62
-0.0325833 0.142306 0.3888 67 60 63
-0.0179447 0.0835976 0.2284 65 58 62
-0.0173142 0.0864218 0.236117 64 56 61
-0.0167704 0.0901464 0.246293 62 55 60
-0.0126432 0.0736246 0.201153 60 51 58
-0.0118016 0.0749715 0.204833 59 50 58
-0.010427 0.0728628 0.199072 60 51 60
-0.00886628 0.068841 0.188083 58 48 58
-0.00806674 0.0704621 0.192513 58 47 57
-0.00715182 0.0713948 0.195061 57 45 55
-0.0059362 0.0691362 0.18889 56 44 55
-0.00496991 0.0694586 0.189771 55 43 54
-0.00392752 0.0686129 0.18746 55 41 54
-0.00304341 0.0708905 0.193683 54 38 53
-0.00193757 0.0676978 0.18496 53 37 52
-0.000976355 0.0682269 0.186406 48 29 47
0 0.068013 0.185821 48 28 47
0.000945412 0.0660646 0.180498 49 29 47
0.00193248 0.0675202 0.184475 47 28 46
0.00291347 0.0678638 0.185413 47 26 46
0.00378637 0.0661471 0.180723 47 26 46
0.00477117 0.0666811 0.182182 48 26 46
0.00592969 0.0690603 0.188683 49 27 47
0.00654812 0.0653682 0.178595 48 25 45
0.00753409 0.0658095 0.179801 46 23 44
0.00854764 0.066367 0.181324 44 21 43
0.00957211 0.0668892 0.182751 44 22 44
0.0103409 0.0656919 0.17948 49 28 48
0.0113589 0.0661461 0.180721 47 26 47
0.011906 0.0639984 0.174853 47 25 47
0.0133212 0.0664911 0.181663 48 27 47
0.0140908 0.0656438 0.179348 49 29 50
0.0148788 0.0649825 0.177541 50 30 50
0.0156761 0.0644373 0.176052 49 28 48
0.016615 0.0645025 0.17623 47 26 47
0.0172326 0.0633788 0.17316 48 27 48
0.0186213 0.0650621 0.177759 48 26 48
0.0191983 0.0638841 0.17454 46 25 49
0.019867 0.0631041 0.172409 48 30 51
0.0209594 0.0636795 0.173982 51 34 54
0.0227675 0.0662907 0.181116 52 35 54
0.0231996 0.0648469 0.177171 52 36 55
0.0238047 0.0639791 0.1748 52 37 56
0.0240382 0.0622136 0.169977 54 39 57
0.0249818 0.0623467 0.17034 52 37 56
0.0261684 0.0630561 0.172278 53 38 57
0.0273865 0.0637916 0.174288 52 38 57
0.028717 0.0647329 0.17686 54 41 58
0.0298078 0.0650921 0.177841 54 40 58
0.0314765 0.0666532 0.182106 54 39 58
0.0305709 0.0628316 0.171665 52 37 57
0.0350765 0.070032 0.191338 52 37 57
0.0361739 0.0702168 0.191842 53 37 58
0.0349761 0.0660567 0.180476 51 35 56
0.0403997 0.0742921 0.202977 52 37 56
0.0443916 0.0795397 0.217314 50 34 54
0.0560033 0.0978367 0.267304 48 30 52
0.0619011 0.105502 0.288248 47 30 53
0.0880619 0.146517 0.400304 46 29 52
0.103068 0.167495 0.457621 45 26 50
0.121097 0.192322 0.525451 46 29 52
0.144838 0.224914 0.614498 46 29 52
0.169821 0.257978 0.704833 45 27 51
0.230556 0.342789 0.936549 48 31 54
0.235462 0.342789 0.936549 49 31 54
0.256652 0.366013 1 49 31 54
0.285547 0.399077 1.09033 50 33 54
0.288275 0.394989 1.07917 49 31 53
0.395236 0.531131 1.45113 50 33 54
0.376323 0.496173 1.35562 50 35 55
0.424261 0.54902 1.5 49 33 54
0.390524 0.496173 1.35562 48 34 54
0.407358 0.508319 1.3888 49 35 54
0.462423 0.566908 1.54887 50 36 54
0.455688 0.54902 1.5 48 33 53
0.42471 0.503024 1.37433 47 31 52
0.471402 0.54902 1.5 48 34 54
0.450396 0.515956 1.40967 48 34 53
0.502987 0.566908 1.54887 48 33 52
0.52478 0.582083 1.59033 48 32 52
0.538072 0.587501 1.60514 49 33 53
0.52342 0.56271 1.53741 49 33 53
0.542895 0.574804 1.57045 49 33 52
0.577068 0.601866 1.64438 49 35 53
0.502081 0.515956 1.40967 50 35 53
0.635269 0.643364 1.75776 50 35 53
0.549969 0.54902 1.5 50 35 53
0.596924 0.587501 1.60514 49 33 52
0.629605 0.611059 1.6695 50 36 54
0.589742 0.564531 1.54238 51 35 54
0.671996 0.634575 1.73375 51 35 53
0.624738 0.582083 1.59033 50 35 53
0.654584 0.601866 1.64438 51 34 52
0.673327 0.611059 1.6695 50 32 51
0.655776 0.587501 1.60514 52 35 53
0.727337 0.643364 1.75776 49 31 50
0.65272 0.570144 1.55772 50 30 50
0.708305 0.611059 1.6695 50 30 49
0.74829 0.637682 1.74224 50 31 48
0.77018 0.648428 1.7716 47 25 43
0.750084 0.623991 1.70483 46 22 40
0.693515 0.570144 1.55772 44 20 37
0.767943 0.623991 1.70483 42 18 35
0.754601 0.606102 1.65596 40 17 33
0.785802 0.623991 1.70483 42 18 36
0.771948 0.606102 1.65596 41 17 36
0.803661 0.623991 1.70483 42 19 37
0.774856 0.595015 1.62567 45 20 40
0.847025 0.643364 1.75776 45 21 41
0.83045 0.623991 1.70483 47 25 43
0.857796 0.637682 1.74224 48 26 44
0.823989 0.606102 1.65596 48 27 45
0.902661 0.657055 1.79517 53 35 50
0.797891 0.574804 1.57045 54 39 53
0.875097 0.623991 1.70483 54 40 54
0.956213 0.674943 1.84404 54 40 53
0.892957 0.623991 1.70483 52 38 52
0.793526 0.54902 1.5 52 37 52
0.910816 0.623991 1.70483 53 41 54
0.877035 0.595015 1.62567 54 43 55
0.928675 0.623991 1.70483 54 42 55
1.09994 0.732026 2 54 44 56
0.83281 0.54902 1.5 55 44 56
0.790039 0.515956 1.40967 53 43 55
0.848523 0.54902 1.5 54 43 55
0.973323 0.623991 1.70483 54 44 56
1.15232 0.732026 2 54 45 56
0.945155 0.595015 1.62567 55 46 57
0.87995 0.54902 1.5 54 44 56
1.18374 0.732026 2 54 44 56
0.773356 0.474048 1.29517 55 45 57
0.90352 0.54902 1.5 53 43 55
0.607584 0.366013 1 54 44 56
0.612822 0.366013 1 52 40 54
0.92709 0.54902 1.5 52 40 54
0.623298 0.366013 1 52 39 53
-0.148181 0.0875222 0.235755 147 207 171
-0.145427 0.0866178 0.233319 142 206 174
-0.129697 0.0779034 0.209845 146 208 179
-0.136831 0.082891 0.22328 148 208 181
-0.125318 0.0765712 0.206257 152 207 179
-0.125823 0.0775478 0.208888 147 204 175
-0.127535 0.0792925 0.213587 150 206 176
-0.12622 0.0791697 0.213256 153 207 177
-0.12683 0.0802624 0.2162 144 205 173
-0.118454 0.0756371 0.203741 146 206 173
-0.114455 0.073748 0.198652 148 206 175
-0.1158 0.0752993 0.202831 149 207 176
-0.117505 0.0771151 0.207722 152 209 179
-0.12051 0.0798264 0.215025 157 211 181
-0.116703 0.0780341 0.210197 147 206 173
-0.109344 0.0738099 0.198819 138 199 162
-0.11856 0.0808004 0.217649 142 201 165
-0.112318 0.0772896 0.208192 172 217 190
-0.108533 0.0754173 0.203149 155 209 176
-0.102173 0.0717008 0.193138 165 211 183
-0.106449 0.0754487 0.203233 154 207 175
-0.104214 0.0746101 0.200974 162 214 186
-0.100928 0.0729949 0.196624 163 214 188
-0.100085 0.0731314 0.196991 155 209 180
-0.100311 0.0740606 0.199494 146 205 171
-0.0978009 0.0729672 0.196549 147 204 170
-0.0957318 0.0721833 0.194437 135 197 162
-0.0911652 0.0694792 0.187153 170 215 192
-0.0895784 0.0690119 0.185895 166 215 190
-0.0909488 0.0708376 0.190813 141 202 167
-0.0901195 0.0709716 0.191173 183 222 199
-0.0922135 0.0734366 0.197813 158 211 179
-0.0887846 0.0715094 0.192622 161 212 181
-0.0854884 0.069646 0.187603 156 208 177
-0.0836523 0.0689426 0.185708 149 206 171
-0.0855824 0.0713631 0.192228 157 210 178
-0.0808652 0.0682324 0.183795 161 214 182
-0.080595 0.0688238 0.185388 148 209 175
-0.0823036 0.0711399 0.191627 168 215 189
-0.0785843 0.0687637 0.185226 168 214 189
-0.0800892 0.0709565 0.191133 144 202 170
-0.0806446 0.072353 0.194895 153 207 175
-0.0783331 0.0711802 0.191735 151 208 175
-0.0766412 0.0705472 0.19003 169 215 192
-0.0780964 0.0728326 0.196186 161 211 183
-0.0772999 0.073051 0.196775 142 202 167
-0.0740982 0.0709716 0.191173 148 208 177
-0.0734784 0.0713419 0.192171 141 206 175
-0.0734363 0.0722914 0.194729 153 210 181
-0.0728081 0.0726824 0.195782 150 206 175
-0.0682314 0.0690867 0.186096 146 209 180
-0.0697302 0.0716276 0.192941 142 207 175
-0.0688497 0.0717632 0.193306 153 210 181
-0.0655413 0.0693343 0.186763 132 197 159
-0.0658033 0.0706662 0.190351 166 213 186
-0.0664945 0.0725072 0.19531 158 212 184
-0.0655257 0.0725671 0.195471 147 209 178
-0.0608168 0.0684213 0.184304 146 209 178
-0.0622413 0.0711534 0.191663 132 202 170
-0.0608579 0.0707124 0.190475 160 210 187
-0.0611457 0.0722309 0.194566 169 214 192
-0.0622244 0.074751 0.201354 138 201 173
-0.0601471 0.0735013 0.197988 134 201 172
-0.0601689 0.0748179 0.201534 148 208 181
-0.0649616 0.0822199 0.221473 145 207 178
-0.071636 0.092316 0.248668 160 209 183
-0.079199 0.103952 0.280012 154 208 175
-0.0721312 0.0964619 0.259836 142 204 169
-0.100408 0.136858 0.36865 157 208 182
-0.101766 0.14143 0.380965 153 205 178
-0.119056 0.168768 0.454604 148 201 173
-0.134858 0.195069 0.525451 137 191 160
-0.146467 0.216275 0.582571 140 197 167
-0.168766 0.254504 0.685547 143 199 168
-0.150747 0.232273 0.625666 135 191 156
-0.178605 0.281313 0.757762 141 189 153
-0.162438 0.261663 0.704833 144 186 149
-0.209359 0.345089 0.929553 136 180 143
-0.189363 0.319562 0.860791 139 178 140
-0.181258 0.313344 0.844042 129 168 126
-0.192925 0.341852 0.920833 132 172 131
-0.229944 0.417894 1.12567 127 174 135
-0.210524 0.392668 1.05772 143 184 148
-0.211305 0.404778 1.09033 132 172 130
-0.210151 0.413748 1.1145 131 164 125
-0.194955 0.394798 1.06345 126 160 120
-0.2255 0.470085 1.26625 111 145 103
-0.218868 0.470085 1.26625 107 132 99
-0.230351 0.51021 1.37433 102 121 91
-0.21479 0.491089 1.32283 99 116 91
-0.213013 0.503261 1.35562 90 110 84
-0.196731 0.48082 1.29517 88 105 79
-0.195129 0.493937 1.3305 86 99 74
-0.18816 0.493937 1.3305 80 93 67
-0.172441 0.470085 1.26625 80 88 64
-0.164698 0.466934 1.25776 80 85 71
-0.156158 0.461171 1.24224 79 82 72
-0.156028 0.48082 1.29517 73 76 67
-0.153315 0.493937 1.3305 72 74 68
-0.135116 0.456034 1.2284 75 76 70
-0.126213 0.447284 1.20483 73 72 68
-0.0995181 0.371242 1 73 71 69
-0.0631208 0.248547 0.669501 71 65 66
-0.0382485 0.159468 0.429553 69 64 64
-0.0195894 0.0867778 0.23375 67 61 63
-0.0169705 0.0801884 0.216 65 59 62
-0.0174121 0.0881519 0.237451 66 59 63
-0.0142422 0.0776502 0.209163 64 57 61
-0.0122861 0.0725671 0.195471 64 56 61
-0.0115326 0.074309 0.200163 62 54 60
-0.00982773 0.0696565 0.187631 60 51 59
-0.00926272 0.0729465 0.196493 57 48 57
-0.00798468 0.0707418 0.190554 59 49 57
-0.00698406 0.0707161 0.190485 57 45 56
-0.00603199 0.0712554 0.191938 56 44 55
-0.00513201 0.0727488 0.195961 55 42 54
-0.00395069 0.0700038 0.188567 55 40 53
-0.00298236 0.0704607 0.189797 51 34 50
-0.00198832 0.0704635 0.189805 51 33 49
-0.000996486 0.0706284 0.190249 51 34 48
0 0.0663632 0.17876 48 29 47
0.000951332 0.067428 0.181628 49 30 47
0.0019283 0.0683367 0.184076 48 29 47
0.00291347 0.0688332 0.185413 48 28 46
0.00386547 0.0684937 0.184499 45 24 44
0.00478891 0.0678853 0.18286 47 25 45
0.005723 0.0676054 0.182106 47 24 45
0.00644916 0.0653001 0.175896 49 28 47
0.00760307 0.0673608 0.181447 47 24 44
0.00847768 0.0667641 0.17984 46 24 45
0.00924244 0.0655081 0.176457 49 29 49
0.0102387 0.0659721 0.177706 47 26 47
0.0110085 0.0650213 0.175145 49 28 49
0.0120391 0.0656384 0.176808 48 28 49
0.0131935 0.0667944 0.179921 50 32 50
0.0137292 0.0648726 0.174745 51 33 53
0.0149918 0.0664113 0.17889 50 33 52
0.0156207 0.065127 0.17543 52 33 52
0.0166478 0.0655529 0.176577 49 29 49
0.0179976 0.0671381 0.180847 51 30 51
0.0184733 0.0654672 0.176346 49 28 50
0.018585 0.0627264 0.168964 49 31 53
0.0201349 0.0648687 0.174734 50 34 54
0.0214534 0.0661115 0.178082 49 33 53
0.0220004 0.0649722 0.175013 50 34 54
0.0226382 0.0641815 0.172883 52 37 56
0.0249177 0.0679271 0.182973 52 38 56
0.0246574 0.064728 0.174355 54 39 57
0.0255019 0.0645539 0.173886 54 41 58
0.0269116 0.0657733 0.177171 54 39 58
0.0276126 0.0652371 0.175727 52 39 57
0.0288338 0.0659248 0.177579 52 38 57
0.0311529 0.0690013 0.185866 54 40 58
0.0327012 0.0702357 0.189191 52 37 57
0.0367313 0.0765712 0.206257 52 37 57
0.040366 0.0817439 0.220191 53 38 58
0.0390021 0.076788 0.206841 52 37 57
0.0451871 0.0865608 0.233166 52 36 57
0.049494 0.092316 0.248668 50 36 56
0.0587092 0.106696 0.287404 52 37 56
0.0720808 0.127723 0.344042 50 33 53
0.0855125 0.147827 0.398196 46 29 52
0.115593 0.195069 0.525451 46 29 52
0.126903 0.209177 0.563451 44 28 51
0.167869 0.270413 0.7284 46 30 53
0.157802 0.248547 0.669501 47 31 53
0.223965 0.345089 0.929553 48 32 54
0.228834 0.345089 0.929553 48 31 53
0.231511 0.341852 0.920833 48 30 53
0.296679 0.42914 1.15596 49 31 54
0.308289 0.437015 1.17717 49 32 54
0.288275 0.400632 1.07917 49 31 54
0.352759 0.48082 1.29517 49 32 54
0.402837 0.538718 1.45113 50 35 54
0.388718 0.51021 1.37433 49 34 54
0.390524 0.503261 1.35562 47 31 52
0.413478 0.523327 1.40967 47 33 53
0.43324 0.538718 1.45113 48 34 53
0.455688 0.556863 1.5 48 33 53
0.445709 0.535436 1.44228 47 32 53
0.486761 0.575007 1.54887 47 32 52
0.508121 0.590399 1.59033 47 31 51
0.487115 0.556863 1.5 49 33 52
0.536439 0.603515 1.62567 49 34 54
0.488622 0.54113 1.45762 48 33 53
0.527325 0.575007 1.54887 48 32 52
0.577137 0.619789 1.6695 48 33 52
0.546653 0.578289 1.55772 48 33 52
0.597358 0.622636 1.67717 49 34 53
0.587529 0.603515 1.62567 48 34 52
0.602907 0.610464 1.64438 48 33 53
0.591419 0.590399 1.59033 49 34 53
0.620132 0.610464 1.64438 50 35 53
0.589742 0.572595 1.54238 51 36 54
0.660788 0.632905 1.70483 50 35 53
0.705204 0.666441 1.79517 49 34 52
0.638961 0.595894 1.60514 52 35 53
0.604965 0.556863 1.5 51 33 52
0.682072 0.619789 1.6695 51 35 53
0.672678 0.603515 1.62567 50 34 52
0.714365 0.632905 1.70483 50 30 49
0.739164 0.646792 1.74224 49 29 48
0.71705 0.619789 1.6695 51 33 48
0.792451 0.67671 1.82283 48 26 43
0.690957 0.583015 1.57045 46 23 41
0.667819 0.556863 1.5 44 20 38
0.707408 0.583015 1.57045 43 18 38
0.776872 0.632905 1.70483 40 17 35
0.691389 0.556863 1.5 42 18 36
0.666406 0.53071 1.42955 42 18 36
0.828612 0.652555 1.75776 41 18 36
0.789295 0.614761 1.65596 45 21 40
0.82152 0.632905 1.70483 45 21 41
0.856232 0.652555 1.75776 49 26 45
0.738529 0.556863 1.5 47 27 45
0.808916 0.603515 1.62567 51 35 50
0.857238 0.632905 1.70483 53 38 52
0.936895 0.684585 1.84404 53 38 52
0.875097 0.632905 1.70483 55 42 55
0.858684 0.614761 1.65596 53 40 53
0.678382 0.48082 1.29517 54 41 54
0.949675 0.666441 1.79517 53 41 55
0.939093 0.652555 1.75776 53 42 55
0.994848 0.684585 1.84404 53 43 55
1.00451 0.684585 1.84404 52 41 54
0.824953 0.556863 1.5 55 45 57
0.83281 0.556863 1.5 54 43 56
1.12089 0.742484 2 52 40 54
0.848523 0.556863 1.5 54 44 57
0.739437 0.48082 1.29517 53 42 55
0.791833 0.51021 1.37433 53 43 56
0.872093 0.556863 1.5 55 45 57
0.706795 0.447284 1.20483 52 42 55
0.820627 0.51021 1.37433 54 44 57
0.90352 0.556863 1.5 54 44 56
1.03583 0.632905 1.70483 54 43 56
0.793707 0.48082 1.29517 54 42 55
0.435629 0.261663 0.704833 53 42 55
0.623298 0.371242 1 51 38 51
-0.14051 0.0841606 0.223551 149 210 172
-0.131871 0.0796496 0.211569 145 207 177
-0.135172 0.0823355 0.218704 146 208 179
-0.130822 0.0803667 0.213474 143 207 177
-0.12769 0.0791191 0.21016 147 207 175
-0.127874 0.079922 0.212293 143 204 173
-0.126515 0.0797666 0.21188 170 215 193
-0.125187 0.0796274 0.21151 163 211 185
-0.125829 0.0807507 0.214494 145 204 173
-0.119689 0.0775019 0.205865 153 210 180
-0.115731 0.0756203 0.200866 153 209 179
-0.116943 0.0771135 0.204833 151 208 176
-0.11482 0.0764148 0.202977 157 211 183
-0.11832 0.0794797 0.211118 148 208 176
-0.116162 0.0787664 0.209223 151 208 178
-0.114524 0.0783952 0.208237 138 201 166
-0.110226 0.0761785 0.202349 131 198 161
-0.106528 0.0743375 0.197459 163 212 183
-0.10681 0.0752652 0.199923 160 210 180
-0.10836 0.0771135 0.204833 147 205 172
-0.10478 0.0753115 0.200046 140 203 166
-0.104238 0.0756784 0.201021 143 205 172
-0.100561 0.0737539 0.195909 168 218 194
-0.101528 0.0752306 0.199831 165 217 192
-0.0982386 0.0735518 0.195372 143 203 171
-0.0977592 0.0739633 0.196465 150 206 175
-0.0950518 0.07268 0.193056 143 202 170
-0.0971367 0.0750729 0.199412 157 210 183
-0.091637 0.0715922 0.190167 173 218 193
-0.0905759 0.0715408 0.19003 138 203 167
-0.0901968 0.072033 0.191338 169 217 190
-0.0885253 0.0714924 0.189902 146 207 170
-0.0857549 0.070042 0.186049 150 208 173
-0.086938 0.0718246 0.190784 133 199 164
-0.0870895 0.0727863 0.193339 133 199 160
-0.0844356 0.0713985 0.189652 161 212 182
-0.0841115 0.0719712 0.191173 151 207 173
-0.0837819 0.0725529 0.192719 148 204 170
-0.0794039 0.0696002 0.184876 142 204 171
-0.0795145 0.0705576 0.187419 152 208 178
-0.0818901 0.0735739 0.195431 154 208 179
-0.0758808 0.0690378 0.183382 164 211 182
-0.0755306 0.0696002 0.184876 146 203 168
-0.0757096 0.0706712 0.18772 160 211 185
-0.0730494 0.0690853 0.183508 161 213 187
-0.0718146 0.068823 0.182811 161 214 185
-0.0732307 0.0711286 0.188935 151 210 179
-0.0739446 0.0728058 0.193391 148 207 177
-0.0730678 0.0729418 0.193752 161 211 185
-0.0749961 0.0759211 0.201666 160 212 181
-0.0722314 0.0741669 0.197006 170 218 190
-0.0683937 0.0712442 0.189242 152 210 178
-0.0684905 0.0723942 0.192297 154 210 182
-0.0659708 0.0707716 0.187987 144 204 170
-0.0683853 0.0744734 0.19782 149 206 173
-0.0652219 0.0721211 0.191572 139 202 170
-0.0623802 0.0700566 0.186088 185 224 205
-0.0620209 0.0707587 0.187953 156 212 185
-0.0625498 0.0725131 0.192613 136 202 172
-0.064625 0.0761471 0.202266 148 206 180
-0.065798 0.0788213 0.209369 152 208 180
-0.0684604 0.0834007 0.221533 156 210 183
-0.0727109 0.090106 0.239344 143 206 177
-0.0728491 0.0918612 0.244006 164 214 192
-0.081294 0.104341 0.277155 140 204 176
-0.0919925 0.120219 0.319331 159 213 189
-0.098456 0.131048 0.348097 160 214 188
-0.120584 0.16353 0.434376 138 202 168
-0.122871 0.169835 0.451125 163 210 185
-0.148981 0.209964 0.557716 169 212 189
-0.163856 0.235545 0.625666 158 207 180
-0.164054 0.240643 0.639209 158 207 176
-0.171491 0.256793 0.682106 147 202 167
-0.191517 0.292881 0.777965 145 201 167
-0.155257 0.242592 0.644385 161 207 182
-0.208713 0.333365 0.885502 153 203 169
-0.19452 0.317757 0.844042 141 195 158
-0.209359 0.34995 0.929553 159 204 172
-0.219987 0.376471 1 149 199 165
-0.258737 0.453584 1.20483 147 198 163
-0.252427 0.453584 1.20483 144 195 159
-0.236132 0.435184 1.15596 130 184 142
-0.24725 0.467666 1.24224 156 198 168
-0.243752 0.47351 1.25776 157 198 168
-0.249433 0.498006 1.32283 157 193 167
-0.214396 0.440283 1.1695 131 176 141
-0.235576 0.498006 1.32283 136 178 133
-0.228647 0.498006 1.32283 143 176 138
-0.198709 0.446324 1.18555 141 173 139
-0.199457 0.462457 1.2284 135 163 132
-0.198971 0.476706 1.26625 116 149 102
-0.196731 0.487592 1.29517 125 148 106
-0.198812 0.510349 1.35562 117 135 107
-0.197262 0.525125 1.39486 108 125 96
-0.187161 0.517396 1.37433 94 107 78
-0.174222 0.500894 1.3305 92 100 73
-0.154419 0.462457 1.2284 87 96 69
-0.145145 0.453584 1.20483 80 95 67
-0.144934 0.47351 1.25776 75 89 67
-0.145503 0.498006 1.32283 76 83 72
-0.0964627 0.346667 0.920833 68 85 72
-0.107397 0.406275 1.07917 66 86 71
-0.0425323 0.169835 0.451125 75 73 68
-0.0333317 0.140926 0.374334 71 68 68
-0.017166 0.0771135 0.204833 71 66 67
-0.0231904 0.111122 0.295167 66 60 63
-0.0124294 0.0638123 0.169501 66 59 63
-0.0147426 0.0815106 0.216513 65 59 62
-0.0125492 0.075165 0.199657 64 58 61
-0.0112194 0.0733096 0.194729 63 55 61
-0.00989266 0.0711043 0.188871 62 53 60
-0.00918575 0.0733592 0.19486 60 50 58
-0.00816433 0.0733522 0.194842 60 50 58
-0.00690818 0.070933 0.188416 59 47 57
-0.00576514 0.0690623 0.183447 57 46 56
-0.00496338 0.0713494 0.189522 58 45 55
-0.00390059 0.0700894 0.186175 56 43 54
-0.0029988 0.0718469 0.190843 52 35 50
-0.00193757 0.069632 0.18496 50 33 48
-0.000984497 0.0707615 0.18796 50 33 48
0 0.06865 0.182352 50 31 48
0.000995882 0.0715798 0.190134 49 28 46
0.00193668 0.0696002 0.184876 47 26 45
0.00280492 0.0672018 0.178505 49 30 47
0.00388743 0.069853 0.185547 48 28 46
0.00464963 0.0668391 0.177541 49 29 46
0.0057467 0.0688414 0.18286 49 28 47
0.00669602 0.0687545 0.182629 46 23 43
0.00746192 0.0670414 0.178079 46 22 42
0.00864026 0.0690028 0.183289 49 27 48
0.00927986 0.0666997 0.177171 51 32 51
0.0103254 0.0674676 0.179211 53 36 52
0.0112877 0.0676091 0.179587 50 30 50
0.0120253 0.0664867 0.176605 49 31 51
0.0131028 0.0672696 0.178685 53 37 53
0.0143012 0.0685275 0.182026 52 33 54
0.0144948 0.065114 0.172959 51 34 54
0.0161031 0.0680837 0.180847 53 35 53
0.0164861 0.0658305 0.174862 49 30 51
0.0175247 0.0662947 0.176095 49 31 51
0.0187956 0.0675475 0.179423 50 33 53
0.0194626 0.0666137 0.176943 50 35 55
0.0200511 0.0655087 0.174007 52 37 56
0.021128 0.0660257 0.175381 53 38 57
0.0233246 0.069853 0.185547 52 37 56
0.0235031 0.067572 0.179488 52 39 57
0.0251802 0.0696096 0.1849 54 40 57
0.0255363 0.0679793 0.18057 53 39 57
0.0277197 0.0711561 0.189008 52 40 58
0.0267819 0.0663782 0.176317 53 39 58
0.0299011 0.0716387 0.19029 51 39 58
0.0323831 0.0750825 0.199438 52 40 58
0.0325148 0.073032 0.193991 54 40 59
0.0360445 0.0785069 0.208534 53 39 58
0.0377326 0.0797666 0.21188 52 38 57
