ply
format ascii 1.0
element vertex 1166
property float x
property float y
property float z
property uchar red
property uchar green
property uchar blue
end_header
-0.241008 -0.065803 0.393275 188 224 187
-0.225404 -0.062073 0.370983 190 225 187
-0.201543 -0.0559849 0.334597 190 225 188
-0.197344 -0.0552991 0.330499 189 225 188
-0.170242 -0.0481269 0.287634 190 225 188
-0.180934 -0.0516063 0.308428 189 225 188
-0.147704 -0.0425077 0.25405 190 225 189
-0.154929 -0.0449924 0.2689 190 226 189
-0.143741 -0.0421263 0.251771 188 224 187
-0.142639 -0.0421904 0.252153 192 227 191
-0.136286 -0.0406882 0.243175 189 226 188
-0.136469 -0.0411272 0.245799 186 224 186
-0.135106 -0.041104 0.245661 190 226 190
-0.13288 -0.0408157 0.243938 189 226 189
-0.126277 -0.039164 0.234066 190 226 189
-0.133366 -0.0417682 0.249631 189 226 190
-0.130779 -0.0413635 0.247211 190 226 190
-0.12777 -0.0408157 0.243938 190 226 191
-0.123814 -0.0399516 0.238773 191 226 190
-0.131323 -0.042807 0.255839 190 226 190
-0.136306 -0.0448893 0.268284 189 226 189
-0.139142 -0.0463008 0.27672 189 226 190
-0.137348 -0.0461848 0.276027 189 226 190
-0.142952 -0.0485805 0.290344 189 226 189
-0.131012 -0.0450015 0.268954 189 226 190
-0.123225 -0.042787 0.255719 188 226 189
-0.129263 -0.0453766 0.271196 189 226 191
-0.124814 -0.0443017 0.264772 188 226 190
-0.118164 -0.0424126 0.253481 189 226 191
-0.114389 -0.0415241 0.248172 190 227 191
-0.110764 -0.0406704 0.243069 190 226 191
-0.111789 -0.0415241 0.248172 188 226 190
-0.112364 -0.0422287 0.252382 188 225 190
-0.115281 -0.043841 0.262018 188 226 191
-0.115949 -0.0446262 0.266711 188 226 191
-0.109651 -0.0427168 0.255299 188 226 191
-0.107122 -0.0422467 0.25249 187 226 190
-0.115049 -0.0459402 0.274564 186 225 189
-0.107241 -0.0433645 0.259171 185 226 190
-0.114399 -0.0468518 0.280012 185 225 190
-0.108352 -0.0449517 0.268657 186 225 191
-0.104663 -0.0439925 0.262924 185 225 191
-0.1135 -0.0483432 0.288926 183 224 189
-0.12432 -0.0536673 0.320746 183 224 189
-0.111485 -0.0487857 0.291571 184 225 190
-0.118587 -0.0526143 0.314453 182 223 188
-0.119696 -0.0538542 0.321863 183 223 187
-0.129544 -0.0591178 0.353321 183 223 189
-0.118365 -0.054799 0.32751 181 222 189
-0.117714 -0.0552991 0.330499 177 218 182
-0.117977 -0.0562502 0.336183 180 218 184
-0.121767 -0.0589366 0.352238 180 217 187
-0.122366 -0.0601376 0.359416 175 214 183
-0.130863 -0.0653185 0.39038 162 207 173
-0.125245 -0.0635068 0.379552 160 194 154
-0.114048 -0.058762 0.351194 143 174 142
-0.1158 -0.0606429 0.362436 121 148 120
-0.117641 -0.0626337 0.374334 102 122 98
-0.119576 -0.0647427 0.386939 88 92 83
-0.10213 -0.0562502 0.336183 85 87 79
-0.0943529 -0.0528786 0.316033 82 85 76
-0.109798 -0.0626337 0.374334 84 84 77
-0.122562 -0.0711858 0.425446 80 77 72
-0.112626 -0.0666263 0.398196 79 76 72
-0.116825 -0.0704139 0.420833 76 73 70
-0.101956 -0.0626337 0.374334 76 73 69
-0.0976655 -0.0611746 0.365614 76 70 67
-0.0957505 -0.0611746 0.365614 74 66 64
-0.0960736 -0.0626337 0.374334 74 67 65
-0.086497 -0.0575652 0.344042 72 63 62
-0.0921522 -0.0626337 0.374334 72 61 61
-0.100575 -0.0698443 0.417429 69 56 56
-0.0778988 -0.0552991 0.330499 68 54 54
-0.108857 -0.0790318 0.472338 68 55 55
-0.132958 -0.0987749 0.590334 67 52 53
-0.155054 -0.117933 0.704833 65 49 51
-0.187763 -0.146294 0.874334 65 48 50
-0.169113 -0.135057 0.807177 64 46 49
-0.164885 -0.135057 0.807177 64 46 49
-0.14678 -0.123391 0.737451 66 49 52
-0.139532 -0.120468 0.719988 66 50 53
-0.135761 -0.120468 0.719988 65 47 51
-0.129212 -0.117933 0.704833 63 44 48
-0.107172 -0.100694 0.601804 62 43 48
-0.108145 -0.104687 0.625666 62 45 50
-0.0998499 -0.0996776 0.595729 63 47 52
-0.0843173 -0.086887 0.519286 64 48 54
-0.0871204 -0.0927681 0.554434 64 48 55
-0.0734691 -0.0809295 0.48368 65 49 56
-0.0757226 -0.0863908 0.51632 65 49 58
-0.064717 -0.0765693 0.457621 64 50 58
-0.0623201 -0.0765693 0.457621 64 51 61
-0.0546602 -0.0698443 0.417429 66 52 62
-0.0583285 -0.0776372 0.464003 66 51 62
-0.0514244 -0.0714235 0.426867 65 52 63
-0.0426035 -0.0618618 0.369721 65 51 63
-0.0467276 -0.071081 0.42482 64 52 63
-0.0367897 -0.058762 0.351194 66 56 66
-0.0348698 -0.0586268 0.350387 64 51 64
-0.0297956 -0.0528786 0.316033 65 53 66
-0.0275513 -0.0517718 0.309418 65 54 67
-0.0243735 -0.0486628 0.290837 64 54 67
-0.0207818 -0.044258 0.26451 64 54 68
-0.0202302 -0.0461606 0.275882 65 56 69
-0.0183554 -0.0451045 0.26957 66 58 71
-0.0153999 -0.0409954 0.245012 65 57 71
-0.0135832 -0.0394466 0.235755 65 57 71
-0.0132717 -0.0423962 0.253384 64 58 73
-0.011641 -0.0413189 0.246945 65 61 76
-0.00963013 -0.0384541 0.229823 68 65 77
-0.00797821 -0.0364089 0.2176 66 62 76
-0.00696361 -0.0370752 0.221582 67 62 77
-0.00593623 -0.0379263 0.226669 69 66 80
-0.00467799 -0.0373593 0.22328 68 66 79
-0.00328825 -0.0350141 0.209264 69 67 80
-0.00232977 -0.037212 0.2224 70 69 82
-0.00105943 -0.0338432 0.202266 70 68 83
0 -0.0332582 0.19877 73 70 86
0.00105498 -0.033701 0.201416 73 72 87
0.00201993 -0.0322631 0.192822 75 76 90
0.0031199 -0.0332215 0.198551 73 75 89
0.0041205 -0.0329071 0.196671 75 79 93
0.00533802 -0.0341044 0.203827 77 81 95
0.00595084 -0.031683 0.189356 79 83 96
0.00723307 -0.0330084 0.197277 78 85 98
0.00788114 -0.0314702 0.188083 78 86 100
0.00908968 -0.0322631 0.192822 83 91 105
0.0103043 -0.0329168 0.196729 85 96 104
0.0110213 -0.0320066 0.19129 87 100 103
0.0121196 -0.0322631 0.192822 87 102 104
0.0135747 -0.0333571 0.199361 91 99 104
0.013872 -0.0316526 0.189174 93 100 107
0.0149468 -0.0318314 0.190242 97 112 115
0.0163192 -0.032582 0.194729 100 114 118
0.0177445 -0.0333437 0.199281 111 123 128
0.0183308 -0.0325318 0.194428 109 119 121
0.0199153 -0.0334837 0.200117 103 116 115
0.0206417 -0.0329697 0.197046 100 119 115
0.0210035 -0.0319502 0.190952 104 125 122
0.0230163 -0.0334205 0.19974 111 134 131
0.0244229 -0.0339211 0.202732 113 141 137
0.0247848 -0.0329894 0.197163 120 148 143
0.0275595 -0.0352153 0.210466 125 156 150
0.027735 -0.0340765 0.20366 123 154 150
0.0289675 -0.0342727 0.204833 133 163 160
0.0315772 -0.0360259 0.215311 136 167 159
0.0346931 -0.038216 0.2284 139 175 160
0.0339803 -0.0361831 0.216251 144 181 168
0.0352 -0.0362728 0.216787 135 179 165
0.0375004 -0.0374357 0.223737 137 181 167
0.041347 -0.0400249 0.239211 145 186 174
0.0417778 -0.0392524 0.234594 149 188 174
0.0444077 -0.0405313 0.242238 155 191 177
0.0472955 -0.0419679 0.250824 156 193 180
0.0484939 -0.0418683 0.250228 157 194 183
0.0519064 -0.0436352 0.260789 157 194 182
0.0580785 -0.047572 0.284317 161 198 184
0.0567462 -0.0453186 0.27085 161 201 186
0.0625163 -0.048709 0.291112 163 203 186
0.0639804 -0.0486628 0.290837 164 205 190
0.0645546 -0.0479578 0.286622 169 208 195
0.0602593 -0.0437493 0.261471 167 209 195
0.0550951 -0.0391111 0.23375 174 212 197
0.055274 -0.0383851 0.229411 190 221 205
0.062936 -0.0427761 0.255654 195 223 207
0.0567725 -0.037783 0.225813 195 224 206
0.0525707 -0.0342727 0.204833 187 221 202
0.0526208 -0.0336192 0.200927 181 219 202
0.0615542 -0.0385556 0.23043 184 222 199
0.0589915 -0.0362398 0.21659 188 225 203
0.0585533 -0.035292 0.210925 186 223 202
0.0606809 -0.035897 0.214541 202 231 213
0.060452 -0.0351114 0.209845 188 223 202
0.0610794 -0.0348423 0.208237 194 227 206
0.0614568 -0.0344426 0.205848 198 230 207
0.0616458 -0.0339528 0.202921 184 224 197
0.0630235 -0.0341233 0.20394 178 220 194
0.0651715 -0.0346982 0.207376 183 222 196
0.0654452 -0.0342727 0.204833 173 216 187
0.0672384 -0.0346438 0.207051 200 230 211
0.0692086 -0.0350929 0.209735 169 215 192
0.0700231 -0.0349511 0.208888 176 222 192
0.0703995 -0.0345984 0.20678 192 230 202
0.0710325 -0.0343806 0.205478 187 227 197
0.0714383 -0.0340609 0.203567 182 226 193
0.0722605 -0.0339463 0.202882 168 220 184
0.0754059 -0.0349105 0.208645 191 228 201
0.075566 -0.0344849 0.206101 181 220 188
0.0752382 -0.0338516 0.202316 166 216 179
0.0772468 -0.0342727 0.204833 171 222 188
0.076899 -0.033651 0.201117 179 225 198
0.0772511 -0.0333482 0.199308 179 223 196
0.0797502 -0.033968 0.203012 163 213 182
0.0808465 -0.0339819 0.203095 177 221 192
0.0780267 -0.0323707 0.193466 180 222 190
0.0798759 -0.0327131 0.195512 167 215 175
0.0788358 -0.0318784 0.190523 204 234 210
0.0826416 -0.0329996 0.197224 190 227 203
0.0848089 -0.033447 0.199898 182 223 194
0.081809 -0.0318704 0.190475 166 216 180
0.0834092 -0.0321023 0.191861 201 234 212
0.086312 -0.032824 0.196175 179 224 196
0.0853943 -0.032093 0.191806 176 221 190
0.0854596 -0.0317441 0.18972 176 221 191
0.0887355 -0.032582 0.194729 180 220 188
0.0879201 -0.0319158 0.190747 172 215 175
0.0890088 -0.0319479 0.190939 161 210 165
0.0880213 -0.0312425 0.186722 203 234 211
0.0910089 -0.0319479 0.190939 200 234 213
0.0936688 -0.0325242 0.194383 169 218 184
0.0951237 -0.0326743 0.19528 194 231 201
0.0937617 -0.0318638 0.190436 195 233 205
0.0947592 -0.0318638 0.190436 188 230 200
0.0962138 -0.0320159 0.191345 173 222 193
0.0943388 -0.0310684 0.185682 180 226 199
0.0969051 -0.0315879 0.188787 198 230 206
0.0981079 -0.0316569 0.1892 169 216 181
0.100244 -0.0320226 0.191385 161 212 172
0.100584 -0.0318132 0.190134 206 236 216
0.0972484 -0.0304567 0.182026 186 227 203
0.103147 -0.0319905 0.191193 186 228 197
0.100172 -0.030769 0.183893 188 226 195
0.101894 -0.0309997 0.185272 181 225 190
0.103017 -0.0310458 0.185547 181 227 193
0.106322 -0.0317424 0.189711 190 230 201
0.110496 -0.0326829 0.195332 182 227 196
0.107626 -0.031542 0.188513 183 225 193
0.106063 -0.0308013 0.184086 171 219 183
0.110022 -0.0316632 0.189237 198 232 209
0.10867 -0.0309949 0.185243 192 230 207
0.110368 -0.0312008 0.186474 176 220 185
0.11136 -0.0312051 0.186499 213 241 220
0.109232 -0.0303425 0.181344 211 242 227
0.114988 -0.0316661 0.189254 184 230 207
0.119166 -0.0325361 0.194454 198 235 212
0.118135 -0.0319812 0.191138 180 226 198
0.113156 -0.0303761 0.181544 180 223 196
-0.218021 -0.0562249 0.346871 191 225 187
-0.168575 -0.0438387 0.270457 190 224 188
-0.19158 -0.0502434 0.30997 189 224 187
-0.150395 -0.0397794 0.245413 188 224 186
-0.153053 -0.0408315 0.251904 189 224 186
-0.151083 -0.0406564 0.250824 189 225 187
-0.149033 -0.0404566 0.249591 189 225 188
-0.143374 -0.0392647 0.242238 189 225 188
-0.13752 -0.0379978 0.234422 189 225 188
-0.130773 -0.0364592 0.22493 189 225 188
-0.136996 -0.0385414 0.237776 187 224 185
-0.130398 -0.0370218 0.2284 189 225 187
-0.122188 -0.0350118 0.216 189 225 188
-0.117795 -0.0340688 0.210182 190 226 190
-0.118913 -0.0347166 0.214179 188 225 188
-0.118604 -0.0349559 0.215655 191 227 191
-0.114675 -0.034123 0.210517 190 226 190
-0.121001 -0.036355 0.224287 190 226 189
-0.11385 -0.0345417 0.2131 191 226 190
-0.110749 -0.0339335 0.209348 189 226 189
-0.115395 -0.0357108 0.220313 189 226 189
-0.112835 -0.0352711 0.2176 192 227 191
-0.109947 -0.034719 0.214194 190 226 190
-0.108896 -0.0347417 0.214334 190 226 190
-0.112548 -0.0362811 0.223831 189 226 190
-0.104269 -0.033966 0.209548 190 226 191
-0.106019 -0.0349033 0.215331 189 226 190
-0.105696 -0.0351713 0.216984 189 226 189
-0.107944 -0.0363098 0.224008 189 226 191
-0.100975 -0.0343387 0.211848 189 226 191
-0.10252 -0.0352515 0.217479 189 226 191
-0.0997415 -0.0346815 0.213962 188 226 190
-0.0970495 -0.0341289 0.210553 190 227 191
-0.0991997 -0.035286 0.217692 189 226 191
-0.0976099 -0.0351242 0.216694 188 226 190
-0.0946931 -0.0344755 0.212692 188 226 190
-0.091861 -0.0338426 0.208787 187 226 190
-0.092465 -0.0344755 0.212692 186 225 190
-0.0918462 -0.0346624 0.213845 187 225 190
-0.0925731 -0.0353681 0.218198 187 226 190
-0.0876201 -0.0338942 0.209105 187 225 190
-0.0905936 -0.0354881 0.218938 185 226 190
-0.0882465 -0.0350118 0.216 186 226 191
-0.0900797 -0.0362033 0.223351 185 225 191
-0.0894551 -0.0364253 0.224721 185 225 191
-0.0856035 -0.0353217 0.217912 182 224 189
-0.0898766 -0.037586 0.231882 183 225 190
-0.0866092 -0.0367158 0.226513 184 225 190
-0.0925954 -0.0397987 0.245532 184 224 189
-0.0870578 -0.0379456 0.2341 183 224 189
-0.0910634 -0.0402585 0.248369 182 224 189
-0.0966786 -0.0433604 0.267506 180 223 189
-0.0876384 -0.0398838 0.246058 180 223 189
-0.0966044 -0.0446204 0.275279 179 222 190
-0.0902592 -0.0423213 0.261095 181 219 187
-0.0906466 -0.0431568 0.26625 181 218 187
-0.097388 -0.0470909 0.29052 175 215 184
-0.0913123 -0.0448539 0.27672 171 210 177
-0.0891328 -0.0444895 0.274471 156 202 164
-0.0943076 -0.0478441 0.295167 148 195 158
-0.0999038 -0.0515279 0.317894 122 156 118
-0.0931255 -0.0488459 0.301348 114 124 102
-0.0916429 -0.048897 0.301663 98 105 86
-0.0901671 -0.0489536 0.302012 87 96 82
-0.0780955 -0.0431568 0.26625 83 92 84
-0.0850314 -0.0478441 0.295167 83 92 83
-0.0947247 -0.0542851 0.334904 79 85 76
-0.0891001 -0.0520252 0.320962 82 81 77
-0.0757082 -0.0450558 0.277965 80 79 72
-0.0862365 -0.0523278 0.322829 74 71 63
-0.0799475 -0.0494819 0.305271 75 70 66
-0.0697066 -0.044024 0.271599 78 71 67
-0.0804827 -0.0518887 0.32012 73 66 64
-0.084695 -0.0557662 0.344042 70 58 57
-0.0869285 -0.0584812 0.360791 69 57 56
-0.0864861 -0.0594765 0.366932 71 59 59
-0.0842605 -0.0592629 0.365614 67 52 53
-0.0987799 -0.0710906 0.438583 67 52 53
-0.114236 -0.0841718 0.519286 66 52 54
-0.115908 -0.0874868 0.539737 62 45 47
-0.100946 -0.0780982 0.481816 66 49 52
-0.0988033 -0.0784004 0.48368 61 44 46
-0.0874867 -0.0712476 0.439552 64 48 51
-0.0838233 -0.0701092 0.432528 65 49 52
-0.0850645 -0.0731236 0.451125 65 48 51
-0.0733849 -0.0648859 0.400304 66 50 53
-0.0666633 -0.0606764 0.374334 65 48 53
-0.0621879 -0.0583181 0.359785 63 46 51
-0.056193 -0.054343 0.335261 65 50 54
-0.0575351 -0.0574358 0.354342 66 50 57
-0.0502264 -0.051811 0.319641 65 49 56
-0.0491942 -0.0524962 0.323867 65 49 57
-0.0419454 -0.0463594 0.286008 65 50 58
-0.0423311 -0.0485185 0.299328 66 53 60
-0.0401967 -0.0478441 0.295167 63 49 59
-0.0355646 -0.044024 0.271599 65 51 61
-0.0326904 -0.0421522 0.260052 65 52 63
-0.0328843 -0.0442459 0.272969 65 53 63
-0.0293274 -0.0412537 0.254509 65 52 64
-0.0264897 -0.0390364 0.240829 66 54 65
-0.0246968 -0.0382139 0.235755 65 54 65
-0.0234979 -0.0382725 0.236117 64 51 65
-0.0229449 -0.039448 0.243369 63 51 65
-0.0202793 -0.0369161 0.227748 65 54 66
-0.0186438 -0.0360601 0.222468 62 52 65
-0.0173128 -0.035718 0.220357 64 54 67
-0.0145978 -0.0322678 0.199072 64 54 68
-0.013664 -0.0325272 0.200672 62 53 68
-0.0125424 -0.0323453 0.19955 64 55 69
-0.0116566 -0.0327938 0.202316 65 57 71
-0.0106019 -0.0328093 0.202412 66 60 74
-0.00965585 -0.0332016 0.204833 65 60 74
-0.00844476 -0.032667 0.201534 70 66 79
-0.00735502 -0.032516 0.200603 69 63 77
-0.00610928 -0.0315101 0.194397 65 58 73
-0.00512882 -0.0317438 0.195839 68 63 76
-0.00407022 -0.0314897 0.194271 66 60 74
-0.00310331 -0.0320122 0.197495 69 63 77
-0.00198853 -0.030769 0.189825 67 64 77
-0.00103323 -0.0319749 0.197264 69 66 81
0 -0.0317333 0.195774 71 69 83
0.0010401 -0.0321875 0.198576 73 71 85
0.0020245 -0.0313257 0.193259 72 70 84
0.00304314 -0.0313915 0.193665 69 69 83
0.00403415 -0.0312107 0.19255 73 73 88
0.00504269 -0.0312107 0.19255 74 74 88
0.00619353 -0.0319447 0.197078 72 73 88
0.006896 -0.0304867 0.188083 74 77 91
0.00823353 -0.0318499 0.196493 74 77 92
0.00923136 -0.031742 0.195828 79 82 97
0.00979474 -0.0303113 0.187001 82 88 99
0.0116033 -0.0326439 0.201392 82 90 98
0.0124488 -0.0321039 0.19806 82 86 94
0.0132593 -0.0315638 0.194729 81 84 95
0.0141769 -0.0313376 0.193333 88 93 103
0.0148682 -0.0306746 0.189242 93 101 108
0.0160843 -0.0311095 0.191925 94 103 109
0.0176293 -0.0320921 0.197988 90 101 108
0.018277 -0.0314227 0.193858 87 100 105
0.0193461 -0.0315101 0.194397 89 104 104
0.0194372 -0.0300756 0.185547 95 115 111
0.0219037 -0.0322783 0.199136 100 120 117
0.022779 -0.0320423 0.19768 104 126 125
0.0237946 -0.0320156 0.197516 107 135 133
0.025654 -0.0330792 0.204078 114 146 142
0.0268218 -0.0332016 0.204833 119 151 145
0.0260776 -0.0310389 0.19149 122 153 150
0.0285129 -0.0326805 0.201618 121 154 154
0.028828 -0.0318616 0.196565 121 156 151
0.0292641 -0.0312283 0.192658 125 167 158
0.031632 -0.03263 0.201306 130 171 159
0.0321965 -0.032141 0.198289 138 174 163
0.0335296 -0.0324258 0.200046 140 174 166
0.03488 -0.0327095 0.201796 140 174 167
0.0362865 -0.0330276 0.203759 144 178 172
0.0383871 -0.0339414 0.209396 145 181 175
0.0384023 -0.0330116 0.20366 145 181 175
0.0396963 -0.0332016 0.204833 150 184 175
0.0445585 -0.0362876 0.223871 151 186 175
0.0430031 -0.034123 0.210517 158 192 179
0.0441614 -0.034166 0.210782 161 197 183
0.0456755 -0.0344755 0.212692 161 200 184
0.0478198 -0.0352347 0.217375 167 205 190
0.0451069 -0.0324628 0.200275 161 203 190
0.050699 -0.0356581 0.219987 160 202 190
0.0503632 -0.0346348 0.213674 168 205 192
0.0486643 -0.0327389 0.201978 184 212 199
0.0507679 -0.0334275 0.206226 182 210 197
0.0508392 -0.032777 0.202213 181 209 197
0.0522459 -0.0329965 0.203567 176 211 197
0.05428 -0.0335955 0.207263 172 212 198
0.0531564 -0.032255 0.198992 181 218 204
0.0557894 -0.0332016 0.204833 184 221 205
0.0568622 -0.0332016 0.204833 183 220 204
0.0571028 -0.0327247 0.20189 189 223 206
0.0608986 -0.0342654 0.211396 187 222 205
0.0585204 -0.0323393 0.199513 193 226 208
0.0611537 -0.0332016 0.204833 192 227 206
0.063184 -0.0337125 0.207984 200 230 210
0.0630633 -0.0330778 0.204069 191 225 205
0.0623192 -0.0321427 0.1983 192 227 207
0.0630212 -0.0319719 0.197246 188 226 205
0.0671503 -0.0335172 0.20678 199 231 212
0.0682143 -0.0335079 0.206722 192 227 208
0.0674536 -0.0326165 0.201222 180 223 195
0.0701366 -0.033392 0.206007 201 233 209
0.0724307 -0.0339618 0.209522 198 232 207
0.0700155 -0.0323393 0.199513 186 227 197
0.0737889 -0.033581 0.207173 179 226 193
0.0729776 -0.0327305 0.201926 192 229 202
0.074458 -0.0329174 0.203079 197 229 204
0.076819 -0.0334828 0.206567 189 225 195
0.0761798 -0.032743 0.202003 198 232 207
0.0781048 -0.0331106 0.204271 181 227 201
0.0787483 -0.0329322 0.203171 189 230 206
0.0779351 -0.0321576 0.198392 190 229 206
0.0786586 -0.0320291 0.197599 202 233 213
0.0804269 -0.0323238 0.199417 186 227 197
0.079932 -0.031713 0.195649 176 219 183
0.0804517 -0.0315152 0.194428 190 224 195
0.0806895 -0.0312132 0.192565 186 224 197
0.0840597 -0.0321155 0.198132 202 232 211
0.084051 -0.0317205 0.195695 196 229 206
0.0836516 -0.0311894 0.192419 188 228 204
0.0832639 -0.0306753 0.189247 174 221 191
0.0840039 -0.0305838 0.188683 191 227 201
0.0864689 -0.0311152 0.191961 179 223 193
0.0868114 -0.0308794 0.190506 178 222 189
0.0880266 -0.0309559 0.190978 184 224 193
0.0877521 -0.0305126 0.188243 172 218 181
0.0894918 -0.0307718 0.189842 184 227 197
0.0908464 -0.0308943 0.190598 197 232 209
0.0920702 -0.0309701 0.191066 163 216 180
0.0948237 -0.0315534 0.194664 165 217 175
0.0951664 -0.0313305 0.193289 203 235 210
0.0943674 -0.0307404 0.189649 190 228 200
0.0915681 -0.0295178 0.182106 194 230 205
0.0931701 -0.0297246 0.183382 185 226 200
0.0962295 -0.0303874 0.187471 176 218 186
0.0948663 -0.0296543 0.182948 185 220 190
0.0992753 -0.0307222 0.189536 169 214 178
0.0989884 -0.0303301 0.187117 204 235 213
0.0990597 -0.0300544 0.185416 203 236 215
0.100601 -0.0302258 0.186474 177 225 194
0.101863 -0.0303105 0.186996 189 230 200
0.101533 -0.0299246 0.184615 202 237 213
0.101371 -0.0295951 0.182582 167 222 187
0.106736 -0.0308701 0.190448 183 226 198
0.106664 -0.0305638 0.188559 196 233 206
0.107208 -0.0304376 0.18778 210 239 218
0.110632 -0.0311243 0.192017 175 223 189
0.108295 -0.0301925 0.186268 196 232 206
0.109963 -0.0303838 0.187448 196 231 206
0.109731 -0.0300512 0.185396 173 216 177
0.11061 -0.0300263 0.185243 197 231 203
0.113455 -0.0305306 0.188354 197 234 216
0.114106 -0.0304414 0.187804 190 232 210
0.115749 -0.0306157 0.188879 201 237 215
0.115871 -0.0303881 0.187475 193 230 205
0.115419 -0.0300153 0.185175 184 223 191
-0.162959 -0.0406694 0.259267 187 223 184
-0.159958 -0.0402559 0.256631 188 223 185
-0.148946 -0.0378023 0.24099 187 223 185
-0.143247 -0.0366667 0.23375 187 224 185
-0.142676 -0.0368353 0.234825 189 224 186
-0.136949 -0.0356641 0.227359 189 225 187
-0.135253 -0.0355314 0.226513 187 224 186
-0.136749 -0.0362425 0.231046 189 225 188
-0.134938 -0.0360818 0.230021 189 225 188
-0.124351 -0.0335504 0.213884 189 225 188
-0.125819 -0.034255 0.218376 187 224 186
-0.127475 -0.0350244 0.22328 188 225 187
-0.123849 -0.0343433 0.218938 190 225 189
-0.12249 -0.0342837 0.218558 190 226 189
-0.118315 -0.0334275 0.2131 188 225 187
-0.114429 -0.0326375 0.208064 189 226 190
-0.117513 -0.0338396 0.215727 190 226 189
-0.118682 -0.0345078 0.219987 189 225 188
-0.116421 -0.0341823 0.217912 188 225 188
-0.115359 -0.034206 0.218063 189 226 190
-0.111076 -0.0332654 0.212067 190 226 191
-0.112747 -0.0341067 0.21743 190 226 190
-0.112093 -0.034255 0.218376 189 226 190
-0.109677 -0.0338622 0.215871 189 226 190
-0.105953 -0.0330531 0.210714 189 226 190
-0.102648 -0.0323591 0.20629 189 226 190
-0.105847 -0.0337228 0.214983 187 225 188
-0.104251 -0.0335714 0.214018 188 226 190
-0.0999986 -0.032552 0.207519 189 226 190
-0.101652 -0.0334539 0.213269 188 226 190
-0.0980819 -0.0326375 0.208064 188 226 190
-0.0986954 -0.0332107 0.211718 188 226 190
-0.0975252 -0.0331899 0.211585 187 226 189
-0.097794 -0.0336639 0.214607 189 226 191
-0.0952233 -0.0331601 0.211396 188 226 191
-0.0914573 -0.0322234 0.205424 188 226 191
-0.091151 -0.0324978 0.207173 187 225 190
-0.0929099 -0.033524 0.213715 187 225 190
-0.0879755 -0.0321306 0.204833 188 226 191
-0.0907426 -0.0335504 0.213884 187 226 190
-0.0871185 -0.0326131 0.207908 187 226 190
-0.0855234 -0.0324212 0.206685 186 226 191
-0.0865535 -0.0332324 0.211856 187 226 192
-0.0812808 -0.0316132 0.201534 186 225 191
-0.0834075 -0.0328672 0.209528 184 225 190
-0.0804654 -0.0321306 0.204833 184 225 191
-0.0827044 -0.033471 0.213377 183 225 190
-0.079188 -0.0324869 0.207104 184 225 190
-0.0778593 -0.0323854 0.206457 185 225 190
-0.0800441 -0.0337631 0.21524 184 224 190
-0.0761293 -0.0325705 0.207637 182 224 189
-0.0754707 -0.0327567 0.208824 181 224 189
-0.0765165 -0.033699 0.214831 178 223 188
-0.0778048 -0.0347779 0.221709 173 220 186
-0.0767561 -0.0348289 0.222035 177 221 187
-0.0786797 -0.036251 0.2311 175 219 185
-0.0771531 -0.0361031 0.230157 176 219 187
-0.0779141 -0.0370379 0.236117 176 216 181
-0.0772635 -0.0373211 0.237922 172 212 177
-0.0803019 -0.0394246 0.251332 171 210 179
-0.0769015 -0.0383844 0.244701 151 194 160
-0.0748588 -0.0379981 0.242238 139 174 141
-0.0727652 -0.0375722 0.239523 120 153 127
-0.0772462 -0.0405857 0.258734 104 121 105
-0.0759187 -0.0406005 0.258828 92 102 89
-0.071636 -0.0390068 0.248668 85 95 82
-0.0708902 -0.0393155 0.250636 77 88 74
-0.0667618 -0.0377245 0.240494 77 84 76
-0.0669882 -0.0385804 0.24595 78 81 72
-0.0684749 -0.0402099 0.256338 79 78 69
-0.0651237 -0.0390068 0.248668 78 73 68
-0.0597594 -0.0365242 0.232842 78 73 67
-0.0621525 -0.0387783 0.247211 75 67 65
-0.0680095 -0.0433354 0.276263 75 66 65
-0.0616414 -0.0401316 0.255839 72 63 62
-0.0631213 -0.0420083 0.267803 69 57 56
-0.0744001 -0.0506398 0.322829 69 54 55
-0.0752467 -0.0524071 0.334095 67 52 54
-0.073082 -0.0521114 0.33221 69 55 57
-0.071627 -0.0523196 0.333537 68 53 56
-0.0680886 -0.0509783 0.324987 66 50 52
-0.0574268 -0.0440983 0.281126 65 49 52
-0.055437 -0.0436906 0.278527 65 50 53
-0.0497348 -0.0402559 0.256631 66 50 52
-0.0494176 -0.0411103 0.262078 66 50 53
-0.0459672 -0.0393325 0.250745 65 49 52
-0.046901 -0.0413118 0.263363 65 49 54
-0.0444042 -0.0402978 0.256898 66 50 55
-0.0427827 -0.0400396 0.255252 65 50 55
-0.0393326 -0.0379981 0.242238 65 50 56
-0.0373856 -0.0373211 0.237922 66 51 58
-0.0334461 -0.0345397 0.220191 66 52 58
-0.032234 -0.0344768 0.21979 65 50 58
-0.0318143 -0.0352882 0.224962 64 50 57
-0.0313284 -0.0360858 0.230047 65 51 60
-0.0283512 -0.0339628 0.216513 65 52 61
-0.0281073 -0.0350736 0.223594 64 50 60
-0.0246761 -0.0321306 0.204833 65 53 63
-0.0244093 -0.033228 0.211828 65 51 62
-0.0225303 -0.0321306 0.204833 64 51 63
-0.0222545 -0.0333241 0.212441 64 52 64
-0.0203846 -0.0321306 0.204833 64 52 65
-0.0183915 -0.0305996 0.195073 63 52 65
-0.0175003 -0.0308296 0.196539 64 53 66
-0.0152326 -0.0285118 0.181763 62 50 65
-0.0150665 -0.030081 0.191766 63 52 66
-0.0143534 -0.0307041 0.195739 64 53 67
-0.0135323 -0.0311744 0.198737 62 52 67
-0.0125015 -0.0311999 0.198899 63 53 68
-0.0112728 -0.030691 0.195655 62 53 68
-0.0105163 -0.0314946 0.200778 65 56 71
-0.00958138 -0.0318828 0.203253 64 57 71
-0.00825768 -0.0309129 0.197069 62 54 69
-0.00753799 -0.0322499 0.205593 65 57 71
-0.00611232 -0.0305089 0.194494 66 58 73
-0.00509974 -0.0305457 0.194729 66 59 73
-0.00398136 -0.0298087 0.19003 65 59 73
-0.00306836 -0.0306307 0.195271 66 61 75
-0.0020399 -0.0305457 0.194729 65 60 74
-0.00102158 -0.0305944 0.195039 68 63 77
0 -0.0303225 0.193306 67 62 77
0.00102047 -0.0305612 0.194828 70 66 80
0.00199955 -0.0299414 0.190877 68 63 77
0.00301024 -0.0300505 0.191572 71 67 81
0.00414274 -0.031017 0.197733 68 65 79
0.0049056 -0.0293828 0.187316 73 70 84
0.00589172 -0.0294078 0.187475 73 69 85
0.00699719 -0.0299362 0.190843 72 71 86
0.00790038 -0.0295753 0.188543 71 70 86
0.00907933 -0.0302122 0.192603 73 73 89
0.0103379 -0.0309601 0.19737 75 78 91
0.0109487 -0.0298087 0.19003 76 79 90
0.0118124 -0.02948 0.187935 75 77 89
0.0137208 -0.0316087 0.201505 77 79 92
0.0141551 -0.0302799 0.193034 78 80 94
0.0146044 -0.0291584 0.185885 76 78 92
0.0160981 -0.0301319 0.192091 77 81 94
0.0167604 -0.0295261 0.188229 79 86 97
0.0182588 -0.0303788 0.193665 83 89 100
0.0189115 -0.0298087 0.19003 86 97 100
0.0199624 -0.0298919 0.190561 93 109 108
0.0213783 -0.0304877 0.194359 99 115 116
0.0222573 -0.0302985 0.193153 98 119 120
0.0231753 -0.0301764 0.192375 99 127 127
0.0249285 -0.0311069 0.198307 100 134 133
0.0260279 -0.0311796 0.19877 106 137 135
0.026479 -0.0305 0.194437 103 133 135
0.0275664 -0.0305765 0.194925 107 138 142
0.028647 -0.0306403 0.195332 112 143 143
0.0301266 -0.0311117 0.198337 115 146 143
0.0299083 -0.0298567 0.190337 115 153 146
0.0320404 -0.0309533 0.197327 118 156 150
0.0325635 -0.0304756 0.194282 120 156 153
0.032673 -0.0296515 0.189028 128 162 158
0.0354156 -0.0311952 0.198869 129 161 158
0.0364443 -0.0311841 0.198799 124 163 160
0.0366705 -0.030506 0.194476 128 168 163
0.0384374 -0.0311117 0.198337 132 172 161
0.0399072 -0.0314513 0.200502 140 177 167
0.0390755 -0.0300062 0.19129 145 181 172
0.0415638 -0.031119 0.198384 148 186 175
0.0423651 -0.0309454 0.197277 158 193 180
0.0433734 -0.0309275 0.197163 156 192 178
0.0446378 -0.0310889 0.198192 150 190 176
0.045908 -0.0312469 0.199199 151 190 178
0.0498261 -0.0331601 0.211396 163 194 183
0.0484525 -0.0315449 0.201099 169 199 188
0.0488374 -0.031119 0.198384 173 202 192
0.0517275 -0.0322739 0.205746 168 195 185
0.0516398 -0.0315616 0.201205 162 195 181
0.0545724 -0.032687 0.208379 164 198 184
0.052582 -0.0308772 0.196842 162 202 189
0.0548546 -0.0315923 0.201401 173 210 198
0.0568622 -0.0321306 0.204833 172 210 196
0.0579351 -0.0321306 0.204833 176 214 201
0.0580817 -0.0316263 0.201618 177 215 202
0.0589627 -0.0315327 0.201021 180 217 201
0.0622652 -0.0327146 0.208556 188 224 204
0.0613593 -0.0316828 0.201978 187 224 204
0.0639403 -0.0324559 0.206906 193 228 210
0.0650035 -0.0324457 0.206841 192 227 210
0.0639938 -0.0314181 0.20029 191 227 209
0.0631095 -0.0304842 0.194337 196 229 210
0.0670014 -0.0318504 0.203046 197 230 207
0.0704051 -0.0329454 0.210027 198 231 208
0.0697367 -0.0321306 0.204833 199 232 209
0.0704187 -0.0319533 0.203702 194 229 206
0.0718824 -0.0321306 0.204833 188 226 201
0.0703675 -0.0309909 0.197567 196 230 207
0.0720275 -0.0312623 0.199297 188 227 201
0.073902 -0.0316176 0.201562 189 225 199
0.0733699 -0.0309479 0.197293 183 221 194
0.0762588 -0.0317197 0.202213 180 223 195
0.0763567 -0.0313253 0.199699 200 235 213
0.075507 -0.0305581 0.194808 167 221 190
0.0779627 -0.0311313 0.198462 171 221 190
0.0781942 -0.0308129 0.196432 188 228 201
0.078594 -0.0305682 0.194872 194 230 204
0.0820663 -0.0315095 0.200873 185 226 196
0.0810519 -0.0307261 0.195879 193 229 204
0.0810949 -0.0303581 0.193533 202 233 210
0.0815464 -0.0301503 0.192208 170 217 186
0.085388 -0.0311856 0.198808 190 226 203
0.0835 -0.0301287 0.19207 203 234 213
0.0841262 -0.0299932 0.191207 184 225 198
0.0842826 -0.0296955 0.189309 192 227 202
0.0841057 -0.0292886 0.186715 192 230 206
0.0859838 -0.0295984 0.18869 175 223 193
0.0894156 -0.03043 0.193991 193 231 207
0.0882142 -0.0296838 0.189234 197 233 209
0.0897064 -0.0298505 0.190297 181 225 195
0.0879408 -0.0289414 0.184502 194 231 207
0.0906578 -0.0295113 0.188135 193 230 206
0.0915933 -0.0294952 0.188032 172 219 185
0.0952637 -0.0303509 0.193487 181 224 192
0.0945107 -0.029794 0.189937 173 219 185
0.0956941 -0.0298528 0.190312 171 219 183
0.0957235 -0.0295541 0.188407 172 217 186
0.0978345 -0.0298977 0.190598 181 221 192
0.09719 -0.0294007 0.18743 200 230 206
0.097973 -0.0293412 0.18705 169 214 177
0.0980245 -0.0290659 0.185295 200 231 207
0.0991969 -0.0291252 0.185673 201 236 215
0.099755 -0.0290047 0.184905 171 221 190
0.0996094 -0.0286839 0.18286 166 220 183
0.102186 -0.0291456 0.185803 198 236 212
0.105617 -0.02984 0.19023 202 237 215
0.104957 -0.0293765 0.187275 181 223 192
0.107381 -0.0297765 0.189825 193 230 204
0.1057 -0.0290417 0.185141 179 224 193
0.107464 -0.0292577 0.186518 200 233 209
0.108039 -0.0291495 0.185828 170 220 186
0.105253 -0.0281442 0.179419 170 216 182
0.111023 -0.0294242 0.187579 165 213 177
0.114146 -0.0299867 0.191165 198 231 207
0.114394 -0.0297905 0.189915 191 229 203
0.112449 -0.0290313 0.185075 172 225 194
0.114103 -0.0292066 0.186192 170 225 190
0.117208 -0.0297471 0.189638 192 233 207
0.117329 -0.0295277 0.188239 194 234 203
-0.150436 -0.0362927 0.239344 187 223 185
-0.145973 -0.0355118 0.234194 188 224 186
-0.138579 -0.0339988 0.224216 187 223 185
-0.13237 -0.032753 0.216 187 224 186
-0.141851 -0.0354016 0.233468 188 225 187
-0.140337 -0.0353282 0.232983 186 224 185
-0.131059 -0.033282 0.219489 188 225 188
-0.127448 -0.0326515 0.215331 187 225 188
-0.122272 -0.031605 0.208429 189 225 188
-0.128018 -0.0333884 0.220191 190 226 189
-0.12363 -0.032537 0.214576 188 225 187
-0.122301 -0.0324826 0.214217 189 225 188
-0.125145 -0.0335459 0.221229 189 225 189
-0.121619 -0.0329053 0.217005 190 226 189
-0.120483 -0.0329053 0.217005 189 226 189
-0.11715 -0.0322998 0.213012 188 225 188
-0.115229 -0.0320757 0.211534 189 225 188
-0.114046 -0.0320548 0.211396 189 225 188
-0.11189 -0.0317569 0.209432 190 226 190
-0.111412 -0.0319345 0.210603 190 226 190
-0.109671 -0.0317498 0.209385 189 226 190
-0.110589 -0.0323388 0.213269 188 226 189
-0.104809 -0.0309614 0.204185 188 225 189
-0.105378 -0.0314504 0.20741 189 226 190
-0.102996 -0.0310596 0.204833 189 226 190
-0.102872 -0.0313489 0.206741 190 226 191
-0.103607 -0.0319089 0.210433 189 226 191
-0.10007 -0.0311509 0.205435 190 227 191
-0.100694 -0.0316859 0.208963 189 226 190
-0.101182 -0.0321891 0.212282 189 226 190
-0.0983868 -0.0316477 0.208711 190 227 192
-0.0972476 -0.0316327 0.208612 188 226 190
-0.0968785 -0.0318708 0.210182 187 225 189
-0.094776 -0.0315375 0.207984 188 226 190
-0.0948589 -0.0319321 0.210587 188 226 190
-0.0921026 -0.031369 0.206873 187 225 189
-0.0917037 -0.031605 0.208429 187 225 189
-0.088831 -0.0309838 0.204333 187 226 191
-0.087759 -0.0309832 0.204329 187 226 191
-0.0864691 -0.0309047 0.203811 188 226 190
-0.0854016 -0.0309047 0.203811 188 226 191
-0.083271 -0.0305151 0.201242 187 226 191
-0.0853812 -0.0316895 0.208987 187 226 191
-0.084951 -0.0319393 0.210634 186 225 191
-0.0792017 -0.0301696 0.198963 184 225 191
-0.0806797 -0.0311423 0.205378 183 225 190
-0.08137 -0.0318332 0.209935 183 225 190
-0.0765397 -0.0303537 0.200177 184 225 190
-0.078172 -0.0314316 0.207286 183 224 189
-0.0754558 -0.0307668 0.202902 183 224 189
-0.0743632 -0.0307544 0.20282 182 224 189
-0.0755758 -0.0317089 0.209115 182 224 190
-0.0759351 -0.0323282 0.213199 177 223 187
-0.0716076 -0.0309409 0.20405 177 223 190
-0.0716771 -0.0314402 0.207342 177 222 188
-0.0700308 -0.0311906 0.205697 177 221 187
-0.0698868 -0.0316128 0.208481 175 220 187
-0.0682052 -0.0313419 0.206694 175 218 184
-0.0680962 -0.0317965 0.209692 148 202 158
-0.0657696 -0.0312136 0.205848 147 200 160
-0.0670577 -0.0323553 0.213377 188 219 199
-0.0657196 -0.0322471 0.212664 141 196 163
-0.0636382 -0.0317642 0.20948 124 178 140
-0.0648084 -0.0329158 0.217074 125 171 134
-0.0635599 -0.0328582 0.216694 122 148 122
-0.0653568 -0.0344014 0.226871 99 115 97
-0.0600047 -0.0321691 0.21215 84 101 83
-0.0627791 -0.0342916 0.226147 85 97 83
-0.0631726 -0.0351701 0.231941 84 87 77
-0.058433 -0.0331693 0.218746 82 84 75
-0.0603473 -0.034941 0.23043 83 84 77
-0.0567063 -0.033503 0.220946 79 76 70
-0.0625187 -0.0377065 0.248668 76 70 67
-0.0554074 -0.0341285 0.225072 76 68 66
-0.0504717 -0.0317642 0.20948 74 65 64
-0.0515887 -0.0331887 0.218874 70 59 58
-0.057401 -0.0377672 0.249068 71 58 58
-0.0548593 -0.0369343 0.243575 71 58 58
-0.0543834 -0.0374856 0.247211 69 57 58
-0.0507754 -0.0358523 0.23644 66 52 54
-0.0502957 -0.0364015 0.240061 66 50 52
-0.0469061 -0.0348187 0.229624 66 49 52
-0.0451153 -0.0343707 0.226669 67 53 55
-0.0434165 -0.0339704 0.224029 67 51 54
-0.040454 -0.0325317 0.214541 68 53 56
-0.0382494 -0.0316376 0.208645 67 53 57
-0.0382352 -0.0325561 0.214702 67 53 57
-0.0338159 -0.0296657 0.19564 68 55 58
-0.033779 -0.0305594 0.201534 66 52 57
-0.0329122 -0.0307357 0.202696 67 52 57
-0.031215 -0.0301224 0.198652 67 53 59
-0.0287261 -0.0286766 0.189117 65 51 57
-0.0292018 -0.0301926 0.199115 65 50 57
-0.0289675 -0.0310596 0.204833 65 51 58
-0.0267753 -0.0298132 0.196613 64 52 60
-0.0252491 -0.0292384 0.192822 65 51 60
-0.0248396 -0.0299627 0.197599 66 52 62
-0.0240261 -0.0302415 0.199438 65 52 62
-0.0237084 -0.0311981 0.205746 66 53 63
-0.0219452 -0.0302529 0.199513 66 53 64
-0.0203302 -0.0294279 0.194072 65 52 64
-0.0199022 -0.0303246 0.199985 65 53 65
-0.0190945 -0.0307103 0.202529 63 51 65
-0.0174534 -0.029722 0.196012 63 53 66
-0.0163379 -0.0295614 0.194953 65 54 67
-0.0152907 -0.0295111 0.19462 64 53 66
-0.0146328 -0.0302585 0.19955 62 51 65
-0.0133658 -0.0297646 0.196292 66 57 69
-0.0123432 -0.0297778 0.19638 63 53 67
-0.0113146 -0.0297778 0.19638 64 53 68
-0.00996876 -0.0288595 0.190324 64 55 70
-0.00933317 -0.0300217 0.197988 65 56 70
-0.00808952 -0.0292739 0.193056 65 55 70
-0.00712527 -0.029468 0.194337 64 54 70
-0.00603446 -0.0291163 0.192017 66 58 72
-0.00495856 -0.02871 0.189338 66 58 72
-0.00399839 -0.0289383 0.190843 66 58 73
-0.00295423 -0.0285083 0.188007 65 58 72
-0.0020399 -0.0295275 0.194729 67 60 74
-0.00103826 -0.0300576 0.198224 66 59 73
0 -0.0301466 0.198812 66 59 74
0.00102488 -0.0296701 0.19567 66 59 74
0.00198179 -0.0286863 0.189181 69 61 75
0.00292544 -0.0282305 0.186175 70 64 78
0.00386138 -0.0279467 0.184304 68 63 77
0.00500168 -0.0289597 0.190984 68 63 78
0.00588382 -0.0283894 0.187223 70 66 81
0.00703156 -0.0290805 0.191781 70 66 82
0.00796765 -0.0288329 0.190148 72 69 84
0.00889142 -0.0286007 0.188617 72 69 83
0.0100698 -0.0291521 0.192253 72 69 83
0.0109752 -0.0288848 0.19049 72 72 84
0.0122246 -0.0294919 0.194494 72 71 84
0.0130547 -0.0290718 0.191723 74 74 88
0.0140924 -0.029141 0.19218 75 74 89
0.014601 -0.02818 0.185842 77 76 92
0.0157354 -0.0284712 0.187763 76 78 92
0.0169507 -0.0288661 0.190367 78 84 96
0.0177023 -0.0284712 0.187763 80 86 97
0.0191157 -0.0291262 0.192082 85 93 95
0.0194527 -0.0281578 0.185696 90 106 105
0.020738 -0.0285888 0.188538 93 110 112
0.022165 -0.029167 0.192352 95 113 115
0.022794 -0.0286907 0.18921 95 116 119
0.024022 -0.0289765 0.191095 98 119 126
0.0256707 -0.0297266 0.196042 97 125 130
0.0261922 -0.0291639 0.192331 102 132 137
0.0278469 -0.029858 0.196908 99 132 136
0.0281765 -0.0291324 0.192123 103 135 139
0.0297214 -0.0296701 0.19567 105 137 139
0.0294737 -0.0284421 0.187571 108 143 143
0.0321672 -0.0300399 0.198108 108 146 144
0.0327139 -0.0295958 0.195179 112 149 147
0.0330811 -0.0290211 0.191389 117 150 148
0.0351118 -0.0298966 0.197163 120 152 149
0.0361179 -0.0298747 0.197018 121 156 153
0.0364242 -0.0292911 0.19317 120 164 157
0.0377185 -0.0295121 0.194627 126 169 158
0.0401126 -0.0305594 0.201534 131 173 162
0.0426616 -0.031668 0.208845 131 171 164
0.040047 -0.0289839 0.191144 142 178 171
0.041771 -0.0294943 0.19451 146 180 169
0.0436862 -0.0301122 0.198585 142 180 165
0.0459765 -0.0309539 0.204135 141 180 166
0.0458935 -0.0301958 0.199136 141 177 166
0.0457924 -0.0294598 0.194282 157 188 179
0.0479796 -0.0301958 0.199136 158 189 180
0.0512908 -0.0315929 0.20835 157 189 180
0.0513186 -0.0309515 0.20412 152 186 175
0.0523836 -0.030949 0.204104 153 188 178
0.0526909 -0.030508 0.201195 158 193 182
0.0547165 -0.0310596 0.204833 160 198 187
0.0561816 -0.031278 0.206273 160 199 187
0.0533044 -0.0291163 0.192017 166 203 192
0.0591328 -0.0317017 0.209067 174 209 199
0.056774 -0.0298837 0.197078 173 210 197
0.0600808 -0.0310596 0.204833 177 213 196
0.0605529 -0.0307544 0.20282 177 216 196
0.0634455 -0.031668 0.208845 177 217 197
0.0623108 -0.0305745 0.201634 177 218 198
0.0629733 -0.0303846 0.200381 180 220 199
0.062686 -0.0297501 0.196197 182 219 199
0.0657538 -0.0307027 0.202479 191 227 206
0.0675909 -0.0310596 0.204833 196 229 208
0.0673312 -0.0304568 0.200857 200 230 208
0.0671028 -0.0298865 0.197096 205 233 213
0.0700454 -0.0307244 0.202622 203 232 211
0.0718824 -0.0310596 0.204833 202 232 212
0.0699272 -0.0297704 0.196331 204 232 212
0.0723542 -0.0303573 0.200201 204 232 212
0.0734299 -0.0303685 0.200275 198 231 208
0.0750711 -0.0306099 0.201867 200 232 211
0.074529 -0.0299668 0.197626 182 223 196
0.0752793 -0.0298539 0.196881 196 231 210
0.0778029 -0.0304377 0.200731 190 229 207
0.0761089 -0.029378 0.193743 178 222 192
0.0801722 -0.0305392 0.201401 185 225 197
0.0782711 -0.0294279 0.194072 183 225 193
0.0792144 -0.0294007 0.193893 195 230 204
0.0813695 -0.0298183 0.196646 173 219 188
0.0810094 -0.0293152 0.193329 197 231 209
0.0825648 -0.0295092 0.194608 173 221 190
0.0831223 -0.0293462 0.193533 179 220 192
0.083736 -0.0292067 0.192613 204 231 211
0.0854986 -0.0294664 0.194326 180 221 193
0.0841872 -0.0286731 0.189094 181 222 193
0.0841224 -0.0283179 0.186752 197 232 209
0.0888924 -0.0295797 0.195073 180 226 198
0.0888451 -0.029228 0.192753 186 229 205
0.0856759 -0.0278687 0.183789 189 229 206
0.091252 -0.0293527 0.193576 174 223 195
0.0918406 -0.0292174 0.192684 199 233 214
0.0931206 -0.0293026 0.193246 205 235 215
0.0926094 -0.0288284 0.190118 174 221 187
0.0952199 -0.0293257 0.193398 181 223 194
0.0937141 -0.0285581 0.188336 201 232 210
0.0967732 -0.0291831 0.192458 197 231 206
0.0947506 -0.0282786 0.186493 180 222 189
0.0939478 -0.0277529 0.183026 173 218 182
0.0956493 -0.0279701 0.184458 171 215 179
0.0985143 -0.0285198 0.188083 164 210 169
0.103082 -0.0295467 0.194855 169 215 177
0.099718 -0.0283023 0.186649 184 227 199
0.101238 -0.0284546 0.187653 186 227 200
0.0991585 -0.0276022 0.182032 184 226 196
0.102954 -0.0283859 0.1872 206 238 217
0.102102 -0.0278853 0.183899 193 232 206
0.104648 -0.0283135 0.186722 186 225 194
0.106752 -0.0286154 0.188714 201 233 212
0.10532 -0.0279727 0.184475 174 219 191
0.1086 -0.0285815 0.18849 196 230 207
0.106295 -0.0277228 0.182827 194 232 208
0.110976 -0.0286852 0.189174 170 221 186
0.110994 -0.0284359 0.18753 177 224 192
0.111822 -0.0283968 0.187272 180 226 195
0.114808 -0.0289016 0.190601 197 233 208
0.117156 -0.0292384 0.192822 190 231 206
0.114649 -0.0283681 0.187083 201 236 211
0.116598 -0.0286059 0.188651 206 239 217
0.116297 -0.0282924 0.186583 175 228 191
-0.137257 -0.0319714 0.218376 188 224 185
-0.148738 -0.0349368 0.238631 188 224 186
-0.143555 -0.0340052 0.232268 187 223 186
-0.139454 -0.0333159 0.22756 188 224 187
-0.135073 -0.0325477 0.222312 188 224 187
-0.130207 -0.0316478 0.216166 185 223 185
-0.127105 -0.031165 0.212868 188 225 188
-0.129563 -0.0320487 0.218904 189 225 189
-0.132777 -0.033137 0.226337 190 226 190
-0.128735 -0.0324175 0.221423 189 225 189
-0.127482 -0.032394 0.221263 188 224 187
-0.123666 -0.0317125 0.216608 187 224 187
-0.121188 -0.0313649 0.214234 188 225 188
-0.119148 -0.0311252 0.212596 188 225 188
-0.118948 -0.0313659 0.21424 189 225 189
-0.118325 -0.0314989 0.215149 187 225 187
-0.11485 -0.0308678 0.210838 189 226 189
-0.11336 -0.0307631 0.210123 190 226 190
-0.109743 -0.0300735 0.205413 188 225 189
-0.110228 -0.0305054 0.208363 190 226 190
-0.111048 -0.0310397 0.212012 190 226 190
-0.108079 -0.0305152 0.208429 189 226 190
-0.112958 -0.0322179 0.22006 189 226 190
-0.108108 -0.0311525 0.212782 190 226 190
-0.104821 -0.0305202 0.208464 187 225 188
-0.104555 -0.0307631 0.210123 186 225 188
-0.101681 -0.0302358 0.206521 189 226 190
-0.10303 -0.0309662 0.21151 188 226 190
-0.0984492 -0.0299111 0.204304 189 226 190
-0.0964127 -0.0296143 0.202276 189 226 190
-0.098201 -0.0304987 0.208317 189 226 191
-0.0975354 -0.0306324 0.20923 186 225 189
-0.0953033 -0.0302715 0.206765 189 226 191
-0.0942007 -0.0302652 0.206722 187 225 189
-0.0926875 -0.0301253 0.205766 186 225 189
-0.0936516 -0.0307967 0.210352 187 225 189
-0.0891101 -0.0296521 0.202534 188 226 191
-0.0892465 -0.0300553 0.205288 188 226 191
-0.0872009 -0.0297246 0.203029 187 226 190
-0.089391 -0.0308473 0.210698 188 226 191
-0.0852618 -0.0297901 0.203477 186 226 190
-0.0843822 -0.029856 0.203927 186 226 190
-0.0851639 -0.0305189 0.208455 186 226 190
-0.0824242 -0.0299207 0.204369 186 225 190
-0.0824666 -0.03033 0.207165 184 225 191
-0.0797144 -0.0297087 0.202921 183 225 190
-0.079771 -0.0301315 0.205809 183 225 190
-0.076403 -0.0292547 0.19982 182 224 188
-0.0776359 -0.0301396 0.205865 184 224 190
-0.074133 -0.0291851 0.199345 184 224 190
-0.0738704 -0.0294972 0.201476 184 225 191
-0.0759401 -0.0307631 0.210123 183 224 190
-0.0742485 -0.0305202 0.208464 181 224 190
-0.0705657 -0.0294393 0.201081 179 223 189
-0.0716916 -0.0303621 0.207384 177 223 189
-0.0677802 -0.0291472 0.199086 175 222 187
-0.0682265 -0.0297976 0.203528 174 221 187
-0.0686794 -0.0304715 0.208131 161 211 176
-0.0663056 -0.0298928 0.204178 119 188 137
-0.0639321 -0.0292953 0.200097 157 206 170
-0.0658638 -0.0306834 0.209578 188 222 203
-0.0626642 -0.0296876 0.202777 147 204 172
-0.0598708 -0.0288533 0.197078 161 207 179
-0.0593939 -0.0291256 0.198938 132 193 156
-0.0614114 -0.0306527 0.209369 152 194 170
-0.0587851 -0.0298753 0.204059 126 154 130
-0.0604517 -0.0312912 0.21373 104 126 104
-0.054506 -0.0287459 0.196345 92 108 89
-0.0557894 -0.0299886 0.204833 89 99 85
-0.0564696 -0.0309494 0.211396 85 89 79
-0.0541696 -0.0302826 0.206841 83 86 76
-0.0534001 -0.0304617 0.208064 81 80 71
-0.0532066 -0.0309836 0.211629 79 77 69
-0.0524987 -0.0312218 0.213256 76 71 68
-0.0506094 -0.0307525 0.210051 74 65 64
-0.0488867 -0.0303659 0.20741 75 66 65
-0.0486883 -0.03093 0.211263 71 60 60
-0.0475531 -0.0309114 0.211136 71 59 59
-0.0455755 -0.0303312 0.207173 67 53 54
-0.0444481 -0.0303024 0.206976 70 57 59
-0.0437782 -0.0305918 0.208953 66 52 54
-0.04125 -0.0295643 0.201935 67 54 55
-0.0418839 -0.0308085 0.210433 64 49 51
-0.0395208 -0.029856 0.203927 66 51 54
-0.0399107 -0.0309881 0.21166 67 52 56
-0.0373995 -0.029868 0.204009 66 52 55
-0.0350606 -0.0288236 0.196875 66 54 58
-0.0364836 -0.0309023 0.211074 67 54 57
-0.0328185 -0.0286666 0.195803 67 54 58
-0.03373 -0.0304132 0.207733 67 52 58
-0.0315178 -0.0293658 0.200579 66 51 58
-0.0302576 -0.0291638 0.199199 65 50 57
-0.0295357 -0.0294848 0.201392 65 52 59
-0.0291583 -0.0301861 0.206182 64 51 59
-0.027436 -0.0294954 0.201464 65 53 60
-0.0271811 -0.0303903 0.207577 67 54 62
-0.0242878 -0.0282869 0.193209 66 52 62
-0.0239315 -0.0290837 0.198652 66 53 63
-0.022891 -0.0290837 0.198652 65 53 63
-0.0220776 -0.029386 0.200717 65 52 63
-0.0205067 -0.0286599 0.195757 64 51 62
-0.0201317 -0.0296165 0.202291 64 52 64
-0.0185679 -0.0288336 0.196944 63 51 64
-0.0173975 -0.0286053 0.195385 64 52 65
-0.0164882 -0.0288046 0.196745 63 51 64
-0.0151072 -0.0281515 0.192285 63 51 65
-0.0147338 -0.0294168 0.200927 63 52 65
-0.0137208 -0.0295015 0.201505 66 55 68
-0.0122117 -0.0284448 0.194288 64 53 67
-0.0112646 -0.0286239 0.195512 62 50 66
-0.010272 -0.0287119 0.196112 63 53 68
-0.00942441 -0.0292698 0.199923 64 56 70
-0.0078634 -0.0274744 0.18766 63 53 68
-0.00725275 -0.0289609 0.197813 63 53 68
-0.0059413 -0.0276782 0.189052 65 56 71
-0.00509107 -0.0284608 0.194397 65 56 70
-0.00408828 -0.0285686 0.195134 63 54 70
-0.00298969 -0.0278556 0.190264 67 58 73
-0.00202676 -0.0283257 0.193475 67 59 73
-0.00103177 -0.0288397 0.196986 64 55 70
0 -0.028164 0.19237 65 56 71
0.000983177 -0.0274814 0.187708 65 56 71
0.00202824 -0.0283464 0.193616 68 59 73
0.00302447 -0.0281797 0.192477 68 61 75
0.00397916 -0.0278061 0.189925 68 61 75
0.00494912 -0.0276672 0.188977 68 61 75
0.006142 -0.0286132 0.195438 69 62 77
0.0067881 -0.0271055 0.185141 68 61 76
0.00805481 -0.0281432 0.192228 68 61 75
0.00916601 -0.0284673 0.194442 68 62 75
0.00962623 -0.0269069 0.183784 68 62 75
0.0111536 -0.028342 0.193586 69 64 78
0.0118987 -0.0277158 0.189309 70 66 78
0.0130567 -0.0280737 0.191753 71 67 80
0.0140014 -0.0279544 0.190939 72 71 85
0.0145779 -0.0271651 0.185547 75 73 88
0.0159254 -0.0278214 0.19003 75 76 90
0.0168848 -0.0277623 0.189626 78 84 95
0.0177541 -0.0275699 0.188312 82 87 98
0.0186774 -0.0274771 0.187679 85 92 97
0.0199389 -0.0278663 0.190337 84 99 104
0.0211536 -0.0281562 0.192317 87 102 109
0.0216322 -0.0274844 0.187728 92 106 112
0.0231682 -0.0281562 0.192317 98 113 117
0.0240465 -0.0280058 0.19129 92 108 116
0.0251595 -0.0281301 0.192138 96 115 121
0.0256626 -0.027589 0.188443 97 117 122
0.0270386 -0.0279917 0.191193 98 119 124
0.0288828 -0.0288329 0.196939 97 121 126
0.0285504 -0.0275184 0.18796 99 124 128
0.0311268 -0.0290016 0.198091 101 130 132
0.031443 -0.0283511 0.193648 101 134 136
0.0322723 -0.0281895 0.192544 102 134 136
0.03233 -0.0273842 0.187044 106 138 139
0.0355057 -0.0291895 0.199375 110 141 142
0.0356834 -0.0284974 0.194648 117 151 150
0.0360121 -0.0279611 0.190984 115 159 155
0.0384788 -0.0290688 0.198551 114 160 153
0.0372533 -0.0274024 0.187168 116 161 154
0.0404921 -0.0290211 0.198224 121 164 158
0.0411828 -0.0287782 0.196565 131 169 163
0.041203 -0.0280901 0.191865 131 169 162
0.0436889 -0.0290757 0.198597 131 166 159
0.0424118 -0.0275693 0.188308 130 160 155
0.0445631 -0.0283094 0.193363 136 164 158
0.0459413 -0.0285364 0.194914 148 175 169
0.0475042 -0.0288657 0.197163 139 175 166
0.0479141 -0.0284953 0.194633 140 178 167
0.0486211 -0.0283134 0.193391 144 182 169
0.0519553 -0.0296375 0.202435 148 182 171
0.0507966 -0.028397 0.193962 156 187 178
0.0540573 -0.0296273 0.202365 154 189 181
0.0527417 -0.0283504 0.193643 158 188 181
0.0538155 -0.0283818 0.193858 160 187 180
0.0565284 -0.0292604 0.199859 166 194 185
0.0582971 -0.0296273 0.202365 169 204 190
0.0604386 -0.0301671 0.206052 171 208 191
0.0604241 -0.0296308 0.202389 170 209 188
0.06131 -0.0295469 0.201816 173 211 191
0.0623758 -0.029551 0.201844 177 213 195
0.0617596 -0.0287714 0.196519 180 214 197
0.0623048 -0.0285496 0.195004 182 217 199
0.0648524 -0.0292376 0.199703 185 220 200
0.0664736 -0.0294928 0.201447 188 221 203
0.0690305 -0.0301487 0.205927 188 221 203
0.0680934 -0.0292819 0.200006 191 223 205
0.0699039 -0.029605 0.202213 199 229 209
0.0695757 -0.0290262 0.198259 206 233 213
0.0704984 -0.0289787 0.197935 205 232 214
0.072809 -0.0294947 0.201459 197 229 208
0.0747618 -0.0298531 0.203907 202 233 211
0.0737929 -0.0290512 0.19843 202 234 210
0.0735944 -0.0285706 0.195148 203 233 209
0.0751885 -0.0287897 0.196644 198 231 207
0.0761245 -0.0287542 0.196401 198 231 209
0.079825 -0.0297499 0.203202 191 226 206
0.0772649 -0.0284169 0.194098 189 225 203
0.0773276 -0.0280706 0.191732 170 217 186
0.0800167 -0.0286744 0.195856 183 224 197
0.0801628 -0.0283631 0.19373 181 223 195
0.0808541 -0.0282501 0.192958 177 222 194
0.0812923 -0.0280526 0.191609 187 227 202
0.0841463 -0.0286833 0.195917 192 227 203
0.0847292 -0.028534 0.194897 196 228 207
0.0835374 -0.0277977 0.189869 179 221 193
0.0872904 -0.0287049 0.196064 183 224 196
0.0845185 -0.0274702 0.187631 189 225 200
0.0845039 -0.0271497 0.185442 184 225 202
0.0890839 -0.028296 0.193271 189 229 206
