ply
format ascii 1.0
element vertex 1328
property float x
property float y
property float z
property uchar red
property uchar green
property uchar blue
end_header
-0.0169212 0.0855159 0.201913 40 18 36
-0.0164333 0.0885869 0.209163 47 24 42
-0.014916 0.0861509 0.203412 46 24 42
-0.0141383 0.0879405 0.207637 45 22 40
-0.0122113 0.0822841 0.194282 46 25 42
-0.0121632 0.0894105 0.211108 47 26 44
-0.0106187 0.0858628 0.202732 46 25 42
-0.00962298 0.0864574 0.204135 47 28 45
-0.00838023 0.0847035 0.199994 48 31 47
-0.00740884 0.085583 0.202071 47 29 46
-0.00617798 0.0832588 0.196583 48 29 46
-0.0051635 0.0835043 0.197163 46 28 46
-0.00409646 0.0828102 0.195524 47 31 48
-0.00304715 0.082131 0.19392 48 32 50
-0.00210628 0.0851573 0.201066 49 31 49
-0.00106877 0.0864211 0.20405 45 27 46
0 0.0840361 0.198419 48 30 49
0.000998395 0.0807305 0.190614 47 29 49
0.00207306 0.0838141 0.197894 46 26 47
0.00324704 0.0875187 0.206641 47 27 47
0.00403234 0.081514 0.192464 46 28 49
0.00515399 0.0833506 0.1968 47 29 50
0.00613564 0.0826883 0.195236 47 30 50
0.00725913 0.0838536 0.197988 45 27 49
0.00837458 0.0846463 0.199859 45 30 51
0.00933317 0.0838536 0.197988 48 33 53
0.011121 0.0899246 0.212322 48 33 53
0.0125819 0.0924886 0.218376 46 31 51
0.0124065 0.0835993 0.197387 46 30 51
0.0157157 0.0977518 0.230803 45 28 50
0.0160891 0.0929263 0.219409 46 28 51
0.0190319 0.102595 0.242238 45 27 49
0.0198313 0.100223 0.236637 45 27 49
0.0248167 0.11804 0.278707 45 28 49
0.0290787 0.130628 0.308428 48 32 51
0.0302423 0.128705 0.303887 48 33 51
0.0400172 0.16179 0.382004 44 27 47
0.045715 0.176025 0.415615 46 30 49
0.0503042 0.184891 0.436549 47 31 49
0.0678786 0.238638 0.563451 49 33 51
0.0803531 0.270724 0.639209 45 28 47
0.0843789 0.272916 0.644385 46 29 48
0.117225 0.36457 0.860791 48 32 50
0.119365 0.357476 0.844042 46 28 46
0.13341 0.38527 0.909666 45 29 46
0.167866 0.468058 1.10514 45 28 47
0.157134 0.423529 1 46 29 48
0.187695 0.489582 1.15596 47 29 48
0.18275 0.461789 1.09033 46 28 46
0.229973 0.563505 1.3305 46 28 46
0.23065 0.548541 1.29517 45 26 45
0.274984 0.635294 1.5 45 25 45
0.271958 0.61085 1.44228 47 27 47
0.270322 0.590765 1.39486 45 26 45
0.257785 0.548541 1.29517 44 24 44
0.306411 0.635294 1.5 44 23 44
0.314268 0.635294 1.5 45 24 44
0.322124 0.635294 1.5 45 24 44
0.319229 0.614594 1.45113 45 23 43
0.337838 0.635294 1.5 45 22 41
0.369925 0.679823 1.60514 44 21 39
0.32877 0.590765 1.39486 42 19 37
0.336076 0.590765 1.39486 41 18 36
0.355056 0.61085 1.44228 42 19 37
0.408716 0.688517 1.62567 41 18 37
0.41723 0.688517 1.62567 41 17 35
0.430648 0.696445 1.64438 40 17 33
0.43426 0.688517 1.62567 36 14 29
0.437184 0.679823 1.60514 38 15 31
0.416405 0.635294 1.5 40 17 34
0.440586 0.659738 1.55772 41 18 35
0.480948 0.707083 1.6695 40 17 35
0.439975 0.635294 1.5 45 19 40
0.465063 0.659738 1.55772 43 19 36
0.487628 0.679823 1.60514 40 18 33
0.547477 0.750324 1.7716 45 20 38
0.510894 0.688517 1.62567 45 21 38
0.533415 0.707083 1.6695 46 22 41
0.487115 0.635294 1.5 46 22 41
0.550904 0.707083 1.6695 48 26 43
0.584031 0.737889 1.74224 48 26 44
0.553469 0.688517 1.62567 49 28 45
0.602282 0.737889 1.74224 49 29 45
0.629982 0.760306 1.79517 48 27 44
0.559346 0.66513 1.57045 47 27 44
0.629659 0.737889 1.74224 50 32 47
0.62507 0.722047 1.70483 49 28 45
0.584023 0.66513 1.57045 48 28 44
0.642929 0.722047 1.70483 47 27 43
0.724518 0.80253 1.89486 49 29 45
0.660788 0.722047 1.70483 45 27 44
0.638618 0.688517 1.62567 47 29 45
0.659191 0.701347 1.65596 50 33 48
0.687577 0.722047 1.70483 40 20 40
0.696506 0.722047 1.70483 44 25 43
0.672678 0.688517 1.62567 41 22 41
0.736544 0.744464 1.75776 46 29 45
0.702559 0.701347 1.65596 46 28 44
0.711233 0.701347 1.65596 46 28 43
0.764164 0.744464 1.75776 45 26 43
0.811332 0.781006 1.84404 47 31 46
0.708037 0.673553 1.59033 48 31 46
0.732282 0.688517 1.62567 45 27 43
0.818037 0.760306 1.79517 48 31 46
0.810198 0.744464 1.75776 47 30 46
0.794731 0.722047 1.70483 47 29 45
0.803661 0.722047 1.70483 47 29 44
0.837819 0.744464 1.75776 45 29 45
0.783371 0.688517 1.62567 47 32 45
0.83045 0.722047 1.70483 47 33 44
0.865439 0.744464 1.75776 45 30 45
0.746386 0.635294 1.5 47 33 47
0.651247 0.548541 1.29517 48 34 48
0.825946 0.688517 1.62567 47 31 46
0.769956 0.635294 1.5 47 30 46
0.956213 0.781006 1.84404 47 33 47
0.940272 0.760306 1.79517 47 34 47
0.901886 0.722047 1.70483 47 32 45
0.643688 0.510282 1.20483 50 36 48
0.741444 0.582071 1.37433 48 34 47
1.08946 0.847059 2 46 31 44
0.712301 0.548541 1.29517 46 30 44
0.83281 0.635294 1.5 45 30 44
0.840666 0.635294 1.5 46 32 45
0.964393 0.722047 1.70483 49 36 49
1.72847 1.27059 3 47 32 44
0.581395 0.423529 1 46 30 44
0.466471 0.336777 0.795167 48 33 47
1.18374 0.847059 2 47 31 45
0.597109 0.423529 1 50 34 48
0.424554 0.298517 0.704833 48 30 44
0.607584 0.423529 1 47 31 43
0.306411 0.211765 0.5 46 28 44
0.61806 0.423529 1 47 31 45
2.18154 1.48235 3.5 47 34 45
-0.14522 0.0990627 0.231046 138 204 174
-0.149393 0.102765 0.239681 134 204 175
-0.148224 0.102826 0.239822 127 201 173
-0.140841 0.0985385 0.229823 177 222 203
-0.139192 0.0982246 0.229091 140 205 171
-0.142753 0.101613 0.236994 145 205 175
-0.140491 0.100881 0.235286 138 200 173
-0.143928 0.104263 0.243175 155 209 187
-0.149681 0.109399 0.255153 135 201 173
-0.145036 0.106959 0.249462 122 191 152
-0.140107 0.104263 0.243175 138 196 161
-0.136151 0.102249 0.238476 132 193 163
-0.133267 0.10101 0.235587 127 193 164
-0.127343 0.0974212 0.227217 140 201 175
-0.140184 0.108257 0.25249 125 193 164
-0.125301 0.0976853 0.227833 136 194 166
-0.125314 0.0986345 0.230047 122 186 155
-0.122396 0.097273 0.226871 128 194 164
-0.121756 0.0977133 0.227898 139 199 168
-0.121333 0.0983381 0.229356 131 192 157
-0.11842 0.0969367 0.226087 136 195 160
-0.112562 0.0930722 0.217074 131 189 160
-0.109465 0.0914354 0.213256 134 183 156
-0.113614 0.0958791 0.223621 140 183 155
-0.109432 0.093312 0.217633 133 178 147
-0.110639 0.0953344 0.22235 125 180 145
-0.103674 0.0902827 0.210568 133 186 152
-0.106617 0.0938438 0.218874 133 183 150
-0.105348 0.0937352 0.21862 130 180 146
-0.0998462 0.0898161 0.20948 131 176 140
-0.101917 0.0926974 0.2162 120 169 126
-0.0997554 0.0917509 0.213992 116 166 121
-0.105078 0.097745 0.227972 122 166 123
-0.0954574 0.0898161 0.20948 106 155 116
-0.0998689 0.0950595 0.221709 106 154 120
-0.0955881 0.0920553 0.214702 113 158 122
-0.0941306 0.0917308 0.213945 108 150 110
-0.0949361 0.0936304 0.218376 104 144 102
-0.092238 0.0920788 0.214757 102 140 99
-0.0993195 0.100372 0.2341 98 133 95
-0.0977872 0.100059 0.233369 102 128 92
-0.0962029 0.0996839 0.232494 106 132 98
-0.0936189 0.0982501 0.22915 97 126 88
-0.0903308 0.0960305 0.223973 89 122 84
-0.101171 0.10897 0.254152 82 112 79
-0.107478 0.117306 0.273595 89 102 75
-0.11721 0.129657 0.302401 91 101 79
-0.138581 0.155397 0.362436 80 83 68
-0.163813 0.186242 0.434376 77 80 65
-0.175655 0.202519 0.472338 75 78 64
-0.183323 0.214379 0.5 74 76 66
-0.194222 0.230417 0.537405 74 77 58
-0.206282 0.248323 0.579167 71 74 56
-0.207167 0.253111 0.590334 65 66 56
-0.231443 0.287054 0.669501 66 62 58
-0.262696 0.33083 0.771599 65 61 58
-0.248812 0.318241 0.742238 66 64 62
-0.254613 0.33083 0.771599 64 62 59
-0.324743 0.428758 1 64 61 58
-0.319506 0.428758 1 66 64 61
-0.314268 0.428758 1 64 61 59
-0.30903 0.428758 1 64 59 58
-0.303792 0.428758 1 64 60 59
-0.336072 0.482638 1.12567 64 58 59
-0.324155 0.473836 1.10514 64 57 60
-0.339118 0.504722 1.17717 61 54 57
-0.366326 0.555313 1.29517 61 54 58
-0.37311 0.576269 1.34404 58 50 55
-0.389361 0.612933 1.42955 58 50 56
-0.372606 0.598059 1.39486 59 51 57
-0.329395 0.539276 1.25776 58 50 58
-0.399791 0.667883 1.55772 55 46 55
-0.345527 0.589257 1.37433 55 47 56
-0.338329 0.589257 1.37433 56 45 56
-0.361408 0.643137 1.5 57 46 56
-0.3136 0.570462 1.3305 54 43 55
-0.306631 0.570462 1.3305 55 44 56
-0.337838 0.643137 1.5 55 45 55
-0.28492 0.555313 1.29517 54 43 54
-0.288632 0.576269 1.34404 54 42 55
-0.287939 0.589257 1.37433 53 41 54
-0.306411 0.643137 1.5 51 39 52
-0.273542 0.589257 1.37433 53 41 54
-0.257849 0.570462 1.3305 52 39 52
-0.244218 0.555313 1.29517 51 38 51
-0.225194 0.526687 1.2284 51 38 51
-0.178085 0.428758 1 45 28 44
-0.0986001 0.244584 0.570447 46 28 46
-0.0553947 0.141704 0.330499 46 31 47
-0.0393326 0.103861 0.242238 48 33 48
-0.0343142 0.0936304 0.218376 47 32 47
-0.0322247 0.090961 0.21215 50 33 48
-0.0305995 0.0894582 0.208645 44 24 41
-0.028338 0.085915 0.200381 47 28 45
-0.0274455 0.0864094 0.201534 42 22 39
-0.029172 0.0955189 0.22278 51 34 48
-0.0260603 0.0888858 0.20731 47 28 43
-0.0258806 0.0921106 0.214831 44 24 40
-0.0236032 0.0878237 0.204833 42 21 37
-0.02283 0.0889919 0.207557 42 20 37
-0.0211027 0.0863718 0.201447 44 21 38
-0.0204641 0.0881662 0.205632 44 21 38
-0.0192396 0.087496 0.204069 42 20 38
-0.0183748 0.0884783 0.206359 41 19 37
-0.0184065 0.0941704 0.219635 45 23 41
-0.0163263 0.0890962 0.207801 47 26 43
-0.0152329 0.0890673 0.207733 49 28 45
-0.014195 0.0893835 0.208471 46 24 42
-0.0130107 0.0887532 0.207001 49 30 45
-0.0116764 0.0868921 0.20266 49 30 45
-0.0106136 0.0868814 0.202635 48 29 45
-0.00975921 0.0887639 0.207025 48 29 46
-0.00843227 0.0862816 0.201236 47 30 48
-0.00737519 0.086246 0.201153 48 31 49
-0.00625199 0.0852964 0.198938 50 33 51
-0.00505707 0.0827928 0.193099 49 32 49
-0.00411746 0.0842622 0.196526 52 37 53
-0.00304616 0.083118 0.193858 51 35 53
-0.0020956 0.0857715 0.200046 51 35 52
-0.00105079 0.0860161 0.200617 48 30 49
0 0.0885777 0.206591 45 27 47
0.00102919 0.0842481 0.196493 46 26 48
0.00208493 0.0853348 0.199028 46 27 49
0.00313859 0.0856401 0.19974 43 23 46
0.0043146 0.0882968 0.205936 46 27 49
0.00504982 0.0826742 0.192822 47 30 51
0.00664782 0.0906968 0.211534 46 29 50
0.00761767 0.0890816 0.207766 45 28 49
0.00865374 0.0885477 0.206521 46 30 51
0.011101 0.100968 0.23549 47 31 52
0.0118398 0.0969189 0.226046 47 31 52
0.01387 0.103216 0.240733 48 32 53
0.0160547 0.109518 0.25543 47 31 52
0.0181293 0.114157 0.26625 46 29 52
0.018507 0.108211 0.252382 46 28 51
0.0214463 0.117038 0.272969 48 31 52
0.0288323 0.147511 0.344042 46 29 51
0.0306343 0.147511 0.344042 45 27 50
0.0431447 0.196209 0.457621 45 27 49
0.0470062 0.202519 0.472338 47 30 50
0.052378 0.214379 0.5 47 30 50
0.0627455 0.244584 0.570447 46 31 49
0.0873181 0.324897 0.757762 43 26 46
0.0849107 0.302203 0.704833 42 25 46
0.0999582 0.340934 0.795167 47 30 49
0.120578 0.394815 0.920833 48 31 49
0.125402 0.394815 0.920833 47 29 48
0.154196 0.46749 1.09033 47 30 47
0.184461 0.539276 1.25776 47 30 48
0.162597 0.458963 1.07045 44 27 46
0.171328 0.46749 1.09033 45 27 47
0.201704 0.53262 1.24224 46 28 48
0.201941 0.516582 1.20483 46 28 47
0.203471 0.504722 1.17717 47 28 47
0.239354 0.576269 1.34404 46 27 46
0.237434 0.555313 1.29517 46 27 46
0.259145 0.589257 1.37433 47 28 47
0.290698 0.643137 1.5 46 27 47
0.273542 0.589257 1.37433 47 29 47
0.284934 0.598059 1.39486 47 27 46
0.302176 0.618391 1.44228 46 25 44
0.278137 0.555313 1.29517 46 24 43
0.317284 0.618391 1.44228 47 26 44
0.337838 0.643137 1.5 45 23 41
0.358996 0.667883 1.55772 44 20 38
0.370156 0.673342 1.57045 43 19 38
0.391686 0.697018 1.62567 43 19 38
0.355056 0.618391 1.44228 42 19 37
0.391632 0.667883 1.55772 43 20 39
0.384978 0.643137 1.5 44 20 38
0.392835 0.643137 1.5 42 18 35
0.44597 0.715812 1.6695 38 16 32
0.408548 0.643137 1.5 42 18 35
0.416405 0.643137 1.5 41 18 35
0.438085 0.664093 1.54887 42 19 37
0.46832 0.697018 1.62567 44 20 38
0.456904 0.667883 1.55772 45 20 38
0.498437 0.715812 1.6695 45 21 39
0.499551 0.705043 1.64438 45 21 39
0.538404 0.746999 1.74224 43 20 37
0.535774 0.730961 1.70483 45 21 38
0.51285 0.688215 1.60514 48 25 43
0.553633 0.730961 1.70483 50 29 46
0.601499 0.781553 1.82283 51 30 46
0.526443 0.673342 1.57045 49 27 45
0.563782 0.710006 1.65596 48 25 44
0.518542 0.643137 1.5 50 30 47
0.598281 0.730961 1.70483 48 28 45
0.551663 0.664093 1.54887 49 29 46
0.629659 0.746999 1.74224 50 32 48
0.575797 0.673342 1.57045 48 29 45
0.658829 0.759588 1.7716 49 30 46
0.599749 0.681869 1.59033 48 28 45
0.573539 0.643137 1.5 50 31 47
0.641844 0.710006 1.65596 47 29 45
0.669717 0.730961 1.70483 48 30 46
0.678647 0.730961 1.70483 49 30 47
0.633377 0.673342 1.57045 47 29 46
0.641603 0.673342 1.57045 49 33 48
0.685212 0.710006 1.65596 45 28 44
0.736544 0.753655 1.75776 46 28 45
0.745751 0.753655 1.75776 44 25 43
0.74829 0.746999 1.74224 46 28 44
0.682731 0.673342 1.57045 48 33 47
0.789828 0.769693 1.79517 47 31 46
0.843617 0.812438 1.89486 46 28 45
0.791785 0.753655 1.75776 46 28 44
0.776872 0.730961 1.70483 48 32 46
0.763274 0.710006 1.65596 49 32 48
0.836842 0.769693 1.79517 48 29 45
0.766342 0.697018 1.62567 48 31 46
0.893382 0.803636 1.87433 47 31 47
0.783371 0.697018 1.62567 46 31 46
0.730673 0.643137 1.5 49 34 48
0.738529 0.643137 1.5 47 32 47
0.848309 0.730961 1.70483 47 31 46
1.00566 0.857516 2 49 34 48
0.698253 0.589257 1.37433 46 29 46
0.664814 0.555313 1.29517 47 30 46
0.624756 0.516582 1.20483 48 34 47
0.52378 0.428758 1 48 34 48
0.860006 0.697018 1.62567 46 31 45
0.959077 0.769693 1.79517 48 34 46
0.80924 0.643137 1.5 44 28 44
0.705517 0.555313 1.29517 48 33 48
0.437317 0.340934 0.795167 45 29 44
0.83281 0.643137 1.5 47 33 46
1.12089 0.857516 2 47 33 46
0.282841 0.214379 0.5 48 35 48
0.576158 0.428758 1 48 32 45
1.16279 0.857516 2 46 29 44
0.87995 0.643137 1.5 48 32 46
0.591871 0.428758 1 48 31 46
0.597109 0.428758 1 47 30 45
0.301173 0.214379 0.5 48 31 45
0.919233 0.643137 1.5 45 28 43
2.16321 1.50065 3.5 46 31 45
0.311649 0.214379 0.5 45 31 43
-0.15137 0.104517 0.240829 137 203 177
-0.161843 0.112688 0.259657 123 199 172
-0.138681 0.0973786 0.224381 168 220 201
-0.156424 0.110776 0.255252 154 215 188
-0.148597 0.10614 0.24457 134 201 166
-0.151119 0.10888 0.250884 136 201 168
-0.159664 0.116046 0.267396 128 196 163
-0.138581 0.101614 0.234141 143 205 173
-0.140943 0.104269 0.240258 145 207 173
-0.142557 0.106413 0.245199 147 209 174
-0.134457 0.101279 0.233369 150 208 177
-0.126764 0.0963601 0.222035 153 208 177
-0.129564 0.0994005 0.22904 130 197 163
-0.131223 0.101614 0.234141 167 214 193
-0.127855 0.0999402 0.230284 148 207 182
-0.133223 0.105128 0.242238 170 212 192
-0.127331 0.101444 0.23375 150 205 177
-0.126295 0.101596 0.2341 145 204 174
-0.114982 0.0934025 0.21522 142 201 171
-0.119708 0.0982042 0.226284 149 203 171
-0.116099 0.0961957 0.221656 135 198 158
-0.117642 0.0984592 0.226871 132 196 161
-0.116734 0.0986961 0.227417 128 192 161
-0.114279 0.0976166 0.22493 160 202 177
-0.111645 0.0963601 0.222035 138 191 156
-0.110482 0.0963601 0.222035 141 194 155
-0.113636 0.100165 0.230803 145 197 165
-0.11197 0.0997575 0.229863 142 197 170
-0.103754 0.0934422 0.215311 120 186 152
-0.103285 0.0940423 0.216694 132 193 159
-0.103998 0.0957434 0.220613 127 190 152
-0.098022 0.0912561 0.210274 118 178 137
-0.098792 0.0930181 0.214334 123 180 143
-0.102205 0.0973375 0.224287 122 173 138
-0.106359 0.102472 0.236117 122 171 135
-0.104224 0.101596 0.2341 125 174 137
-0.0994305 0.0980773 0.225991 109 171 129
-0.10179 0.101614 0.234141 113 172 131
-0.0920562 0.0930181 0.214334 111 161 118
-0.0932247 0.0953618 0.219734 111 159 121
-0.0979468 0.101444 0.23375 109 152 114
-0.0988554 0.103682 0.238905 106 149 107
-0.0948638 0.100771 0.232197 101 143 100
-0.103182 0.111031 0.255839 108 149 108
-0.1075 0.117198 0.270051 111 149 108
-0.12067 0.133311 0.307178 114 149 110
-0.158785 0.177789 0.409665 94 131 91
-0.169111 0.191946 0.442284 91 117 80
-0.161994 0.186421 0.429553 91 112 78
-0.201702 0.235385 0.542379 88 105 79
-0.201242 0.238204 0.548874 86 92 77
-0.148056 0.177789 0.409665 85 92 69
-0.274821 0.334864 0.771599 77 85 61
-0.247349 0.305888 0.704833 75 80 61
-0.243657 0.305888 0.704833 77 76 61
-0.304662 0.388359 0.894863 74 73 61
-0.335219 0.433987 1 72 72 65
-0.329981 0.433987 1 70 69 63
-0.324743 0.433987 1 69 68 63
-0.319506 0.433987 1 68 66 62
-0.369947 0.510877 1.17717 67 65 60
-0.347865 0.488524 1.12567 65 62 59
-0.341968 0.488524 1.12567 63 59 57
-0.37551 0.545852 1.25776 62 58 57
-0.339062 0.501671 1.15596 65 62 62
-0.362335 0.545852 1.25776 61 54 56
-0.398711 0.611776 1.40967 59 51 54
-0.37311 0.583297 1.34404 56 50 55
-0.389361 0.620407 1.42955 60 54 60
-0.385274 0.625932 1.44228 57 51 56
-0.339191 0.562086 1.29517 57 48 56
-0.332407 0.562086 1.29517 56 47 56
-0.312316 0.539115 1.24224 54 45 53
-0.338329 0.596443 1.37433 58 46 57
-0.339643 0.611776 1.40967 54 43 54
-0.353551 0.65098 1.5 54 44 55
-0.309752 0.583297 1.34404 55 44 56
-0.321971 0.620407 1.42955 54 43 54
-0.295672 0.583297 1.34404 53 42 54
-0.306996 0.620407 1.42955 54 42 54
-0.314268 0.65098 1.5 54 42 54
-0.284934 0.605352 1.39486 53 41 53
-0.273542 0.596443 1.37433 52 39 52
-0.277045 0.620407 1.42955 46 33 46
-0.269558 0.620407 1.42955 43 29 43
-0.215802 0.510877 1.17717 49 36 50
-0.134946 0.328859 0.757762 48 30 46
-0.0864236 0.216993 0.5 43 24 42
-0.0494728 0.128099 0.295167 44 26 44
-0.0275222 0.0735614 0.169501 42 24 42
-0.028615 0.0790316 0.182106 49 33 48
-0.0236894 0.0676838 0.155958 45 26 43
-0.0300404 0.0888947 0.204833 44 23 41
-0.0292516 0.0897663 0.206841 48 30 46
-0.0274568 0.0874994 0.201618 44 24 42
-0.0273528 0.0906545 0.208888 46 26 43
-0.0252864 0.0872977 0.201153 45 25 40
-0.0250654 0.0902972 0.208064 46 26 42
-0.0241808 0.0910702 0.209845 42 21 37
-0.0224278 0.0884902 0.203901 43 21 38
-0.0213665 0.0885178 0.203964 46 24 41
-0.0209539 0.0913773 0.210553 43 20 38
-0.019387 0.0892414 0.205632 45 23 42
-0.0185866 0.0905897 0.208738 44 22 41
-0.0174206 0.0902135 0.207871 43 22 40
-0.0157936 0.0872404 0.201021 44 23 41
-0.0143963 0.0852022 0.196324 46 24 43
-0.0139985 0.0892209 0.205584 48 27 44
-0.0126349 0.0872404 0.201021 49 29 45
-0.0115793 0.0872203 0.200974 48 29 45
-0.0104871 0.0868927 0.20022 48 30 46
-0.00972782 0.0895573 0.206359 47 28 46
-0.00855095 0.0885631 0.204069 47 30 49
-0.00722547 0.0855256 0.197069 50 34 51
-0.00641262 0.0885549 0.20405 50 33 51
-0.00511304 0.08473 0.195236 49 32 50
-0.00410412 0.0850136 0.19589 47 31 50
-0.00317855 0.0877881 0.202283 47 32 50
-0.00200118 0.0829058 0.191033 49 33 51
-0.00105835 0.0876918 0.202061 52 33 51
0 0.088478 0.203873 46 27 47
0.00106205 0.0879977 0.202766 45 26 48
0.00210995 0.087412 0.201416 45 26 48
0.0031215 0.0862124 0.198652 46 27 49
0.00435025 0.0901118 0.207637 44 26 48
0.00553192 0.0916714 0.211231 45 27 49
0.00694721 0.0959373 0.22106 45 28 50
0.00805646 0.0953618 0.219734 47 31 52
0.00949548 0.0983457 0.22661 44 28 50
0.0107668 0.0991228 0.2284 47 31 52
0.0132588 0.109859 0.253138 46 29 50
0.0159171 0.119895 0.276263 47 30 51
0.0190653 0.131641 0.303329 44 27 49
0.0237024 0.151069 0.348097 44 25 49
0.0262972 0.155636 0.358618 45 27 50
0.03331 0.183997 0.423969 45 28 51
0.0419024 0.216993 0.5 42 24 48
0.047502 0.231521 0.533475 45 28 50
0.0537819 0.247566 0.570447 48 31 52
0.0539765 0.235385 0.542379 48 31 50
0.0655422 0.271531 0.625666 47 30 50
0.0833491 0.328859 0.757762 47 31 50
0.0855292 0.322122 0.742238 45 28 48
0.0957932 0.345092 0.795167 45 28 49
0.125707 0.433987 1 46 30 48
0.130945 0.433987 1 47 30 48
0.146964 0.468344 1.07917 46 27 47
0.14142 0.433987 1 47 28 47
0.189947 0.562086 1.29517 47 29 48
0.188691 0.539115 1.24224 46 29 48
0.203515 0.562086 1.29517 45 28 48
0.223153 0.596443 1.37433 45 28 48
0.201941 0.522882 1.20483 44 26 45
0.259271 0.65098 1.5 44 26 45
0.23065 0.562086 1.29517 45 28 46
0.26207 0.620407 1.42955 46 27 45
0.265807 0.611776 1.40967 47 28 47
0.262716 0.588319 1.35562 46 28 47
0.257785 0.562086 1.29517 48 29 48
0.306411 0.65098 1.5 46 26 45
0.299508 0.620407 1.42955 47 26 44
0.322124 0.65098 1.5 46 25 43
0.329981 0.65098 1.5 44 22 41
0.383971 0.739875 1.70483 42 19 39
0.36193 0.681553 1.57045 43 19 39
0.378332 0.696608 1.60514 40 17 35
0.361408 0.65098 1.5 43 19 38
0.395147 0.696608 1.60514 41 19 36
0.394833 0.681553 1.57045 37 17 33
0.399791 0.676028 1.55772 42 19 38
0.40795 0.676028 1.55772 40 17 33
0.400691 0.65098 1.5 40 17 33
0.36607 0.583297 1.34404 41 18 35
0.473267 0.739875 1.70483 42 19 37
0.521571 0.80029 1.84404 43 20 38
0.491126 0.739875 1.70483 44 19 38
0.419312 0.620407 1.42955 44 19 38
0.479221 0.696608 1.60514 44 21 39
0.477089 0.681553 1.57045 47 25 42
0.502379 0.705518 1.62567 48 27 44
0.52467 0.724542 1.6695 49 28 45
0.566036 0.768851 1.7716 46 24 42
0.575315 0.768851 1.7716 50 30 47
0.562563 0.739875 1.70483 50 30 47
0.56222 0.72787 1.67717 49 28 45
0.568393 0.724542 1.6695 48 26 44
0.577137 0.724542 1.6695 50 31 47
0.55112 0.681553 1.57045 50 31 46
0.534255 0.65098 1.5 49 29 46
0.603371 0.724542 1.6695 47 27 45
0.60715 0.718664 1.65596 51 33 49
0.704668 0.822346 1.89486 50 33 49
0.565682 0.65098 1.5 48 29 46
0.672096 0.762846 1.75776 47 28 45
0.660788 0.739875 1.70483 48 32 47
0.630553 0.696608 1.60514 48 30 46
0.647133 0.705518 1.62567 48 30 46
0.604965 0.65098 1.5 47 29 46
0.612822 0.65098 1.5 49 32 47
0.658058 0.690184 1.59033 47 30 46
0.628536 0.65098 1.5 46 29 45
0.689707 0.705518 1.62567 45 26 43
0.782904 0.791084 1.82283 45 27 44
0.597474 0.596443 1.37433 49 33 48
0.87995 0.867974 2 46 30 46
0.890425 0.867974 2 46 29 46
0.745927 0.718664 1.65596 48 33 47
0.776872 0.739875 1.70483 48 32 47
0.691389 0.65098 1.5 49 31 47
0.699246 0.65098 1.5 47 29 45
0.846245 0.779079 1.79517 47 29 45
0.774856 0.705518 1.62567 45 28 45
0.888602 0.80029 1.84404 47 32 46
0.874453 0.779079 1.79517 46 31 44
0.800401 0.705518 1.62567 49 35 50
0.746386 0.65098 1.5 47 31 46
0.817431 0.705518 1.62567 46 29 44
0.762099 0.65098 1.5 47 30 47
0.769956 0.65098 1.5 48 31 46
0.930869 0.779079 1.79517 50 35 48
0.851491 0.705518 1.62567 45 28 43
1.21418 0.996073 2.29517 43 27 42
0.534255 0.433987 1 45 30 43
0.539493 0.433987 1 44 29 45
0.817096 0.65098 1.5 45 28 45
0.549969 0.433987 1 44 28 44
1.38802 1.08497 2.5 46 32 46
0.840666 0.65098 1.5 48 34 46
0.565682 0.433987 1 47 33 46
1.15232 0.867974 2 46 33 45
0.991182 0.739875 1.70483 48 34 47
0.759788 0.562086 1.29517 46 30 44
1.18374 0.867974 2 46 30 45
0.597109 0.433987 1 47 31 45
0.90352 0.65098 1.5 46 29 43
0.303792 0.216993 0.5 46 29 42
0.180885 0.128099 0.295167 46 31 45
0.127672 0.0888947 0.204833 47 34 46
-0.142973 0.0999083 0.22747 134 194 168
-0.157415 0.110925 0.252553 135 200 174
-0.150544 0.106982 0.243575 132 204 176
-0.15168 0.10871 0.24751 166 217 191
-0.148676 0.107476 0.244701 141 203 168
-0.140252 0.102268 0.232842 141 203 170
-0.142652 0.104931 0.238905 150 206 175
-0.141401 0.104931 0.238905 129 196 156
-0.138339 0.103575 0.235818 133 202 162
-0.137104 0.103575 0.235818 159 213 183
-0.138953 0.105926 0.241172 143 205 171
-0.134633 0.103575 0.235818 149 207 173
-0.130778 0.101541 0.231187 129 197 156
-0.14187 0.111182 0.253138 136 203 175
-0.12382 0.0979525 0.223017 137 205 175
-0.130961 0.104588 0.238124 152 207 178
-0.12862 0.103706 0.236117 141 203 168
-0.124237 0.101144 0.230284 152 207 177
-0.127871 0.105124 0.239344 126 194 159
-0.121475 0.100854 0.229624 148 204 172
-0.126392 0.105986 0.241307 144 204 167
-0.122706 0.103935 0.236637 135 200 161
-0.120691 0.103271 0.235125 141 201 164
-0.113441 0.0980682 0.22328 145 200 167
-0.114289 0.0998304 0.227292 137 198 165
-0.113928 0.100562 0.228958 147 203 170
-0.114919 0.102517 0.233409 130 196 163
-0.104957 0.0946367 0.215467 150 205 183
-0.109788 0.100068 0.227833 142 200 174
-0.108039 0.0995566 0.226669 129 192 158
-0.107111 0.0997973 0.227217 145 200 170
-0.105608 0.0995027 0.226546 126 192 159
-0.105571 0.100598 0.22904 130 194 165
-0.111868 0.107824 0.245491 153 201 179
-0.106505 0.103848 0.23644 144 189 163
-0.0930588 0.0918053 0.209021 130 183 156
-0.108363 0.108176 0.246293 140 191 164
-0.0949361 0.0959141 0.218376 133 186 155
-0.092992 0.0950957 0.216513 124 182 147
-0.100941 0.104499 0.237922 123 180 145
-0.121067 0.126901 0.288926 122 173 136
-0.118715 0.126011 0.2869 135 178 146
-0.100622 0.108176 0.246293 130 175 141
-0.119044 0.129642 0.295167 119 166 132
-0.124165 0.136999 0.311917 114 152 113
-0.168743 0.188667 0.429553 129 163 127
-0.254247 0.288107 0.655958 120 156 117
-0.19118 0.219608 0.5 115 153 112
-0.210327 0.244958 0.557716 107 145 109
-0.248976 0.294055 0.669501 109 140 112
-0.240504 0.288107 0.655958 102 119 98
-0.32876 0.399539 0.909666 106 115 92
-0.318723 0.393038 0.894863 99 110 86
-0.350932 0.439216 1 97 108 83
-0.291781 0.370716 0.844042 85 95 68
-0.383241 0.49441 1.12567 84 86 67
-0.403883 0.529181 1.20483 80 82 65
-0.427381 0.568858 1.29517 75 76 66
-0.354079 0.478892 1.09033 73 73 64
-0.359657 0.49441 1.12567 71 72 64
-0.37864 0.529181 1.20483 69 68 62
-0.415349 0.590324 1.34404 66 65 61
-0.408309 0.590324 1.34404 66 64 62
-0.40127 0.590324 1.34404 68 67 64
-0.379894 0.568858 1.29517 66 64 62
-0.38719 0.590324 1.34404 61 54 56
-0.449812 0.6985 1.59033 63 56 59
-0.396849 0.627882 1.42955 63 59 61
-0.374321 0.603629 1.37433 62 58 60
-0.376561 0.619147 1.40967 60 54 59
-0.315533 0.529181 1.20483 57 49 55
-0.344951 0.590324 1.34404 57 47 55
-0.35441 0.619147 1.40967 55 45 54
-0.369265 0.658824 1.5 52 41 52
-0.383173 0.6985 1.59033 52 42 53
-0.353551 0.658824 1.5 55 45 56
-0.28629 0.54561 1.24224 53 43 54
-0.302712 0.590324 1.34404 54 43 54
-0.317284 0.633474 1.44228 53 42 53
-0.377479 0.772037 1.75776 52 41 53
-0.278755 0.584376 1.3305 54 42 54
-0.292021 0.627882 1.42955 53 41 53
-0.244496 0.539533 1.2284 51 38 51
-0.277045 0.627882 1.42955 52 39 52
-0.244218 0.568858 1.29517 53 40 52
-0.183323 0.439216 1 49 33 47
-0.0890425 0.219608 0.5 46 29 44
-0.0571258 0.14516 0.330499 46 29 44
-0.0382821 0.100317 0.2284 49 33 48
-0.0479268 0.129642 0.295167 46 29 45
-0.0418369 0.116941 0.26625 45 28 44
-0.0311133 0.0899658 0.204833 45 26 43
-0.0304517 0.0911975 0.207637 49 31 46
-0.0308828 0.0959141 0.218376 47 28 44
-0.0272588 0.0879148 0.200163 47 27 44
-0.0285952 0.0959141 0.218376 42 22 39
-0.0266687 0.0931796 0.21215 47 27 44
-0.0235883 0.0859999 0.195803 48 29 44
-0.0232533 0.0886322 0.201796 43 23 40
-0.0223231 0.0891385 0.202949 42 21 38
-0.0215505 0.0903557 0.205721 46 25 42
-0.0203846 0.0899658 0.204833 44 24 41
-0.0190806 0.088889 0.202381 44 23 41
-0.0188085 0.0927759 0.211231 45 25 43
-0.017166 0.0899658 0.204833 49 31 47
-0.0164673 0.0920576 0.209595 49 30 46
-0.0156565 0.0937769 0.21351 49 30 47
-0.0141117 0.0910262 0.207247 49 30 47
-0.0125204 0.0874914 0.199199 48 29 45
-0.0115223 0.0878368 0.199985 47 28 46
-0.0104299 0.0874597 0.199127 48 30 47
-0.00945971 0.0881382 0.200672 48 29 46
-0.00837726 0.0878094 0.199923 45 28 48
-0.00747951 0.0895993 0.203998 54 39 55
-0.00630296 0.0880892 0.20056 50 35 51
-0.00536436 0.0899658 0.204833 51 36 54
-0.00438744 0.0919773 0.209413 48 33 52
-0.00304106 0.0850027 0.193533 54 39 57
-0.00210419 0.0882236 0.200866 53 38 55
-0.00110043 0.0922766 0.210094 49 31 50
0 0.0919701 0.209396 47 29 49
0.00107932 0.0905066 0.206064 44 26 47
0.00217512 0.0911975 0.207637 43 25 47
0.00357941 0.100051 0.227794 45 27 48
0.00449055 0.0941388 0.214334 44 26 49
0.0059138 0.0991805 0.225813 46 27 50
0.00798717 0.111627 0.254152 45 26 49
0.00851342 0.101985 0.232197 43 25 48
0.0110989 0.116337 0.264875 45 29 51
0.0134974 0.125759 0.286326 43 26 49
0.0184833 0.154992 0.352883 44 26 48
0.0229424 0.174894 0.398196 48 32 53
0.0262369 0.183341 0.417429 45 27 50
0.031983 0.206303 0.469708 48 32 54
0.0366646 0.219608 0.5 44 27 51
0.0455034 0.254379 0.579167 44 26 50
0.0454539 0.238221 0.542379 46 30 52
0.060297 0.297424 0.677171 46 30 51
0.058988 0.274802 0.625666 48 30 51
0.0818864 0.361399 0.822829 44 26 47
0.0884184 0.370716 0.844042 48 32 51
0.0946816 0.378073 0.860791 46 29 49
0.0948158 0.361399 0.822829 46 29 48
0.0957932 0.34925 0.795167 49 34 52
0.138924 0.485393 1.10514 47 30 49
0.151367 0.507715 1.15596 46 29 48
0.16031 0.517032 1.17717 45 27 47
0.159192 0.49441 1.12567 48 32 51
0.176699 0.529181 1.20483 45 30 48
0.208756 0.603629 1.37433 48 32 51
0.18932 0.529181 1.20483 46 30 50
0.223153 0.603629 1.37433 46 30 49
0.225274 0.590324 1.34404 48 33 50
0.223866 0.568858 1.29517 47 28 47
0.248404 0.612646 1.39486 48 30 47
0.258424 0.619147 1.40967 47 29 47
0.282841 0.658824 1.5 48 29 47
0.279512 0.633474 1.44228 47 28 46
0.287067 0.633474 1.44228 47 28 47
0.306411 0.658824 1.5 47 28 46
0.314268 0.658824 1.5 47 27 44
0.334519 0.684173 1.55772 45 24 43
0.317284 0.633474 1.44228 44 22 42
0.353704 0.689765 1.57045 42 20 40
0.345695 0.658824 1.5 42 19 37
0.365071 0.68029 1.54887 42 20 37
0.347502 0.633474 1.44228 40 18 35
0.386607 0.689765 1.57045 40 18 35
0.408716 0.714018 1.62567 39 18 36
0.399791 0.684173 1.55772 40 18 36
0.411284 0.689765 1.57045 45 21 39
0.416109 0.684173 1.55772 41 18 35
0.464337 0.748789 1.70483 43 19 36
0.473267 0.748789 1.70483 44 20 39
0.482197 0.748789 1.70483 43 19 38
0.477046 0.727323 1.65596 44 20 39
0.476835 0.714018 1.62567 45 20 40
0.528919 0.778114 1.7716 46 23 41
0.477089 0.689765 1.57045 45 23 41
0.502379 0.714018 1.62567 47 25 43
0.504443 0.705001 1.60514 48 26 44
0.51285 0.705001 1.60514 50 31 47
0.553633 0.748789 1.70483 48 28 46
0.536439 0.714018 1.62567 48 27 45
0.502828 0.658824 1.5 49 30 48
0.593157 0.765218 1.74224 51 33 49
0.538494 0.684173 1.55772 50 32 48
0.647134 0.809932 1.84404 50 32 47
0.594626 0.733271 1.6695 49 30 47
0.61614 0.748789 1.70483 51 34 51
0.644476 0.772037 1.75776 52 36 52
0.531627 0.627882 1.42955 48 31 47
0.642929 0.748789 1.70483 53 36 51
0.651858 0.748789 1.70483 49 30 46
0.6087 0.689765 1.57045 52 35 50
0.638618 0.714018 1.62567 49 32 47
0.659191 0.727323 1.65596 49 32 47
0.655648 0.714018 1.62567 47 30 46
0.575916 0.619147 1.40967 44 26 43
0.620679 0.658824 1.5 48 32 48
0.693886 0.727323 1.65596 47 31 47
0.76162 0.788466 1.79517 48 31 47
0.754957 0.772037 1.75776 47 29 46
0.823767 0.832254 1.89486 46 29 45
0.72858 0.727323 1.65596 47 31 46
0.737253 0.727323 1.65596 47 31 47
0.675676 0.658824 1.5 47 31 47
0.776872 0.748789 1.70483 46 28 46
0.691389 0.658824 1.5 47 29 46
0.836842 0.788466 1.79517 48 31 47
0.803661 0.748789 1.70483 46 29 45
0.714959 0.658824 1.5 49 33 48
0.82152 0.748789 1.70483 51 37 50
0.791886 0.714018 1.62567 49 36 48
0.492353 0.439216 1 45 29 45
0.683856 0.603629 1.37433 49 33 48
0.754243 0.658824 1.5 47 29 45
0.762099 0.658824 1.5 49 33 48
0.769956 0.658824 1.5 48 32 46
0.930869 0.788466 1.79517 49 34 47
0.940272 0.788466 1.79517 46 31 45
0.901886 0.748789 1.70483 48 33 47
0.801383 0.658824 1.5 46 31 45
0.380252 0.309574 0.704833 47 32 46
1.08946 0.878431 2 43 28 45
0.555206 0.439216 1 48 35 48
0.560444 0.439216 1 48 35 47
0.848523 0.658824 1.5 46 32 45
0.413478 0.309574 0.704833 47 32 45
0.597109 0.439216 1 47 30 44
0.602347 0.439216 1 48 32 45
0.607584 0.439216 1 44 27 42
0.612822 0.439216 1 47 32 46
0.30903 0.219608 0.5 47 31 46
0.183977 0.129642 0.295167 48 36 48
-0.158395 0.112003 0.252006 169 219 201
-0.146076 0.10416 0.234359 144 203 178
-0.13939 0.100235 0.225529 159 210 189
-0.14159 0.102687 0.231046 157 211 182
-0.147993 0.108256 0.243575 147 206 172
-0.147483 0.108821 0.244847 156 210 179
-0.147612 0.109872 0.247211 142 205 170
-0.144079 0.108191 0.24343 136 203 164
-0.142105 0.107661 0.242238 141 205 168
-0.133227 0.101845 0.22915 151 209 176
-0.137544 0.106101 0.238727 145 206 172
-0.128297 0.0998758 0.224721 135 201 163
-0.12712 0.0998758 0.224721 154 208 176
-0.143055 0.113446 0.255252 152 207 179
-0.130026 0.104086 0.234194 138 200 167
-0.13568 0.109647 0.246705 132 198 163
-0.122084 0.0996082 0.224118 149 207 173
-0.12284 0.101198 0.227695 133 200 162
-0.121647 0.101198 0.227695 147 206 175
-0.131041 0.110092 0.247707 150 207 178
-0.117854 0.100003 0.225007 157 209 180
-0.122891 0.105331 0.236994 132 200 158
-0.120604 0.104425 0.234957 136 200 160
-0.114728 0.100361 0.225813 134 197 162
-0.109237 0.0965531 0.217244 149 204 179
-0.103713 0.0926353 0.208429 159 211 187
-0.10884 0.098249 0.22106 141 205 174
-0.111594 0.101818 0.229091 171 216 199
-0.106993 0.098682 0.222035 150 207 183
-0.106084 0.0989186 0.222567 132 196 164
-0.104403 0.0984323 0.221473 148 204 178
-0.109901 0.10478 0.235755 139 201 173
-0.11231 0.108294 0.243662 151 207 180
-0.10454 0.10196 0.229411 152 207 182
-0.109913 0.108447 0.244006 144 198 174
-0.111516 0.111324 0.250478 134 191 168
-0.113409 0.114561 0.257762 149 198 177
-0.106597 0.108977 0.245199 144 195 168
-0.111807 0.115697 0.260319 139 200 168
-0.111956 0.117281 0.263883 145 201 170
-0.118553 0.125745 0.282926 126 187 155
-0.10498 0.112759 0.253707 127 186 155
-0.14348 0.156086 0.351194 111 173 142
-0.133293 0.146888 0.330499 120 176 148
-0.136954 0.152907 0.344042 121 172 139
-0.288242 0.326111 0.73375 130 181 149
-0.254247 0.291537 0.655958 124 179 142
-0.289737 0.336783 0.757762 132 179 141
-0.343054 0.404296 0.909666 114 168 128
-0.332785 0.397717 0.894863 130 169 140
-0.27783 0.336783 0.757762 109 145 114
-0.406825 0.500296 1.12567 110 137 106
-0.411718 0.513759 1.15596 112 136 107
-0.314036 0.397717 0.894863 107 131 104
-0.345695 0.444444 1 111 135 108
-0.393554 0.513759 1.15596 97 116 90
-0.387499 0.513759 1.15596 88 103 79
-0.397572 0.535481 1.20483 90 95 78
-0.324743 0.444444 1 80 84 68
-0.369335 0.513759 1.15596 77 81 65
-0.431909 0.610815 1.37433 71 73 63
-0.347865 0.500296 1.12567 76 76 71
-0.366019 0.535481 1.20483 68 68 65
-0.386678 0.57563 1.29517 70 71 67
-0.413478 0.626518 1.40967 69 69 65
-0.452412 0.697976 1.57045 67 67 63
-0.388718 0.610815 1.37433 66 65 63
-0.381519 0.610815 1.37433 63 61 59
-0.36607 0.597352 1.34404 65 65 63
-0.400691 0.666667 1.5 60 58 59
-0.40795 0.692318 1.55772 58 49 55
-0.399791 0.692318 1.55772 59 49 56
-0.377121 0.666667 1.5 57 47 57
-0.386607 0.697976 1.57045 56 46 55
-0.299303 0.552106 1.24224 56 46 55
-0.292796 0.552106 1.24224 56 45 55
-0.345695 0.666667 1.5 56 46 56
-0.337838 0.666667 1.5 52 41 52
-0.302336 0.610815 1.37433 54 43 54
-0.306996 0.635357 1.42955 53 41 53
-0.271353 0.57563 1.29517 52 40 52
-0.292021 0.635357 1.42955 55 43 55
-0.280575 0.626518 1.40967 51 38 49
-0.240744 0.552106 1.24224 48 34 46
-0.217968 0.513759 1.15596 48 33 46
-0.20636 0.500296 1.12567 50 35 48
-0.12552 0.313259 0.704833 47 30 45
-0.0394784 0.101511 0.2284 46 29 44
-0.0310995 0.0824654 0.185547 47 30 44
-0.033259 0.0910368 0.204833 45 27 43
-0.0348891 0.098682 0.222035 45 27 44
-0.0317711 0.0929615 0.209163 48 32 47
-0.0312026 0.0945587 0.212757 47 28 44
-0.0297596 0.0935259 0.210433 46 26 43
-0.0308684 0.100742 0.226669 46 27 43
-0.0287439 0.0975605 0.219511 45 26 43
-0.0265111 0.0937314 0.210896 44 25 41
-0.0248137 0.0915448 0.205976 44 25 41
-0.0241996 0.0933371 0.210008 45 27 43
-0.022956 0.0927568 0.208703 45 27 42
-0.0219372 0.0930723 0.209413 49 32 47
-0.0200336 0.0894693 0.201306 46 27 44
-0.0195515 0.092167 0.207376 47 28 44
-0.0178683 0.0891875 0.200672 48 29 45
-0.0172355 0.0914057 0.205663 48 30 45
-0.0157618 0.089163 0.200617 50 33 49
-0.014959 0.090666 0.203998 50 31 47
-0.012845 0.0838417 0.188644 51 33 49
-0.0125535 0.0887672 0.199726 50 33 48
-0.0119501 0.0921823 0.20741 48 31 48
-0.0104094 0.0883274 0.198737 48 32 49
-0.00953063 0.0898562 0.202176 50 34 50
-0.00850741 0.0902352 0.203029 48 30 50
-0.00761144 0.0922652 0.207597 50 33 52
-0.00643723 0.0910368 0.204833 53 37 55
-0.00544003 0.0923209 0.207722 50 35 53
-0.00433356 0.0919293 0.206841 50 35 54
-0.0032512 0.0919584 0.206906 47 30 50
-0.00219355 0.093065 0.209396 49 33 53
-0.00112457 0.0954231 0.214702 46 28 49
0 0.0910368 0.204833 47 30 49
0.00115835 0.0982901 0.221153 48 32 51
0.00238524 0.101198 0.227695 47 29 51
0.00350849 0.0992357 0.22328 46 29 50
0.00465189 0.098682 0.222035 45 26 50
0.00687588 0.116688 0.262549 45 26 49
0.00951719 0.134594 0.302837 47 29 51
0.00976194 0.118333 0.26625 46 28 51
0.015027 0.159386 0.358618 46 30 53
0.019986 0.188431 0.423969 45 28 51
0.0231659 0.196571 0.442284 48 32 52
0.0328667 0.253532 0.570447 48 32 53
0.0314268 0.222222 0.5 49 32 54
0.0461095 0.300965 0.677171 46 29 52
0.0432887 0.262371 0.590334 47 32 54
0.0532033 0.300965 0.677171 43 27 50
0.068957 0.365702 0.822829 47 32 53
0.0732668 0.365702 0.822829 46 30 51
0.0868165 0.409259 0.920833 45 27 48
0.0905282 0.404296 0.909666 47 32 51
0.0964627 0.409259 0.920833 46 30 51
0.0928393 0.37513 0.844042 48 32 51
0.115232 0.444444 1 47 30 50
0.172217 0.635357 1.42955 45 28 49
0.151456 0.535481 1.20483 47 31 49
0.130945 0.444444 1 46 30 49
0.169171 0.552106 1.24224 44 26 47
0.170388 0.535481 1.20483 47 31 50
0.195129 0.591333 1.3305 46 29 48
0.196731 0.57563 1.29517 45 28 48
0.224631 0.635357 1.42955 45 28 49
0.210298 0.57563 1.29517 45 28 48
0.217082 0.57563 1.29517 47 31 48
0.19102 0.491172 1.10514 47 29 47
0.279673 0.697976 1.57045 45 26 45
0.285565 0.692318 1.55772 47 28 46
0.271958 0.641015 1.44228 47 29 47
0.277045 0.635357 1.42955 48 30 47
0.298554 0.666667 1.5 47 29 46
0.306411 0.666667 1.5 47 28 46
0.329027 0.697976 1.57045 47 27 44
0.349111 0.722518 1.62567 45 24 42
0.357626 0.722518 1.62567 45 25 43
0.321971 0.635357 1.42955 43 20 39
0.332393 0.641015 1.44228 46 24 42
0.370156 0.697976 1.57045 44 22 40
0.391686 0.722518 1.62567 43 20 38
0.395147 0.713394 1.60514 42 19 37
0.377121 0.666667 1.5 39 18 35
0.403058 0.697976 1.57045 40 18 36
0.433679 0.735981 1.65596 43 20 38
0.41951 0.697976 1.57045 41 18 36
0.442775 0.722518 1.62567 40 18 33
0.459699 0.735981 1.65596 42 18 36
0.459805 0.722518 1.62567 43 20 39
0.452412 0.697976 1.57045 44 19 39
0.511027 0.774328 1.74224 46 21 41
0.48535 0.722518 1.62567 44 22 41
0.487628 0.713394 1.60514 43 21 39
0.481381 0.692318 1.55772 49 29 45
0.510894 0.722518 1.62567 47 27 44
0.497699 0.692318 1.55772 48 30 47
0.553633 0.757703 1.70483 50 33 49
0.514017 0.692318 1.55772 51 34 50
0.571492 0.757703 1.70483 50 33 50
0.510685 0.666667 1.5 51 35 51
0.561984 0.722518 1.62567 50 32 48
0.563294 0.713394 1.60514 49 31 48
0.626062 0.781228 1.75776 48 30 48
0.648788 0.797852 1.79517 48 31 48
0.65819 0.797852 1.79517 55 39 54
0.633999 0.757703 1.70483 48 32 48
0.565682 0.666667 1.5 54 38 53
0.573539 0.666667 1.5 52 36 51
0.695801 0.797852 1.79517 46 29 45
0.561578 0.635357 1.42955 51 35 48
0.746121 0.833037 1.87433 46 28 44
0.604965 0.666667 1.5 45 26 44
0.696506 0.757703 1.70483 46 27 45
0.742815 0.797852 1.79517 46 28 45
0.693886 0.735981 1.65596 48 33 48
0.795208 0.833037 1.87433 47 31 47
0.711233 0.735981 1.65596 48 32 48
0.801673 0.819574 1.84404 45 27 45
0.659962 0.666667 1.5 48 31 47
0.759013 0.757703 1.70483 47 31 47
0.844295 0.833037 1.87433 46 29 46
0.724697 0.706815 1.59033 46 29 46
0.691389 0.666667 1.5 47 30 47
0.757827 0.722518 1.62567 48 31 47
0.707102 0.666667 1.5 49 32 48
0.855647 0.797852 1.79517 48 31 48
0.888602 0.819574 1.84404 48 32 47
0.83045 0.757703 1.70483 49 36 49
0.984706 0.888889 2 46 31 46
0.893258 0.797852 1.79517 47 32 47
0.927237 0.819574 1.84404 44 28 44
0.762099 0.666667 1.5 48 33 48
0.875097 0.757703 1.70483 50 35 49
0.671598 0.57563 1.29517 49 34 48
1.04756 0.888889 2 49 34 49
0.901886 0.757703 1.70483 48 32 47
1.06851 0.888889 2 46 30 44
0.544731 0.444444 1 45 31 46
0.937604 0.757703 1.70483 48 33 48
1.28631 1.02007 2.29517 43 28 42
0.565682 0.444444 1 47 33 46
0.576158 0.444444 1 45 29 43
2.03488 1.55556 3.5 44 28 42
0.591871 0.444444 1 44 29 43
1.19422 0.888889 2 46 30 44
1.22564 0.888889 2 46 29 44
0.30903 0.222222 0.5 47 32 47
-0.15699 0.112316 0.249771 134 208 177
-0.149899 0.108144 0.240494 126 195 161
-0.140521 0.102237 0.227359 154 209 185
-0.144416 0.105969 0.235658 139 204 171
-0.153898 0.1139 0.253295 128 200 161
-0.151035 0.112753 0.250745 158 212 183
-0.140529 0.10583 0.235348 163 214 192
-0.139296 0.10583 0.235348 180 221 203
-0.134985 0.10347 0.2301 147 206 176
-0.137067 0.106013 0.235755 151 207 175
-0.134391 0.104888 0.233254 150 204 176
-0.134597 0.106013 0.235755 130 194 162
-0.134166 0.106651 0.237175 140 202 168
-0.135761 0.108928 0.242238 147 205 173
-0.130893 0.106013 0.235755 158 209 181
-0.12472 0.101975 0.226776 141 201 169
-0.128423 0.106013 0.235755 179 219 196
-0.129306 0.107778 0.239681 136 200 163
-0.125953 0.106013 0.235755 157 211 182
-0.12547 0.106651 0.237175 153 208 180
-0.12168 0.104464 0.232311 145 205 171
-0.126264 0.109495 0.243499 139 203 165
-0.115176 0.100898 0.224381 141 202 165
-0.121189 0.10726 0.238529 136 197 162
-0.111948 0.100113 0.222636 159 210 183
-0.11731 0.106013 0.235755 131 200 163
-0.10432 0.0952767 0.21188 133 201 165
-0.107159 0.0989225 0.219987 172 219 196
-0.112357 0.104848 0.233166 129 200 165
-0.108368 0.102237 0.227359 133 197 165
-0.118478 0.113017 0.251332 142 203 180
-0.118779 0.114577 0.254801 129 202 172
-0.102341 0.099843 0.222035 134 204 172
-0.111734 0.110259 0.245199 131 200 167
-0.109116 0.108928 0.242238 133 198 168
-0.122558 0.123786 0.275279 139 196 170
-0.114875 0.117407 0.261095 147 200 175
-0.110296 0.114085 0.253707 161 208 187
-0.138655 0.145168 0.322829 133 200 168
-0.125228 0.132729 0.295167 128 197 163
-0.123682 0.132729 0.295167 132 196 167
-0.14236 0.154706 0.344042 138 197 172
-0.131891 0.145168 0.322829 132 189 162
-0.165222 0.184216 0.409665 155 199 175
-0.234996 0.265458 0.590334 128 183 149
-0.357348 0.409052 0.909666 134 188 153
-0.387597 0.449673 1 128 188 150
-0.382359 0.449673 1 125 188 147
-0.377121 0.449673 1 119 178 134
-0.371884 0.449673 1 122 168 126
-0.320571 0.393165 0.874334 124 168 119
-0.468084 0.582402 1.29517 125 165 114
-0.442448 0.558601 1.24224 121 156 114
-0.454516 0.582402 1.29517 112 155 125
-0.416504 0.541781 1.20483 121 163 136
-0.47993 0.633889 1.40967 104 140 111
-0.434165 0.582402 1.29517 109 129 100
-0.536439 0.731018 1.62567 106 117 88
-0.324743 0.449673 1 94 105 72
-0.439107 0.618001 1.37433 90 100 70
-0.431909 0.618001 1.37433 82 89 70
-0.441775 0.642832 1.42955 78 81 73
-0.408309 0.60438 1.34404 75 76 71
-0.4306 0.648556 1.44228 69 70 65
-0.403115 0.618001 1.37433 72 73 67
-0.432118 0.67451 1.5 69 70 64
-0.388718 0.618001 1.37433 64 63 58
-0.37311 0.60438 1.34404 64 62 60
-0.389361 0.642832 1.42955 62 61 60
-0.381873 0.642832 1.42955 64 62 61
-0.411284 0.706188 1.57045 58 50 56
-0.366898 0.642832 1.42955 59 49 56
-0.377121 0.67451 1.5 58 48 55
-0.330871 0.60438 1.34404 58 48 56
-0.361408 0.67451 1.5 56 45 54
-0.370156 0.706188 1.57045 56 45 55
-0.324876 0.633889 1.40967 53 42 52
-0.337838 0.67451 1.5 51 40 51
-0.295672 0.60438 1.34404 54 44 54
-0.302725 0.633889 1.40967 52 39 51
-0.333194 0.715131 1.59033 46 33 45
-0.274553 0.60438 1.34404 47 34 45
-0.217016 0.490294 1.09033 47 33 44
-0.240744 0.558601 1.24224 46 30 43
-0.234237 0.558601 1.24224 47 32 45
-0.154732 0.379543 0.844042 46 31 44
-0.111422 0.281345 0.625666 47 31 45
-0.0594667 0.154706 0.344042 44 26 42
-0.0382821 0.102706 0.2284 46 27 43
-0.0393326 0.108928 0.242238 47 29 45
-0.0298602 0.0854515 0.19003 46 30 46
-0.0342316 0.101339 0.225362 50 34 47
-0.0311563 0.0955292 0.212441 48 29 45
-0.0314002 0.099843 0.222035 48 28 45
-0.0289392 0.0955567 0.212503 49 31 46
-0.0271735 0.0933157 0.207519 47 30 45
-0.026966 0.0964614 0.214514 45 28 43
-0.0264529 0.0987403 0.219582 49 33 47
-0.0236032 0.0921078 0.204833 48 33 46
-0.02208 0.0902669 0.200739 50 33 47
-0.0204621 0.0878354 0.195332 50 32 47
-0.0197519 0.0892493 0.198476 47 29 45
-0.0183858 0.0876916 0.195012 47 29 45
-0.017696 0.0893666 0.198737 47 29 45
-0.0169464 0.0909297 0.202213 45 27 44
-0.0153984 0.0881321 0.195991 46 30 46
-0.0147616 0.0905218 0.201306 49 32 48
-0.0141888 0.0937026 0.208379 48 29 46
-0.0128183 0.0917063 0.20394 50 34 49
-0.0115926 0.0904766 0.201205 48 33 48
-0.00994197 0.0853534 0.189812 48 33 50
-0.00961126 0.0916824 0.203887 50 35 51
-0.00846154 0.0908046 0.201935 48 34 52
-0.00769389 0.0943619 0.209845 48 31 50
-0.0065024 0.0930403 0.206906 50 34 51
-0.00530841 0.0911472 0.202696 49 33 51
-0.00412205 0.0884712 0.196745 50 34 54
-0.0033737 0.0965457 0.214702 50 36 55
-0.00216002 0.0927208 0.206196 45 30 50
-0.00112994 0.0970068 0.215727 48 31 51
0 0.0962564 0.214058 48 31 51
0.00121368 0.104197 0.231716 46 29 50
0.00271258 0.11644 0.258943 44 25 48
0.00405032 0.115909 0.257762 45 28 50
0.00651337 0.139796 0.310883 43 24 48
0.00801756 0.137664 0.306142 44 25 49
0.0128745 0.184216 0.409665 45 27 50
0.0173181 0.212398 0.472338 45 28 50
0.0222205 0.238458 0.530292 48 32 54
0.0253334 0.241657 0.537405 43 25 49
0.0316958 0.272114 0.605137 46 29 51
0.0312496 0.243893 0.542379 48 31 53
0.0393253 0.281345 0.625666 43 25 48
0.0560275 0.370004 0.822829 45 27 50
0.0516848 0.316944 0.704833 44 26 50
0.0553766 0.316944 0.704833 44 27 50
0.068957 0.370004 0.822829 46 30 51
0.0970861 0.490294 1.09033 46 29 51
0.0942803 0.449673 1 45 27 49
0.0995181 0.449673 1 46 30 51
0.114219 0.490294 1.09033 47 31 51
0.109994 0.449673 1 44 26 47
0.129712 0.506182 1.12567 45 28 49
0.131352 0.490294 1.09033 46 30 50
0.151456 0.541781 1.20483 47 32 51
0.157767 0.541781 1.20483 46 30 50
0.171285 0.565582 1.25776 45 29 49
0.190075 0.60438 1.34404 45 29 49
0.197115 0.60438 1.34404 49 33 52
0.251534 0.74464 1.65596 45 28 48
0.197637 0.565582 1.25776 46 29 49
0.223153 0.618001 1.37433 45 28 48
0.217082 0.582402 1.29517 45 29 47
0.214717 0.558601 1.24224 48 30 49
0.239354 0.60438 1.34404 46 29 47
0.298022 0.731018 1.62567 47 30 47
0.282841 0.67451 1.5 47 28 46
0.301883 0.700463 1.55772 47 27 45
0.298554 0.67451 1.5 47 28 46
0.280741 0.618001 1.37433 47 27 46
0.336295 0.721787 1.60514 46 27 45
0.322124 0.67451 1.5 44 23 41
0.314484 0.642832 1.42955 44 23 41
0.366141 0.731018 1.62567 44 22 41
0.345695 0.67451 1.5 43 20 39
0.353551 0.67451 1.5 42 19 37
0.375314 0.700463 1.55772 41 19 36
0.369265 0.67451 1.5 42 19 37
0.408716 0.731018 1.62567 42 20 38
0.384978 0.67451 1.5 42 20 38
0.392835 0.67451 1.5 43 21 39
0.400691 0.67451 1.5 43 20 37
0.464337 0.766618 1.70483 43 20 37
0.441482 0.715131 1.59033 42 19 37
0.459805 0.731018 1.62567 39 19 37
0.46832 0.731018 1.62567 43 21 41
0.500056 0.766618 1.70483 47 27 43
0.468864 0.706188 1.57045 48 27 44
0.493865 0.731018 1.62567 50 31 47
0.55476 0.807239 1.79517 53 35 49
0.471402 0.67451 1.5 48 31 46
0.533415 0.75073 1.6695 46 29 45
0.582969 0.807239 1.79517 52 35 51
0.546435 0.74464 1.65596 50 33 50
0.479213 0.642832 1.42955 49 31 49
0.580422 0.766618 1.70483 50 35 51
0.572456 0.74464 1.65596 51 36 52
0.581129 0.74464 1.65596 50 34 51
0.639385 0.807239 1.79517 51 34 51
0.635269 0.790418 1.75776 48 33 49
0.549969 0.67451 1.5 52 38 54
0.557825 0.67451 1.5 51 35 51
0.599749 0.715131 1.59033 53 37 52
0.633171 0.74464 1.65596 53 38 53
0.681303 0.790418 1.75776 45 30 46
0.69051 0.790418 1.75776 48 32 47
0.647133 0.731018 1.62567 45 27 44
0.687577 0.766618 1.70483 45 27 44
0.71813 0.790418 1.75776 46 29 46
0.727337 0.790418 1.75776 47 31 47
0.752218 0.807239 1.79517 45 28 45
0.636392 0.67451 1.5 48 32 48
0.60545 0.633889 1.40967 47 29 47
0.691377 0.715131 1.59033 45 27 45
0.789828 0.807239 1.79517 47 30 46
0.799231 0.807239 1.79517 50 34 50
0.830649 0.829216 1.84404 47 31 47
0.840308 0.829216 1.84404 47 30 47
0.649752 0.633889 1.40967 50 33 50
0.836842 0.807239 1.79517 49 33 49
0.846245 0.807239 1.79517 51 35 50
0.812591 0.766618 1.70483 45 28 45
0.82152 0.766618 1.70483 44 26 44
0.791886 0.731018 1.62567 46 30 46
0.839379 0.766618 1.70483 49 34 49
0.848309 0.766618 1.70483 48 34 48
0.754243 0.67451 1.5 46 31 46
0.658031 0.582402 1.29517 46 30 47
1.02661 0.899346 2 47 32 48
1.03708 0.899346 2 45 29 45
1.04756 0.899346 2 47 32 47
0.685166 0.582402 1.29517 47 31 46
0.534255 0.449673 1 47 31 46
0.269746 0.224837 0.5 45 29 45
1.08946 0.899346 2 45 28 45
0.549969 0.449673 1 48 33 47
0.555206 0.449673 1 45 30 45
0.560444 0.449673 1 46 32 45
0.848523 0.67451 1.5 48 35 46
1.71276 1.34902 3 44 28 42
0.576158 0.449673 1 44 28 43
0.409787 0.316944 0.704833 46 30 44
0.413478 0.316944 0.704833 44 27 43
0.174701 0.132729 0.295167 45 29 44
0.597109 0.449673 1 45 30 44
0.301173 0.224837 0.5 45 29 44
1.21517 0.899346 2 44 27 42
2.16321 1.57386 3.5 47 32 45
-0.145944 0.105627 0.232197 151 203 171
-0.137844 0.100603 0.221153 140 199 170
-0.154374 0.113622 0.249771 154 210 185
-0.139969 0.1039 0.2284 139 205 175
-0.142858 0.106959 0.235125 131 201 167
-0.143903 0.108678 0.238905 128 198 167
-0.147404 0.112298 0.246862 130 199 177
-0.151893 0.116742 0.256631 164 213 196
-0.135092 0.104757 0.230284 150 206 178
-0.140836 0.110194 0.242238 154 207 176
-0.142057 0.11216 0.246559 153 203 176
