ply
format ascii 1.0
element vertex 1310
property float x
property float y
property float z
property uchar red
property uchar green
property uchar blue
end_header
-0.0736732 0.080797 0.198108 48 27 37
-0.0738704 0.0821707 0.201476 46 26 35
-0.0699096 0.0788918 0.193437 46 25 34
-0.0715999 0.0819876 0.201027 45 23 33
-0.0684863 0.0795927 0.195155 46 25 34
-0.0686015 0.0809346 0.198445 46 25 35
-0.0682598 0.0817704 0.200495 45 24 35
-0.0668553 0.0813393 0.199438 45 23 34
-0.065621 0.0811049 0.198863 45 26 36
-0.0656231 0.0824157 0.202077 44 25 37
-0.0635214 0.0810839 0.198812 48 31 43
-0.0615596 0.0798894 0.195883 49 37 49
-0.0597867 0.0789037 0.193466 50 38 51
-0.0613271 0.082332 0.201872 54 43 56
-0.0607903 0.0830432 0.203616 54 43 56
-0.0578755 0.0804731 0.197314 53 43 56
-0.0560382 0.0793353 0.194524 53 43 56
-0.0547501 0.0789471 0.193572 53 43 57
-0.0535281 0.0786413 0.192822 53 44 57
-0.053884 0.0806866 0.197837 52 43 57
-0.0547165 0.0835396 0.204833 52 43 58
-0.0530545 0.0826222 0.202583 54 45 60
-0.0497882 0.079118 0.193991 54 46 60
-0.0491905 0.0797967 0.195655 53 44 59
-0.0491334 0.0813998 0.199586 52 45 60
-0.0475316 0.080458 0.197277 51 44 59
-0.0463556 0.0802111 0.196671 51 43 59
-0.0451254 0.079857 0.195803 53 45 60
-0.0488049 0.0883771 0.216694 52 44 60
-0.0478895 0.0887842 0.217692 53 45 60
-0.0468961 0.0890631 0.218376 52 43 60
-0.0498761 0.0970907 0.238059 51 42 60
-0.0534116 0.106639 0.261471 51 43 60
-0.0482141 0.0987951 0.242238 51 43 60
-0.0599141 0.126087 0.309157 51 42 60
-0.0648727 0.140315 0.344042 51 42 59
-0.0595775 0.132544 0.324987 49 40 57
-0.0692395 0.158569 0.3888 50 40 58
-0.0795552 0.187715 0.460263 51 41 59
-0.0919966 0.223855 0.548874 51 41 59
-0.0811858 0.203922 0.5 50 40 59
-0.0927615 0.240764 0.590334 49 39 58
-0.0896695 0.240764 0.590334 50 39 59
-0.0836607 0.232653 0.570447 51 41 59
-0.0819061 0.236209 0.579167 51 41 59
-0.0788725 0.236209 0.579167 49 39 57
-0.0980343 0.305339 0.748668 49 38 56
-0.0857456 0.278192 0.682106 51 40 57
-0.0849107 0.287461 0.704833 52 39 57
-0.0720964 0.255174 0.625666 49 36 55
-0.0627455 0.232653 0.570447 50 37 55
-0.0352171 0.13711 0.336183 48 36 54
-0.0310413 0.127213 0.311917 49 35 54
-0.0263997 0.114201 0.280012 51 39 57
-0.0262824 0.120382 0.295167 49 37 55
-0.0221672 0.107879 0.26451 49 37 54
-0.0174446 0.0905553 0.222035 48 36 53
-0.0166867 0.0928086 0.22756 48 35 52
-0.0150586 0.0901956 0.221153 47 34 52
-0.0127194 0.0825333 0.202365 44 31 50
-0.011862 0.0839674 0.205882 45 31 50
-0.0101699 0.0791885 0.194164 49 36 52
-0.00928074 0.0802943 0.196875 46 33 49
-0.00830923 0.0808752 0.1983 45 30 48
-0.00681798 0.0758407 0.185955 47 32 49
-0.00582497 0.0755939 0.18535 45 28 47
-0.00508679 0.0792169 0.194234 42 24 44
-0.00406155 0.0790635 0.193858 43 25 44
-0.00309346 0.0802912 0.196868 44 25 44
-0.00199068 0.0775026 0.19003 42 22 41
-0.000991559 0.0772082 0.189309 38 18 37
0 0.0775605 0.190172 41 20 40
0.00101539 0.0790635 0.193858 42 21 41
0.00197192 0.0767721 0.188239 40 20 38
0.0029711 0.0771154 0.189081 40 19 36
0.0038801 0.0755315 0.185197 39 18 34
0.00491966 0.0766143 0.187852 38 16 31
0.00595922 0.0773361 0.189622 38 16 31
0.00686987 0.0764179 0.187371 37 16 30
0.00768124 0.0747628 0.183313 38 17 32
0.00853173 0.073814 0.180986 39 18 34
0.00957468 0.0745536 0.1828 42 19 36
0.0103231 0.0730737 0.179171 42 19 35
0.0114608 0.0743669 0.182342 39 18 32
0.0124406 0.0745147 0.182704 44 24 41
0.0133975 0.0745147 0.182704 44 23 41
0.0142217 0.073825 0.181013 46 26 43
0.0152115 0.0740283 0.181512 49 33 48
0.0160872 0.0736846 0.180669 48 33 47
0.0174743 0.0755911 0.185344 51 36 50
0.0181824 0.0745147 0.182704 48 33 47
0.0184692 0.0719055 0.176307 48 32 46
0.0197784 0.0733358 0.179814 49 33 47
0.0204157 0.072258 0.177171 48 33 46
0.0221012 0.0748226 0.183459 49 34 47
0.0221178 0.0717589 0.175947 47 33 46
0.0231996 0.072258 0.177171 44 29 44
0.0239114 0.0716105 0.175583 46 33 47
0.0244483 0.0705064 0.172876 46 33 47
0.0252391 0.0701875 0.172094 44 29 45
0.0259891 0.0697811 0.171098 45 30 46
0.0277221 0.0719531 0.176423 46 31 45
0.0289607 0.072743 0.17836 44 27 43
0.0286862 0.069802 0.171149 43 26 43
0.0299464 0.0706602 0.173253 44 25 42
0.0328987 0.0753432 0.184736 43 24 42
0.03448 0.0767085 0.188083 43 25 42
0.0390417 0.0844443 0.207051 42 24 41
0.0409681 0.0862163 0.211396 41 22 40
0.0529934 0.108588 0.26625 45 28 44
0.0846692 0.169046 0.414488 43 23 41
0.0945161 0.183988 0.451125 42 21 39
0.131255 0.249274 0.6112 41 20 38
0.140618 0.260697 0.639209 42 21 38
0.165259 0.299255 0.73375 42 20 37
0.189632 0.335585 0.822829 45 24 41
0.256993 0.444685 1.09033 44 24 40
0.262704 0.444685 1.09033 44 23 40
0.268415 0.444685 1.09033 44 25 41
0.251414 0.407843 1 44 24 41
0.322807 0.51297 1.25776 41 21 38
0.339191 0.528225 1.29517 42 21 39
0.345975 0.528225 1.29517 44 23 41
0.420091 0.629049 1.54238 44 24 41
0.387218 0.568885 1.39486 44 23 39
0.410438 0.591832 1.45113 43 21 37
0.390524 0.552878 1.35562 44 24 38
0.439975 0.611765 1.5 41 21 35
0.490938 0.670651 1.64438 42 21 35
0.470536 0.631698 1.54887 40 19 34
0.463545 0.611765 1.5 40 19 34
0.453263 0.588226 1.44228 41 19 34
0.544704 0.695304 1.70483 39 18 33
0.505858 0.635304 1.55772 42 20 35
0.529665 0.654644 1.60514 41 19 34
0.502828 0.611765 1.5 41 19 35
0.568393 0.680895 1.6695 41 20 34
0.561984 0.663017 1.62567 42 20 33
0.577068 0.670651 1.64438 43 20 33
0.571702 0.654644 1.60514 39 17 28
0.580109 0.654644 1.60514 38 16 27
0.596043 0.663017 1.62567 39 17 29
0.633999 0.695304 1.70483 35 15 27
0.613073 0.663017 1.62567 41 19 33
0.686399 0.732147 1.79517 40 17 30
0.641844 0.675371 1.65596 41 17 31
0.638618 0.663017 1.62567 37 15 26
0.633068 0.648607 1.59033 41 17 32
0.735166 0.743428 1.82283 43 19 33
0.641603 0.640496 1.57045 46 22 37
0.705436 0.695304 1.70483 43 19 34
0.563185 0.548158 1.34404 44 20 35
0.702559 0.675371 1.65596 44 20 35
0.590275 0.560513 1.37433 45 21 37
0.823767 0.772807 1.89486 45 20 36
0.773371 0.716891 1.75776 47 23 38
0.737253 0.675371 1.65596 47 22 37
0.732282 0.663017 1.62567 43 19 35
0.754601 0.675371 1.65596 44 20 37
0.785802 0.695304 1.70483 45 21 38
0.819405 0.716891 1.75776 45 21 38
0.749686 0.648607 1.59033 45 21 37
0.893382 0.764434 1.87433 45 21 38
0.847025 0.716891 1.75776 46 22 39
0.89826 0.75208 1.84404 44 21 38
0.839379 0.695304 1.70483 44 20 37
0.917578 0.75208 1.84404 43 19 36
0.817431 0.663017 1.62567 45 21 39
0.762099 0.611765 1.5 44 19 37
0.618445 0.491383 1.20483 44 19 37
0.777813 0.611765 1.5 42 19 36
0.631067 0.491383 1.20483 42 19 36
0.901886 0.695304 1.70483 43 20 37
0.801383 0.611765 1.5 43 19 36
0.698734 0.528225 1.29517 44 21 39
0.928675 0.695304 1.70483 44 21 38
0.712301 0.528225 1.29517 45 21 38
0.83281 0.611765 1.5 43 19 34
0.955464 0.695304 1.70483 48 24 39
0.964393 0.695304 1.70483 42 17 33
0.576158 0.407843 1 44 20 35
0.700484 0.491383 1.20483 45 22 37
0.586633 0.407843 1 46 23 38
0.597109 0.407843 1 47 24 39
0.90352 0.611765 1.5 43 20 36
0.911376 0.611765 1.5 46 23 38
0.919233 0.611765 1.5 40 18 33
0.61806 0.407843 1 45 21 37
0.311649 0.203922 0.5 45 22 38
-0.425626 0.27972 0.677171 53 39 44
-0.439321 0.291147 0.704833 57 44 47
-0.435629 0.291147 0.704833 54 40 45
-0.370841 0.249965 0.605137 56 44 50
-0.380145 0.258445 0.625666 58 47 52
-0.441972 0.303092 0.73375 59 48 51
-0.352494 0.243851 0.590334 58 46 50
-0.349402 0.243851 0.590334 57 46 50
-0.367036 0.258445 0.625666 57 46 50
-0.363759 0.258445 0.625666 56 46 50
-0.340126 0.243851 0.590334 54 44 49
-0.309655 0.224041 0.542379 53 45 49
-0.322691 0.235635 0.570447 54 46 51
-0.303973 0.224041 0.542379 57 48 54
-0.298371 0.221987 0.537405 54 46 52
-0.256574 0.192708 0.466525 53 45 53
-0.209995 0.15924 0.385502 53 45 53
-0.182622 0.139827 0.338506 56 49 57
-0.120058 0.0928258 0.224721 56 49 57
-0.120828 0.0943458 0.2284 54 46 53
-0.132406 0.10442 0.252789 54 46 54
-0.136565 0.108788 0.263363 56 47 56
-0.133623 0.10753 0.260319 57 48 56
-0.111202 0.0904105 0.218874 56 47 55
-0.12071 0.0991626 0.240061 54 45 53
-0.106651 0.0885353 0.214334 53 45 53
-0.10623 0.0891247 0.215761 53 44 53
-0.102126 0.0866028 0.209656 53 43 53
-0.0992359 0.0850664 0.205936 51 40 50
-0.101509 0.0879711 0.212968 53 42 52
-0.0996522 0.0873216 0.211396 50 38 48
-0.0954856 0.0846107 0.204833 53 42 51
-0.0913799 0.0818927 0.198253 51 39 48
-0.0955102 0.086578 0.209595 54 41 51
-0.0936197 0.0858511 0.207836 54 40 50
-0.0902043 0.0836923 0.202609 54 41 49
-0.0894818 0.0840103 0.203379 53 39 48
-0.0860072 0.081721 0.197837 52 38 47
-0.0864814 0.0831737 0.201354 53 38 47
-0.0860304 0.0837615 0.202777 53 38 46
-0.0849865 0.0837793 0.20282 53 38 46
-0.0855708 0.0854231 0.2068 51 37 45
-0.084496 0.0854316 0.20682 52 35 44
-0.0831551 0.0851678 0.206182 53 37 45
-0.0823462 0.085449 0.206862 50 33 42
-0.0804654 0.0846107 0.204833 49 31 41
-0.0786364 0.0838048 0.202882 50 32 41
-0.0797772 0.0861853 0.208645 48 30 38
-0.0751831 0.0823502 0.199361 47 28 37
-0.0744267 0.08267 0.200135 48 28 37
-0.0723401 0.0815001 0.197303 48 29 37
-0.071974 0.0822628 0.199149 44 24 34
-0.0705389 0.0818082 0.198048 46 25 35
-0.0706941 0.0832119 0.201447 45 24 33
-0.0700387 0.0836896 0.202603 45 26 36
-0.0687648 0.0834314 0.201978 44 23 33
-0.0667413 0.0822416 0.199098 46 26 35
-0.0668284 0.0836561 0.202522 45 26 36
-0.0638432 0.0812083 0.196596 45 26 38
-0.0639301 0.0826519 0.200091 47 29 40
-0.0632269 0.0831051 0.201188 50 39 49
-0.0629083 0.0840879 0.203567 51 40 51
-0.0596321 0.0810829 0.196292 51 40 52
-0.0585225 0.0809702 0.19602 53 42 54
-0.0584465 0.082309 0.199261 52 42 54
-0.0558999 0.080154 0.194044 53 43 56
-0.0556132 0.0812197 0.196624 54 43 56
-0.0520757 0.0774884 0.18759 53 44 57
-0.0528365 0.0801323 0.193991 52 43 56
-0.0527468 0.0815648 0.197459 52 43 56
-0.0515797 0.0813553 0.196952 54 45 59
-0.0528086 0.0849934 0.205759 54 45 59
-0.0470254 0.0772625 0.187044 53 45 59
-0.0487982 0.081881 0.198224 52 44 58
-0.0499489 0.0856339 0.20731 54 46 61
-0.0482792 0.0846107 0.204833 52 43 59
-0.0475955 0.0853082 0.206521 52 44 60
-0.0493811 0.0905669 0.219252 52 43 59
-0.0539878 0.101373 0.245413 52 43 59
-0.0612676 0.117849 0.285298 52 43 60
-0.063202 0.124609 0.301663 52 43 59
-0.0675123 0.13652 0.330499 52 44 60
-0.0702365 0.145766 0.352883 51 42 60
-0.0805456 0.171679 0.415615 52 44 61
-0.073785 0.161638 0.391307 51 41 59
-0.0873409 0.196801 0.476432 52 42 60
-0.0939687 0.217962 0.527662 52 43 60
-0.0916596 0.219049 0.530292 50 40 59
-0.0894155 0.220364 0.533475 52 42 61
-0.0905573 0.230377 0.557716 51 42 60
-0.0785669 0.206536 0.5 50 41 59
-0.103609 0.281759 0.682106 49 38 57
-0.126242 0.355569 0.860791 48 38 56
-0.0957659 0.27972 0.677171 50 40 58
-0.112055 0.339887 0.822829 50 41 59
-0.0922943 0.291147 0.704833 50 41 59
-0.1044 0.343056 0.830499 50 39 56
-0.0753735 0.258445 0.625666 50 37 55
-0.0667383 0.239238 0.579167 48 35 53
-0.0513148 0.192708 0.466525 49 36 56
-0.0309205 0.121925 0.295167 48 35 54
-0.0234979 0.0975332 0.236117 48 35 54
-0.0233072 0.102116 0.247211 52 39 57
-0.0212727 0.0986849 0.238905 50 38 55
-0.0186899 0.092122 0.223017 50 37 54
-0.0176832 0.0929708 0.225072 47 34 51
-0.016117 0.090789 0.21979 47 34 52
-0.0142887 0.0866812 0.209845 47 35 52
-0.0131421 0.0863696 0.209091 46 32 51
-0.0108861 0.0780474 0.188944 45 31 49
-0.0109024 0.0859803 0.208148 44 31 48
-0.00919089 0.0805364 0.194969 46 31 48
-0.00816897 0.0805294 0.194953 45 30 47
-0.00731437 0.0824055 0.199494 44 29 45
-0.00601841 0.0791056 0.191506 43 26 45
-0.00513373 0.080973 0.196026 45 26 45
-0.00398136 0.0784962 0.19003 41 23 41
-0.00294423 0.0773976 0.187371 43 22 41
-0.00209415 0.0825761 0.199907 41 20 39
-0.000989942 0.0780705 0.189 40 20 38
0 0.0762612 0.18462 39 19 38
0.00100813 0.0795051 0.192473 41 19 38
0.00202357 0.079793 0.19317 41 20 37
0.00293014 0.0770271 0.186474 39 18 35
0.00392564 0.0773976 0.187371 40 18 35
0.00481145 0.0758897 0.18372 40 17 33
0.00579583 0.0761801 0.184423 38 16 31
0.00671339 0.0756347 0.183103 38 17 31
0.00777486 0.0766443 0.185547 39 17 33
0.00840487 0.0736488 0.178295 39 17 34
0.00973997 0.076813 0.185955 43 21 39
0.0104292 0.0747715 0.181013 47 26 42
0.0114772 0.0754277 0.182602 43 21 38
0.0121682 0.0738177 0.178704 43 23 40
0.0132614 0.074703 0.180847 45 26 43
0.0140665 0.0739556 0.179038 47 29 46
0.0152179 0.0750087 0.181588 49 33 48
0.0163862 0.0760161 0.184026 48 33 47
0.0174112 0.0762841 0.184675 48 33 48
0.018509 0.0768257 0.185986 48 33 48
0.0187245 0.0738343 0.178745 48 33 48
0.0194534 0.0730557 0.17686 49 34 48
0.0205241 0.073573 0.178112 47 31 45
0.0223527 0.0766443 0.185547 47 30 45
0.0234411 0.0770271 0.186474 47 33 47
0.0226214 0.0713602 0.172755 46 32 47
0.0235087 0.0713071 0.172626 46 33 47
0.0259208 0.0757114 0.183289 47 34 48
0.0261472 0.0736452 0.178287 47 33 48
0.025285 0.068761 0.166463 47 32 47
0.027104 0.0712508 0.17249 46 30 45
0.02899 0.0737503 0.178541 45 28 44
0.0327335 0.0806713 0.195296 45 28 44
0.0334223 0.079873 0.193363 45 28 44
0.0374198 0.0867959 0.210123 44 25 42
0.0358344 0.0807437 0.195471 43 25 42
0.041867 0.0917162 0.222035 43 23 41
0.0556984 0.118718 0.287404 43 23 42
0.074506 0.154627 0.374334 42 22 41
0.107336 0.217049 0.525451 45 26 43
0.111769 0.220364 0.533475 45 26 43
0.107375 0.206536 0.5 42 22 39
0.169742 0.318726 0.771599 42 21 39
0.225225 0.413072 1 43 23 40
0.209644 0.375757 0.909666 44 24 39
0.27746 0.486256 1.17717 43 23 39
0.312056 0.534997 1.29517 44 23 40
0.246176 0.413072 1 44 24 41
0.325623 0.534997 1.29517 43 23 40
0.332407 0.534997 1.29517 45 25 42
0.329395 0.519546 1.25776 43 22 40
0.381873 0.590508 1.42955 42 21 39
0.395236 0.599419 1.45113 43 22 39
0.435961 0.648707 1.57045 45 24 40
0.366326 0.534997 1.29517 43 22 37
0.432118 0.619608 1.5 45 25 40
0.456904 0.643449 1.55772 42 21 36
0.465063 0.643449 1.55772 41 20 35
0.493865 0.671517 1.62567 44 21 36
0.526844 0.704219 1.70483 42 19 34
0.456042 0.599419 1.45113 41 18 33
0.51285 0.663037 1.60514 39 17 32
0.521258 0.663037 1.60514 37 17 30
0.511099 0.639796 1.54887 38 17 31
0.526443 0.648707 1.57045 40 19 34
0.559842 0.679249 1.64438 41 20 34
0.577137 0.689624 1.6695 40 18 30
0.526398 0.619608 1.5 39 17 28
0.594626 0.689624 1.6695 40 17 28
0.562971 0.643449 1.55772 42 19 30
0.62507 0.704219 1.70483 36 15 25
0.615824 0.68403 1.65596 36 15 25
0.642929 0.704219 1.70483 41 18 32
0.621588 0.671517 1.62567 41 18 31
0.55409 0.590508 1.42955 38 15 27
0.669717 0.704219 1.70483 42 18 32
0.678647 0.704219 1.70483 41 17 31
0.604965 0.619608 1.5 41 17 31
0.67181 0.679249 1.64438 44 20 35
0.685212 0.68403 1.65596 45 22 36
0.693886 0.68403 1.65596 45 21 36
0.745751 0.726082 1.75776 47 24 38
0.644249 0.619608 1.5 46 22 38
0.869474 0.826144 2 46 22 38
0.789828 0.741533 1.79517 44 21 36
0.759013 0.704219 1.70483 46 22 37
0.716367 0.656922 1.59033 45 21 38
0.818037 0.741533 1.79517 44 22 39
0.733027 0.656922 1.59033 45 21 38
0.732085 0.648707 1.57045 44 20 37
0.749686 0.656922 1.59033 44 20 37
0.758016 0.656922 1.59033 45 21 38
0.82152 0.704219 1.70483 45 20 37
0.83045 0.704219 1.70483 42 20 36
0.800401 0.671517 1.62567 46 21 38
0.995181 0.826144 2 44 19 36
0.70882 0.582293 1.40967 46 22 39
0.762099 0.619608 1.5 45 20 38
0.769956 0.619608 1.5 42 19 36
0.842976 0.671517 1.62567 43 20 38
0.605467 0.477494 1.15596 44 21 39
1.05803 0.826144 2 44 21 38
0.69195 0.534997 1.29517 42 19 34
0.919745 0.704219 1.70483 42 18 34
0.817096 0.619608 1.5 43 20 37
1.09994 0.826144 2 46 23 40
0.83281 0.619608 1.5 45 22 38
0.725869 0.534997 1.29517 45 21 37
0.848523 0.619608 1.5 45 21 37
0.973323 0.704219 1.70483 45 20 37
0.982252 0.704219 1.70483 45 20 37
0.290698 0.206536 0.5 45 22 37
0.293317 0.206536 0.5 45 22 37
0.766572 0.534997 1.29517 47 24 39
0.420862 0.291147 0.704833 48 25 40
0.786923 0.534997 1.29517 45 22 38
0.306411 0.206536 0.5 47 24 40
0.439321 0.291147 0.704833 47 24 40
-0.443012 0.294832 0.704833 55 41 46
-0.439321 0.294832 0.704833 59 46 50
-0.344702 0.233293 0.557716 55 42 46
-0.332382 0.226877 0.542379 54 42 48
-0.358678 0.246937 0.590334 55 43 49
-0.376868 0.261716 0.625666 56 45 49
-0.298554 0.20915 0.5 55 42 49
-0.342792 0.242266 0.579167 55 44 49
-0.271373 0.193504 0.462595 54 44 48
-0.312445 0.224797 0.537405 53 44 47
-0.288079 0.20915 0.5 55 46 50
-0.249234 0.182609 0.436549 59 50 54
-0.226445 0.167447 0.400304 55 45 51
-0.229595 0.171363 0.409665 58 48 54
-0.207833 0.156584 0.374334 55 45 51
-0.189212 0.143913 0.344042 54 47 54
-0.181992 0.139752 0.334095 54 47 55
-0.147603 0.114445 0.273595 54 47 55
-0.143332 0.112223 0.268284 57 50 58
-0.15977 0.126332 0.302012 56 48 56
-0.122434 0.0977778 0.23375 58 50 57
-0.117953 0.0951508 0.22747 59 50 59
-0.114535 0.0933367 0.223133 60 51 58
-0.111871 0.0921059 0.220191 60 52 59
-0.106762 0.0888145 0.212322 56 47 54
-0.104519 0.0878644 0.210051 57 50 56
-0.106763 0.0907056 0.216843 56 47 55
-0.100821 0.0865783 0.206976 53 43 53
-0.0991784 0.0860933 0.205817 52 41 50
-0.0936564 0.0821933 0.196493 51 39 49
-0.0973762 0.0864073 0.206567 51 39 50
-0.0966256 0.0867046 0.207278 52 41 51
-0.0951427 0.0863441 0.206416 54 42 51
-0.0950564 0.0872574 0.2086 53 40 50
-0.093944 0.087239 0.208556 50 37 47
-0.0934512 0.0878023 0.209902 52 39 47
-0.0872793 0.0829797 0.198373 48 33 42
-0.0884374 0.0850938 0.203427 52 37 45
-0.0879755 0.0856817 0.204833 55 40 49
-0.0857435 0.0845388 0.202101 52 36 45
-0.0846849 0.0845388 0.202101 53 38 46
-0.0878493 0.0888078 0.212306 52 38 46
-0.0828441 0.0848217 0.202777 50 34 44
-0.0814973 0.0845264 0.202071 49 33 42
-0.0768098 0.0807129 0.192954 52 35 44
-0.0791422 0.0842727 0.201464 49 30 40
-0.0819898 0.0884847 0.211534 49 31 41
-0.0768415 0.0840645 0.200967 48 30 38
-0.07654 0.0848977 0.202959 45 26 35
-0.0766275 0.0861918 0.206052 48 29 38
-0.0728781 0.0831456 0.19877 46 25 34
-0.0706449 0.0817658 0.195471 45 24 33
-0.0712972 0.0837344 0.200177 45 24 34
-0.0694139 0.0827393 0.197799 45 24 33
-0.0718237 0.0869089 0.207766 44 25 34
-0.0656088 0.0806099 0.192708 44 25 34
-0.0668294 0.0833926 0.199361 46 27 36
-0.0651341 0.0825672 0.197387 45 25 36
-0.0650578 0.0838007 0.200336 45 26 37
-0.0644127 0.0843299 0.201601 49 32 43
-0.0637399 0.0848398 0.20282 47 36 46
-0.062643 0.084793 0.202708 50 39 50
-0.0615589 0.0847624 0.202635 50 38 50
-0.0597596 0.0837284 0.200163 53 42 53
-0.0586943 0.0837042 0.200105 56 44 56
-0.0576291 0.0836795 0.200046 53 42 54
-0.0539655 0.0798109 0.190798 52 40 53
-0.0561637 0.0846291 0.202316 52 43 55
-0.0535822 0.0822919 0.196729 53 44 57
-0.051606 0.0808109 0.193189 51 42 55
-0.0528223 0.0843699 0.201697 52 44 57
-0.0490449 0.0799351 0.191095 53 44 58
-0.0535324 0.0890666 0.212925 53 45 59
-0.0480625 0.0816674 0.195236 52 44 59
-0.0534967 0.0928772 0.222035 52 44 58
-0.0520432 0.0923616 0.220802 54 45 60
-0.0562344 0.102068 0.244006 51 42 58
-0.0639639 0.118797 0.284 51 43 58
-0.0683904 0.130043 0.310883 50 42 59
-0.0763683 0.148754 0.355615 50 41 58
-0.0751348 0.15001 0.358618 54 46 61
-0.0928638 0.190161 0.454604 51 42 59
-0.0868891 0.182609 0.436549 52 43 60
-0.10277 0.221822 0.530292 52 43 60
-0.117976 0.261716 0.625666 50 41 58
-0.114699 0.261716 0.625666 50 41 59
-0.120594 0.283261 0.677171 48 39 56
-0.113381 0.274388 0.655958 50 41 59
-0.1135 0.283261 0.677171 50 39 59
-0.10159 0.261716 0.625666 50 40 58
-0.121244 0.322761 0.771599 49 39 58
-0.111454 0.306928 0.73375 49 39 58
-0.116618 0.332619 0.795167 49 39 58
-0.116365 0.34419 0.822829 50 41 59
-0.105078 0.322761 0.771599 49 39 57
-0.110523 0.353063 0.844042 51 41 59
-0.103435 0.34419 0.822829 50 39 57
-0.0894169 0.310479 0.742238 50 37 55
-0.0576158 0.20915 0.5 48 36 54
-0.0349663 0.132975 0.317894 49 37 56
-0.0275035 0.109824 0.262549 47 35 54
-0.0241071 0.101328 0.242238 50 37 56
-0.0251021 0.111372 0.26625 49 35 53
-0.0205854 0.0967055 0.231187 47 33 52
-0.018991 0.094791 0.22661 47 34 52
-0.0162258 0.086388 0.206521 44 29 48
-0.0150202 0.0856817 0.204833 50 38 54
-0.0133536 0.082034 0.196112 47 34 51
-0.0123924 0.0824734 0.197163 45 30 48
-0.0114551 0.0831661 0.198819 46 31 49
-0.0102603 0.0819408 0.19589 46 31 48
-0.0093407 0.0828852 0.198147 46 32 49
-0.00828659 0.0827229 0.197759 45 29 47
-0.00723784 0.0825755 0.197407 43 25 43
-0.00623515 0.0829919 0.198402 44 26 45
-0.00508679 0.0812481 0.194234 42 22 42
-0.00407158 0.0812911 0.194337 42 22 41
-0.00292448 0.0778516 0.186114 40 19 38
-0.00200136 0.0799163 0.19105 42 21 40
-0.0010272 0.082034 0.196112 40 20 38
0 0.0795518 0.190178 39 19 37
0.000979903 0.078257 0.187083 39 19 36
0.0020399 0.0814551 0.194729 42 19 36
0.00293344 0.0780902 0.186684 40 18 34
0.00388743 0.0776145 0.185547 38 16 31
0.00478968 0.0765026 0.182889 38 17 32
0.00593465 0.0789922 0.188841 36 15 29
0.00670227 0.0764652 0.1828 36 15 29
0.00781633 0.0780284 0.186537 36 15 29
0.00856154 0.0759712 0.181619 43 20 38
0.0100996 0.0806578 0.192822 44 23 41
0.0108528 0.0787936 0.188366 46 26 42
0.0117315 0.0780752 0.186649 47 28 43
0.0129864 0.0797787 0.190721 46 26 42
0.0131362 0.0749344 0.17914 46 27 44
0.0139978 0.074526 0.178164 48 32 47
0.0151248 0.0754934 0.180476 49 34 48
0.0163977 0.0770324 0.184156 49 33 48
0.0162874 0.0722635 0.172755 47 32 47
0.0179993 0.0756557 0.180864 49 34 49
0.0194623 0.077715 0.185787 47 32 47
0.019525 0.0742526 0.17751 47 32 47
0.0214921 0.0780181 0.186512 46 30 45
0.0223829 0.0777193 0.185798 46 29 45
0.0231957 0.0771857 0.184522 45 30 45
0.0228552 0.0730104 0.17454 47 33 48
0.0251223 0.077166 0.184475 47 33 48
0.0251114 0.0742759 0.177566 46 33 48
0.0246678 0.0703579 0.168199 46 31 47
0.0257037 0.0707845 0.169219 44 27 43
0.0278396 0.0741108 0.177171 44 27 44
0.0293871 0.0757067 0.180986 42 25 42
0.0320293 0.0799351 0.191095 43 26 42
0.0347498 0.0840966 0.201043 45 28 44
0.0360295 0.0846291 0.202316 42 22 40
0.0375505 0.0856817 0.204833 43 23 41
0.0556569 0.123469 0.295167 43 23 41
0.0841814 0.1817 0.434376 42 21 40
0.0995181 0.20915 0.5 41 21 40
0.109778 0.224797 0.537405 42 22 40
0.153729 0.306928 0.73375 42 21 39
0.159395 0.310479 0.742238 44 23 41
0.185679 0.353063 0.844042 43 23 41
0.20488 0.380514 0.909666 43 23 40
0.209644 0.380514 0.909666 43 23 39
0.28398 0.503982 1.20483 45 24 41
0.203362 0.353063 0.844042 43 21 39
0.31884 0.541769 1.29517 44 23 40
0.325623 0.541769 1.29517 44 24 41
0.370165 0.603308 1.44228 45 26 43
0.351991 0.562214 1.34404 43 23 40
0.41951 0.656919 1.57045 45 26 42
0.408548 0.627451 1.5 42 21 37
0.435961 0.656919 1.57045 44 23 39
0.388718 0.574885 1.37433 41 20 36
0.415491 0.603308 1.44228 43 22 38
0.403115 0.574885 1.37433 43 22 37
0.4306 0.603308 1.44228 41 20 35
0.473222 0.651594 1.55772 41 18 33
0.478649 0.647895 1.54887 42 19 33
0.48954 0.651594 1.55772 39 17 30
0.566036 0.741061 1.7716 40 17 32
0.527924 0.680017 1.62567 39 17 30
0.536439 0.680017 1.62567 39 17 30
0.502828 0.627451 1.5 38 17 30
0.568393 0.698353 1.6695 37 17 29
0.554887 0.67143 1.60514 40 18 31
0.526398 0.627451 1.5 38 17 27
0.579014 0.680017 1.62567 39 17 28
0.567572 0.656919 1.57045 38 16 27
0.588517 0.67143 1.60514 39 17 29
0.557825 0.627451 1.5 37 16 26
0.642929 0.713133 1.70483 36 15 25
0.686399 0.75092 1.79517 40 17 30
0.647094 0.698353 1.6695 43 18 33
0.650518 0.692688 1.65596 41 17 31
0.659191 0.692688 1.65596 43 18 33
0.641398 0.665238 1.59033 45 21 36
0.612822 0.627451 1.5 44 22 36
0.705436 0.713133 1.70483 44 21 35
0.628536 0.627451 1.5 45 21 36
0.598067 0.589664 1.40967 44 21 36
0.732224 0.713133 1.70483 45 21 37
0.823767 0.792622 1.89486 45 21 38
0.72858 0.692688 1.65596 42 19 36
0.737253 0.692688 1.65596 44 23 38
0.767943 0.713133 1.70483 44 21 38
0.800991 0.735273 1.75776 45 22 39
0.691389 0.627451 1.5 45 22 39
0.794731 0.713133 1.70483 43 20 37
0.942803 0.836601 2 43 20 37
0.714959 0.627451 1.5 45 21 38
0.783371 0.680017 1.62567 43 19 35
0.730673 0.627451 1.5 42 19 36
0.839379 0.713133 1.70483 44 20 36
0.848309 0.713133 1.70483 45 20 38
0.754243 0.627451 1.5 44 19 37
0.912064 0.75092 1.79517 44 20 38
0.769956 0.627451 1.5 45 22 39
0.824655 0.665238 1.59033 44 21 38
0.940272 0.75092 1.79517 43 20 37
0.901886 0.713133 1.70483 44 20 37
0.910816 0.713133 1.70483 45 21 37
1.07899 0.836601 2 44 20 37
1.08946 0.836601 2 43 19 37
0.824953 0.627451 1.5 46 23 40
0.668931 0.503982 1.20483 46 23 39
0.560444 0.418301 1 44 21 37
1.29833 0.96007 2.29517 44 20 36
0.85638 0.627451 1.5 45 20 36
0.864236 0.627451 1.5 46 21 37
0.581395 0.418301 1 43 19 34
0.413478 0.294832 0.704833 46 22 38
0.295935 0.20915 0.5 44 20 36
0.597109 0.418301 1 45 21 37
0.602347 0.418301 1 45 22 38
0.911376 0.627451 1.5 43 20 36
0.306411 0.20915 0.5 44 20 36
0.30903 0.20915 0.5 45 21 37
0.623298 0.418301 1 46 23 40
-0.350544 0.236209 0.557716 57 45 48
-0.311649 0.211765 0.5 56 44 47
-0.398268 0.272916 0.644385 58 46 49
-0.27646 0.191065 0.451125 57 44 51
-0.303792 0.211765 0.5 58 46 52
-0.275647 0.193816 0.457621 59 48 52
-0.320889 0.227607 0.537405 57 45 51
-0.276122 0.197587 0.466525 58 47 53
-0.293317 0.211765 0.5 56 46 50
-0.232735 0.169541 0.400304 56 46 51
-0.236032 0.173505 0.409665 59 48 54
-0.158696 0.117727 0.277965 55 45 50
-0.236132 0.176793 0.417429 56 46 52
-0.156931 0.118594 0.280012 58 48 53
-0.171241 0.130628 0.308428 58 48 55
-0.168369 0.12966 0.306142 56 48 55
-0.150738 0.117199 0.27672 53 45 53
-0.155293 0.121913 0.28785 59 52 59
-0.129417 0.102595 0.242238 55 48 56
-0.125616 0.100568 0.237451 57 49 57
-0.117526 0.0950322 0.224381 57 50 58
-0.115921 0.0946806 0.223551 57 49 58
-0.116002 0.095714 0.225991 57 48 54
-0.112209 0.0935382 0.220854 54 44 51
-0.103653 0.0873063 0.20614 55 46 54
-0.109176 0.0929263 0.219409 55 46 52
-0.105129 0.0904334 0.213523 55 47 54
-0.0997771 0.0867527 0.204833 56 47 55
-0.100977 0.0887499 0.209548 54 44 53
-0.0984696 0.0874975 0.206591 54 42 52
-0.0961546 0.0863898 0.203976 53 42 52
-0.0981185 0.0891448 0.210481 54 44 52
-0.100503 0.0923486 0.218045 55 43 52
-0.0987871 0.0918155 0.216787 53 40 50
-0.0942401 0.0886079 0.209213 53 41 49
-0.0915066 0.08705 0.205535 53 40 49
-0.0913552 0.0879405 0.207637 51 37 46
-0.0859734 0.083757 0.197759 52 38 45
-0.0855288 0.08434 0.199136 55 40 49
-0.087802 0.0876505 0.206952 53 37 46
-0.0822968 0.0831817 0.196401 52 37 45
-0.0870575 0.0891075 0.210393 58 43 50
-0.0811033 0.0840773 0.198516 51 34 44
-0.0828974 0.0870533 0.205542 51 34 43
-0.0778739 0.082854 0.195628 51 35 44
-0.0782765 0.0843928 0.199261 48 30 40
-0.0783335 0.0855955 0.202101 49 32 41
-0.0762569 0.0844678 0.199438 52 34 41
-0.0752749 0.0845381 0.199604 47 27 35
-0.0740152 0.0842942 0.199028 47 26 35
-0.0753352 0.0870231 0.205471 45 25 34
-0.0713373 0.0835993 0.197387 46 27 36
-0.0690085 0.0820595 0.193752 47 28 35
-0.0690601 0.0833465 0.19679 47 27 35
-0.0664086 0.0813609 0.192102 46 26 34
-0.0664363 0.082647 0.195139 46 27 36
-0.0675465 0.0853411 0.2015 46 26 36
-0.0664795 0.0853261 0.201464 42 21 33
-0.0642463 0.0837899 0.197837 48 33 42
-0.0654452 0.0867527 0.204833 50 35 45
-0.0622211 0.0838536 0.197988 49 38 47
-0.0618386 0.0847506 0.200105 51 41 51
-0.0602015 0.0839295 0.198167 53 41 51
-0.05834 0.0827612 0.195408 54 42 54
-0.0577371 0.0833684 0.196842 56 44 56
-0.055891 0.0821702 0.194013 55 44 56
-0.0549923 0.0823461 0.194428 54 43 55
-0.056583 0.0863267 0.203827 54 45 56
-0.0516192 0.0802681 0.189522 52 43 54
-0.0550454 0.0872742 0.206064 52 43 56
-0.0543781 0.0879405 0.207637 51 42 56
-0.0546926 0.0902542 0.2131 51 42 56
-0.0566592 0.0954473 0.225362 52 44 58
-0.0596332 0.102595 0.242238 52 44 58
-0.0624675 0.109807 0.259267 53 45 59
-0.0646262 0.116126 0.274187 53 43 58
-0.0761677 0.139976 0.330499 52 43 58
-0.0715977 0.134637 0.317894 50 41 56
-0.0744671 0.143367 0.338506 51 43 59
-0.101909 0.200985 0.474549 54 46 61
-0.0977424 0.197587 0.466525 51 43 58
-0.108975 0.225943 0.533475 52 43 58
-0.11354 0.241601 0.570447 51 42 59
-0.110552 0.241601 0.570447 51 42 59
-0.121506 0.272916 0.644385 52 43 60
-0.145772 0.336777 0.795167 52 43 59
-0.145042 0.344945 0.814453 52 43 60
-0.16188 0.396656 0.936549 50 42 60
-0.104868 0.264988 0.625666 51 42 59
-0.152069 0.396656 0.936549 49 39 58
-0.124948 0.336777 0.795167 48 38 57
-0.163921 0.457059 1.07917 49 39 58
-0.146658 0.423529 1 51 41 59
-0.130225 0.39 0.920833 50 39 58
-0.114944 0.357476 0.844042 49 39 57
-0.107745 0.348492 0.822829 51 40 58
-0.07607 0.256293 0.605137 49 38 57
-0.0647408 0.227607 0.537405 49 38 56
-0.0396444 0.145712 0.344042 49 38 55
-0.0283522 0.10917 0.257762 48 36 54
-0.0260495 0.105318 0.248668 47 35 53
-0.0264967 0.112765 0.26625 49 36 54
-0.0228383 0.102595 0.242238 49 35 53
-0.0200097 0.0951758 0.224721 49 36 54
-0.0181779 0.091867 0.216908 49 36 54
-0.0157731 0.085028 0.200761 46 32 51
-0.0144377 0.0833885 0.19689 47 34 51
-0.013747 0.0855064 0.20189 46 32 49
-0.0119179 0.0803071 0.189614 46 31 50
-0.011227 0.0825291 0.19486 46 31 48
-0.0103522 0.0837081 0.197644 43 26 45
-0.00926887 0.0832759 0.196624 42 25 44
-0.00852409 0.0861575 0.203427 44 28 45
-0.007112 0.082154 0.193975 43 25 43
-0.00617158 0.0831726 0.19638 40 20 40
-0.00499615 0.080798 0.190773 41 20 40
-0.00404233 0.081716 0.192941 41 20 39
-0.00303175 0.081716 0.192941 42 20 39
-0.0020137 0.0814142 0.192228 42 21 40
-0.000996116 0.0805462 0.190178 39 18 37
0 0.081666 0.192822 39 18 37
0.00095863 0.0775151 0.183022 41 19 36
0.0019891 0.0804194 0.189879 41 19 36
0.00289407 0.0780052 0.184179 39 17 33
0.00384661 0.0777594 0.183599 35 14 29
0.00502065 0.0811942 0.191708 35 15 29
0.00591361 0.079696 0.188171 38 17 33
0.00694961 0.0802782 0.189546 36 15 30
0.00793535 0.0802067 0.189377 40 18 35
0.00867503 0.0779405 0.184026 44 24 42
0.009754 0.0788711 0.186223 45 25 43
0.0105313 0.0774145 0.182784 47 29 45
0.0116474 0.0784845 0.185311 44 25 43
0.0125529 0.0780796 0.184355 46 27 44
0.0132189 0.0763488 0.180268 48 31 47
0.0145779 0.0785847 0.185547 48 31 47
0.0152613 0.0771272 0.182106 48 32 48
0.0166322 0.0791107 0.186789 49 33 49
0.0165313 0.0742624 0.175342 48 33 48
0.0189507 0.0806503 0.190424 46 30 46
0.0182841 0.073923 0.17454 48 33 48
0.0208365 0.0802307 0.189434 48 33 49
0.0207675 0.0763303 0.180224 49 33 48
0.0217651 0.0765186 0.180669 47 30 47
0.0218201 0.0735158 0.173579 45 30 46
0.0242215 0.0783421 0.184974 45 30 46
0.0251863 0.0783296 0.184945 43 28 44
0.0245434 0.073503 0.173549 44 30 46
0.0268222 0.0774589 0.182889 45 29 46
0.027466 0.0765829 0.180821 45 29 45
0.0293537 0.0791182 0.186807 43 25 43
0.0311605 0.0812788 0.191908 44 27 43
0.033296 0.084135 0.198652 44 28 44
0.0354048 0.0867527 0.204833 43 25 42
0.0401336 0.0954473 0.225362 44 25 43
0.0559632 0.129291 0.305271 43 23 41
0.0942803 0.211765 0.5 42 22 40
0.0846025 0.184891 0.436549 42 22 41
0.121651 0.258861 0.6112 43 23 41
0.131631 0.272916 0.644385 42 22 40
0.172392 0.348492 0.822829 41 20 39
0.134362 0.264988 0.625666 42 21 39
0.185679 0.357476 0.844042 43 22 40
0.271359 0.510282 1.20483 42 22 40
0.316733 0.582071 1.37433 42 22 39
0.296456 0.532699 1.25776 45 25 41
0.339643 0.597035 1.40967 44 23 40
0.296601 0.510282 1.20483 42 21 39
0.325623 0.548541 1.29517 43 22 40
0.322807 0.532699 1.25776 44 25 41
0.359924 0.582071 1.37433 40 20 38
0.372606 0.590765 1.39486 42 21 38
0.342571 0.532699 1.25776 42 21 37
0.416405 0.635294 1.5 43 22 38
0.444187 0.66513 1.57045 42 21 37
0.46832 0.688517 1.62567 42 21 37
0.39423 0.569241 1.34404 42 21 35
0.447832 0.635294 1.5 40 19 33
0.473222 0.659738 1.55772 39 17 30
0.496035 0.679823 1.60514 39 16 30
0.516777 0.696445 1.64438 40 17 31
0.497699 0.659738 1.55772 40 17 32
0.505858 0.659738 1.55772 39 17 31
0.52478 0.673553 1.59033 38 17 29
0.479213 0.605458 1.42955 38 16 30
0.510685 0.635294 1.5 37 16 28
0.518542 0.635294 1.5 39 17 29
0.526398 0.635294 1.5 36 15 26
0.534255 0.635294 1.5 38 16 28
0.567572 0.66513 1.57045 37 15 27
0.60715 0.701347 1.65596 37 16 28
0.557825 0.635294 1.5 37 17 29
0.624497 0.701347 1.65596 41 19 32
0.633171 0.701347 1.65596 39 17 30
0.660788 0.722047 1.70483 42 18 34
0.589252 0.635294 1.5 46 22 37
0.647133 0.688517 1.62567 44 19 34
0.708924 0.744464 1.75776 45 21 36
0.664163 0.688517 1.62567 45 23 37
0.658058 0.673553 1.59033 45 22 37
0.599017 0.605458 1.42955 44 21 36
0.689707 0.688517 1.62567 45 23 38
0.644249 0.635294 1.5 45 22 38
0.741154 0.722047 1.70483 46 23 39
0.82466 0.793836 1.87433 44 21 37
0.737253 0.701347 1.65596 44 22 38
0.707408 0.66513 1.57045 43 21 37
0.754601 0.701347 1.65596 44 22 38
0.849967 0.781006 1.84404 42 20 36
0.873747 0.793836 1.87433 44 21 38
0.707102 0.635294 1.5 43 19 36
0.812591 0.722047 1.70483 45 21 38
0.783371 0.688517 1.62567 44 20 37
0.97423 0.847059 2 44 21 38
0.783006 0.673553 1.59033 45 20 37
0.746386 0.635294 1.5 43 19 36
0.857238 0.722047 1.70483 44 19 38
0.825946 0.688517 1.62567 45 22 39
1.02661 0.847059 2 43 20 36
0.777813 0.635294 1.5 46 22 38
1.04756 0.847059 2 45 22 38
0.793526 0.635294 1.5 45 20 37
0.910816 0.722047 1.70483 44 19 35
0.698734 0.548541 1.29517 42 18 34
1.08946 0.847059 2 43 18 36
0.824953 0.635294 1.5 42 18 36
0.555206 0.423529 1 44 20 38
0.560444 0.423529 1 44 21 37
0.398711 0.298517 0.704833 45 20 37
0.57092 0.423529 1 45 21 37
0.406095 0.298517 0.704833 44 20 37
1.46658 1.05882 2.5 45 21 37
0.41717 0.298517 0.704833 43 19 35
0.298554 0.211765 0.5 43 18 34
0.602347 0.423529 1 44 21 37
0.607584 0.423529 1 43 20 36
0.435629 0.298517 0.704833 44 20 35
0.183977 0.125012 0.295167 48 28 42
-0.314268 0.214379 0.5 58 46 49
-0.367954 0.253111 0.590334 59 46 50
-0.30903 0.214379 0.5 55 43 48
-0.283488 0.198341 0.462595 60 48 54
-0.255692 0.180436 0.420833 61 49 55
-0.253487 0.180436 0.420833 60 48 53
-0.260667 0.187174 0.436549 60 49 54
-0.213542 0.154692 0.360791 56 45 50
-0.219597 0.160499 0.374334 57 48 53
-0.161608 0.11918 0.277965 55 44 50
-0.198222 0.147511 0.344042 59 49 54
-0.160785 0.120749 0.281624 55 46 52
-0.139843 0.105994 0.247211 60 51 58
-0.159671 0.122153 0.2849 57 49 55
-0.163879 0.126555 0.295167 59 51 58
-0.126649 0.0987361 0.230284 57 49 56
-0.135836 0.106917 0.249364 59 51 59
-0.126107 0.100222 0.23375 59 52 60
-0.128664 0.103258 0.240829 58 50 58
-0.118041 0.0956701 0.223133 58 50 58
-0.111013 0.0908734 0.211946 59 51 59
-0.116017 0.0959289 0.223737 59 51 59
-0.116152 0.097021 0.226284 57 48 55
-0.104733 0.0883842 0.20614 54 46 53
-0.107773 0.0918974 0.214334 57 50 57
-0.105752 0.0911235 0.212529 58 51 56
-0.103398 0.0900428 0.210008 56 47 54
-0.0969058 0.0852964 0.198938 53 44 53
-0.096931 0.086246 0.201153 53 44 52
-0.100975 0.0908314 0.211848 53 43 51
-0.102029 0.0927989 0.216437 53 43 51
-0.100363 0.0923093 0.215295 55 46 52
-0.0944128 0.0878237 0.204833 55 44 52
-0.0995113 0.0936304 0.218376 55 43 51
-0.0899624 0.0856301 0.199717 52 40 49
-0.0896453 0.0863322 0.201354 54 42 50
-0.0858685 0.0836794 0.195167 53 40 48
-0.0896675 0.0884344 0.206257 51 38 45
-0.0882803 0.088128 0.205542 54 40 48
-0.0875069 0.0884344 0.206257 51 36 45
-0.0858298 0.0878237 0.204833 56 41 48
-0.0862285 0.0893486 0.208389 56 40 47
-0.0813567 0.0853812 0.199136 51 35 43
-0.0846328 0.0899729 0.209845 52 35 43
-0.0812545 0.0875181 0.20412 52 35 42
-0.0804654 0.0878237 0.204833 51 34 41
-0.0804917 0.0890395 0.207668 50 31 39
-0.0761415 0.0853812 0.199136 49 31 39
-0.0764545 0.0869229 0.202732 48 30 38
-0.0777315 0.0896195 0.209021 48 28 36
-0.0768789 0.0899028 0.209682 47 27 35
-0.0727978 0.0863641 0.201428 49 31 38
-0.0702821 0.0846057 0.197327 49 30 37
-0.0677591 0.082786 0.193083 48 28 36
-0.0678948 0.0842086 0.196401 48 29 36
-0.0680339 0.0856793 0.199831 46 27 35
-0.0666647 0.0852668 0.198869 44 25 35
-0.0668307 0.086836 0.202529 47 28 38
-0.0654997 0.0864791 0.201697 51 35 44
-0.0638766 0.0857187 0.199923 50 35 44
-0.0630296 0.0859918 0.20056 52 40 49
-0.0607593 0.0842994 0.196613 55 45 54
-0.0593827 0.0838099 0.195471 54 43 54
-0.0561142 0.0805863 0.187953 52 42 52
-0.0600808 0.0878237 0.204833 56 45 55
-0.0580739 0.0864335 0.20159 54 43 54
-0.0559637 0.0848353 0.197863 54 44 55
-0.057942 0.0894914 0.208722 53 43 55
-0.0581974 0.0916145 0.213674 53 43 55
-0.0547165 0.0878237 0.204833 54 44 56
-0.0553624 0.0906376 0.211396 53 43 56
-0.0634473 0.105994 0.247211 53 44 57
-0.0631884 0.107761 0.251332 54 45 58
-0.0655444 0.114157 0.26625 53 44 58
-0.0783019 0.139341 0.324987 52 43 57
-0.0952869 0.173334 0.404271 53 44 58
-0.1098 0.204274 0.476432 53 43 58
-0.0983218 0.187174 0.436549 52 43 58
-0.10333 0.201391 0.469708 51 42 58
-0.0903738 0.180436 0.420833 52 44 59
-0.128054 0.262057 0.6112 52 44 59
-0.157618 0.33083 0.771599 52 43 58
-0.150822 0.324897 0.757762 50 41 57
-0.143845 0.318241 0.742238 50 42 57
-0.159153 0.36189 0.844042 50 41 57
-0.145772 0.340934 0.795167 50 41 57
-0.146534 0.352795 0.822829 50 41 58
-0.19102 0.473836 1.10514 51 40 59
-0.155802 0.398554 0.929553 49 39 58
-0.162372 0.428758 1 49 40 59
-0.144694 0.394815 0.920833 50 41 59
-0.151896 0.428758 1 49 39 57
-0.126242 0.369071 0.860791 50 40 59
-0.128645 0.390027 0.909666 48 38 56
-0.123881 0.390027 0.909666 49 38 56
-0.0843789 0.276285 0.644385 50 39 56
-0.0567097 0.193424 0.451125 49 38 56
-0.0468385 0.166701 0.3888 50 39 57
-0.0289613 0.107761 0.251332 49 37 54
-0.0259714 0.101237 0.236117 48 36 53
-0.0286607 0.117306 0.273595 50 37 55
-0.0235724 0.101558 0.236866 48 36 54
-0.0211458 0.0961647 0.224287 48 34 53
-0.0188904 0.090961 0.21215 49 36 54
-0.0179977 0.0920788 0.214757 51 39 56
-0.0158198 0.0863322 0.201354 48 35 52
-0.0149441 0.0873784 0.203794 47 34 51
-0.0130444 0.082138 0.191572 44 29 47
-0.0122657 0.0836712 0.195148 44 29 48
-0.0116585 0.0867589 0.202349 44 29 47
-0.0106877 0.087488 0.20405 44 29 46
-0.00940607 0.0855518 0.199534 39 23 42
-0.00858298 0.0878237 0.204833 40 23 41
-0.00715951 0.0837238 0.195271 45 27 44
-0.00618346 0.0843615 0.196758 42 22 42
-0.00531274 0.0869787 0.202862 44 23 43
-0.00407105 0.0833125 0.194311 41 20 39
-0.0031274 0.0853348 0.199028 41 19 38
-0.00200473 0.0820521 0.191372 41 19 38
-0.000998484 0.0817344 0.190631 40 19 37
0 0.0810854 0.189117 40 19 36
0.000947166 0.0775336 0.180833 42 19 37
0.00197765 0.0809439 0.188787 39 17 34
0.00294433 0.0803395 0.187377 39 17 34
0.00387881 0.0793785 0.185136 39 17 33
0.00498094 0.0815465 0.190192 35 15 29
0.00568345 0.0775398 0.180847 36 16 32
0.00655359 0.0766382 0.178745 38 17 34
0.00799166 0.0817732 0.190721 42 21 40
0.00885673 0.0805554 0.187881 44 24 43
0.00935028 0.07654 0.178516 45 26 44
0.0105763 0.0787052 0.183565 47 29 46
0.0117404 0.0800873 0.186789 47 29 46
0.01241 0.0781434 0.182255 46 29 46
0.0136439 0.0797764 0.186064 47 31 47
0.0140665 0.076764 0.179038 47 30 47
0.0156379 0.0800058 0.186599 47 31 47
0.0160775 0.0774163 0.180559 46 29 47
0.016376 0.0744729 0.173694 48 32 49
0.0175149 0.0754602 0.175997 48 33 49
0.0189744 0.077661 0.18113 47 31 48
0.0194 0.0756217 0.176374 49 33 49
0.021414 0.0796782 0.185835 50 35 50
0.0221722 0.0789123 0.184049 48 31 47
0.0223841 0.0763469 0.178065 46 29 46
0.0222741 0.0729331 0.170103 45 29 46
0.026201 0.0824913 0.192396 43 27 45
0.0252042 0.076414 0.178222 48 34 50
0.0279145 0.0816084 0.190337 47 31 47
0.0268133 0.0756861 0.176524 46 30 46
0.0302467 0.0825316 0.19249 44 26 43
0.0313798 0.0828614 0.193259 44 27 44
0.0379044 0.0969624 0.226147 43 26 43
0.0385934 0.0957333 0.22328 43 25 42
0.0525649 0.126555 0.295167 43 23 41
0.0702911 0.164398 0.383428 43 24 42
0.0942803 0.214379 0.5 42 23 41
0.112242 0.248323 0.579167 43 22 42
0.140287 0.302203 0.704833 42 22 41
0.162432 0.340934 0.795167 42 22 40
0.187484 0.38368 0.894863 42 21 39
0.197749 0.394815 0.920833 42 21 39
0.243116 0.473836 1.10514 43 22 40
0.271359 0.516582 1.20483 43 22 39
0.254693 0.473836 1.10514 43 23 40
0.305272 0.555313 1.29517 43 22 39
0.339643 0.604406 1.40967 44 23 40
0.347026 0.604406 1.40967 45 25 41
0.334506 0.570462 1.3305 44 24 41
0.344951 0.576269 1.34404 42 21 40
0.369177 0.604406 1.40967 41 20 38
0.400691 0.643137 1.5 42 21 38
0.433152 0.681869 1.59033 42 20 37
0.37311 0.576269 1.34404 41 20 36
0.501081 0.759588 1.7716 41 20 36
0.415491 0.618391 1.44228 41 19 35
0.439975 0.643137 1.5 44 22 37
0.4306 0.618391 1.44228 41 19 34
0.417512 0.589257 1.37433 42 18 33
0.411164 0.570462 1.3305 38 16 28
0.52467 0.715812 1.6695 38 16 29
0.544704 0.730961 1.70483 39 16 29
0.542159 0.715812 1.6695 42 18 32
0.494972 0.643137 1.5 37 15 26
0.522176 0.667883 1.55772 37 17 29
0.534669 0.673342 1.57045 39 17 30
0.538494 0.667883 1.55772 34 14 25
0.55112 0.673342 1.57045 37 16 28
0.579014 0.697018 1.62567 40 17 31
0.562971 0.667883 1.55772 39 16 29
0.575797 0.673342 1.57045 40 17 30
0.584023 0.673342 1.57045 44 20 35
0.565682 0.643137 1.5 38 16 27
0.608079 0.681869 1.59033 38 16 29
0.660788 0.730961 1.70483 41 18 33
0.650518 0.710006 1.65596 42 18 34
0.659191 0.710006 1.65596 44 20 36
0.667865 0.710006 1.65596 46 24 38
0.641603 0.673342 1.57045 44 22 37
0.649829 0.673342 1.57045 46 24 39
0.736544 0.753655 1.75776 45 22 37
0.723295 0.730961 1.70483 45 22 37
0.711233 0.710006 1.65596 45 23 38
0.691377 0.681869 1.59033 45 23 38
0.750084 0.730961 1.70483 42 20 36
0.759013 0.730961 1.70483 44 21 38
0.716367 0.681869 1.59033 43 20 36
0.683532 0.643137 1.5 44 22 38
0.691389 0.643137 1.5 45 22 39
0.794731 0.730961 1.70483 44 21 38
0.749686 0.681869 1.59033 43 20 37
0.812591 0.730961 1.70483 46 23 39
0.797969 0.710006 1.65596 45 21 37
0.774676 0.681869 1.59033 42 19 36
0.839379 0.730961 1.70483 45 20 38
0.683856 0.589257 1.37433 44 19 37
0.754243 0.643137 1.5 43 19 36
0.698253 0.589257 1.37433 44 20 37
0.816325 0.681869 1.59033 44 20 37
0.777813 0.643137 1.5 44 20 37
0.851491 0.697018 1.62567 44 20 36
0.685166 0.555313 1.29517 42 19 35
0.534255 0.428758 1 43 19 35
0.80924 0.643137 1.5 40 17 32
0.160787 0.126555 0.295167 42 18 35
0.274984 0.214379 0.5 42 19 36
0.555206 0.428758 1 47 24 41
0.840666 0.643137 1.5 44 21 37
0.964393 0.730961 1.70483 45 21 37
0.57092 0.428758 1 45 21 37
0.576158 0.428758 1 41 20 36
0.581395 0.428758 1 44 20 38
0.586633 0.428758 1 43 20 37
0.591871 0.428758 1 43 19 35
0.773356 0.555313 1.29517 45 21 37
1.0269 0.730961 1.70483 44 21 38
0.483131 0.340934 0.795167 48 25 41
0.612822 0.428758 1 46 21 38
0.623298 0.428758 1 47 26 40
-0.344987 0.238204 0.548874 57 44 49
-0.285234 0.198602 0.457621 62 52 56
-0.2601 0.182636 0.420833 59 48 52
-0.238265 0.168734 0.3888 61 49 54
-0.26524 0.189457 0.436549 59 47 52
-0.202498 0.145899 0.336183 58 46 51
-0.197344 0.143432 0.330499 58 47 52
-0.147179 0.107919 0.248668 58 47 52
-0.16521 0.122221 0.281624 57 48 53
-0.149862 0.111865 0.257762 61 52 57
-0.175884 0.132484 0.305271 57 47 52
-0.163469 0.124262 0.286326 55 47 51
-0.145811 0.111865 0.257762 56 48 54
-0.127096 0.098418 0.226776 57 49 56
-0.140544 0.109859 0.253138 59 51 58
-0.128164 0.101136 0.233039 60 52 59
-0.130267 0.103784 0.23914 59 52 59
-0.126384 0.101667 0.234264 58 51 59
-0.122024 0.0991228 0.2284 61 54 61
-0.122193 0.100243 0.230981 61 54 60
-0.116524 0.096548 0.222468 57 49 57
-0.112271 0.0939636 0.216513 53 45 53
-0.111948 0.0946498 0.218094 59 52 58
-0.105303 0.0899493 0.207263 58 50 57
-0.10356 0.089382 0.205956 56 48 54
-0.104541 0.091178 0.210094 54 47 51
-0.103318 0.0910702 0.209845 54 45 51
-0.0979034 0.0872254 0.200986 51 42 50
-0.0982679 0.0885017 0.203927 53 44 52
-0.0972117 0.0885126 0.203952 54 44 52
-0.0993262 0.0914427 0.210704 53 44 51
-0.0939868 0.0874994 0.201618 55 46 53
-0.0958654 0.0902625 0.207984 54 44 52
-0.0964369 0.0918443 0.211629 54 44 51
-0.095563 0.0920703 0.21215 54 43 50
-0.0908732 0.0885818 0.204112 53 40 48
-0.0876426 0.0864498 0.199199 52 40 47
-0.0909311 0.0907742 0.209163 54 42 49
-0.0870206 0.0879298 0.202609 53 41 48
-0.0809156 0.0827704 0.190721 57 45 50
-0.0867702 0.0898687 0.207077 55 43 49
-0.082936 0.086985 0.200432 50 35 43
-0.0821978 0.087316 0.201195 53 39 45
-0.0829039 0.0892098 0.205559 52 37 44
-0.0789077 0.0860268 0.198224 51 35 43
-0.0775576 0.0856823 0.197431 49 32 40
-0.0758928 0.0849761 0.195803 50 32 40
-0.0789105 0.0895653 0.206378 49 30 38
-0.0735271 0.0846142 0.194969 48 29 37
-0.0736283 0.085924 0.197988 49 32 39
-0.0734496 0.0869399 0.200328 47 27 35
-0.0753737 0.0905104 0.208556 48 29 36
-0.0740376 0.0902135 0.207871 49 31 37
-0.0726988 0.0899043 0.207159 49 29 36
-0.0716237 0.0899168 0.207188 46 27 34
-0.0672582 0.0857353 0.197553 46 27 35
-0.0667263 0.0863864 0.199053 47 29 36
-0.0656329 0.0863196 0.198899 46 28 36
-0.0633288 0.0846326 0.195012 48 32 41
-0.0627807 0.0852755 0.196493 51 35 44
-0.0612946 0.0846445 0.195039 52 40 49
-0.0582882 0.0818572 0.188617 55 44 53
-0.0595774 0.0851103 0.196112 52 41 51
-0.0608037 0.0883859 0.20366 54 44 54
-0.0615511 0.0910702 0.209845 54 42 53
-0.0614423 0.092562 0.213283 55 42 53
-0.0593166 0.0910145 0.209717 54 44 55
-0.0568622 0.0888947 0.204833 53 44 55
-0.0622084 0.0991228 0.2284 54 45 56
-0.0613174 0.0996189 0.229543 54 45 55
-0.0660964 0.109531 0.252382 53 44 56
-0.0713404 0.120633 0.277965 52 43 56
-0.0823406 0.142135 0.32751 53 44 57
-0.106933 0.188514 0.434376 51 42 56
-0.109532 0.197292 0.454604 53 44 58
-0.11071 0.203847 0.469708 52 43 57
-0.122213 0.23014 0.530292 50 40 55
-0.122157 0.235385 0.542379 51 43 57
-0.155054 0.305888 0.704833 52 44 59
-0.151363 0.305888 0.704833 51 43 58
-0.123682 0.256197 0.590334 54 46 60
-0.204274 0.433987 1 53 44 59
-0.183279 0.39963 0.920833 51 42 57
-0.224023 0.501671 1.15596 50 42 58
-0.208385 0.479615 1.10514 49 40 57
-0.160285 0.37945 0.874334 50 41 57
-0.150311 0.366303 0.844042 49 40 57
-0.199804 0.501671 1.15596 50 40 58
-0.210813 0.545852 1.25776 50 41 59
-0.175226 0.468344 1.07917 51 42 60
-0.171328 0.473191 1.09033 51 41 59
-0.139871 0.39963 0.920833 48 39 57
-0.146658 0.433987 1 48 37 55
-0.156289 0.479615 1.10514 51 39 58
-0.105078 0.334864 0.771599 48 37 55
-0.0792396 0.262622 0.605137 50 39 56
-0.0334695 0.115549 0.26625 49 38 55
-0.0302778 0.109075 0.251332 49 38 55
-0.0340126 0.128099 0.295167 50 38 55
-0.0266446 0.105128 0.242238 52 41 57
-0.0250727 0.103872 0.239344 48 36 53
-0.0216643 0.0944755 0.217692 48 35 53
-0.0193117 0.0888947 0.204833 48 35 53
-0.0190848 0.0930181 0.214334 49 36 54
-0.017062 0.0883562 0.203592 48 36 53
-0.0158383 0.0874875 0.20159 47 34 51
-0.0150924 0.0893218 0.205817 46 34 50
-0.0136399 0.0869353 0.200318 46 32 49
-0.0121706 0.084035 0.193635 46 32 49
-0.0120413 0.0907005 0.208994 45 29 47
-0.0103969 0.0861457 0.198498 46 31 48
-0.00918528 0.0845625 0.19485 45 31 46
-0.00814976 0.0844079 0.194494 46 30 46
-0.00732877 0.0867483 0.199887 42 23 41
-0.006243 0.0862124 0.198652 43 24 42
-0.00509691 0.0844628 0.19462 44 24 42
-0.00409536 0.084832 0.195471 41 20 39
-0.00303185 0.0837365 0.192947 41 19 38
-0.00202778 0.0840078 0.193572 42 20 39
-0.00100017 0.0828708 0.190952 40 19 37
0 0.0842321 0.194089 40 19 37
0.00103398 0.0856721 0.197407 40 18 36
0.00203876 0.0844628 0.19462 35 15 30
0.00295251 0.0815452 0.187898 34 15 30
0.00402595 0.0833942 0.192158 37 17 33
0.00507858 0.0841589 0.19392 38 17 34
0.00580268 0.0801319 0.184641 39 18 35
0.00662764 0.0784492 0.180764 37 16 34
0.00779476 0.0807311 0.186022 41 20 39
0.00849787 0.078234 0.180268 46 27 45
0.00965345 0.0799854 0.184304 47 28 45
0.0103352 0.0778492 0.179382 47 29 46
0.011563 0.0798395 0.183967 49 32 48
0.0122483 0.0780656 0.17988 48 31 47
0.0124294 0.0735614 0.169501 47 30 47
0.0145126 0.0801645 0.184716 47 32 48
0.0151796 0.0786081 0.18113 47 31 47
0.0163472 0.0796753 0.183589 49 33 49
0.017169 0.0790316 0.182106 47 31 48
0.0187555 0.0817906 0.188463 47 31 48
0.0184234 0.0763253 0.17587 47 32 48
0.0212941 0.084017 0.193593 46 30 47
0.0207279 0.0780656 0.17988 46 29 46
0.0212285 0.0764751 0.176215 48 31 48
0.0227114 0.078408 0.180669 45 27 45
0.0243945 0.0808499 0.186296 45 29 46
0.0266331 0.0848742 0.195569 43 27 45
0.0277055 0.0850218 0.195909 41 24 42
0.0315068 0.0932339 0.214831 46 30 46
0.0289371 0.0826772 0.190506 44 26 44
0.0289075 0.0798395 0.183967 43 25 43
0.0316184 0.0845096 0.194729 42 24 42
0.048313 0.125096 0.288248 43 26 43
0.0601675 0.151069 0.348097 43 24 42
0.0743378 0.181159 0.417429 42 23 41
0.0985186 0.233227 0.537405 44 25 43
0.109208 0.251351 0.579167 43 24 42
0.117275 0.262622 0.605137 42 22 40
0.153576 0.334864 0.771599 41 20 39
0.204274 0.433987 1 42 22 39
0.228438 0.473191 1.09033 43 23 40
0.234149 0.473191 1.09033 41 20 38
0.247632 0.488524 1.12567 43 24 41
0.260351 0.501671 1.15596 43 22 39
0.309752 0.583297 1.34404 42 21 39
0.28398 0.522882 1.20483 45 24 41
