ply
format ascii 1.0
element vertex 1204
property float x
property float y
property float z
property uchar red
property uchar green
property uchar blue
end_header
-0.075256 -0.0290488 0.191572 81 81 68
-0.0767033 -0.0300075 0.197894 81 76 71
-0.0726598 -0.0288151 0.19003 80 74 73
-0.0742645 -0.0298605 0.196925 77 70 70
-0.0726639 -0.0296284 0.195394 76 69 68
-0.0730714 -0.0302202 0.199297 74 67 68
-0.0698454 -0.0293047 0.193259 73 66 66
-0.0712505 -0.0303338 0.200046 71 65 66
-0.0656202 -0.0283538 0.186988 73 66 68
-0.064463 -0.0282758 0.186474 71 66 67
-0.0659058 -0.0293534 0.193581 67 60 62
-0.0611202 -0.0276473 0.182329 68 59 63
-0.0603272 -0.0277217 0.18282 67 58 62
-0.0598941 -0.0279667 0.184435 66 57 61
-0.0582885 -0.0276631 0.182434 66 59 63
-0.056331 -0.0271797 0.179245 66 58 63
-0.0548386 -0.0269081 0.177454 66 58 63
-0.0540703 -0.0269885 0.177984 65 57 62
-0.0530516 -0.0269446 0.177695 65 55 61
-0.0521129 -0.0269405 0.177668 64 55 61
-0.0525473 -0.027659 0.182406 63 54 61
-0.0509152 -0.0272962 0.180014 63 53 60
-0.0496275 -0.0271078 0.178771 63 53 60
-0.0485307 -0.0270185 0.178182 63 52 59
-0.0475371 -0.0269843 0.177957 62 50 58
-0.0470103 -0.0272189 0.179504 62 50 57
-0.0458975 -0.0271169 0.178832 61 48 56
-0.044766 -0.0269995 0.178057 60 48 56
-0.0442092 -0.0272309 0.179583 61 48 57
-0.0427938 -0.0269322 0.177613 61 46 55
-0.0422518 -0.0271819 0.17926 59 43 54
-0.0409323 -0.0269315 0.177609 60 44 55
-0.0391929 -0.0263868 0.174016 59 42 54
-0.03907 -0.0269304 0.177601 60 44 55
-0.037931 -0.026783 0.176629 61 46 56
-0.0370741 -0.0268324 0.176955 61 43 54
-0.0367699 -0.0272946 0.180003 58 36 50
-0.0346053 -0.0263638 0.173865 57 33 48
-0.0339678 -0.0265775 0.175274 55 29 47
-0.0334075 -0.0268652 0.177171 56 29 47
-0.0315732 -0.0261155 0.172227 56 30 47
-0.0310254 -0.0264172 0.174217 55 29 47
-0.0311054 -0.0272878 0.179959 55 30 47
-0.0298323 -0.0269889 0.177987 55 29 47
-0.0282206 -0.0263544 0.173803 56 30 47
-0.0277061 -0.0267363 0.176321 55 28 47
-0.025912 -0.0258673 0.170591 55 28 47
-0.0249498 -0.0257963 0.170122 52 22 42
-0.0247353 -0.0265217 0.174906 53 25 45
-0.0235509 -0.026223 0.172936 54 26 47
-0.0228257 -0.0264321 0.174315 56 33 51
-0.0215167 -0.0259545 0.171165 56 36 53
-0.0207536 -0.0261225 0.172273 59 41 56
-0.0205557 -0.0270493 0.178386 60 43 57
-0.0191552 -0.0264068 0.174148 60 42 57
-0.0178087 -0.0257781 0.170002 60 44 58
-0.0169965 -0.0258973 0.170788 59 44 58
-0.0164097 -0.0263923 0.174053 61 48 61
-0.0154675 -0.0263402 0.173709 59 44 58
-0.0144192 -0.0260897 0.172057 58 44 58
-0.0137188 -0.0264773 0.174613 59 44 59
-0.0128514 -0.0265748 0.175256 59 45 59
-0.0117808 -0.026235 0.173015 58 45 59
-0.010803 -0.0260622 0.171875 59 45 60
-0.0101559 -0.0267284 0.176269 58 45 60
-0.00896106 -0.0259422 0.171085 58 44 59
-0.00802099 -0.0258008 0.170152 58 44 60
-0.00717912 -0.0259794 0.17133 58 44 60
-0.00647901 -0.0267953 0.17671 57 43 60
-0.00537044 -0.0259123 0.170887 57 43 60
-0.00449636 -0.0260339 0.171689 58 44 60
-0.0036558 -0.0264588 0.174492 57 44 59
-0.00269812 -0.0260368 0.171708 57 44 59
-0.00178829 -0.0258855 0.17071 59 46 61
-0.00088893 -0.0257345 0.169714 58 44 60
0 -0.0262683 0.173235 57 43 59
0.000901199 -0.0260897 0.172057 57 41 59
0.00178669 -0.0258622 0.170557 58 44 60
0.00264153 -0.0254907 0.168107 59 47 62
0.00350352 -0.0253567 0.167223 59 47 62
0.00443549 -0.0256815 0.169365 60 48 63
0.00528619 -0.0255058 0.168207 60 49 63
0.00613441 -0.0253701 0.167312 60 49 62
0.00703474 -0.0254569 0.167884 60 49 62
0.0079007 -0.0254139 0.1676 59 47 61
0.00871297 -0.025224 0.166348 60 48 62
0.00956155 -0.0251642 0.165954 59 47 61
0.0103111 -0.0248754 0.164049 59 47 60
0.0114785 -0.0255618 0.168576 59 46 61
0.0119958 -0.0248056 0.163589 59 46 61
0.0129331 -0.0249608 0.164612 57 44 60
0.014205 -0.0257022 0.169501 57 44 60
0.0142855 -0.0243274 0.160435 58 45 61
0.0151391 -0.0243487 0.160575 58 44 60
0.0166324 -0.0253424 0.167129 57 43 60
0.0171217 -0.0247836 0.163443 56 42 60
0.0180927 -0.0249421 0.164489 56 42 59
0.0193906 -0.0255162 0.168275 57 44 61
0.0199184 -0.0250712 0.16534 57 43 60
0.0204718 -0.024694 0.162853 57 42 59
0.0222869 -0.0258082 0.170201 56 40 59
0.0231004 -0.0257214 0.169628 56 40 58
0.0230686 -0.0247347 0.163121 58 42 60
0.0242168 -0.0250384 0.165124 56 39 58
0.0252776 -0.025234 0.166414 56 40 59
0.02596 -0.0250513 0.165209 56 39 58
0.0265935 -0.0248349 0.163782 56 39 58
0.0274031 -0.0247912 0.163494 56 40 59
0.0283279 -0.0248513 0.16389 58 42 61
0.0285899 -0.0243434 0.160541 56 39 58
0.0308599 -0.0255255 0.168336 57 41 59
0.0316143 -0.0254232 0.167661 57 41 59
0.0321608 -0.0251636 0.16595 57 40 59
0.0330031 -0.0251431 0.165814 56 41 59
0.0338348 -0.0251158 0.165634 56 40 58
0.0339869 -0.024598 0.162219 57 40 58
0.035705 -0.0252112 0.166264 56 40 57
0.0360378 -0.0248403 0.163817 56 40 58
0.0370944 -0.024974 0.164699 56 38 56
0.0379481 -0.0249681 0.16466 56 39 56
0.0399657 -0.0257113 0.169561 55 36 54
0.0395284 -0.0248771 0.16406 55 35 54
0.0401638 -0.0247392 0.16315 55 36 54
0.0420156 -0.0253406 0.167117 55 36 54
0.0424642 -0.0250885 0.165454 55 37 54
0.0432838 -0.0250613 0.165275 55 37 54
0.0435608 -0.0247271 0.163071 55 36 54
0.0446571 -0.024862 0.16396 56 36 54
0.0452871 -0.024737 0.163136 56 36 54
0.0446448 -0.0239346 0.157844 55 34 53
0.0476367 -0.0250742 0.16536 56 36 53
0.0490631 -0.0253638 0.16727 56 34 52
0.0494361 -0.0251083 0.165585 55 29 50
0.050674 -0.0252933 0.166805 57 35 53
0.0513116 -0.0251774 0.166041 57 32 51
0.0516314 -0.0249121 0.164291 56 29 48
0.053359 -0.0253236 0.167005 57 31 48
0.0528854 -0.024694 0.162853 54 22 43
0.0548541 -0.0252067 0.166234 52 20 41
0.0558558 -0.025266 0.166625 48 17 35
0.05576 -0.0248346 0.16378 49 17 36
0.0571229 -0.0250561 0.165241 51 19 37
0.0594387 -0.0256828 0.169374 50 17 35
0.0590738 -0.0251498 0.165859 51 18 38
0.0601749 -0.0252473 0.166501 51 19 38
0.060845 -0.0251637 0.16595 55 23 43
0.0625481 -0.0255037 0.168193 55 24 44
0.0619288 -0.0249005 0.164214 56 27 47
0.0633486 -0.0251224 0.165678 57 30 49
0.064093 -0.0250742 0.16536 57 31 49
0.0653324 -0.0252183 0.16631 58 36 52
0.0673297 -0.0256473 0.169139 59 39 53
0.0669469 -0.0251702 0.165993 60 41 55
0.0688809 -0.0255654 0.168599 61 43 56
0.0704573 -0.0258195 0.170275 60 42 56
0.0690375 -0.0249829 0.164758 60 42 55
0.0693108 -0.0247722 0.163368 59 41 55
0.0711232 -0.0251099 0.165596 61 44 56
0.0723961 -0.0252514 0.166528 59 41 55
0.0717821 -0.0247392 0.16315 59 41 55
0.0723526 -0.0246424 0.162512 58 42 55
0.0736151 -0.0247809 0.163426 58 42 55
0.075024 -0.0249649 0.164639 58 41 54
0.0765753 -0.0251915 0.166134 58 42 55
0.0751273 -0.0244374 0.161161 56 39 53
0.0755898 -0.0243147 0.160351 58 42 54
0.0765365 -0.0243487 0.160575 58 42 54
0.0780262 -0.0245528 0.161921 58 41 54
0.0789949 -0.0245903 0.162169 57 40 53
0.0793624 -0.0244419 0.16119 57 40 53
0.0792113 -0.0241386 0.15919 56 40 53
0.0829272 -0.0250077 0.164921 57 41 53
0.0820496 -0.024488 0.161494 57 42 54
0.0840009 -0.0248145 0.163647 58 43 55
0.0845387 -0.0247211 0.163032 58 42 54
0.0840141 -0.024322 0.1604 57 42 54
0.0843238 -0.02417 0.159397 58 43 55
0.0858214 -0.0243581 0.160638 59 43 55
0.0861308 -0.0242086 0.159651 60 45 56
0.0870179 -0.0242227 0.159745 59 45 55
0.0911706 -0.025137 0.165774 60 46 56
0.0900982 -0.024607 0.162279 59 44 55
0.0888876 -0.0240495 0.158602 60 46 56
0.0897507 -0.0240581 0.158659 59 46 55
0.0919166 -0.0244127 0.160997 59 47 56
0.0901821 -0.0237343 0.156523 58 46 55
0.0952074 -0.0248311 0.163757 58 46 55
0.0976911 -0.0252514 0.166528 58 44 54
0.0935449 -0.0239657 0.158049 60 47 56
0.0954885 -0.024249 0.159918 61 49 58
0.100131 -0.0252069 0.166235 61 48 57
0.0964949 -0.0240821 0.158817 60 48 57
0.101617 -0.0251435 0.165817 61 49 57
0.101028 -0.024786 0.16346 60 46 56
0.102061 -0.024829 0.163743 60 47 56
-0.118077 -0.0275037 0.18786 185 223 191
-0.115651 -0.0271651 0.185547 185 222 190
-0.123244 -0.0291939 0.199405 185 222 190
-0.115923 -0.0276945 0.189163 186 223 192
-0.121309 -0.0292308 0.199657 186 222 190
-0.113861 -0.0276747 0.189028 185 222 191
-0.111924 -0.0274427 0.187443 185 222 191
-0.11238 -0.0277983 0.189872 186 222 191
-0.114296 -0.0285248 0.194834 185 222 190
-0.111536 -0.0280867 0.191842 189 224 194
-0.109915 -0.0279302 0.190773 186 223 192
-0.107007 -0.0274407 0.18743 186 223 192
-0.106121 -0.0274653 0.187598 186 223 192
-0.106181 -0.0277377 0.189458 186 223 192
-0.105976 -0.0279453 0.190877 186 223 192
-0.105736 -0.0281475 0.192258 185 222 192
-0.102838 -0.0276394 0.188787 185 223 191
-0.102889 -0.0279215 0.190714 186 223 192
-0.100361 -0.0275026 0.187852 186 224 193
-0.0976963 -0.0270374 0.184675 185 223 193
-0.0966488 -0.027015 0.184522 186 223 193
-0.0960326 -0.0271139 0.185197 186 223 192
-0.0928491 -0.0264825 0.180885 186 222 192
-0.0922651 -0.0265873 0.1816 184 222 192
-0.0940821 -0.0273933 0.187106 182 221 191
-0.0958373 -0.0281981 0.192603 182 221 191
-0.0916091 -0.0272407 0.186064 183 222 192
-0.0916183 -0.0275364 0.188083 182 222 190
-0.0918765 -0.0279142 0.190664 182 221 189
-0.0864357 -0.0265497 0.181344 183 222 191
-0.08732 -0.0271193 0.185235 182 221 190
-0.0861322 -0.027051 0.184768 180 220 190
-0.0901672 -0.0286401 0.195622 177 220 188
-0.0871782 -0.0280089 0.191311 179 221 189
-0.0828314 -0.0269218 0.183886 170 212 176
-0.0835944 -0.0274894 0.187763 166 210 172
-0.0849188 -0.0282574 0.193008 165 208 168
-0.0813744 -0.0274042 0.187181 167 203 164
-0.0794402 -0.0270791 0.18496 167 192 150
-0.0795271 -0.0274434 0.187448 160 180 138
-0.077687 -0.0271435 0.1854 148 166 126
-0.0771504 -0.0272972 0.18645 136 153 111
-0.0750586 -0.0268976 0.18372 116 130 94
-0.0744629 -0.0270307 0.184629 96 108 78
-0.0767573 -0.0282302 0.192822 83 92 65
-0.0751901 -0.0280225 0.191404 84 91 65
-0.0719175 -0.0271651 0.185547 88 89 70
-0.0709456 -0.0271651 0.185547 83 78 74
-0.0703765 -0.0273214 0.186615 81 76 74
-0.0679663 -0.0267574 0.182762 81 76 73
-0.0698939 -0.0279093 0.190631 79 73 71
-0.0664673 -0.0269257 0.183912 76 69 69
-0.0671555 -0.0276046 0.188549 75 69 70
-0.0662308 -0.0276308 0.188728 71 65 67
-0.0642115 -0.0271943 0.185746 74 69 69
-0.0659486 -0.0283596 0.193706 73 67 68
-0.0620447 -0.0270977 0.185087 68 60 63
-0.0614435 -0.0272611 0.186203 70 62 65
-0.0591377 -0.0266613 0.182106 67 59 63
-0.0586175 -0.02686 0.183463 66 59 63
-0.0573064 -0.0266969 0.182349 66 57 62
-0.0558828 -0.0264749 0.180833 65 57 62
-0.0546831 -0.0263532 0.180002 65 57 62
-0.0542097 -0.0265834 0.181574 65 57 62
-0.0546027 -0.0272543 0.186156 65 56 62
-0.0526037 -0.0267339 0.182602 63 54 60
-0.0502118 -0.0259908 0.177527 65 55 61
-0.050238 -0.0264951 0.180971 63 53 60
-0.0486871 -0.0261709 0.178756 64 53 60
-0.0478073 -0.0262019 0.178968 62 50 58
-0.0472729 -0.0264272 0.180507 62 50 57
-0.0451281 -0.025743 0.175834 62 50 58
-0.0449309 -0.0261645 0.178713 60 47 56
-0.0431855 -0.0256831 0.175425 61 48 56
-0.043507 -0.0264368 0.180573 61 47 56
-0.0421994 -0.0262121 0.179038 61 46 55
-0.0410581 -0.0260828 0.178155 58 41 53
-0.040547 -0.0263572 0.180029 58 41 53
-0.0391668 -0.0260661 0.178041 59 41 53
-0.0379781 -0.0258915 0.176848 60 43 53
-0.0373218 -0.0260802 0.178137 59 39 51
-0.0368152 -0.0263858 0.180224 57 36 49
-0.0343659 -0.0252786 0.172662 56 32 47
-0.0339446 -0.0256435 0.175154 56 30 47
-0.0330721 -0.0256784 0.175392 55 29 46
-0.0317983 -0.0253948 0.173455 54 26 45
-0.0309803 -0.0254691 0.173963 54 27 45
-0.0306033 -0.0259216 0.177054 56 32 47
-0.0290915 -0.0254111 0.173567 55 30 47
-0.0284557 -0.0256576 0.17525 55 29 46
-0.027171 -0.0253159 0.172916 56 31 48
-0.0258785 -0.024943 0.17037 54 25 45
-0.0254442 -0.0254003 0.173493 53 24 45
-0.0241761 -0.0250283 0.170952 55 29 48
-0.0238761 -0.0256684 0.175324 56 36 51
-0.0230948 -0.0258215 0.17637 56 34 51
-0.0219441 -0.0255573 0.174565 58 40 55
-0.0211826 -0.025743 0.175834 59 42 56
-0.0201971 -0.025661 0.175274 61 44 57
-0.0189396 -0.0252092 0.172188 59 42 57
-0.017719 -0.0247638 0.169145 59 44 58
-0.0172779 -0.0254183 0.173616 60 47 60
-0.0161352 -0.025056 0.171141 59 45 58
-0.0154367 -0.0253813 0.173363 59 46 59
-0.0139958 -0.0244504 0.167005 58 45 59
-0.0132779 -0.0247426 0.169001 58 45 59
-0.0126805 -0.0253172 0.172926 58 44 59
-0.0117659 -0.0252983 0.172796 57 44 59
-0.0108251 -0.025215 0.172227 57 43 59
-0.0102735 -0.0261057 0.178311 58 44 59
-0.00910678 -0.025455 0.173867 58 44 59
-0.00801463 -0.0248914 0.170017 57 43 60
-0.00725581 -0.0253515 0.17316 57 42 59
-0.00628479 -0.0250958 0.171413 57 44 61
-0.00534763 -0.0249126 0.170162 57 43 60
-0.0045861 -0.0256378 0.175116 57 44 60
-0.00364271 -0.025455 0.173867 57 43 59
-0.00269175 -0.0250796 0.171303 58 45 60
-0.0017862 -0.0249636 0.17051 57 44 59
-0.00089424 -0.0249955 0.170728 57 43 59
0 -0.0249955 0.170728 57 43 59
0.000889332 -0.0248583 0.169791 58 43 59
0.00178459 -0.0249412 0.170357 57 43 59
0.00264351 -0.0246302 0.168233 58 46 62
0.00348668 -0.0243646 0.166419 59 47 62
0.00436376 -0.0243949 0.166626 60 48 62
0.0051772 -0.0241186 0.164739 60 49 63
0.00611621 -0.0244226 0.166815 60 49 63
0.00706478 -0.024684 0.168601 60 48 62
0.00788982 -0.0245038 0.167369 59 47 62
0.00857216 -0.0239606 0.16366 60 48 62
0.00970669 -0.0246653 0.168473 59 47 61
0.0108701 -0.0253198 0.172943 58 45 60
0.0114828 -0.0246894 0.168638 59 45 61
0.0121728 -0.0243035 0.166002 59 46 61
0.0130728 -0.0243605 0.166391 59 46 61
0.0139875 -0.0244358 0.166906 57 44 60
0.014857 -0.0244282 0.166853 58 45 61
0.0155119 -0.024088 0.164529 57 42 59
0.0163324 -0.0240273 0.164115 56 42 59
0.0173795 -0.0242893 0.165905 56 42 59
0.018431 -0.0245323 0.167564 57 43 60
0.0189975 -0.0241369 0.164864 57 43 60
0.0201568 -0.0244964 0.167319 56 42 59
0.0213156 -0.0248252 0.169565 57 42 59
0.0215905 -0.0241396 0.164882 55 40 58
0.0225119 -0.0242018 0.165307 56 41 59
0.0234429 -0.0242692 0.165768 57 42 59
0.0244059 -0.0243638 0.166414 56 40 58
0.0246121 -0.0237224 0.162033 56 39 58
0.026062 -0.0242826 0.165859 55 38 57
0.0267978 -0.0241627 0.16504 56 38 58
0.0269447 -0.0235359 0.160759 55 38 57
0.027638 -0.02341 0.159899 56 40 58
0.029009 -0.0238486 0.162894 56 40 59
0.0303064 -0.0242033 0.165317 57 41 59
0.0313937 -0.0243752 0.166491 56 39 58
0.031512 -0.0238058 0.162602 56 41 58
0.0318495 -0.0234275 0.160018 56 40 58
0.033288 -0.0238578 0.162958 56 40 58
0.0340483 -0.0237927 0.162512 57 41 59
0.035647 -0.0243023 0.165993 56 41 58
0.035891 -0.0238861 0.16315 57 41 58
0.0362841 -0.0235861 0.161102 56 38 56
0.0374265 -0.0237757 0.162397 56 38 55
0.0381747 -0.0237121 0.161962 56 37 55
0.0389101 -0.0236436 0.161494 55 35 54
0.0402069 -0.0239117 0.163325 54 34 53
0.0422034 -0.0245762 0.167864 55 37 54
0.0428193 -0.024426 0.166838 55 36 54
0.0427066 -0.0238745 0.163071 55 37 54
0.0437123 -0.0239575 0.163638 55 36 53
0.0458338 -0.0246372 0.168281 55 34 53
0.0454762 -0.0239837 0.163817 57 37 55
0.0458295 -0.0237224 0.162033 56 36 54
0.0465955 -0.0236804 0.161746 56 34 52
0.0472502 -0.0235843 0.161089 57 35 52
0.0499784 -0.0245085 0.167401 55 30 51
0.0496474 -0.0239264 0.163426 54 27 49
0.0517887 -0.0245353 0.167585 55 28 48
0.0518931 -0.024175 0.165124 57 30 49
0.0530368 -0.0243028 0.165997 53 21 41
0.0550239 -0.0248066 0.169438 51 18 37
0.05434 -0.0241094 0.164676 50 18 37
0.0568201 -0.0248159 0.169501 50 17 36
0.0566289 -0.0243519 0.166332 50 18 37
0.0568769 -0.024088 0.164529 51 18 37
0.0596177 -0.0248719 0.169884 51 18 37
0.0589085 -0.0242146 0.165394 50 18 37
0.0597589 -0.0242082 0.16535 51 20 39
0.0613289 -0.0244892 0.16727 51 19 39
0.0615949 -0.024249 0.165629 55 24 44
0.0622401 -0.0241627 0.16504 57 29 49
0.0640775 -0.0245353 0.167585 58 34 51
0.0646721 -0.0244283 0.166854 59 37 52
0.064465 -0.0240254 0.164102 58 38 52
0.0664725 -0.0244476 0.166986 59 39 53
0.066338 -0.0240813 0.164484 60 43 55
0.0678157 -0.0243021 0.165992 60 43 55
0.0688113 -0.0243467 0.166297 60 41 55
0.0691509 -0.0241611 0.165029 59 41 54
0.0695457 -0.023999 0.163922 60 42 55
0.072543 -0.024728 0.168901 59 41 55
0.0711117 -0.0239481 0.163574 60 43 56
0.0718021 -0.0238927 0.163196 60 44 57
0.0716781 -0.0235709 0.160997 59 43 56
0.0717691 -0.0233264 0.159327 59 42 56
0.0733854 -0.0235775 0.161043 58 42 55
0.075276 -0.0239101 0.163315 57 40 54
0.0744572 -0.0233843 0.159723 57 41 54
0.0754111 -0.0234207 0.159972 57 41 54
0.0762946 -0.0234348 0.160068 57 41 53
0.0767161 -0.0233081 0.159203 56 40 53
0.079212 -0.0238076 0.162614 58 42 54
0.0793884 -0.0236068 0.161243 56 39 52
0.0816557 -0.0240254 0.164102 56 39 53
0.0816695 -0.0237792 0.16242 56 40 53
0.0845058 -0.0243513 0.166328 57 41 54
0.0835157 -0.0238205 0.162702 56 40 53
0.0828371 -0.0233883 0.15975 57 41 54
0.0831622 -0.0232452 0.158773 57 42 54
0.0857596 -0.0237339 0.162111 59 44 55
0.0844136 -0.0231324 0.158002 58 42 54
0.0864004 -0.023447 0.160151 57 40 53
0.0863808 -0.0232162 0.158575 57 41 53
0.0891347 -0.0237282 0.162072 59 44 55
0.089393 -0.0235725 0.161009 59 44 54
0.0887096 -0.0231737 0.158285 59 45 55
0.0903305 -0.0233786 0.159684 56 42 53
0.0922452 -0.0236551 0.161573 58 45 55
0.0929995 -0.0236317 0.161413 59 48 56
0.0945625 -0.0238125 0.162648 59 46 55
0.0953593 -0.0237987 0.162554 58 45 55
0.0954297 -0.0236055 0.161234 59 46 55
0.0987814 -0.0242202 0.165433 58 44 54
0.0981729 -0.0238617 0.162984 58 42 54
0.0980081 -0.0236163 0.161308 59 45 55
0.0993164 -0.023727 0.162064 59 45 55
0.102594 -0.0243023 0.165993 59 44 54
0.0995988 -0.0233946 0.159793 59 43 55
-0.11977 -0.0269018 0.190554 184 223 191
-0.121302 -0.0274747 0.194613 185 222 191
-0.116359 -0.0265786 0.188265 186 222 191
-0.116931 -0.0269374 0.190807 186 223 191
-0.120035 -0.027891 0.197561 185 222 190
-0.113291 -0.026553 0.188083 186 223 192
-0.115916 -0.0274064 0.194129 186 223 192
-0.112135 -0.0267471 0.189458 186 222 191
-0.106703 -0.0256787 0.181891 186 222 191
-0.108186 -0.0262701 0.18608 187 223 192
-0.106805 -0.0261704 0.185374 187 223 193
-0.106416 -0.0263143 0.186393 188 224 193
-0.108662 -0.0271187 0.192091 186 223 192
-0.104361 -0.0262886 0.186211 185 222 191
-0.104027 -0.0264516 0.187366 186 223 192
-0.102045 -0.0261949 0.185547 186 223 192
-0.099303 -0.0257361 0.182297 187 224 193
-0.100101 -0.0261949 0.185547 186 223 192
-0.10159 -0.026845 0.190152 185 223 192
-0.0976591 -0.0260618 0.184605 185 223 192
-0.0975147 -0.0262835 0.186175 186 223 193
-0.0946177 -0.0257603 0.182469 185 223 192
-0.0929674 -0.0255693 0.181116 184 222 191
-0.0942702 -0.0261949 0.185547 184 222 192
-0.0953145 -0.026761 0.189557 184 222 192
-0.0929316 -0.0263666 0.186763 183 222 192
-0.090316 -0.0258971 0.183438 182 222 191
-0.0931194 -0.026988 0.191165 182 222 190
-0.0884443 -0.0259117 0.183541 183 222 192
-0.0886384 -0.0262539 0.185965 183 221 191
-0.0854331 -0.0255857 0.181232 182 221 189
-0.0887281 -0.0268711 0.190337 181 220 189
-0.0860652 -0.0263608 0.186722 177 221 189
-0.0829147 -0.0256877 0.181955 179 222 190
-0.0850231 -0.0266473 0.188751 175 220 186
-0.0819951 -0.0260005 0.184171 177 221 189
-0.0825138 -0.0264765 0.187542 178 220 189
-0.0801237 -0.0260194 0.184304 178 218 186
-0.0808751 -0.0265837 0.188301 176 214 179
-0.0777241 -0.0258633 0.183198 174 210 173
-0.0789472 -0.0265987 0.188407 167 200 165
-0.0766748 -0.0261601 0.185301 165 194 157
-0.0753409 -0.0260345 0.184411 162 186 145
-0.0756552 -0.0264827 0.187586 153 174 129
-0.074627 -0.0264665 0.187471 135 157 108
-0.0727367 -0.02614 0.185159 118 133 98
-0.0746085 -0.027175 0.19249 105 111 86
-0.0703699 -0.0259823 0.184041 91 90 79
-0.0698168 -0.0261361 0.185131 89 85 77
-0.0687889 -0.026114 0.184974 89 85 77
-0.0674806 -0.0259833 0.184049 83 81 74
-0.0681975 -0.0266399 0.188699 80 76 74
-0.0643251 -0.0254968 0.180602 77 73 71
-0.067248 -0.0270532 0.191627 78 74 72
-0.0634531 -0.0259133 0.183552 74 69 69
-0.0610201 -0.0253031 0.17923 74 69 69
-0.0624188 -0.0262875 0.186203 72 64 67
-0.0605424 -0.025902 0.183472 70 62 66
-0.0598434 -0.0260159 0.184279 70 63 66
-0.0578396 -0.0255569 0.181028 67 61 64
-0.057631 -0.0258892 0.183382 66 59 63
-0.0560977 -0.0256276 0.181529 67 58 63
-0.0547197 -0.025429 0.180122 66 58 63
-0.0541306 -0.0255966 0.181309 66 58 63
-0.0535211 -0.0257603 0.182469 63 54 60
-0.0522727 -0.0256168 0.181453 64 55 62
-0.0501786 -0.025046 0.177409 64 55 62
-0.051149 -0.0260121 0.184252 64 54 61
-0.0484411 -0.0251087 0.177854 64 54 60
-0.0483848 -0.0255713 0.18113 62 52 58
-0.0466357 -0.0251398 0.178074 61 49 57
-0.0460757 -0.0253448 0.179526 61 49 56
-0.0445714 -0.0250282 0.177283 63 51 58
-0.0429318 -0.0246204 0.174394 61 48 56
-0.0434532 -0.0254611 0.18035 61 49 56
-0.0423043 -0.0253388 0.179483 61 47 55
-0.0413362 -0.0253216 0.179361 61 46 55
-0.0397791 -0.0249345 0.176619 61 45 54
-0.0405481 -0.0260217 0.18432 60 44 54
-0.0371604 -0.0244293 0.173041 59 40 52
-0.0368469 -0.0248287 0.17587 58 39 51
-0.0359281 -0.0248304 0.175882 57 37 49
-0.0356114 -0.0252592 0.178919 58 36 49
-0.0331099 -0.0241196 0.170847 57 31 48
-0.0333015 -0.024933 0.176609 56 30 47
-0.0322515 -0.0248368 0.175927 55 30 46
-0.0312606 -0.0247817 0.175537 55 30 47
-0.0307251 -0.0250954 0.177759 55 31 47
-0.0287211 -0.0241916 0.171357 55 29 47
-0.0285282 -0.0248043 0.175697 54 27 45
-0.0276056 -0.0248022 0.175682 54 29 46
-0.026416 -0.0245518 0.173908 53 25 45
-0.0253885 -0.0244395 0.173113 53 24 45
-0.0253964 -0.0253526 0.179581 54 29 48
-0.0230119 -0.0238557 0.168978 56 36 52
-0.0222718 -0.024012 0.170085 59 40 54
-0.021589 -0.0242457 0.171741 60 43 56
-0.020506 -0.0240307 0.170217 59 42 56
-0.0200347 -0.0245456 0.173865 60 45 57
-0.0191138 -0.0245325 0.173772 60 44 58
-0.0176886 -0.0238384 0.168856 59 44 58
-0.017421 -0.0247134 0.175053 58 44 58
-0.0159406 -0.0238696 0.169077 59 45 59
-0.0152005 -0.0241003 0.17071 58 44 58
-0.0146686 -0.0247106 0.175033 59 46 59
-0.0133454 -0.0239803 0.16986 59 46 60
-0.0127518 -0.0245503 0.173898 58 45 60
-0.0119557 -0.0247883 0.175583 57 43 58
-0.0108137 -0.0242889 0.172046 58 44 59
-0.0100101 -0.0245278 0.173739 58 44 59
-0.00900887 -0.024282 0.171997 58 43 59
-0.00824332 -0.0246873 0.174868 58 43 60
-0.00727867 -0.0245231 0.173706 58 44 61
-0.00630118 -0.0242626 0.17186 58 44 61
-0.00534309 -0.0240024 0.170017 57 43 60
-0.00452795 -0.0244088 0.172895 57 43 60
-0.00358664 -0.024168 0.17119 57 44 60
-0.00268741 -0.024145 0.171027 58 44 60
-0.00180229 -0.0242889 0.172046 58 44 60
-0.000886666 -0.0238987 0.169282 57 43 59
0 -0.0232171 0.164454 58 45 60
0.000877919 -0.0236629 0.167612 57 44 59
0.00180279 -0.0242957 0.172094 57 43 59
0.00267907 -0.02407 0.170496 57 44 60
0.00353489 -0.0238193 0.16872 59 46 62
0.00445199 -0.0239993 0.169995 60 48 62
0.00515853 -0.0231734 0.164145 60 48 62
0.00627685 -0.0241689 0.171197 60 48 63
0.00698434 -0.0235315 0.166681 59 48 62
0.00774542 -0.0231962 0.164306 60 49 62
0.00880838 -0.0237416 0.16817 59 47 61
0.00964986 -0.0236451 0.167486 59 47 61
0.010602 -0.0238133 0.168678 59 47 61
0.0113239 -0.0234783 0.166304 59 47 61
0.0122961 -0.0236731 0.167684 60 48 62
0.0129887 -0.0233392 0.16532 59 46 61
0.014167 -0.0238655 0.169047 57 43 60
0.0149614 -0.0237212 0.168025 57 43 60
0.0155296 -0.0232543 0.164718 57 43 59
0.016473 -0.0233687 0.165528 57 43 60
0.0177022 -0.0238567 0.168985 56 42 60
0.0186086 -0.023884 0.169178 56 42 60
0.0194582 -0.0238394 0.168862 58 45 61
0.0200488 -0.023495 0.166423 58 43 60
0.0210435 -0.023633 0.167401 55 40 58
0.021773 -0.0234743 0.166276 55 40 58
0.0227864 -0.023622 0.167322 56 41 59
0.0231214 -0.0230815 0.163494 56 41 59
0.0244315 -0.0235182 0.166588 56 41 59
0.0249652 -0.0232033 0.164357 55 39 58
0.0260477 -0.0234025 0.165768 56 40 58
0.0265702 -0.0231019 0.163638 55 39 58
0.0274273 -0.0231019 0.163638 56 40 59
0.028402 -0.0231979 0.164319 56 40 59
0.0293197 -0.0232431 0.164639 56 40 58
0.0300711 -0.0231577 0.164034 56 40 59
0.0310179 -0.0232233 0.164498 57 41 59
0.0317752 -0.0231473 0.16396 55 39 58
0.0326623 -0.0231674 0.164102 55 39 57
0.033566 -0.0231979 0.164319 56 41 57
0.0344562 -0.0232178 0.16446 56 40 58
0.0346487 -0.0227781 0.161345 56 40 58
0.0361071 -0.0231716 0.164132 57 40 58
0.0366279 -0.0229592 0.162628 56 38 56
0.0378265 -0.0231716 0.164132 56 38 56
0.0383989 -0.0229996 0.162914 56 37 55
0.0397485 -0.0232904 0.164974 55 36 54
0.039914 -0.0228897 0.162136 55 37 55
0.0414727 -0.0232881 0.164958 55 37 54
0.042984 -0.0236442 0.16748 56 36 54
0.0432838 -0.0233329 0.165275 55 36 54
0.0426241 -0.0225268 0.159565 55 35 53
0.0443355 -0.0229806 0.16278 54 33 53
0.045626 -0.0232033 0.164357 55 35 53
0.0474671 -0.0236926 0.167823 55 33 52
0.0473998 -0.0232288 0.164538 56 32 51
0.0481357 -0.0231683 0.164108 55 30 50
0.0499152 -0.0236032 0.16719 55 28 49
0.0500829 -0.0232742 0.164859 54 27 49
0.0507794 -0.0231979 0.164319 55 27 47
0.0514027 -0.0230913 0.163563 54 24 45
0.0531546 -0.0234869 0.166365 52 20 40
0.0551057 -0.0239562 0.16969 50 17 35
0.0554078 -0.0237052 0.167912 48 16 33
0.0548642 -0.0231059 0.163667 49 17 35
0.0568714 -0.0235827 0.167044 50 18 36
0.0573687 -0.0234285 0.165952 50 18 37
0.0578413 -0.023269 0.164822 51 19 39
0.0578398 -0.0229262 0.162394 51 19 38
0.0601432 -0.0234937 0.166414 52 20 40
0.0614062 -0.0236444 0.167481 55 25 45
0.0625481 -0.0237449 0.168193 54 23 45
0.0621719 -0.0232742 0.164859 57 31 49
0.0628287 -0.0231979 0.164319 59 38 53
0.0647427 -0.0235816 0.167036 57 35 50
0.0654885 -0.0235352 0.166708 59 39 53
0.0670877 -0.0237927 0.168531 59 40 54
0.0671094 -0.0234913 0.166396 58 40 53
0.0685374 -0.0236835 0.167758 59 41 54
0.0684658 -0.0233593 0.165462 59 41 55
0.0699228 -0.0235582 0.166871 60 43 56
0.0690321 -0.022971 0.162711 59 41 54
0.0698613 -0.0229634 0.162657 59 41 55
0.0718377 -0.0233286 0.165244 59 42 56
0.0725067 -0.0232655 0.164797 60 43 57
0.0729336 -0.0231272 0.163817 59 42 56
0.0753827 -0.0236258 0.16735 59 42 55
0.0743243 -0.0230264 0.163103 59 42 55
0.0772935 -0.0236741 0.167692 59 41 54
0.0737482 -0.0223344 0.158202 59 42 55
0.0767538 -0.0229864 0.16282 58 42 54
0.076987 -0.0228029 0.16152 57 42 54
0.0787554 -0.0230731 0.163435 56 39 52
0.0785181 -0.0227563 0.16119 58 42 54
0.0799848 -0.0229347 0.162454 56 38 52
0.0780865 -0.0221547 0.156929 56 38 52
0.0819967 -0.0230218 0.163071 57 41 54
0.0798556 -0.0221895 0.157175 57 41 55
0.0840429 -0.0231147 0.163729 56 41 54
0.0842582 -0.0229399 0.162491 57 40 53
0.0835205 -0.0225116 0.159457 56 40 53
0.0832139 -0.0222069 0.157299 57 42 54
0.0834437 -0.0220499 0.156187 59 43 55
0.0856907 -0.0224239 0.158836 58 42 54
0.0872071 -0.0226012 0.160092 58 43 54
0.0888166 -0.0227991 0.161494 58 43 54
0.0898291 -0.0228415 0.161794 58 43 55
0.0902948 -0.0227454 0.161113 58 44 54
0.0904222 -0.0225665 0.159846 59 45 55
0.0940348 -0.0232528 0.164708 59 45 55
0.0910797 -0.0223173 0.158081 57 43 53
0.0932304 -0.0226385 0.160356 59 45 54
0.0931218 -0.0224103 0.158739 58 44 54
0.0997823 -0.0238006 0.168588 58 44 54
0.0985516 -0.0233009 0.165048 58 43 54
0.100409 -0.0235337 0.166697 57 41 53
0.101899 -0.023677 0.167712 59 44 55
0.100886 -0.0232413 0.164626 59 44 54
0.101939 -0.0232847 0.164934 59 43 53
0.100242 -0.0227048 0.160826 59 43 53
-0.1181 -0.0255443 0.187898 185 223 191
-0.122639 -0.0267488 0.196758 185 222 190
-0.115881 -0.0254891 0.187492 186 223 191
-0.117596 -0.0260874 0.191893 185 222 191
-0.118197 -0.0264468 0.194536 185 222 190
-0.114797 -0.0259092 0.190582 186 223 191
-0.110999 -0.025272 0.185895 185 222 191
-0.116255 -0.0267028 0.19642 185 222 191
-0.111631 -0.0258695 0.19029 185 222 191
-0.110408 -0.0258167 0.189902 187 223 192
-0.108771 -0.0256651 0.188787 187 224 192
-0.106204 -0.0252892 0.186022 186 223 191
-0.104784 -0.0251822 0.185235 186 223 191
-0.10331 -0.0250601 0.184336 186 223 192
-0.103752 -0.0254046 0.18687 186 223 192
-0.100675 -0.024886 0.183056 186 223 192
-0.0977351 -0.0243916 0.179419 186 223 192
-0.100257 -0.0252638 0.185835 186 223 193
-0.101699 -0.0258785 0.190356 185 223 192
-0.097484 -0.0250516 0.184274 185 223 192
-0.0983282 -0.0255212 0.187728 185 223 192
-0.0976808 -0.0256093 0.188376 185 222 192
-0.0911388 -0.024138 0.177553 185 222 192
-0.0925622 -0.0247677 0.182185 183 222 192
-0.0937005 -0.0253334 0.186347 184 222 192
-0.0936765 -0.0255935 0.18826 184 222 192
-0.0913547 -0.0252247 0.185547 184 223 193
-0.0937301 -0.0261589 0.192419 183 222 192
-0.0899531 -0.0253776 0.186672 183 222 192
-0.0875774 -0.0249789 0.183739 183 221 193
-0.087299 -0.0251762 0.18519 182 220 191
-0.0847286 -0.0247095 0.181757 183 221 192
-0.0865992 -0.025542 0.187881 178 221 190
-0.0858224 -0.0256038 0.188336 178 221 190
-0.0835289 -0.0252094 0.185434 179 222 191
-0.0849114 -0.0259281 0.190721 178 221 191
-0.080556 -0.024891 0.183092 177 220 190
-0.080811 -0.0252706 0.185885 177 221 190
-0.0811101 -0.0256734 0.188848 173 219 187
-0.079047 -0.0253293 0.186317 175 218 187
-0.0769761 -0.0249741 0.183703 178 218 189
-0.0765509 -0.0251505 0.185001 166 211 177
-0.0775672 -0.0258111 0.189861 174 202 169
-0.0746546 -0.0251645 0.185105 171 199 163
-0.0744965 -0.0254417 0.187143 163 190 152
-0.0747527 -0.0258695 0.19029 148 178 136
-0.0699521 -0.0245354 0.180476 135 159 123
-0.0712639 -0.0253379 0.186379 114 133 99
-0.0695632 -0.0250767 0.184458 106 109 77
-0.0690019 -0.0252247 0.185547 99 97 79
-0.0685497 -0.0254174 0.186964 90 100 81
-0.0663297 -0.0249507 0.183531 84 90 76
-0.0653151 -0.0249303 0.183382 83 83 73
-0.0646375 -0.0250399 0.184188 82 79 74
-0.0653767 -0.02571 0.189117 77 73 71
-0.0612965 -0.0244763 0.180042 77 71 70
-0.0642602 -0.0260607 0.191696 76 70 70
-0.0614546 -0.0253185 0.186237 75 68 70
-0.0590317 -0.0247125 0.18178 72 65 67
-0.058264 -0.024791 0.182357 74 67 70
-0.0570599 -0.0246833 0.181564 69 61 65
-0.0563471 -0.0247881 0.182335 68 60 64
-0.0539458 -0.0241409 0.177575 67 59 63
-0.0543365 -0.0247423 0.181999 65 57 61
-0.0526505 -0.0244027 0.179501 64 56 61
-0.0521092 -0.0245909 0.180885 65 57 62
-0.0507616 -0.0243986 0.179471 65 57 62
-0.0508647 -0.0249095 0.183228 63 54 60
-0.0487294 -0.0243226 0.178912 63 54 59
-0.0480578 -0.0244578 0.179906 63 53 59
-0.0469395 -0.0243664 0.179234 63 52 59
-0.0455868 -0.0241472 0.177621 62 50 57
-0.0450259 -0.024347 0.179091 62 51 58
-0.0449439 -0.0248197 0.182568 61 48 56
-0.0427683 -0.0241317 0.177507 61 48 55
-0.0426527 -0.0246012 0.180961 61 47 55
-0.0406502 -0.0239791 0.176385 62 47 56
-0.0402774 -0.0243117 0.178832 60 43 54
-0.0393938 -0.0243445 0.179073 61 45 55
-0.0382606 -0.0242209 0.178164 61 44 54
-0.0375742 -0.0243811 0.179342 59 40 51
-0.0361032 -0.0240273 0.176739 60 41 52
-0.034043 -0.0232524 0.171039 58 35 49
-0.034379 -0.0241166 0.177396 57 33 48
-0.0327664 -0.0236238 0.173771 56 32 47
-0.0325422 -0.0241325 0.177513 55 28 45
-0.0312606 -0.0238639 0.175537 54 27 45
-0.0303546 -0.0238745 0.175615 55 29 47
-0.0297576 -0.0241363 0.177541 55 29 46
-0.028869 -0.0241709 0.177796 54 27 46
-0.0270352 -0.0233901 0.172052 54 28 46
-0.0264486 -0.0236717 0.174123 54 28 47
-0.0252406 -0.0233973 0.172105 53 27 46
-0.02385 -0.022927 0.168646 57 39 53
-0.0234526 -0.0234121 0.172214 57 39 54
-0.0229116 -0.023787 0.174971 58 41 55
-0.0220417 -0.0238373 0.175342 61 45 57
-0.0207481 -0.0234139 0.172227 60 44 57
-0.0199456 -0.0235314 0.173092 60 45 58
-0.0185582 -0.0229371 0.16872 60 44 58
-0.0181873 -0.0236027 0.173616 59 44 58
-0.0171916 -0.0234848 0.172749 59 45 59
-0.0160672 -0.0231682 0.17042 59 46 59
-0.0152388 -0.0232663 0.171141 58 44 58
-0.0144886 -0.0235034 0.172886 58 44 58
-0.0133571 -0.0231124 0.170009 57 43 58
-0.0124875 -0.023151 0.170293 58 45 60
-0.0115218 -0.0230038 0.169211 59 46 60
-0.0108083 -0.0233776 0.17196 58 44 59
-0.00974483 -0.0229935 0.169135 59 45 60
-0.00920641 -0.0238954 0.175769 58 44 60
-0.00792061 -0.0228423 0.168023 59 44 61
-0.00725419 -0.0235355 0.173121 58 44 61
-0.00628379 -0.0232995 0.171386 57 43 60
-0.00521727 -0.0225692 0.166014 56 42 59
-0.00439459 -0.0228124 0.167803 58 45 61
-0.00356046 -0.0231031 0.169941 58 45 60
-0.00262741 -0.0227316 0.167208 58 44 60
-0.00182069 -0.0236281 0.173803 58 44 60
-0.000882814 -0.0229136 0.168547 57 44 60
0 -0.0226643 0.166713 58 45 60
0.000878581 -0.0228037 0.167739 58 45 60
0.00174807 -0.0226857 0.166871 58 44 60
0.00262941 -0.0227489 0.167336 59 47 62
0.00346707 -0.022497 0.165483 59 46 62
0.00435718 -0.0226182 0.166374 59 47 62
0.00532912 -0.023053 0.169573 60 48 62
0.0062562 -0.0231972 0.170633 60 48 62
0.00714156 -0.02317 0.170433 59 47 62
0.0078528 -0.0226467 0.166584 59 47 62
0.00879302 -0.0228224 0.167876 59 46 61
0.00968922 -0.0228623 0.16817 59 47 61
0.0103445 -0.0223745 0.164581 59 47 61
0.0113886 -0.0227379 0.167255 60 47 62
0.0122564 -0.0227226 0.167142 60 48 62
0.012916 -0.0223491 0.164395 59 46 61
0.0140616 -0.0228107 0.16779 57 44 60
0.0147303 -0.0224898 0.16543 57 44 60
0.0157877 -0.0227651 0.167455 57 43 60
0.0167273 -0.0228505 0.168083 58 44 61
0.017556 -0.0227834 0.16759 56 42 60
0.0186159 -0.0230085 0.169245 57 43 60
0.0195542 -0.0230696 0.169695 57 42 60
0.019856 -0.0224071 0.164822 56 41 58
0.0208436 -0.0225416 0.165811 55 41 58
0.021773 -0.0226049 0.166276 56 41 59
0.0226746 -0.0226355 0.166501 55 40 58
0.0235589 -0.0226472 0.166588 55 41 59
0.0244972 -0.0227082 0.167036 55 40 59
0.0252966 -0.0226406 0.166539 56 40 59
0.0259114 -0.0224178 0.1649 55 40 58
0.0271138 -0.0227014 0.166986 56 40 58
0.0276252 -0.0224067 0.164819 55 39 58
0.0283775 -0.0223194 0.164177 56 40 58
0.0292441 -0.0223246 0.164214 57 41 59
0.0302966 -0.0224672 0.165264 57 40 58
0.0314558 -0.0226789 0.16682 57 41 59
0.0308555 -0.0216448 0.159214 57 42 59
0.0328011 -0.0224041 0.1648 56 41 58
0.0333112 -0.0221691 0.163071 56 41 57
0.0348061 -0.022585 0.16613 56 40 58
0.0351264 -0.0222368 0.163569 56 40 58
0.0358458 -0.022152 0.162945 57 42 59
0.0364332 -0.0219914 0.161764 56 39 57
0.0381018 -0.0224758 0.165327 56 39 56
0.0386533 -0.0222945 0.163993 55 37 56
0.0390781 -0.0220495 0.162191 56 37 56
0.0404921 -0.0223612 0.164484 56 38 56
0.041177 -0.0222657 0.163782 56 37 55
0.0420714 -0.0222851 0.163924 55 35 54
0.0424448 -0.0220332 0.162071 55 36 54
0.0426241 -0.0216924 0.159565 55 36 54
0.0458954 -0.0229081 0.168507 56 36 54
0.0449808 -0.022028 0.162033 55 34 53
0.0453811 -0.0218125 0.160447 56 35 53
0.0479125 -0.0226105 0.166317 56 33 52
0.0483385 -0.0224041 0.1648 55 30 49
0.048876 -0.0222559 0.163709 55 29 49
0.0490376 -0.0219444 0.161418 55 26 48
0.0519766 -0.0228654 0.168193 55 26 47
0.0514373 -0.022251 0.163673 54 24 44
0.0530074 -0.0225544 0.165905 51 19 38
0.0535176 -0.0224041 0.1648 51 18 37
0.0543943 -0.0224097 0.164841 49 16 33
0.0564338 -0.0228867 0.168349 49 16 34
0.0565955 -0.0225991 0.166234 50 17 36
0.0580855 -0.0228427 0.168025 50 18 37
0.0589857 -0.0228505 0.168083 53 21 41
0.0586091 -0.0223707 0.164554 53 21 41
0.060529 -0.0227687 0.167481 54 22 43
0.0605733 -0.0224598 0.165209 55 26 46
0.0625208 -0.0228554 0.168119 57 30 48
0.0632109 -0.0227868 0.167614 59 37 53
0.0633827 -0.0225357 0.165768 59 39 54
0.0656026 -0.0230098 0.169255 59 39 53
0.0653324 -0.0226095 0.16631 59 41 54
0.0656489 -0.0224201 0.164917 58 39 53
0.0657425 -0.0221605 0.163007 60 43 56
0.0673996 -0.0224278 0.164974 59 41 55
0.0666615 -0.0219014 0.161102 60 43 56
0.0690944 -0.0224169 0.164894 60 44 56
0.0685052 -0.0219514 0.161469 60 44 55
0.0719101 -0.0227614 0.167428 59 42 55
0.0717969 -0.0224518 0.16515 58 41 55
0.0724463 -0.0223852 0.16466 59 42 56
0.072054 -0.022002 0.161842 59 42 55
0.0729926 -0.0220295 0.162044 59 42 55
0.0744054 -0.0221977 0.163281 59 43 55
0.0737182 -0.0217428 0.159935 58 42 54
0.0748341 -0.0218239 0.160532 57 40 53
0.0761902 -0.0219725 0.161625 57 39 52
0.0766456 -0.021861 0.160804 56 39 52
0.0778988 -0.0219769 0.161657 56 39 52
0.0791655 -0.0220941 0.162519 57 40 52
0.0807755 -0.0223036 0.16406 56 38 51
0.0810582 -0.0221461 0.162901 56 39 52
0.0801412 -0.0216675 0.159381 57 41 54
0.0811109 -0.0217036 0.159646 57 40 54
0.0817795 -0.0216592 0.15932 56 41 54
0.0831119 -0.0217897 0.16028 57 42 54
0.0842744 -0.0218735 0.160897 58 42 54
0.0843564 -0.021678 0.159459 57 39 53
0.0842059 -0.0214272 0.157614 56 39 52
0.0857211 -0.021601 0.158892 58 42 54
0.0857574 -0.0214024 0.157431 58 42 54
0.0896968 -0.0221723 0.163094 57 41 54
0.0901956 -0.0220853 0.162454 58 41 54
0.0927921 -0.0225087 0.165569 59 44 55
0.08995 -0.0216173 0.159012 59 45 55
0.0946399 -0.0225357 0.165768 59 45 55
0.0954273 -0.0225166 0.165627 58 43 54
0.0973655 -0.022767 0.167469 58 43 54
0.0942162 -0.0218339 0.160605 58 43 54
0.0977965 -0.022463 0.165233 59 44 54
0.0981437 -0.022345 0.164365 58 42 54
0.103416 -0.0233407 0.171689 57 40 52
0.0996922 -0.0223062 0.16408 58 41 54
0.102603 -0.0227614 0.167428 58 42 54
0.100945 -0.0222037 0.163325 58 41 53
0.0972084 -0.0212022 0.155958 57 40 52
-0.117773 -0.0244937 0.187377 184 222 191
-0.117439 -0.0246295 0.188416 186 222 190
-0.116297 -0.0245967 0.188165 186 223 191
-0.117211 -0.0250019 0.191265 185 222 189
-0.11189 -0.0240726 0.184156 185 222 189
-0.113291 -0.0245861 0.188083 187 223 192
-0.112053 -0.0245307 0.18766 187 224 193
-0.109726 -0.0242337 0.185388 187 223 192
-0.109941 -0.024498 0.18741 186 223 191
-0.108851 -0.0244736 0.187223 186 223 191
-0.105785 -0.0240005 0.183604 186 223 191
-0.106183 -0.0243119 0.185986 186 222 191
-0.105203 -0.0243105 0.185975 187 223 192
-0.102659 -0.0239444 0.183175 186 223 192
-0.10212 -0.0240433 0.183931 186 223 192
-0.0989988 -0.0235305 0.180008 185 222 191
-0.0996575 -0.0239148 0.182948 184 222 190
-0.100656 -0.024389 0.186576 185 223 191
-0.0991295 -0.0242545 0.185547 184 223 191
-0.0979566 -0.0242048 0.185167 184 223 191
-0.0960278 -0.0239655 0.183336 185 223 192
-0.0926725 -0.0233618 0.178718 185 222 192
-0.092353 -0.0235188 0.179919 185 223 192
-0.0928089 -0.0238785 0.182671 186 223 194
-0.0911749 -0.0237025 0.181324 185 223 193
-0.0925676 -0.0243179 0.186032 184 222 192
-0.091651 -0.0243332 0.186149 184 223 193
-0.0865489 -0.0232257 0.177676 183 222 192
-0.0883675 -0.0239715 0.183382 184 222 192
-0.0893466 -0.0245034 0.187451 183 221 193
-0.0874672 -0.0242545 0.185547 184 221 193
-0.085449 -0.0239611 0.183303 183 221 192
-0.0850852 -0.0241302 0.184596 180 221 189
-0.0828128 -0.0237557 0.181731 182 222 192
-0.0832937 -0.0241715 0.184912 182 222 192
-0.0849908 -0.0249542 0.190899 178 220 191
-0.0825369 -0.0245222 0.187594 177 219 189
-0.0795086 -0.0239071 0.182889 176 221 190
-0.0787785 -0.0239764 0.183419 178 222 192
-0.0786776 -0.0242413 0.185446 177 220 190
-0.076654 -0.023913 0.182935 176 219 189
-0.0754506 -0.0238356 0.182342 178 220 192
-0.0762628 -0.024401 0.186668 176 217 188
-0.076071 -0.0246558 0.188617 176 212 178
-0.0746026 -0.024498 0.18741 174 208 171
-0.0735467 -0.0244733 0.187221 176 203 170
-0.0711705 -0.0240026 0.18362 163 195 159
-0.0698254 -0.0238716 0.182617 150 187 142
-0.0712772 -0.0247063 0.189003 140 178 124
-0.0676474 -0.0237784 0.181905 120 144 105
-0.0673806 -0.024023 0.183776 106 126 94
-0.0665711 -0.0240784 0.184199 88 100 79
-0.0649387 -0.0238333 0.182325 87 98 79
-0.0652428 -0.0243023 0.185913 82 94 76
-0.0639771 -0.0241919 0.185068 79 84 74
-0.0618844 -0.0237606 0.181769 82 78 76
-0.0614451 -0.0239606 0.183298 76 70 70
-0.0585676 -0.023201 0.177488 74 73 72
-0.05829 -0.0234635 0.179496 74 71 70
-0.0594514 -0.0243233 0.186073 71 65 66
-0.0561321 -0.023348 0.178612 71 64 67
-0.0564011 -0.0238575 0.18251 68 61 64
-0.0540703 -0.0232659 0.177984 67 60 64
-0.0541578 -0.0237124 0.1814 69 61 65
-0.0531486 -0.0236861 0.181199 67 59 63
-0.0522808 -0.023723 0.181481 65 57 61
-0.051377 -0.0237446 0.181646 64 55 60
-0.0508128 -0.0239269 0.183041 65 56 61
-0.0493868 -0.0237027 0.181326 64 55 61
-0.0480792 -0.0235276 0.179986 63 54 60
-0.0477666 -0.0238421 0.182392 62 53 59
-0.0458543 -0.0233547 0.178663 63 52 59
-0.0441707 -0.0229659 0.175689 62 51 58
-0.0441184 -0.0234267 0.179214 62 51 57
-0.0436412 -0.0236771 0.18113 61 48 55
-0.042241 -0.0234267 0.179214 63 50 57
-0.0412249 -0.0233828 0.178879 60 45 53
-0.0404388 -0.0234704 0.179548 59 43 53
-0.0387068 -0.023 0.17595 60 44 54
-0.0377128 -0.0229559 0.175613 57 38 50
-0.0375396 -0.0234218 0.179176 59 40 52
-0.0360106 -0.0230439 0.176286 60 40 51
-0.035461 -0.0232894 0.178164 56 33 47
-0.0333516 -0.022496 0.172094 56 32 47
-0.0341794 -0.0236948 0.181265 54 28 44
-0.0325852 -0.023235 0.177748 56 32 47
-0.0319297 -0.0234372 0.179295 56 33 48
-0.0303934 -0.0229856 0.175839 56 34 48
-0.0285955 -0.0223017 0.170608 56 33 48
-0.0286857 -0.0230937 0.176667 55 32 48
-0.0267503 -0.0222535 0.170239 53 31 47
-0.0266425 -0.022928 0.1754 56 33 50
-0.0255978 -0.0228157 0.17454 56 34 50
-0.0242999 -0.0224611 0.171828 57 39 53
-0.0235915 -0.022645 0.173234 58 42 55
-0.0230018 -0.0229621 0.17566 60 45 57
-0.0219252 -0.0227993 0.174415 60 45 57
-0.0213026 -0.0231151 0.17683 59 44 57
-0.0200385 -0.0227317 0.173898 59 44 57
-0.0187856 -0.0223253 0.170788 59 44 58
-0.0179055 -0.0223432 0.170926 59 44 58
-0.0168543 -0.0221384 0.169359 59 45 59
-0.0162296 -0.0225022 0.172142 59 45 59
-0.0152893 -0.0224455 0.171708 58 44 58
-0.0144111 -0.0224785 0.17196 59 45 59
-0.0134198 -0.0223278 0.170807 57 43 59
-0.0125736 -0.0224141 0.171468 57 43 58
-0.0116905 -0.022443 0.171689 60 46 60
-0.0106814 -0.0222145 0.169941 57 42 59
-0.0100548 -0.0228124 0.174515 58 44 59
-0.00915144 -0.0228391 0.174719 58 44 59
-0.00821677 -0.022785 0.174305 58 44 61
-0.00721618 -0.0225117 0.172214 57 43 60
-0.00632259 -0.0225417 0.172444 58 44 61
-0.00531519 -0.0221084 0.169129 57 43 60
-0.00459714 -0.022946 0.175537 59 46 61
-0.0036366 -0.0226895 0.173575 58 44 60
-0.00262055 -0.0218002 0.166772 58 44 60
-0.00181592 -0.0226599 0.173348 58 43 60
-0.000902766 -0.0225302 0.172356 58 45 61
0 -0.0220214 0.168464 57 44 60
0.000878917 -0.021935 0.167803 57 43 60
0.00170946 -0.0213314 0.163185 57 43 60
0.00262513 -0.0218383 0.167063 58 44 61
0.00344267 -0.0214796 0.164319 58 45 61
0.00433383 -0.0216318 0.165483 58 46 62
0.00524842 -0.0218307 0.167005 59 47 62
0.00597271 -0.0212943 0.162901 59 47 62
0.00703968 -0.0219611 0.168002 58 46 61
0.00795988 -0.0220726 0.168856 58 46 61
0.00890436 -0.0222225 0.170002 59 47 61
0.0093619 -0.0212403 0.162488 58 46 61
0.0105923 -0.0220291 0.168523 58 45 60
0.0114662 -0.0220123 0.168394 58 45 60
0.0125046 -0.0222912 0.170528 59 45 61
0.0130346 -0.0216869 0.165905 56 41 59
0.0138059 -0.0215345 0.164739 58 46 61
0.0144513 -0.0212153 0.162297 58 45 61
0.0159622 -0.0221315 0.169306 57 42 59
0.0169264 -0.0222331 0.170083 56 42 59
0.0172857 -0.0215698 0.165009 58 46 61
0.0184881 -0.0219716 0.168083 57 43 60
0.0190024 -0.0215564 0.164906 56 41 59
0.020196 -0.0219143 0.167645 56 41 59
0.0211387 -0.0219815 0.168159 56 41 58
0.0219133 -0.0218754 0.167347 56 42 59
0.0223487 -0.0214521 0.164108 57 43 60
0.0234037 -0.0216327 0.16549 57 43 60
0.0251861 -0.0224488 0.171733 56 41 59
0.0255113 -0.0219546 0.167952 55 40 59
0.0258766 -0.0215266 0.164679 55 40 58
0.0273514 -0.0220195 0.168449 56 40 58
0.0280494 -0.0218758 0.16735 56 39 58
0.0283528 -0.0214423 0.164034 55 40 58
0.0293484 -0.0215424 0.1648 57 42 59
0.0301059 -0.0214671 0.164223 56 40 58
0.0303886 -0.0210668 0.161161 55 39 57
0.0320362 -0.0216087 0.165307 55 39 57
0.0329386 -0.0216327 0.16549 56 42 58
0.0335604 -0.0214759 0.164291 57 43 59
0.0337551 -0.0210605 0.161113 56 40 58
0.0342968 -0.0208766 0.159706 56 39 57
0.0365168 -0.0216987 0.165995 56 39 57
0.0372146 -0.0215991 0.165233 56 39 57
0.0384841 -0.0218282 0.166986 57 40 57
0.0387963 -0.0215163 0.1646 56 40 57
0.0394956 -0.021428 0.163924 56 38 56
0.0408306 -0.021681 0.165859 56 38 55
0.0419161 -0.0217936 0.166721 57 39 56
0.0415191 -0.0211467 0.161772 54 35 53
0.0435673 -0.0217461 0.166357 55 35 53
0.0430377 -0.0210605 0.161113 54 34 53
0.0448359 -0.0215185 0.164617 54 33 52
0.0447387 -0.0210668 0.161161 55 35 53
0.0465312 -0.021505 0.164514 55 33 51
0.0471293 -0.0213855 0.163599 54 30 50
0.0480185 -0.0213999 0.163709 55 30 50
0.0492563 -0.0215664 0.164983 54 26 48
0.0494606 -0.0212825 0.162811 53 23 46
0.05058 -0.0213952 0.163673 54 21 43
0.0513352 -0.0213527 0.163348 53 21 42
0.0540171 -0.0221 0.169065 50 18 36
0.0541021 -0.0217777 0.1666 50 17 36
0.0547911 -0.021705 0.166043 47 15 31
0.0547038 -0.0213318 0.163188 48 16 33
0.0567071 -0.0217728 0.166562 49 17 35
0.0575487 -0.0217611 0.166473 51 18 38
0.0590998 -0.0220141 0.168408 53 21 42
0.0576118 -0.0211443 0.161754 54 21 42
0.0585908 -0.0211919 0.162118 54 21 43
0.0604159 -0.0215399 0.16478 55 25 45
0.0609892 -0.021438 0.164001 57 31 48
0.0626015 -0.0216991 0.165998 57 35 51
0.0629581 -0.0215238 0.164657 59 38 53
0.063467 -0.0214045 0.163745 59 41 54
0.0650303 -0.0216394 0.165541 59 41 54
0.0639937 -0.0210142 0.160759 59 42 55
0.0671284 -0.0217573 0.166444 59 42 55
0.0682015 -0.0218217 0.166936 59 43 55
0.0674501 -0.0213081 0.163007 59 42 55
0.0686871 -0.0214277 0.163922 59 42 55
0.0713715 -0.0219902 0.168225 59 43 55
0.0705105 -0.02146 0.164169 60 43 56
0.0702292 -0.0211169 0.161544 58 41 55
0.0701972 -0.020856 0.159548 58 40 54
0.0742636 -0.0218046 0.166805 59 42 55
0.070873 -0.0205671 0.157338 57 40 54
0.0738236 -0.0211771 0.162005 57 40 53
0.0757802 -0.0214913 0.164408 57 41 53
0.0769617 -0.0215811 0.165096 55 38 51
0.0762682 -0.0211491 0.16179 58 41 54
0.0797491 -0.0218713 0.167315 56 39 52
0.0775 -0.0210234 0.160829 55 38 51
0.0806409 -0.0216403 0.165548 57 40 52
0.0800685 -0.0212581 0.162624 56 38 51
0.0806807 -0.0211951 0.162143 57 41 54
0.0808985 -0.021031 0.160887 57 40 53
0.0794503 -0.0204415 0.156378 57 40 54
0.081161 -0.0206686 0.158115 57 40 54
0.0845591 -0.0213165 0.163071 57 40 53
0.0847124 -0.0211416 0.161733 58 41 53
0.0846361 -0.0209134 0.159987 58 41 53
0.0862981 -0.021115 0.16153 58 40 53
0.0859906 -0.0208355 0.159391 57 39 53
0.0870852 -0.0208978 0.159868 57 40 54
0.0868553 -0.0206441 0.157928 57 40 53
0.0874066 -0.0205792 0.157431 59 42 54
0.0922779 -0.021523 0.164651 60 44 56
0.0950598 -0.0219666 0.168045 58 42 53
0.0931282 -0.0213228 0.16312 58 43 54
0.0916523 -0.0207941 0.159075 58 43 54
0.0979329 -0.0220189 0.168445 57 40 53
0.0953854 -0.0212547 0.162598 57 40 53
0.0971334 -0.0214526 0.164112 59 44 54
0.0972408 -0.0212879 0.162853 59 43 54
0.101182 -0.0219582 0.16798 56 38 51
0.101406 -0.0218171 0.166901 56 38 52
0.102089 -0.0217763 0.166589 55 36 50
0.0998735 -0.0211231 0.161592 57 39 52
0.102886 -0.0215774 0.165067 57 39 51
-0.120743 -0.0241069 0.192102 182 220 188
-0.122659 -0.0246953 0.19679 184 221 189
-0.114239 -0.0231949 0.184835 184 222 189
-0.116131 -0.0237807 0.189502 184 222 188
-0.112236 -0.0231811 0.184724 185 222 190
-0.114029 -0.0237564 0.189309 184 222 189
-0.113113 -0.0237721 0.189434 184 222 190
-0.116034 -0.0246018 0.196046 185 223 191
-0.108762 -0.0232659 0.1854 187 223 192
-0.108627 -0.0234463 0.186838 186 223 192
-0.108262 -0.02358 0.187903 186 223 191
-0.106561 -0.0234226 0.186649 186 223 191
-0.101633 -0.022546 0.179664 186 223 192
-0.104348 -0.0233649 0.186189 185 223 191
-0.103433 -0.0233783 0.186296 187 223 193
-0.10191 -0.0232534 0.185301 187 223 193
-0.101599 -0.0234054 0.186512 187 223 193
-0.100165 -0.0232992 0.185666 185 223 192
-0.0998115 -0.0234445 0.186824 185 223 192
-0.0952191 -0.0225873 0.179992 184 223 191
-0.0988498 -0.023683 0.188724 185 223 192
-0.0972533 -0.0235359 0.187552 185 223 192
-0.0963722 -0.0235606 0.187749 183 222 192
-0.0947146 -0.0233941 0.186422 185 223 193
-0.0916981 -0.022885 0.182365 185 223 193
-0.0879996 -0.0221931 0.176851 185 223 192
-0.0903089 -0.0230178 0.183423 185 224 194
-0.0912282 -0.0235021 0.187283 183 222 192
-0.08736 -0.0227502 0.181291 183 222 192
-0.087553 -0.0230511 0.183688 183 222 192
-0.0876099 -0.0233223 0.18585 184 222 193
-0.0854687 -0.023008 0.183345 183 222 192
-0.0846101 -0.0230357 0.183565 182 222 191
-0.084061 -0.0231492 0.18447 181 222 192
-0.0843632 -0.0235026 0.187286 181 222 193
-0.0818349 -0.0230665 0.183811 182 223 193
-0.0812967 -0.0231876 0.184776 181 223 193
-0.0804152 -0.0232125 0.184974 180 221 192
-0.0787927 -0.0230215 0.183452 179 221 191
-0.0802514 -0.0237372 0.189156 179 221 191
-0.0757046 -0.0226722 0.180669 177 220 191
-0.0774847 -0.023499 0.187258 178 220 192
-0.0763865 -0.023463 0.186971 174 218 187
-0.0740601 -0.0230438 0.18363 177 219 185
-0.0729992 -0.0230126 0.183382 178 218 184
-0.0739879 -0.0236353 0.188344 177 215 181
-0.0712095 -0.0230551 0.18372 175 215 181
-0.0702348 -0.0230511 0.183688 168 209 171
-0.0675544 -0.0224793 0.179132 168 202 162
