ply
format ascii 1.0
element vertex 1217
property float x
property float y
property float z
property uchar red
property uchar green
property uchar blue
end_header
-0.142873 -0.418965 1.70483 180 218 191
-0.127009 -0.397275 1.61657 188 220 195
-0.123184 -0.412833 1.67988 182 217 187
-0.110075 -0.397275 1.61657 192 225 200
-0.100388 -0.392509 1.59718 196 227 204
-0.0966315 -0.412167 1.67717 176 217 189
-0.083657 -0.392509 1.59718 188 223 201
-0.0770452 -0.401653 1.63439 182 220 196
-0.0708163 -0.415328 1.69003 188 223 200
-0.0619642 -0.415328 1.69003 180 219 194
-0.0527081 -0.412167 1.67717 167 213 182
-0.0430648 -0.40411 1.64438 193 227 201
-0.0357183 -0.418965 1.70483 206 235 217
-0.0260207 -0.406954 1.65596 164 213 185
-0.0175341 -0.41134 1.6738 185 219 192
-0.00867357 -0.406954 1.65596 195 225 200
0 -0.381635 1.55293 163 210 174
0.00825493 -0.387312 1.57603 197 228 204
0.0162679 -0.381635 1.55293 193 225 200
0.0244018 -0.381635 1.55293 195 225 202
0.0336295 -0.394465 1.60514 169 210 179
0.0442092 -0.414849 1.68808 175 215 186
0.0513635 -0.401653 1.63439 198 227 205
0.0619642 -0.415328 1.69003 173 215 185
0.0674081 -0.395339 1.60869 186 221 195
0.0746027 -0.388919 1.58257 164 208 174
0.083657 -0.392509 1.59718 194 225 201
0.093664 -0.39951 1.62567 189 224 199
0.101112 -0.395339 1.60869 164 209 175
0.112756 -0.406954 1.65596 180 217 186
0.117703 -0.394465 1.60514 189 222 197
0.123385 -0.38594 1.57045 170 212 182
0.133278 -0.390827 1.59033 171 213 182
0.150485 -0.415328 1.69003 171 214 183
0.156124 -0.406954 1.65596 192 225 205
0.163646 -0.40411 1.64438 190 225 199
0.173471 -0.406954 1.65596 174 215 183
0.184108 -0.41134 1.6738 176 214 181
0.19452 -0.414849 1.68808 171 212 178
0.195843 -0.39951 1.62567 168 212 177
0.21431 -0.418965 1.70483 180 219 194
0.215324 -0.40411 1.64438 206 233 216
0.225513 -0.406954 1.65596 170 215 188
0.237186 -0.412167 1.67717 182 220 190
0.254812 -0.426981 1.73745 185 223 194
0.248257 -0.401653 1.63439 188 224 199
0.258389 -0.40411 1.64438 186 223 199
0.265378 -0.401653 1.63439 186 223 197
0.264158 -0.387312 1.57603 186 221 194
0.289312 -0.41134 1.6738 186 223 198
0.295887 -0.408315 1.66149 164 214 180
0.302626 -0.405683 1.65078 187 225 196
0.299874 -0.390827 1.59033 195 227 203
0.32438 -0.41134 1.6738 199 228 204
0.316534 -0.390827 1.59033 215 236 219
0.348253 -0.418965 1.70483 189 222 197
0.350681 -0.41134 1.6738 181 218 188
0.362515 -0.414849 1.68808 166 211 176
0.375042 -0.418965 1.70483 203 232 213
0.376983 -0.41134 1.6738 181 221 194
0.38575 -0.41134 1.6738 170 214 182
0.387583 -0.40411 1.64438 189 224 199
0.403284 -0.41134 1.6738 199 228 206
0.416046 -0.415328 1.69003 181 217 189
0.435889 -0.426072 1.73375 192 223 198
0.429585 -0.41134 1.6738 204 230 210
0.430648 -0.40411 1.64438 181 218 192
0.443831 -0.408315 1.66149 193 225 202
0.456803 -0.412167 1.67717 179 218 189
0.464653 -0.41134 1.6738 171 211 178
0.47801 -0.415328 1.69003 202 227 207
0.491126 -0.418965 1.70483 173 211 184
0.490954 -0.41134 1.6738 210 233 214
0.51351 -0.42269 1.71999 182 218 187
0.522519 -0.42269 1.71999 181 217 186
0.526844 -0.418965 1.70483 176 214 184
0.540537 -0.42269 1.71999 181 219 191
0.55956 -0.430393 1.75133 179 218 189
0.57651 -0.436278 1.77528 170 214 183
0.592371 -0.441165 1.79517 215 239 225
0.551229 -0.40411 1.64438 187 225 205
0.600526 -0.433477 1.76388 173 212 185
0.605426 -0.430393 1.75133 202 228 209
0.614599 -0.430393 1.75133 206 231 213
0.61751 -0.426072 1.73375 205 230 210
0.61614 -0.418965 1.70483 174 211 177
0.637029 -0.426981 1.73745 202 230 208
0.633999 -0.418965 1.70483 188 223 199
0.642929 -0.418965 1.70483 185 221 194
0.667711 -0.429154 1.74629 204 230 210
0.660788 -0.418965 1.70483 189 223 199
0.669717 -0.418965 1.70483 185 215 188
0.685495 -0.423193 1.72203 191 219 194
0.70633 -0.430393 1.75133 190 220 195
0.72885 -0.438421 1.784 206 231 211
0.720913 -0.428158 1.74224 195 227 204
0.706284 -0.414226 1.68555 207 233 213
0.716189 -0.414849 1.68808 183 219 191
0.732224 -0.418965 1.70483 173 212 181
0.7498 -0.423853 1.72472 172 212 180
0.750084 -0.418965 1.70483 204 233 216
0.766672 -0.423193 1.72203 185 226 204
0.815302 -0.444803 1.80997 174 212 183
0.793917 -0.428158 1.74224 182 215 189
0.806007 -0.429738 1.74867 178 214 184
0.836842 -0.441165 1.79517 168 211 178
0.814771 -0.424757 1.7284 183 220 191
0.801758 -0.41338 1.68211 211 236 217
0.832877 -0.424757 1.7284 208 235 215
0.819379 -0.41338 1.68211 200 229 207
0.865439 -0.431973 1.75776 178 218 188
0.884699 -0.436938 1.77797 203 232 211
0.843329 -0.412167 1.67717 201 231 211
0.88086 -0.426072 1.73375 195 228 206
0.902266 -0.431973 1.75776 198 230 208
0.824655 -0.390827 1.59033 193 227 203
0.874451 -0.410283 1.6695 178 217 187
0.949675 -0.441165 1.79517 193 227 204
0.896037 -0.412167 1.67717 201 232 212
0.955765 -0.435373 1.7716 197 228 209
0.88555 -0.39951 1.62567 182 218 191
0.863696 -0.38594 1.57045 186 221 195
0.90258 -0.39951 1.62567 188 225 201
0.880148 -0.38594 1.57045 200 233 212
0.848523 -0.368627 1.5 201 234 213
0.907953 -0.390827 1.59033 186 226 199
0.916283 -0.390827 1.59033 193 228 203
0.872093 -0.368627 1.5 202 233 210
0.759788 -0.318289 1.29517 186 226 198
0.591871 -0.245752 1 202 233 210
0.373591 -0.153758 0.625666 199 230 205
0.395114 -0.161203 0.655958 216 237 218
0.531232 -0.214869 0.874334 196 227 202
0.431937 -0.173214 0.704833 180 222 193
0.374011 -0.148713 0.605137 196 230 206
0.347623 -0.13706 0.557716 213 241 227
-0.514979 -0.197068 0.819331 194 222 186
-0.48618 -0.187611 0.780012 195 220 187
-0.50061 -0.194816 0.80997 195 220 188
-0.469575 -0.184301 0.76625 196 221 190
-0.460404 -0.182259 0.757762 196 221 190
-0.470809 -0.187998 0.781624 194 220 188
-0.49479 -0.199308 0.828643 197 222 189
-0.479398 -0.194816 0.80997 197 222 190
-0.479055 -0.196415 0.816618 197 222 190
-0.478389 -0.197909 0.822829 195 221 189
-0.472064 -0.197068 0.819331 197 223 191
-0.491443 -0.20704 0.860791 196 222 190
-0.477459 -0.203011 0.844042 199 223 192
-0.46661 -0.200253 0.832572 196 221 189
-0.462249 -0.200253 0.832572 197 223 191
-0.473408 -0.20704 0.860791 196 222 190
-0.46608 -0.205795 0.855615 193 220 187
-0.461598 -0.205795 0.855615 199 224 193
-0.453699 -0.204256 0.849217 200 225 193
-0.469505 -0.213465 0.887504 199 224 191
-0.434026 -0.199308 0.828643 198 223 191
-0.446356 -0.20704 0.860791 200 225 194
-0.453467 -0.212485 0.883428 198 224 192
-0.460494 -0.218002 0.906367 198 224 192
-0.455747 -0.218002 0.906367 198 224 192
-0.449235 -0.217149 0.90282 196 223 189
-0.446252 -0.218002 0.906367 200 226 195
-0.463307 -0.228767 0.951125 199 225 192
-0.44524 -0.222236 0.923969 198 224 191
-0.441781 -0.222933 0.926867 197 224 191
-0.425591 -0.217149 0.90282 198 225 192
-0.44338 -0.228767 0.951125 198 225 193
-0.414371 -0.216229 0.898997 198 225 193
-0.431569 -0.227792 0.947071 199 225 193
-0.416202 -0.222236 0.923969 200 225 193
-0.4068 -0.219771 0.91372 198 225 192
-0.402014 -0.219771 0.91372 198 225 193
-0.422711 -0.23387 0.972338 198 225 193
-0.417619 -0.23387 0.972338 200 226 195
-0.438464 -0.248574 1.03348 199 226 194
-0.419024 -0.240523 1 197 225 191
-0.413786 -0.240523 1 198 226 193
-0.396172 -0.233237 0.969708 199 225 193
-0.389061 -0.232025 0.964669 199 226 194
-0.384747 -0.232471 0.966525 199 226 194
-0.405329 -0.248173 1.0318 200 226 194
-0.41219 -0.255784 1.06345 198 225 193
-0.382359 -0.240523 1 198 225 192
-0.389115 -0.248173 1.0318 199 226 194
-0.413237 -0.267269 1.1112 198 226 194
-0.38036 -0.24952 1.03741 198 226 194
-0.376724 -0.250716 1.04238 198 225 194
-0.371264 -0.250716 1.04238 197 225 193
-0.409154 -0.280427 1.1659 197 225 193
-0.395608 -0.275251 1.14438 197 225 193
-0.355912 -0.251442 1.0454 197 226 194
-0.370463 -0.265811 1.10514 197 225 194
-0.329981 -0.240523 1 197 226 195
-0.403408 -0.298787 1.24224 196 225 193
-0.359657 -0.270748 1.12567 194 224 192
-0.367537 -0.281292 1.1695 195 225 194
-0.377645 -0.293927 1.22203 194 225 194
-0.384677 -0.304562 1.26625 195 225 193
-0.336072 -0.270748 1.12567 194 225 193
-0.334149 -0.274006 1.13921 193 225 193
-0.37311 -0.311517 1.29517 193 225 193
-0.355747 -0.302521 1.25776 192 224 192
-0.376323 -0.326057 1.35562 192 224 192
-0.374321 -0.330559 1.37433 192 224 193
-0.321844 -0.28979 1.20483 191 223 191
-0.339191 -0.311517 1.29517 174 214 180
-0.332407 -0.311517 1.29517 195 228 207
-0.345527 -0.330559 1.37433 168 215 191
-0.369265 -0.360784 1.5 184 223 203
-0.378381 -0.377728 1.57045 178 219 195
-0.323932 -0.330559 1.37433 174 216 190
-0.329459 -0.34384 1.42955 179 217 190
-0.348846 -0.37254 1.54887 181 218 192
-0.349854 -0.382512 1.59033 167 208 178
-0.358525 -0.401553 1.6695 175 213 187
-0.314268 -0.360784 1.5 155 205 171
-0.348253 -0.410051 1.70483 150 205 170
-0.321756 -0.388822 1.61657 163 213 185
-0.330394 -0.410051 1.70483 203 232 217
-0.321464 -0.410051 1.70483 166 212 188
-0.309821 -0.406491 1.69003 195 226 207
-0.306017 -0.413309 1.71838 183 219 194
-0.282499 -0.393107 1.63439 182 221 195
-0.285746 -0.410051 1.70483 179 221 195
-0.281512 -0.417007 1.73375 176 217 189
-0.258389 -0.395512 1.64438 196 227 207
-0.249776 -0.395512 1.64438 177 219 194
-0.238417 -0.39101 1.62567 171 215 187
-0.229902 -0.39101 1.62567 191 226 203
-0.223937 -0.395512 1.64438 188 224 200
-0.215324 -0.395512 1.64438 186 221 196
-0.208862 -0.399627 1.66149 177 217 186
-0.192411 -0.384158 1.59718 188 223 197
-0.180965 -0.377728 1.57045 182 218 191
-0.177813 -0.388822 1.61657 186 222 196
-0.178591 -0.410051 1.70483 186 221 196
-0.160878 -0.388822 1.61657 184 222 198
-0.160732 -0.410051 1.70483 198 229 210
-0.142925 -0.386072 1.60514 185 220 197
-0.139241 -0.399627 1.66149 175 213 185
-0.127009 -0.388822 1.61657 194 222 200
-0.120581 -0.395512 1.64438 196 223 200
-0.107883 -0.381081 1.58438 199 228 206
-0.105204 -0.402588 1.6738 175 215 185
-0.0957282 -0.399627 1.66149 166 208 176
-0.0878468 -0.403398 1.67717 193 223 200
-0.0770452 -0.393107 1.63439 177 216 190
-0.0674081 -0.386928 1.60869 204 231 215
-0.0602907 -0.395512 1.64438 203 232 215
-0.0499791 -0.382512 1.59033 158 210 175
-0.0430648 -0.395512 1.64438 169 213 178
-0.0345444 -0.396575 1.64881 208 236 219
-0.0258389 -0.395512 1.64438 170 216 190
-0.0165099 -0.379071 1.57603 172 214 184
-0.00856058 -0.393107 1.63439 191 225 200
0 -0.39101 1.62567 182 220 192
0.00861295 -0.395512 1.64438 174 215 184
0.0165099 -0.379071 1.57603 184 219 191
0.0263011 -0.402588 1.6738 180 214 186
0.0336295 -0.386072 1.60514 164 209 177
0.0428524 -0.393562 1.63628 180 218 190
0.0516777 -0.395512 1.64438 173 214 183
0.0585599 -0.384158 1.59718 169 213 182
0.0669256 -0.384158 1.59718 193 226 204
0.0762055 -0.388822 1.61657 175 215 187
0.0870257 -0.399627 1.66149 174 213 181
0.0954093 -0.398296 1.65596 204 232 211
0.103758 -0.397051 1.65078 172 214 185
0.113971 -0.402588 1.6738 168 211 176
0.121836 -0.399627 1.66149 208 231 211
0.125486 -0.384158 1.59718 178 216 186
0.137807 -0.395512 1.64438 195 225 201
0.143944 -0.388822 1.61657 193 224 199
0.153268 -0.39101 1.62567 171 216 187
0.15974 -0.386072 1.60514 182 223 195
0.172259 -0.395512 1.64438 185 225 198
0.178813 -0.39101 1.62567 201 232 211
0.184962 -0.386072 1.60514 204 233 213
0.18708 -0.373515 1.55293 194 225 201
0.19894 -0.380645 1.58257 183 220 194
0.215324 -0.395512 1.64438 201 231 211
0.218592 -0.386072 1.60514 196 228 206
0.236102 -0.401553 1.6695 174 215 183
0.233236 -0.382512 1.59033 182 221 192
0.256709 -0.406491 1.69003 183 222 194
0.267887 -0.410051 1.70483 178 219 191
0.260629 -0.386072 1.60514 198 228 205
0.280545 -0.402588 1.6738 203 229 208
0.287185 -0.399627 1.66149 190 225 202
0.280668 -0.379071 1.57603 199 231 210
0.30459 -0.399627 1.66149 185 225 198
0.310066 -0.395512 1.64438 185 223 197
0.330394 -0.410051 1.70483 174 214 183
0.327292 -0.395512 1.64438 205 231 212
0.338269 -0.398296 1.65596 188 222 200
0.338691 -0.388822 1.61657 185 221 195
0.349111 -0.39101 1.62567 171 214 181
0.378376 -0.413696 1.71999 206 234 214
0.372964 -0.398296 1.65596 183 222 194
0.382913 -0.399627 1.66149 182 221 192
0.398342 -0.406491 1.69003 181 220 191
0.403284 -0.402588 1.6738 193 224 200
0.409021 -0.399627 1.66149 178 212 181
0.432944 -0.414189 1.72203 184 217 189
0.425005 -0.398296 1.65596 184 219 191
0.435128 -0.399627 1.66149 203 229 209
0.443831 -0.399627 1.66149 182 217 192
0.464337 -0.410051 1.70483 191 223 198
0.477474 -0.413696 1.71999 170 208 171
0.474373 -0.403398 1.67717 168 206 168
0.482187 -0.402588 1.6738 167 207 168
0.48572 -0.398296 1.65596 204 228 205
0.482635 -0.388822 1.61657 184 218 187
0.513886 -0.406862 1.69157 190 222 194
0.510141 -0.397051 1.65078 173 212 179
0.550387 -0.421235 1.75133 193 223 198
0.553943 -0.417007 1.73375 159 206 167
0.553633 -0.410051 1.70483 163 208 171
0.577906 -0.421235 1.75133 204 233 215
0.56109 -0.402588 1.6738 203 233 217
0.569857 -0.402588 1.6738 183 216 192
0.59459 -0.413696 1.71999 168 209 179
0.598281 -0.410051 1.70483 186 219 194
0.621977 -0.420023 1.74629 203 230 209
0.587529 -0.39101 1.62567 176 216 186
0.666523 -0.437245 1.81789 198 228 206
0.615824 -0.398296 1.65596 179 220 191
0.648644 -0.413696 1.71999 183 221 194
0.651858 -0.410051 1.70483 197 227 205
0.676858 -0.420023 1.74629 177 215 186
0.675671 -0.413696 1.71999 177 211 179
0.685495 -0.414189 1.72203 166 206 169
0.694514 -0.414189 1.72203 169 208 175
0.689663 -0.406023 1.68808 186 221 194
0.718933 -0.417897 1.73745 173 215 185
0.761741 -0.437245 1.81789 190 225 200
0.739164 -0.419048 1.74224 192 224 199
0.739613 -0.414189 1.72203 180 216 187
0.767854 -0.424823 1.76625 203 229 209
0.741598 -0.405413 1.68555 186 224 202
0.766672 -0.414189 1.72203 191 229 209
0.776901 -0.414835 1.72472 176 209 184
0.785935 -0.414835 1.72472 173 210 180
0.803043 -0.419048 1.74224 183 219 191
0.815166 -0.420595 1.74867 191 225 197
0.846245 -0.431779 1.79517 193 225 197
0.812591 -0.410051 1.70483 190 226 199
0.842643 -0.420595 1.74867 187 226 199
0.891663 -0.440277 1.8305 195 228 206
0.883856 -0.431779 1.79517 186 223 197
0.884699 -0.427641 1.77797 188 222 196
0.857238 -0.410051 1.70483 199 230 209
0.88086 -0.417007 1.73375 223 243 229
0.860899 -0.403398 1.67717 206 235 217
0.852682 -0.395512 1.64438 185 225 201
0.950373 -0.436417 1.81445 186 222 195
0.937207 -0.42611 1.7716 177 217 187
0.86852 -0.39101 1.62567 185 220 193
0.900684 -0.401553 1.6695 188 221 198
0.992951 -0.438432 1.82283 189 222 199
0.824953 -0.360784 1.5 212 236 220
0.882964 -0.382512 1.59033 188 225 201
0.840666 -0.360784 1.5 179 224 198
0.797422 -0.339057 1.40967 205 236 217
0.659959 -0.278034 1.15596 183 222 195
0.666014 -0.278034 1.15596 186 223 194
0.700484 -0.28979 1.20483 193 229 204
0.413478 -0.169528 0.704833 199 232 209
0.591871 -0.240523 1 203 234 211
0.352494 -0.141989 0.590334 180 221 189
0.266408 -0.106379 0.442284 200 229 204
0.22744 -0.0900359 0.374334 175 214 183
0.180885 -0.0709945 0.295167 173 217 189
0.164558 -0.0640392 0.26625 162 214 182
0.183977 -0.0709945 0.295167 194 230 212
-0.490266 -0.183532 0.780012 194 222 186
-0.482549 -0.182162 0.774187 192 219 185
-0.524867 -0.199816 0.849217 195 221 189
-0.482812 -0.185376 0.78785 194 220 187
-0.505858 -0.195899 0.832572 196 221 189
-0.515377 -0.201321 0.855615 194 220 187
-0.470432 -0.185376 0.78785 195 221 188
-0.483333 -0.192145 0.816618 195 221 188
-0.479055 -0.192145 0.816618 197 222 190
-0.462306 -0.187098 0.795167 196 221 189
-0.495951 -0.202539 0.860791 195 221 188
-0.47872 -0.197296 0.838506 196 222 190
-0.499739 -0.207865 0.883428 197 223 191
-0.449945 -0.188903 0.802837 197 223 191
-0.475043 -0.201321 0.855615 196 222 190
-0.470562 -0.201321 0.855615 195 221 189
-0.478845 -0.206835 0.87905 195 221 189
-0.461598 -0.201321 0.855615 197 223 191
-0.457117 -0.201321 0.855615 197 223 191
-0.452635 -0.201321 0.855615 195 222 189
-0.466848 -0.209719 0.891307 197 224 191
-0.443672 -0.201321 0.855615 198 224 192
-0.444323 -0.203674 0.865614 199 225 193
-0.463733 -0.214763 0.912741 199 225 193
-0.452041 -0.211529 0.898997 199 225 193
-0.449235 -0.212428 0.90282 198 224 192
-0.469177 -0.224219 0.952929 198 224 192
-0.452799 -0.218718 0.929553 197 224 191
-0.431214 -0.210556 0.894863 199 225 194
-0.476639 -0.235294 1 198 225 192
-0.450002 -0.224613 0.954604 198 225 192
-0.44338 -0.223794 0.951125 198 225 193
-0.425881 -0.217405 0.923969 199 225 193
-0.444536 -0.229536 0.975527 198 225 193
-0.43799 -0.228785 0.972338 198 224 192
-0.421648 -0.22284 0.947071 198 224 192
-0.41568 -0.222301 0.944781 198 225 192
-0.411727 -0.22284 0.947071 199 225 193
-0.429499 -0.235294 1 198 225 193
-0.399775 -0.221714 0.942284 200 226 194
-0.419024 -0.235294 1 198 225 192
-0.42632 -0.242422 1.03029 198 225 192
-0.396172 -0.228167 0.969708 199 225 193
-0.433379 -0.252836 1.07455 197 225 192
-0.412137 -0.243607 1.03533 197 225 192
-0.392835 -0.235294 1 197 225 192
-0.387597 -0.235294 1 197 225 193
-0.382359 -0.235294 1 198 225 194
-0.405237 -0.252836 1.07455 197 225 193
-0.371884 -0.235294 1 198 225 194
-0.382184 -0.245266 1.04238 198 226 194
-0.376724 -0.245266 1.04238 198 226 194
-0.400929 -0.264863 1.12567 197 225 193
-0.413107 -0.276981 1.17717 197 225 193
-0.376923 -0.256549 1.09033 197 225 193
-0.376251 -0.260032 1.10514 195 224 192
-0.383619 -0.269267 1.14438 197 225 195
-0.403248 -0.287538 1.22203 196 225 194
-0.403408 -0.292291 1.24224 198 226 195
-0.336417 -0.247748 1.05293 194 224 192
-0.372579 -0.278952 1.18555 197 226 195
-0.391309 -0.297941 1.26625 195 225 194
-0.346083 -0.268049 1.13921 194 225 193
-0.394936 -0.311254 1.32283 194 225 193
-0.353397 -0.28349 1.20483 192 224 192
-0.36478 -0.297941 1.26625 191 224 191
-0.366326 -0.304745 1.29517 192 224 192
-0.387218 -0.328203 1.39486 193 224 193
-0.352759 -0.304745 1.29517 191 224 192
-0.355413 -0.313059 1.3305 175 214 181
-0.359924 -0.323373 1.37433 173 214 183
-0.341475 -0.313059 1.3305 182 221 196
-0.334506 -0.313059 1.3305 160 213 178
-0.369265 -0.352941 1.5 202 232 211
-0.361408 -0.352941 1.5 182 221 195
-0.367155 -0.366521 1.55772 170 215 187
-0.345695 -0.352941 1.5 170 214 186
-0.348846 -0.364441 1.54887 164 212 181
-0.314484 -0.336365 1.42955 161 208 178
-0.33262 -0.364441 1.54887 183 218 195
-0.295342 -0.331686 1.40967 184 219 195
-0.339875 -0.391486 1.66382 161 208 175
-0.313687 -0.370831 1.57603 182 222 199
-0.319919 -0.388419 1.65078 190 227 207
-0.318964 -0.398017 1.69157 160 209 181
-0.296355 -0.38037 1.61657 185 220 197
-0.308755 -0.407941 1.73375 188 222 199
-0.276068 -0.375807 1.59718 171 215 186
-0.275614 -0.386914 1.64438 196 228 207
-0.267001 -0.386914 1.64438 167 212 181
-0.258389 -0.386914 1.64438 186 222 200
-0.245551 -0.38037 1.61657 194 226 207
-0.245477 -0.393836 1.6738 163 211 180
-0.23255 -0.386914 1.64438 172 216 187
-0.226267 -0.39094 1.66149 189 224 201
-0.216839 -0.389637 1.65596 200 228 209
-0.208862 -0.39094 1.66149 181 219 190
-0.192411 -0.375807 1.59718 192 225 200
-0.198197 -0.404703 1.71999 183 219 193
-0.178813 -0.38251 1.62567 187 222 197
-0.165784 -0.37237 1.58257 177 216 188
-0.164798 -0.389637 1.65596 175 219 191
-0.159153 -0.397196 1.68808 180 221 194
-0.14934 -0.394628 1.67717 182 219 194
-0.136239 -0.38251 1.62567 164 205 173
-0.127121 -0.380705 1.618 166 206 175
-0.12143 -0.389637 1.65596 174 210 181
-0.111968 -0.386914 1.64438 204 229 209
-0.104431 -0.39094 1.66149 168 209 178
-0.0941664 -0.384561 1.63439 191 222 198
-0.0811269 -0.364441 1.54887 170 209 179
-0.0752913 -0.375807 1.59718 156 202 168
-0.0684846 -0.384561 1.63439 167 208 179
-0.0602907 -0.386914 1.64438 200 231 213
-0.0508036 -0.38037 1.61657 158 211 177
-0.0422821 -0.379882 1.6145 174 216 184
-0.0342819 -0.385006 1.63628 208 236 218
-0.0264857 -0.396599 1.68555 173 217 189
-0.0167314 -0.375807 1.59718 193 225 202
-0.00876704 -0.393836 1.6738 185 220 195
0 -0.370831 1.57603 184 222 194
0.00884184 -0.397196 1.68808 201 229 207
0.0173471 -0.389637 1.65596 175 213 181
0.0265255 -0.397196 1.68808 196 224 202
0.0336295 -0.377679 1.60514 203 229 209
0.0438352 -0.393836 1.6738 183 219 193
0.0513635 -0.384561 1.63439 191 225 200
0.0577845 -0.370831 1.57603 185 222 196
0.0681193 -0.38251 1.62567 204 232 211
0.0758341 -0.378516 1.60869 185 222 194
0.0870257 -0.39094 1.66149 164 210 175
0.09314 -0.38037 1.61657 186 224 199
0.0994702 -0.37237 1.58257 167 213 184
0.112269 -0.387954 1.64881 173 215 185
0.119209 -0.38251 1.62567 191 225 197
0.129194 -0.386914 1.64438 197 227 203
0.133851 -0.375807 1.59718 173 213 182
0.142925 -0.377679 1.60514 194 226 201
0.153268 -0.38251 1.62567 185 224 196
0.158267 -0.374196 1.59033 169 217 184
0.17141 -0.385006 1.63628 181 224 196
0.173353 -0.370831 1.57603 177 220 193
0.184045 -0.375807 1.59718 169 216 186
0.190651 -0.37237 1.58257 193 226 203
0.205691 -0.385006 1.63628 207 233 214
0.216839 -0.389637 1.65596 182 221 192
0.221388 -0.38251 1.62567 195 228 205
0.23255 -0.386914 1.64438 187 225 200
0.245477 -0.393836 1.6738 178 220 193
0.246932 -0.38251 1.62567 194 227 204
0.257114 -0.385006 1.63628 178 217 185
0.268881 -0.389637 1.65596 173 213 181
0.282939 -0.397196 1.68808 180 217 188
0.277444 -0.377679 1.60514 191 225 203
0.287887 -0.38037 1.61657 189 226 204
0.298022 -0.38251 1.62567 183 223 198
0.302666 -0.377679 1.60514 178 219 192
0.315052 -0.38251 1.62567 190 224 199
0.345816 -0.408812 1.73745 191 225 199
0.344832 -0.397196 1.68808 190 224 200
0.334628 -0.375807 1.59718 178 218 190
0.353131 -0.386914 1.64438 179 219 190
0.36429 -0.389637 1.65596 207 234 215
0.380637 -0.397654 1.69003 204 233 213
0.37897 -0.386914 1.64438 205 233 214
0.390311 -0.389637 1.65596 198 229 208
0.402247 -0.392824 1.6695 172 213 182
0.402347 -0.384561 1.63439 173 212 177
0.418832 -0.391978 1.6659 206 230 209
0.429585 -0.393836 1.6738 176 213 181
0.435128 -0.39094 1.66149 186 220 194
0.43926 -0.386914 1.64438 202 229 208
0.464337 -0.401137 1.70483 171 212 179
0.446578 -0.378516 1.60869 186 220 190
0.47342 -0.393836 1.6738 188 219 190
0.471376 -0.385006 1.63628 174 210 172
0.490954 -0.393836 1.6738 211 233 212
0.535955 -0.422392 1.79517 201 230 207
0.501495 -0.388419 1.65078 203 230 209
0.508164 -0.386914 1.64438 176 214 184
0.550387 -0.412078 1.75133 197 226 202
0.535865 -0.394628 1.67717 178 212 180
0.548826 -0.397654 1.69003 203 227 204
0.536439 -0.38251 1.62567 189 224 201
0.576032 -0.404324 1.71838 198 228 212
0.603153 -0.416847 1.7716 186 220 200
0.612432 -0.416847 1.7716 194 223 201
0.587391 -0.393836 1.6738 189 223 198
0.612608 -0.404703 1.71999 200 229 207
0.632945 -0.412078 1.75133 186 223 198
0.613693 -0.393836 1.6738 198 230 210
0.615824 -0.389637 1.65596 177 217 189
0.642929 -0.401137 1.70483 190 224 199
0.66433 -0.408812 1.73745 194 226 202
0.648761 -0.393836 1.6738 204 231 210
0.682531 -0.408812 1.73745 199 227 204
0.678647 -0.401137 1.70483 191 221 193
0.694514 -0.405185 1.72203 184 217 188
0.696506 -0.401137 1.70483 191 222 200
0.742815 -0.422392 1.79517 201 229 209
0.722699 -0.405817 1.72472 189 223 198
0.739164 -0.409938 1.74224 189 224 200
0.740766 -0.405817 1.72472 182 220 192
0.741154 -0.401137 1.70483 182 218 191
0.78387 -0.419206 1.78162 202 230 210
0.750427 -0.396599 1.68555 192 226 206
0.759255 -0.396599 1.68555 187 221 201
0.776872 -0.401137 1.70483 194 224 201
0.834262 -0.425875 1.80997 190 224 198
0.853312 -0.430706 1.8305 177 217 184
0.824325 -0.411451 1.74867 188 224 195
0.872488 -0.430706 1.8305 196 230 205
0.851116 -0.415588 1.76625 206 234 213
0.83045 -0.401137 1.70483 190 227 202
0.815316 -0.389637 1.65596 177 217 188
0.884699 -0.418345 1.77797 179 217 189
0.826843 -0.386914 1.64438 174 216 187
0.893059 -0.413591 1.75776 199 229 211
0.889941 -0.407941 1.73375 203 233 217
0.930869 -0.422392 1.79517 191 229 207
0.874451 -0.392824 1.6695 213 239 222
0.937207 -0.416847 1.7716 193 227 204
0.910816 -0.401137 1.70483 187 220 192
0.900684 -0.392824 1.6695 175 212 184
0.88555 -0.38251 1.62567 186 219 195
0.937604 -0.401137 1.70483 180 219 193
0.782655 -0.331686 1.40967 188 223 200
0.840666 -0.352941 1.5 212 238 224
0.777436 -0.323373 1.37433 192 229 210
0.739437 -0.304745 1.29517 191 228 205
0.576158 -0.235294 1 201 233 211
0.478389 -0.193607 0.822829 207 235 216
0.240323 -0.0963919 0.409665 181 222 196
0.195613 -0.0777644 0.330499 209 235 214
0.176247 -0.0694511 0.295167 188 224 194
0.177793 -0.0694511 0.295167 187 221 190
0.191057 -0.0739889 0.314453 180 215 183
0.170343 -0.0654036 0.277965 196 227 202
0.173064 -0.0658853 0.280012 197 228 205
0.147171 -0.0555569 0.236117 183 217 192
-0.484978 -0.177518 0.771599 195 221 187
-0.508996 -0.187876 0.816618 192 219 184
-0.448962 -0.167121 0.726405 194 220 187
-0.469575 -0.176288 0.76625 196 221 189
-0.478685 -0.181257 0.78785 195 221 189
-0.483586 -0.184705 0.802837 196 221 189
-0.48364 -0.186346 0.80997 196 221 189
-0.483333 -0.187876 0.816618 196 221 189
-0.475155 -0.186346 0.80997 196 221 188
-0.487504 -0.192911 0.838506 196 221 189
-0.479693 -0.191546 0.832572 197 222 190
-0.453977 -0.18294 0.795167 197 222 190
-0.480387 -0.195375 0.849217 197 223 191
-0.476404 -0.195566 0.850047 198 223 192
-0.485436 -0.201154 0.874334 196 222 190
-0.454383 -0.190079 0.826197 195 221 189
-0.476277 -0.201154 0.874334 198 223 192
-0.474241 -0.202239 0.87905 193 221 186
-0.459882 -0.198038 0.860791 197 223 191
-0.469505 -0.204184 0.887504 197 223 190
-0.462722 -0.203246 0.883428 199 224 193
-0.469989 -0.208524 0.906367 197 223 190
-0.466935 -0.209283 0.909666 198 224 192
-0.460494 -0.208524 0.906367 198 224 191
-0.455747 -0.208524 0.906367 197 223 190
-0.422976 -0.195566 0.850047 197 224 191
-0.456346 -0.21324 0.926867 198 224 192
-0.425901 -0.201154 0.874334 199 225 193
-0.435049 -0.207708 0.90282 199 225 192
-0.441781 -0.21324 0.926867 198 225 193
-0.459404 -0.22421 0.974549 199 225 193
-0.429259 -0.211852 0.920833 198 225 193
-0.414371 -0.206828 0.898997 199 225 194
-0.444949 -0.224643 0.976432 199 225 193
-0.462392 -0.236165 1.02651 199 225 194
-0.43341 -0.223966 0.973489 199 225 193
-0.413379 -0.216158 0.939552 199 225 193
-0.423672 -0.22421 0.974549 198 225 192
-0.429499 -0.230065 1 198 224 192
-0.412526 -0.223701 0.972338 199 226 194
-0.419024 -0.230065 1 199 226 193
-0.425751 -0.236718 1.02892 199 226 194
-0.408548 -0.230065 1 199 225 193
-0.391648 -0.223412 0.971083 200 226 195
-0.384747 -0.222364 0.966525 198 225 193
-0.392835 -0.230065 1 197 225 193
-0.428348 -0.254254 1.10514 197 225 192
-0.422559 -0.254254 1.10514 198 226 194
-0.406977 -0.248279 1.07917 198 225 194
-0.386661 -0.239207 1.03974 198 225 194
-0.397585 -0.249479 1.08438 197 225 193
-0.409976 -0.260983 1.13439 198 226 194
-0.386225 -0.249479 1.08438 199 226 196
-0.392341 -0.257212 1.118 197 225 194
-0.392151 -0.260983 1.13439 197 225 193
-0.373542 -0.252423 1.09718 196 225 193
-0.383619 -0.263283 1.14438 196 225 194
-0.397572 -0.27719 1.20483 194 225 192
-0.345349 -0.244663 1.06345 195 225 193
-0.359657 -0.258977 1.12567 196 225 193
-0.350251 -0.256407 1.1145 196 225 193
-0.344413 -0.256407 1.1145 195 225 193
-0.323068 -0.244663 1.06345 193 224 192
-0.370876 -0.285796 1.24224 193 224 192
-0.36031 -0.282612 1.2284 193 225 193
-0.347087 -0.27719 1.20483 191 224 192
-0.37632 -0.306102 1.3305 192 224 192
-0.381519 -0.316187 1.37433 192 224 192
-0.342571 -0.289367 1.25776 199 228 201
-0.355413 -0.306102 1.3305 185 221 194
-0.329395 -0.289367 1.25776 166 211 180
-0.366898 -0.328891 1.42955 154 205 169
-0.316219 -0.289367 1.25776 167 215 182
-0.400201 -0.374009 1.62567 194 230 206
-0.347502 -0.33182 1.44228 170 212 181
-0.370156 -0.361305 1.57045 174 216 189
-0.345695 -0.345098 1.5 174 217 190
-0.350837 -0.358376 1.55772 172 216 187
-0.306852 -0.32091 1.39486 169 214 183
-0.344703 -0.369286 1.60514 174 216 189
-0.333194 -0.365881 1.59033 174 214 187
-0.318201 -0.358376 1.55772 157 205 172
-0.327292 -0.378316 1.64438 180 221 198
-0.327525 -0.388817 1.69003 195 228 210
-0.310066 -0.378316 1.64438 169 214 186
-0.296355 -0.371917 1.61657 177 215 186
-0.298679 -0.385859 1.67717 161 210 179
-0.274885 -0.365881 1.59033 167 213 183
-0.278482 -0.382252 1.66149 203 230 211
-0.265378 -0.376016 1.63439 174 215 189
-0.255447 -0.374009 1.62567 171 213 185
-0.246932 -0.374009 1.62567 175 214 186
-0.235407 -0.369286 1.60514 157 208 173
-0.229902 -0.374009 1.62567 196 228 206
-0.230153 -0.388817 1.69003 198 229 209
-0.211682 -0.371917 1.61657 171 212 185
-0.201777 -0.369286 1.60514 170 211 181
-0.193798 -0.370105 1.60869 187 222 199
-0.191456 -0.382252 1.66149 202 228 211
-0.176555 -0.369286 1.60514 172 213 189
-0.1598 -0.350953 1.52545 171 214 187
-0.157495 -0.364095 1.58257 190 226 203
-0.156124 -0.380979 1.65596 179 220 193
-0.14553 -0.376016 1.63439 181 220 192
-0.132627 -0.364095 1.58257 188 219 193
-0.125486 -0.367456 1.59718 179 214 185
-0.117703 -0.369286 1.60514 177 213 184
-0.111968 -0.378316 1.64438 190 219 195
-0.103355 -0.378316 1.64438 169 209 178
-0.0964374 -0.385084 1.6738 186 219 196
-0.0870257 -0.382252 1.66149 181 217 194
-0.0783231 -0.382252 1.66149 163 207 177
-0.0666388 -0.365881 1.59033 185 219 196
-0.060918 -0.382252 1.66149 201 229 210
-0.0504443 -0.369286 1.60514 157 209 175
-0.0442092 -0.38837 1.68808 181 223 195
-0.0338691 -0.371917 1.61657 206 234 215
-0.0250971 -0.367456 1.59718 168 213 184
-0.0168148 -0.369286 1.60514 192 225 202
-0.00840738 -0.369286 1.60514 189 223 201
0 -0.371917 1.61657 183 221 195
0.00828918 -0.364095 1.58257 199 230 207
0.0165784 -0.364095 1.58257 173 211 179
0.0244018 -0.357275 1.55293 188 219 194
0.0344518 -0.378316 1.64438 196 225 203
0.0425745 -0.374009 1.62567 180 216 189
0.0504443 -0.369286 1.60514 188 222 196
0.0577845 -0.36259 1.57603 178 216 188
0.067259 -0.369286 1.60514 182 219 191
0.0780621 -0.380979 1.65596 190 225 200
0.0867357 -0.380979 1.65596 177 218 189
0.0942752 -0.37645 1.63628 194 227 205
0.102727 -0.376016 1.63439 170 215 186
0.112756 -0.380979 1.65596 190 225 201
0.120581 -0.378316 1.64438 200 230 206
0.122009 -0.357275 1.55293 180 218 187
0.140273 -0.385084 1.6738 198 226 202
0.14904 -0.385084 1.6738 177 216 187
0.156124 -0.380979 1.65596 197 228 205
0.166574 -0.385084 1.6738 167 215 183
0.168148 -0.369286 1.60514 191 228 204
0.173353 -0.36259 1.57603 168 216 185
0.192875 -0.385084 1.6738 171 215 183
0.197121 -0.37645 1.63628 169 213 181
0.204358 -0.374009 1.62567 182 221 193
0.19975 -0.350953 1.52545 190 226 200
0.226267 -0.382252 1.66149 196 229 206
0.234186 -0.380979 1.65596 199 231 210
0.241163 -0.378316 1.64438 189 226 204
0.249776 -0.378316 1.64438 191 226 204
0.255447 -0.374009 1.62567 190 223 199
0.271778 -0.385084 1.6738 181 217 190
0.272477 -0.374009 1.62567 178 215 187
0.289312 -0.385084 1.6738 211 235 218
0.293628 -0.379333 1.64881 199 230 209
0.303575 -0.380979 1.65596 201 230 209
0.318673 -0.388817 1.69003 193 225 202
0.320922 -0.380979 1.65596 187 224 197
0.325678 -0.37645 1.63628 179 219 188
0.335905 -0.378316 1.64438 207 233 214
0.346943 -0.380979 1.65596 177 218 190
0.355616 -0.380979 1.65596 168 211 180
0.36429 -0.380979 1.65596 175 218 190
0.380637 -0.388817 1.69003 180 223 195
0.381637 -0.380979 1.65596 194 229 205
0.394517 -0.385084 1.6738 202 231 211
0.396196 -0.378316 1.64438 193 224 201
0.409021 -0.382252 1.66149 180 217 185
0.408716 -0.374009 1.62567 183 218 187
0.43375 -0.388817 1.69003 176 213 181
0.442092 -0.38837 1.68808 174 214 183
0.442352 -0.380979 1.65596 190 224 199
0.455886 -0.385084 1.6738 193 226 202
0.459699 -0.380979 1.65596 195 226 202
0.477459 -0.38837 1.68808 199 225 201
0.46832 -0.374009 1.62567 179 214 182
0.479947 -0.37645 1.63628 177 215 181
0.499721 -0.385084 1.6738 203 233 210
0.5267 -0.398876 1.73375 192 227 204
0.513451 -0.382252 1.66149 192 224 201
0.535774 -0.392223 1.70483 200 228 206
0.52539 -0.378316 1.64438 172 212 180
0.543556 -0.385084 1.6738 194 224 198
0.546435 -0.380979 1.65596 177 217 187
0.576572 -0.39571 1.71999 197 228 206
0.585581 -0.39571 1.71999 201 230 209
0.572456 -0.380979 1.65596 190 222 196
0.609728 -0.399727 1.73745 190 225 199
0.596159 -0.385084 1.6738 205 232 211
0.632945 -0.402921 1.75133 189 224 200
0.618929 -0.38837 1.68808 205 232 214
0.62246 -0.385084 1.6738 185 219 194
0.642929 -0.392223 1.70483 177 216 186
0.662915 -0.398876 1.73375 184 220 193
0.667455 -0.39618 1.72203 182 220 191
0.669717 -0.392223 1.70483 185 221 191
0.678647 -0.392223 1.70483 172 213 179
0.675062 -0.385084 1.6738 205 231 210
0.689663 -0.38837 1.68808 185 220 196
0.720913 -0.400829 1.74224 200 228 206
0.742342 -0.407584 1.7716 196 226 203
0.745751 -0.4044 1.75776 179 219 190
0.723941 -0.387786 1.68555 202 232 210
0.747742 -0.39571 1.71999 183 221 192
0.741598 -0.387786 1.68555 198 230 209
0.767868 -0.396798 1.72472 183 223 200
0.749467 -0.382787 1.66382 190 227 204
0.818037 -0.413006 1.79517 192 227 203
0.821197 -0.40989 1.78162 193 226 201
0.794731 -0.392223 1.70483 190 225 199
0.846245 -0.413006 1.79517 185 223 195
0.841864 -0.406353 1.76625 171 217 185
0.856761 -0.409048 1.77797 192 228 203
0.83045 -0.392223 1.70483 192 228 203
0.850983 -0.397645 1.7284 187 222 197
0.893258 -0.413006 1.79517 180 216 188
0.871779 -0.398876 1.73375 180 218 190
0.930015 -0.421134 1.8305 186 222 198
0.921467 -0.413006 1.79517 197 228 207
0.869683 -0.385859 1.67717 199 231 211
0.974644 -0.428104 1.86079 209 236 219
0.964308 -0.41937 1.82283 177 221 193
0.89194 -0.384094 1.6695 184 217 188
0.877035 -0.374009 1.62567 181 215 189
0.848536 -0.358376 1.55772 173 212 183
0.863696 -0.361305 1.57045 196 225 204
0.782655 -0.324315 1.40967 167 209 178
0.64785 -0.265946 1.15596 192 224 202
0.625156 -0.254254 1.10514 202 232 214
0.337034 -0.135816 0.590334 177 221 194
0.321332 -0.128311 0.557716 180 222 194
0.315336 -0.124783 0.542379 202 232 214
0.173155 -0.0679078 0.295167 176 218 191
0.198977 -0.077344 0.336183 178 218 187
0.167198 -0.0644212 0.280012 179 218 186
0.129103 -0.0493108 0.214334 171 211 173
0.152705 -0.0578227 0.251332 175 212 175
0.113707 -0.042688 0.185547 176 215 182
0.101818 -0.0379007 0.164739 195 227 203
0.124446 -0.0459342 0.199657 187 222 196
-0.490266 -0.175375 0.780012 195 219 185
-0.45882 -0.165506 0.736117 193 219 186
-0.50061 -0.182111 0.80997 196 221 189
-0.487296 -0.178783 0.795167 196 221 189
-0.501985 -0.185759 0.826197 196 221 189
-0.497657 -0.185759 0.826197 196 221 190
-0.465752 -0.175375 0.780012 196 221 189
-0.483333 -0.183606 0.816618 196 221 189
-0.482699 -0.185002 0.822829 196 221 188
-0.453496 -0.175375 0.780012 197 222 189
-0.483112 -0.188527 0.838506 197 222 190
-0.47872 -0.188527 0.838506 195 222 189
-0.484006 -0.192374 0.855615 196 222 190
-0.469936 -0.188527 0.838506 195 222 189
-0.453392 -0.183606 0.816618 198 223 193
-0.467043 -0.190935 0.849217 197 223 192
-0.478845 -0.197643 0.87905 199 224 193
-0.474241 -0.197643 0.87905 196 222 190
-0.447976 -0.188527 0.838506 196 223 190
-0.460308 -0.195634 0.870118 195 222 190
-0.457958 -0.196582 0.874334 197 224 191
-0.448857 -0.194622 0.865614 197 223 191
-0.45122 -0.197643 0.87905 195 222 189
-0.45675 -0.202127 0.898997 198 224 192
-0.411983 -0.184216 0.819331 199 225 193
-0.449235 -0.202987 0.90282 198 224 192
-0.446252 -0.203784 0.906367 199 225 193
-0.451491 -0.208394 0.926867 199 225 193
-0.446636 -0.208394 0.926867 196 223 190
-0.452416 -0.21341 0.949179 198 224 192
-0.436927 -0.208394 0.926867 198 224 193
-0.432072 -0.208394 0.926867 198 224 192
-0.435474 -0.212421 0.944781 199 225 193
-0.443083 -0.218617 0.972338 199 225 193
-0.426608 -0.212936 0.947071 199 225 193
-0.419517 -0.21186 0.942284 197 224 191
-0.427804 -0.218617 0.972338 198 225 192
-0.422166 -0.218335 0.971083 199 225 193
-0.429499 -0.224837 1 198 225 193
-0.424261 -0.224837 1 198 225 192
-0.419024 -0.224837 1 200 226 195
-0.401251 -0.218026 0.969708 198 225 194
-0.433244 -0.238428 1.06045 196 224 191
-0.415527 -0.231647 1.03029 198 225 193
-0.384747 -0.21731 0.966525 198 225 194
-0.392835 -0.224837 1 198 225 193
-0.416494 -0.241599 1.07455 197 225 193
-0.395868 -0.23278 1.03533 196 224 192
-0.391228 -0.233247 1.03741 197 225 193
-0.391567 -0.236737 1.05293 198 226 195
-0.399766 -0.245147 1.09033 198 226 195
-0.406825 -0.253091 1.12567 197 225 193
-0.35617 -0.224837 1 196 225 193
-0.385036 -0.246686 1.09718 198 225 194
-0.379289 -0.246686 1.09718 197 225 193
-0.358477 -0.236737 1.05293 195 225 193
-0.409649 -0.274758 1.22203 195 225 193
-0.385913 -0.262947 1.1695 194 224 191
-0.391261 -0.27089 1.20483 195 225 193
-0.356088 -0.25058 1.1145 196 225 193
-0.367537 -0.262947 1.1695 195 225 192
-0.35205 -0.256136 1.13921 193 224 191
-0.417512 -0.309001 1.37433 191 224 190
-0.366744 -0.276189 1.2284 191 224 191
-0.36031 -0.276189 1.2284 191 224 191
-0.353876 -0.276189 1.2284 191 224 191
-0.347442 -0.276189 1.2284 192 224 191
-0.381519 -0.309001 1.37433 188 221 189
-0.362382 -0.299145 1.3305 194 221 193
-0.345975 -0.291201 1.29517 190 221 198
-0.377719 -0.324278 1.44228 194 225 204
-0.352726 -0.309001 1.37433 165 210 180
-0.35941 -0.321416 1.42955 200 230 210
-0.355056 -0.324278 1.44228 187 225 199
-0.347502 -0.324278 1.44228 175 213 183
-0.367155 -0.350232 1.55772 179 218 194
-0.329459 -0.321416 1.42955 188 225 205
-0.376014 -0.375365 1.6695 196 228 208
-0.329981 -0.337255 1.5 173 216 189
-0.366112 -0.383309 1.70483 174 216 189
-0.340596 -0.365509 1.62567 174 213 185
-0.348253 -0.383309 1.70483 177 216 191
-0.327292 -0.369718 1.64438 200 230 213
-0.313289 -0.363465 1.61657 176 219 195
-0.299874 -0.357565 1.59033 184 223 198
-0.305398 -0.374556 1.6659 197 226 204
-0.301244 -0.380327 1.69157 171 216 189
-0.289894 -0.377089 1.67717 166 213 183
-0.275614 -0.369718 1.64438 197 226 206
-0.267001 -0.369718 1.64438 174 214 188
-0.26354 -0.377089 1.67717 173 215 187
-0.244354 -0.361693 1.60869 158 207 173
-0.244846 -0.375365 1.6695 166 211 181
-0.226999 -0.360894 1.60514 179 220 198
-0.220149 -0.363465 1.61657 194 228 208
-0.21141 -0.362998 1.6145 171 213 185
-0.198118 -0.354349 1.57603 185 222 198
-0.201642 -0.376332 1.6738 170 213 185
-0.189485 -0.369718 1.64438 188 222 202
-0.179772 -0.36747 1.63439 196 226 207
-0.162679 -0.349155 1.55293 177 216 192
-0.162839 -0.367895 1.63628 171 211 183
-0.148062 -0.353094 1.57045 172 213 184
-0.151803 -0.383309 1.70483 166 211 177
-0.140273 -0.376332 1.6738 190 223 197
-0.129194 -0.369718 1.64438 204 228 207
-0.12143 -0.37232 1.65596 180 215 187
-0.111416 -0.367895 1.63628 178 214 186
-0.0990591 -0.354349 1.57603 173 211 183
-0.093664 -0.365509 1.62567 184 219 194
-0.0851491 -0.365509 1.62567 202 229 211
-0.0766342 -0.365509 1.62567 178 218 196
-0.0669256 -0.359104 1.59718 183 221 199
-0.0575798 -0.353094 1.57045 171 209 185
-0.0508036 -0.363465 1.61657 164 208 177
-0.0438352 -0.376332 1.6738 192 227 205
-0.0330197 -0.354349 1.57603 190 226 205
-0.0258389 -0.369718 1.64438 162 208 176
-0.016852 -0.361693 1.60869 174 215 188
-0.00867357 -0.37232 1.65596 172 214 186
0 -0.365509 1.62567 189 224 201
0.00840738 -0.360894 1.60514 195 227 207
0.0172259 -0.369718 1.64438 171 210 181
0.0252221 -0.360894 1.60514 187 219 194
0.032636 -0.350232 1.55772 179 213 184
0.0431805 -0.370712 1.64881 197 224 201
0.0497351 -0.35582 1.58257 179 216 189
0.0580243 -0.35582 1.58257 198 226 207
0.0677382 -0.363465 1.61657 195 225 205
0.0740311 -0.353094 1.57045 173 215 186
0.0851491 -0.365509 1.62567 199 229 207
0.0904825 -0.353094 1.57045 186 224 198
0.102179 -0.365509 1.62567 177 219 192
0.112756 -0.37232 1.65596 170 215 183
0.119209 -0.365509 1.62567 201 230 207
0.125486 -0.359104 1.59718 180 219 189
0.133851 -0.359104 1.59718 184 217 191
0.142217 -0.359104 1.59718 185 220 194
0.151668 -0.361693 1.60869 170 214 182
0.160878 -0.363465 1.61657 191 227 203
0.169128 -0.362998 1.6145 208 235 217
0.17568 -0.359104 1.59718 181 222 193
0.181608 -0.354349 1.57603 183 222 194
0.197121 -0.367895 1.63628 194 228 205
0.195816 -0.350232 1.55772 184 223 197
0.221046 -0.379543 1.68808 174 217 187
0.221388 -0.365509 1.62567 188 224 199
0.239005 -0.379981 1.69003 176 219 192
0.231138 -0.354349 1.57603 172 217 191
0.245236 -0.362998 1.6145 196 228 208
0.257114 -0.367895 1.63628 179 218 192
0.265685 -0.367895 1.63628 190 225 202
0.280545 -0.376332 1.6738 174 216 187
0.280992 -0.365509 1.62567 178 217 188
0.298079 -0.376332 1.6738 187 223 196
0.298022 -0.365509 1.62567 183 221 195
0.301165 -0.359104 1.59718 187 223 198
0.311073 -0.360894 1.60514 193 226 203
0.313687 -0.354349 1.57603 175 216 186
0.3394 -0.373565 1.66149 201 229 208
0.350681 -0.376332 1.6738 182 221 195
0.358525 -0.375365 1.6695 179 215 186
0.361744 -0.369718 1.64438 184 218 188
0.37421 -0.373565 1.66149 172 212 180
0.369925 -0.360894 1.60514 204 232 212
0.40183 -0.383309 1.70483 175 216 187
0.402247 -0.375365 1.6695 195 224 200
0.404809 -0.369718 1.64438 206 231 211
0.413422 -0.369718 1.64438 186 219 193
0.441438 -0.386716 1.71999 179 216 186
0.423364 -0.363465 1.61657 195 225 203
0.451454 -0.379981 1.69003 185 221 193
0.455886 -0.376332 1.6738 203 230 209
0.468617 -0.379543 1.68808 203 230 210
0.472203 -0.375365 1.6695 201 228 207
0.474986 -0.370712 1.64881 183 218 188
0.504501 -0.386716 1.71999 179 217 183
0.499721 -0.376332 1.6738 209 236 216
0.522519 -0.386716 1.71999 181 222 195
0.53103 -0.386354 1.71838 183 218 190
0.520414 -0.37232 1.65596 205 231 211
0.544704 -0.383309 1.70483 183 219 192
0.513929 -0.35582 1.58257 188 222 196
0.567563 -0.386716 1.71999 186 222 195
0.571492 -0.383309 1.70483 187 223 196
0.571004 -0.377089 1.67717 183 220 191
0.589351 -0.383309 1.70483 201 229 206
0.592403 -0.379543 1.68808 173 213 178
0.607211 -0.383309 1.70483 188 222 192
0.621617 -0.386716 1.71999 178 216 184
0.613693 -0.376332 1.6738 200 227 206
0.633999 -0.383309 1.70483 188 221 194
0.636612 -0.379543 1.68808 204 230 208
0.635287 -0.373565 1.66149 187 221 195
0.648761 -0.376332 1.6738 183 218 190
0.657528 -0.376332 1.6738 202 229 206
0.697157 -0.393763 1.75133 169 213 178
0.659927 -0.367895 1.63628 187 222 196
0.696506 -0.383309 1.70483 200 228 206
0.727337 -0.395209 1.75776 197 227 203
0.714365 -0.383309 1.70483 201 229 206
0.730593 -0.387176 1.72203 186 222 195
0.754957 -0.395209 1.75776 195 228 203
0.767854 -0.397118 1.76625 187 223 196
0.758834 -0.38778 1.72472 204 233 211
0.759013 -0.383309 1.70483 195 230 207
0.767943 -0.383309 1.70483 198 230 210
0.768084 -0.378973 1.68555 205 233 214
0.776913 -0.378973 1.68555 199 230 207
0.805718 -0.388608 1.7284 205 232 210
0.803661 -0.383309 1.70483 193 227 204
0.855647 -0.403619 1.79517 194 227 205
0.847025 -0.395209 1.75776 186 224 198
0.883847 -0.407955 1.81445 211 235 219
0.809617 -0.369718 1.64438 213 234 219
0.848309 -0.383309 1.70483 208 232 212
0.799665 -0.357565 1.59033 202 231 211
0.88086 -0.38981 1.73375 180 221 194
0.909369 -0.39832 1.7716 186 221 195
0.869683 -0.377089 1.67717 177 218 189
0.861295 -0.369718 1.64438 199 231 210
0.876031 -0.37232 1.65596 185 224 198
0.910816 -0.383309 1.70483 188 220 194
0.877035 -0.365509 1.62567 182 219 191
0.778722 -0.321416 1.42955 185 221 195
0.712301 -0.291201 1.29517 190 222 197
0.763039 -0.309001 1.37433 184 214 186
0.501521 -0.201198 0.894863 187 215 188
0.322691 -0.128257 0.570447 195 225 202
0.240262 -0.0946187 0.420833 190 226 199
0.230638 -0.090003 0.400304 189 227 200
0.181347 -0.0701302 0.311917 206 233 216
0.173155 -0.0663644 0.295167 185 222 198
0.125119 -0.0475295 0.211396 181 220 192
0.108737 -0.0409441 0.182106 206 232 210
0.114464 -0.0427258 0.19003 197 227 202
0.134243 -0.0496768 0.220946 186 219 189
0.118988 -0.0436552 0.194164 197 229 205
0.111897 -0.0407055 0.181045 178 223 195
0.108331 -0.0390772 0.173803 173 219 192
-0.470565 -0.164413 0.748668 195 216 182
-0.514967 -0.181439 0.826197 186 213 175
-0.478494 -0.170018 0.774187 187 215 180
-0.482812 -0.173018 0.78785 192 219 184
-0.491188 -0.177537 0.808428 194 220 187
-0.478966 -0.174625 0.795167 195 221 189
-0.48272 -0.177537 0.808428 197 222 191
-0.492775 -0.182839 0.832572 198 223 191
-0.466471 -0.174625 0.795167 197 222 190
-0.470913 -0.177876 0.80997 196 222 189
-0.483112 -0.184143 0.838506 203 226 196
-0.471692 -0.181439 0.826197 197 223 190
-0.445673 -0.173018 0.78785 198 223 192
-0.464408 -0.181976 0.828643 196 222 190
-0.468617 -0.185358 0.844042 195 222 190
-0.441535 -0.176309 0.802837 195 222 189
-0.46608 -0.1879 0.855615 196 222 190
-0.458595 -0.186677 0.850047 196 223 190
-0.467118 -0.192011 0.874334 196 223 191
-0.446513 -0.185358 0.844042 196 223 191
-0.466848 -0.195738 0.891307 196 223 190
-0.460208 -0.194903 0.887504 197 223 191
-0.448799 -0.192011 0.874334 195 222 188
-0.446615 -0.193046 0.87905 194 222 188
-0.430228 -0.1879 0.855615 197 224 192
-0.449235 -0.198266 0.90282 197 224 192
-0.430481 -0.192011 0.874334 197 224 191
-0.474201 -0.213786 0.973489 198 225 193
-0.416209 -0.189681 0.863725 199 225 193
-0.43032 -0.198266 0.90282 198 224 192
-0.435561 -0.202911 0.923969 198 225 193
-0.454299 -0.214019 0.974549 197 224 192
-0.437501 -0.208447 0.949179 197 224 192
-0.443608 -0.213786 0.973489 197 224 192
-0.43799 -0.213533 0.972338 198 224 193
-0.432897 -0.213533 0.972338 199 225 194
-0.402014 -0.20066 0.91372 197 224 192
-0.423672 -0.214019 0.974549 198 225 193
-0.417079 -0.213257 0.971083 196 224 191
-0.424261 -0.219608 1 196 224 191
-0.432351 -0.226592 1.0318 193 222 188
-0.413786 -0.219608 1 196 224 191
-0.408548 -0.219608 1 197 225 193
-0.415527 -0.22626 1.03029 197 225 193
-0.412137 -0.227367 1.03533 197 225 192
-0.392835 -0.219608 1 197 225 193
-0.402999 -0.228334 1.03974 197 225 193
-0.397553 -0.228334 1.03974 197 225 193
-0.405237 -0.23598 1.07455 198 225 194
-0.371884 -0.219608 1 198 225 194
-0.399766 -0.239446 1.09033 198 225 194
-0.376724 -0.228915 1.04238 195 224 192
-0.372339 -0.229577 1.0454 195 224 192
-0.366863 -0.229577 1.0454 195 224 192
-0.379289 -0.240949 1.09718 195 224 192
-0.376251 -0.242697 1.10514 195 225 193
-0.403883 -0.264591 1.20483 197 226 195
-0.347447 -0.231232 1.05293 195 225 193
-0.361926 -0.244753 1.1145 195 225 193
-0.359657 -0.247205 1.12567 194 224 192
-0.372579 -0.260355 1.18555 194 224 192
-0.36637 -0.260355 1.18555 193 224 191
-0.346083 -0.250179 1.13921 191 223 190
-0.394936 -0.290504 1.32283 192 224 191
-0.36031 -0.269766 1.2284 191 223 191
-0.362335 -0.276214 1.25776 191 224 191
-0.37632 -0.292188 1.3305 193 225 193
-0.369351 -0.292188 1.3305 187 220 191
-0.379912 -0.306323 1.39486 147 196 149
-0.376561 -0.309574 1.40967 140 193 155
-0.377719 -0.316737 1.44228 142 199 162
-0.332407 -0.284429 1.29517 164 210 180
-0.334506 -0.292188 1.3305 199 229 208
-0.327537 -0.292188 1.3305 197 227 205
-0.375314 -0.342087 1.55772 171 212 183
-0.32877 -0.306323 1.39486 172 214 189
-0.329459 -0.313941 1.42955 170 216 191
-0.350837 -0.342087 1.55772 201 232 214
-0.340733 -0.340145 1.54887 175 219 195
-0.344703 -0.352501 1.60514 167 213 184
-0.335155 -0.351306 1.5997 166 210 178
-0.341036 -0.366636 1.6695 155 206 176
-0.320188 -0.353282 1.60869 193 228 209
-0.309531 -0.350753 1.59718 173 219 193
-0.310066 -0.36112 1.64438 175 218 190
-0.301453 -0.36112 1.64438 180 220 192
-0.287887 -0.355012 1.61657 169 214 185
-0.294676 -0.374395 1.70483 191 225 205
-0.272477 -0.357009 1.62567 172 216 189
-0.267001 -0.36112 1.64438 184 221 198
-0.261077 -0.364877 1.66149 165 212 182
-0.252374 -0.364877 1.66149 157 205 170
-0.24286 -0.363661 1.65596 190 221 200
-0.229902 -0.357009 1.62567 202 231 215
-0.226267 -0.364877 1.66149 185 223 200
-0.203348 -0.341035 1.55293 180 216 190
-0.204358 -0.357009 1.62567 168 213 183
-0.200159 -0.364877 1.66149 171 213 186
-0.178479 -0.340145 1.54887 184 220 197
-0.17568 -0.350753 1.59718 173 214 188
-0.168148 -0.352501 1.60514 193 225 206
-0.160878 -0.355012 1.61657 181 217 193
-0.156124 -0.363661 1.65596 198 226 205
-0.143944 -0.355012 1.61657 180 217 190
-0.129803 -0.340145 1.54887 167 210 178
-0.123385 -0.344882 1.57045 188 221 196
-0.122739 -0.36758 1.6738 180 217 190
-0.108288 -0.34925 1.59033 179 215 189
-0.100388 -0.350753 1.59718 172 212 182
-0.0972602 -0.370716 1.68808 161 204 170
-0.0861295 -0.36112 1.64438 164 210 182
-0.0789033 -0.36758 1.6738 211 235 224
-0.0669256 -0.350753 1.59718 199 228 213
-0.0583089 -0.34925 1.59033 166 210 183
-0.0520414 -0.363661 1.65596 181 217 190
-0.0418285 -0.350753 1.59718 185 220 196
-0.0330197 -0.346109 1.57603 187 221 198
-0.0250971 -0.350753 1.59718 173 213 186
-0.0164514 -0.344882 1.57045 182 219 194
-0.00825493 -0.346109 1.57603 166 210 181
0 -0.36758 1.6738 184 220 197
