ply
format ascii 1.0
element vertex 1213
property float x
property float y
property float z
property uchar red
property uchar green
property uchar blue
end_header
-0.0720986 -0.0544669 0.186014 65 49 54
-0.071654 -0.0548726 0.1874 63 46 51
-0.070735 -0.0549212 0.187566 64 48 52
-0.0689018 -0.0542513 0.185278 62 45 48
-0.0694146 -0.0554359 0.189323 64 43 47
-0.0697927 -0.0565456 0.193113 60 36 41
-0.0656861 -0.0540011 0.184423 60 37 43
-0.0647604 -0.0540347 0.184538 60 37 43
-0.0651414 -0.0551761 0.188436 59 36 41
-0.0646272 -0.0555828 0.189825 60 38 43
-0.0632849 -0.0552788 0.188787 60 38 43
-0.0624778 -0.05544 0.189338 61 38 43
-0.0609675 -0.0549724 0.187741 62 40 44
-0.0595537 -0.0545779 0.186393 62 40 44
-0.0595019 -0.0554393 0.189335 62 41 44
-0.0578243 -0.0547894 0.187116 61 40 42
-0.0569653 -0.0549061 0.187514 63 41 44
-0.0563563 -0.0552721 0.188764 62 39 42
-0.0554076 -0.055312 0.1889 61 38 42
-0.0532397 -0.0541142 0.18481 60 36 40
-0.0521089 -0.0539456 0.184234 60 37 42
-0.0525416 -0.0554198 0.189269 59 36 39
-0.0500216 -0.0537764 0.183656 59 36 40
-0.0500575 -0.0548702 0.187392 60 37 41
-0.0496833 -0.0555493 0.189711 60 37 41
-0.0485014 -0.0553345 0.188977 59 36 40
-0.0470735 -0.0548243 0.187235 60 38 41
-0.0463611 -0.0551434 0.188325 59 37 39
-0.0466748 -0.0567235 0.193721 59 36 39
-0.0455207 -0.0565502 0.193129 59 40 43
-0.0441745 -0.0561251 0.191677 60 40 44
-0.0425988 -0.0553817 0.189138 61 41 47
-0.0418601 -0.0557171 0.190284 61 46 52
-0.0402631 -0.0548986 0.187488 62 49 55
-0.0398511 -0.0556953 0.190209 61 49 56
-0.0396353 -0.056814 0.19403 62 51 57
-0.0375821 -0.0552886 0.188821 63 53 59
-0.0361722 -0.0546527 0.186649 64 53 60
-0.0350322 -0.0544005 0.185787 64 53 60
-0.0345846 -0.05524 0.188654 63 51 59
-0.0344864 -0.0567031 0.193651 65 56 64
-0.0323011 -0.0547194 0.186876 65 58 65
-0.0312004 -0.0545064 0.186149 65 58 65
-0.0304799 -0.0549655 0.187717 65 58 65
-0.0300634 -0.0560215 0.191323 65 59 66
-0.0281839 -0.0543301 0.185547 66 59 67
-0.0274493 -0.0548038 0.187165 67 60 68
-0.02728 -0.0564832 0.1929 67 61 69
-0.0255551 -0.0549468 0.187653 65 60 68
-0.0244255 -0.0546186 0.186532 66 60 70
-0.0236635 -0.0551196 0.188243 69 66 76
-0.0225702 -0.0548586 0.187352 68 66 73
-0.0222795 -0.0566136 0.193346 67 63 71
-0.0203428 -0.0541538 0.184945 71 66 75
-0.0192989 -0.0539436 0.184227 71 67 76
-0.0186087 -0.0547521 0.186988 71 67 77
-0.0178811 -0.0555341 0.189659 72 66 76
-0.0166322 -0.0546938 0.186789 75 71 81
-0.0162252 -0.0566901 0.193607 73 74 83
-0.0146475 -0.0545897 0.186434 72 80 86
-0.0138124 -0.0551541 0.188361 69 78 85
-0.0127807 -0.0549602 0.187699 70 77 85
-0.0117806 -0.0548813 0.18743 79 78 86
-0.0105551 -0.0536424 0.183198 85 86 87
-0.00975011 -0.0545064 0.186149 80 86 91
-0.00856806 -0.0532204 0.181757 83 88 96
-0.00783988 -0.0547845 0.187099 85 91 100
-0.00694375 -0.0554541 0.189386 87 105 114
-0.00573401 -0.0534251 0.182456 83 108 116
-0.00499574 -0.0558558 0.190757 94 123 124
-0.00385032 -0.0538115 0.183776 91 130 128
-0.00293776 -0.0547436 0.186959 99 141 134
-0.00194869 -0.0544691 0.186022 97 141 134
-0.000986761 -0.0551632 0.188392 114 148 146
0 -0.0535049 0.182729 130 166 164
0.000974947 -0.0545028 0.186137 130 180 168
0.00193513 -0.0540901 0.184728 140 192 171
0.00290649 -0.0541608 0.184969 149 199 177
0.00382795 -0.0534989 0.182708 164 207 187
0.00469472 -0.0524901 0.179263 162 208 184
0.00567784 -0.0529018 0.180669 180 217 196
0.00654812 -0.0522946 0.178595 151 208 178
0.00766348 -0.0535518 0.182889 150 208 177
0.00850151 -0.052807 0.180345 182 226 204
0.00941808 -0.0526503 0.17981 145 214 183
0.0104813 -0.0532673 0.181917 149 215 184
0.0114618 -0.0533959 0.182357 167 217 188
0.0123914 -0.0532864 0.181982 183 224 197
0.0134529 -0.0537188 0.183459 179 220 198
0.014089 -0.0525082 0.179325 149 193 166
0.0152613 -0.0533225 0.182106 142 188 158
0.0159548 -0.0524664 0.179182 163 196 173
0.0170421 -0.0529284 0.18076 121 157 131
0.0178293 -0.0524589 0.179157 105 131 107
0.0191689 -0.0535803 0.182986 95 115 99
0.0200374 -0.0533408 0.182168 87 94 84
0.0206228 -0.0524037 0.178968 88 85 86
0.0222533 -0.0540883 0.184721 81 77 82
0.0227005 -0.0528765 0.180583 74 77 80
0.0243235 -0.0543906 0.185754 71 75 76
0.0237827 -0.0511359 0.174638 71 71 72
0.0254294 -0.0526514 0.179814 69 70 70
0.0260921 -0.0520942 0.177911 68 66 71
0.027318 -0.0526609 0.179847 68 62 70
0.0291232 -0.0542695 0.18534 68 61 69
0.0298073 -0.0537525 0.183574 68 61 69
0.030289 -0.0529143 0.180712 67 59 68
0.0311151 -0.0527103 0.180015 68 60 69
0.0321506 -0.0528626 0.180535 66 58 67
0.0333496 -0.0532673 0.181917 65 57 66
0.03405 -0.0528753 0.180579 64 57 66
0.0356584 -0.0538764 0.183997 66 57 67
0.0372689 -0.0548279 0.187247 65 56 67
0.0380206 -0.0544994 0.186125 64 55 66
0.0393416 -0.0549832 0.187778 64 54 66
0.0398204 -0.054295 0.185427 63 54 64
0.0403121 -0.0536567 0.183247 63 53 65
0.0403794 -0.0524963 0.179284 63 54 65
0.0411162 -0.0522394 0.178407 63 53 64
0.0437336 -0.0543301 0.185547 63 53 65
0.0446139 -0.0542188 0.185167 63 53 64
0.0453576 -0.0539499 0.184248 61 50 63
0.0456289 -0.0531419 0.181489 63 53 64
0.0474128 -0.0540925 0.184736 62 50 63
0.0476489 -0.0532747 0.181943 61 50 62
0.0500944 -0.0549107 0.18753 62 51 63
0.0513309 -0.055184 0.188463 63 51 63
0.0512239 -0.05403 0.184522 63 51 63
0.0526489 -0.0545046 0.186143 62 51 63
0.0539748 -0.0548614 0.187361 62 51 63
0.0541549 -0.0540614 0.184629 62 50 62
0.0549749 -0.0539172 0.184137 61 49 62
0.0559276 -0.0539059 0.184098 62 51 63
0.0581684 -0.0551154 0.188229 63 51 62
0.0580942 -0.0541277 0.184856 63 51 62
0.0594535 -0.054486 0.18608 63 51 62
0.0613901 -0.0553535 0.189042 61 48 60
0.0634724 -0.0563226 0.192352 61 49 60
0.0638946 -0.0558113 0.190606 61 49 60
0.0645463 -0.0555131 0.189587 61 49 61
0.0665302 -0.0563525 0.192454 62 49 61
0.0679714 -0.0567139 0.193688 62 51 61
0.0655822 -0.0539156 0.184132 63 52 62
0.0696416 -0.0564232 0.192695 61 48 60
0.0684192 -0.0546409 0.186609 62 50 61
0.0740789 -0.0583276 0.199199 62 50 61
0.0706164 -0.0548291 0.187251 62 51 61
0.0731063 -0.0559848 0.191198 61 50 60
0.0757015 -0.0571888 0.19531 62 50 61
0.0759598 -0.0566188 0.193363 62 51 61
0.0780269 -0.0573943 0.196012 62 51 61
0.0808764 -0.0587177 0.200531 62 51 61
0.0819463 -0.0587317 0.200579 61 50 60
0.0815833 -0.0577314 0.197163 61 50 60
0.0819071 -0.0572361 0.195471 61 50 60
0.0815015 -0.0562495 0.192102 61 50 60
0.0825618 -0.0562864 0.192228 62 51 61
0.0839237 -0.0565256 0.193045 62 51 61
0.0814822 -0.0542277 0.185197 62 50 60
0.0835755 -0.0549665 0.18772 63 51 60
0.0822477 -0.0534643 0.18259 63 51 60
0.0837533 -0.0538171 0.183795 62 49 59
0.0890098 -0.0565449 0.193111 63 50 59
0.0874922 -0.0549563 0.187686 63 50 60
0.0858451 -0.0533225 0.182106 62 49 59
0.0852578 -0.0523758 0.178873 63 50 59
0.0886305 -0.0538559 0.183928 62 49 58
0.0891692 -0.0536006 0.183056 62 49 58
0.0891044 -0.0529919 0.180977 63 49 58
0.0896247 -0.0527402 0.180117 62 46 56
0.092182 -0.05368 0.183327 62 46 55
0.0928337 -0.0535023 0.18272 60 42 52
0.0947023 -0.0540223 0.184496 58 38 49
0.0971547 -0.0548614 0.187361 59 38 49
0.0952401 -0.0532424 0.181832 58 37 47
0.0952958 -0.0527461 0.180137 58 37 47
0.0964877 -0.0528822 0.180602 57 35 46
0.0967062 -0.0524874 0.179254 58 37 49
0.0961308 -0.0516734 0.176474 58 37 48
0.101593 -0.0540892 0.184724 59 40 51
0.100387 -0.0529431 0.18081 60 42 52
0.101727 -0.0531485 0.181512 63 48 56
0.102444 -0.0530273 0.181098 63 50 57
0.10643 -0.0545853 0.186419 64 53 59
0.102224 -0.0519517 0.177424 67 56 62
0.107131 -0.0539546 0.184265 68 59 63
0.105941 -0.0528793 0.180592 68 60 64
0.109036 -0.0539425 0.184223 69 62 65
0.106777 -0.0523615 0.178824 69 63 66
0.109972 -0.0534594 0.182573 71 65 68
0.114805 -0.0553276 0.188954 70 64 66
0.113079 -0.05403 0.184522 69 63 65
0.111718 -0.0529272 0.180756 67 61 63
0.113747 -0.0534355 0.182492 70 64 67
-0.389582 -0.17825 0.619825 183 220 194
-0.378749 -0.17475 0.607653 181 218 190
-0.394053 -0.183352 0.637564 180 217 190
-0.383422 -0.17993 0.625666 177 217 190
-0.386591 -0.182981 0.636275 177 218 186
-0.340167 -0.162408 0.564737 181 217 187
-0.345826 -0.166558 0.579167 178 214 183
-0.310421 -0.150829 0.524473 180 212 179
-0.314433 -0.154143 0.535997 175 209 173
-0.297427 -0.147119 0.511574 170 203 165
-0.294999 -0.147245 0.51201 161 189 156
-0.291836 -0.147002 0.511168 139 166 129
-0.288944 -0.146894 0.510789 132 155 118
-0.251042 -0.128818 0.447934 117 139 104
-0.243504 -0.126128 0.438583 104 126 95
-0.242256 -0.126677 0.440491 103 119 91
-0.226059 -0.119344 0.414993 100 108 88
-0.212303 -0.11317 0.393523 94 101 90
-0.19999 -0.107652 0.374334 86 92 82
-0.168171 -0.0914205 0.317894 84 90 76
-0.150272 -0.0825072 0.2869 82 89 72
-0.140154 -0.0777288 0.270284 82 91 74
-0.125681 -0.0704135 0.244847 82 87 77
-0.11919 -0.0674651 0.234594 79 74 72
-0.104542 -0.0597906 0.207908 80 74 73
-0.103899 -0.060048 0.208803 79 73 72
-0.0997616 -0.0582705 0.202622 75 65 66
-0.0969918 -0.0572618 0.199115 78 68 69
-0.0947204 -0.0565286 0.196565 75 66 66
-0.0934749 -0.0563984 0.196112 74 65 65
-0.0904348 -0.0551703 0.191842 72 63 64
-0.0893618 -0.0551283 0.191696 71 62 63
-0.0869953 -0.0542783 0.18874 71 61 62
-0.0881768 -0.0556478 0.193503 69 59 61
-0.0854507 -0.0545544 0.189701 70 60 62
-0.0854349 -0.055186 0.191897 70 60 61
-0.0856757 -0.0560004 0.194729 67 56 57
-0.0826953 -0.0547035 0.190219 68 57 58
-0.0802406 -0.0537271 0.186824 69 57 59
-0.0809156 -0.0548479 0.190721 66 55 57
-0.080937 -0.0555482 0.193156 67 54 56
-0.0789293 -0.0548559 0.190749 64 50 54
-0.0759307 -0.0534485 0.185855 65 52 55
-0.0765472 -0.0545822 0.189797 66 53 56
-0.0769071 -0.0555604 0.193199 65 50 55
-0.0756491 -0.0553803 0.192572 66 51 55
-0.0735097 -0.0545413 0.189655 65 48 53
-0.0712057 -0.0535555 0.186227 63 46 51
-0.0718552 -0.0547947 0.190536 64 46 50
-0.0693465 -0.0536265 0.186474 62 43 47
-0.0689898 -0.0541127 0.188165 63 41 46
-0.0680196 -0.054125 0.188207 61 38 42
-0.067448 -0.0544594 0.18937 60 37 42
-0.0665387 -0.0545271 0.189606 60 38 44
-0.0645468 -0.0536962 0.186716 60 38 43
-0.0641135 -0.0541563 0.188316 60 38 43
-0.0632127 -0.0542296 0.188571 61 39 44
-0.0629487 -0.0548604 0.190765 62 41 44
-0.0625658 -0.0554062 0.192662 61 40 44
-0.0605533 -0.054503 0.189522 61 39 43
-0.05974 -0.0546672 0.190093 62 40 43
-0.058706 -0.0546315 0.189969 62 41 44
-0.0566609 -0.0536375 0.186512 62 40 42
-0.0566424 -0.0545606 0.189722 61 38 41
-0.0565289 -0.0554237 0.192723 61 38 41
-0.0537783 -0.0536855 0.186679 60 37 41
-0.0533343 -0.0542283 0.188567 60 37 41
-0.0529585 -0.0548621 0.19077 59 36 40
-0.050886 -0.0537289 0.18683 60 37 41
-0.0489229 -0.0526689 0.183144 58 34 38
-0.0495235 -0.0543818 0.1891 59 35 39
-0.0483359 -0.054161 0.188332 59 36 40
-0.0468184 -0.0535535 0.18622 59 37 39
-0.0466312 -0.0544743 0.189422 58 35 38
-0.0459697 -0.0548689 0.190794 60 39 42
-0.0447733 -0.0546285 0.189958 60 40 44
-0.0435392 -0.0543301 0.188921 60 39 44
-0.0436235 -0.0557012 0.193688 60 40 46
-0.0422659 -0.0552527 0.192129 60 45 50
-0.0407227 -0.0545337 0.189629 61 46 52
-0.0393271 -0.0539814 0.187708 61 46 54
-0.0389036 -0.0547694 0.190448 61 48 56
-0.0376235 -0.0543611 0.189028 62 50 57
-0.0374482 -0.0555702 0.193233 63 51 58
-0.034905 -0.0532351 0.185113 64 53 60
-0.0352752 -0.0553368 0.192421 63 51 59
-0.0345067 -0.0557234 0.193765 62 52 60
-0.0327583 -0.054503 0.189522 63 55 62
-0.0310995 -0.05336 0.185547 64 56 63
-0.0292763 -0.0518521 0.180304 65 58 65
-0.0294178 -0.0538395 0.187215 66 58 65
-0.0285034 -0.0539649 0.187651 65 58 66
-0.026572 -0.0521049 0.181183 66 58 66
-0.0269949 -0.0548947 0.190884 66 60 68
-0.0254067 -0.0536522 0.186563 66 60 68
-0.0242673 -0.0532958 0.185324 66 60 69
-0.023793 -0.0544315 0.189273 66 61 70
-0.0224581 -0.0536115 0.186422 66 63 70
-0.021318 -0.0532029 0.185001 68 62 70
-0.0203612 -0.0532351 0.185113 67 61 70
-0.0193357 -0.0530814 0.184579 67 62 71
-0.0188946 -0.0546004 0.189861 69 64 73
-0.017843 -0.0544261 0.189254 67 61 72
-0.0169749 -0.0548241 0.190638 68 64 74
-0.0153683 -0.0527372 0.183382 70 67 77
-0.014587 -0.0533934 0.185663 70 73 81
-0.013674 -0.0536265 0.186474 69 73 81
-0.0127522 -0.0538585 0.187281 68 71 79
-0.0118186 -0.0540752 0.188034 74 69 78
-0.0105872 -0.0528447 0.183755 77 73 80
-0.00956222 -0.0525015 0.182562 80 77 85
-0.0085785 -0.0523337 0.181979 81 80 88
-0.0077062 -0.0528887 0.183908 84 81 89
-0.00677103 -0.0531092 0.184675 90 87 97
-0.00582773 -0.0533287 0.185438 82 95 104
-0.00468882 -0.051488 0.179038 82 103 105
-0.00381668 -0.0523888 0.18217 88 108 110
-0.00288473 -0.0527954 0.183584 92 115 113
-0.00198443 -0.0544777 0.189434 98 120 117
-0.000970129 -0.0532651 0.185217 98 128 126
0 -0.0521133 0.181212 104 136 134
0.000963892 -0.0529226 0.184026 110 144 135
0.00191433 -0.0525532 0.182742 128 162 146
0.00287229 -0.0525678 0.182793 126 170 151
0.00382431 -0.0524936 0.182534 140 184 167
0.00478039 -0.0524936 0.182534 139 191 172
0.00595459 -0.0544895 0.189475 143 198 177
0.00657102 -0.0515404 0.17922 154 207 188
0.00743618 -0.0510355 0.177464 137 199 177
0.00844094 -0.0514945 0.179061 161 213 192
0.00952608 -0.052303 0.181872 144 208 180
0.0106041 -0.052929 0.184049 183 222 202
0.0113221 -0.0518034 0.180135 148 206 175
0.0122741 -0.0518395 0.18026 155 209 180
0.013095 -0.0513559 0.178579 166 212 187
0.0143352 -0.0524716 0.182458 164 201 175
0.0152857 -0.0524538 0.182396 130 176 140
0.0163955 -0.0529529 0.184132 156 184 158
0.0167981 -0.0512389 0.178172 113 143 121
0.0178175 -0.051488 0.179038 89 110 96
0.0186336 -0.0511539 0.177876 78 95 88
0.0191684 -0.0501163 0.174268 79 82 81
0.0206704 -0.0515868 0.179382 79 77 80
0.0219587 -0.0524193 0.182276 74 72 78
0.0227716 -0.0520949 0.181148 72 71 77
0.0231819 -0.0509122 0.177035 68 68 71
0.0243502 -0.0514211 0.178805 69 66 70
0.0258246 -0.0525149 0.182609 69 66 68
0.0267074 -0.0523704 0.182106 66 63 70
0.0269736 -0.0510685 0.177579 68 64 71
0.0283638 -0.0519105 0.180507 66 60 68
0.0292377 -0.0517839 0.180067 68 61 70
0.0301391 -0.0517122 0.179817 66 58 67
0.0310101 -0.0515942 0.179407 66 58 68
0.0320953 -0.0518292 0.180224 65 57 67
0.0328177 -0.0514817 0.179016 65 57 67
0.0353832 -0.0539644 0.187649 66 58 67
0.0348732 -0.0517492 0.179946 63 55 65
0.035589 -0.0514216 0.178807 65 56 66
0.0370331 -0.052136 0.181291 63 54 65
0.0398824 -0.0547436 0.190359 62 53 64
0.0390798 -0.0523337 0.181979 63 53 64
0.0409381 -0.0535169 0.186093 63 53 65
0.0404012 -0.0515868 0.179382 63 54 65
0.0422248 -0.0526899 0.183217 63 53 64
0.04303 -0.0525015 0.182562 62 52 64
0.0444914 -0.0531044 0.184658 62 51 64
0.0448302 -0.0523704 0.182106 62 51 63
0.0456646 -0.0522337 0.181631 61 50 63
0.0472567 -0.0529517 0.184127 60 49 62
0.0480258 -0.0527372 0.183382 62 52 64
0.0482339 -0.0519272 0.180565 62 51 64
0.0512572 -0.0541208 0.188193 62 50 63
0.0510509 -0.0528859 0.183899 61 49 62
0.0528472 -0.053733 0.186844 60 50 62
0.053939 -0.0538459 0.187237 61 49 62
0.0547767 -0.0537057 0.186749 62 51 63
0.0564864 -0.0544103 0.1892 63 51 63
0.0576326 -0.0545573 0.189711 62 50 62
0.0572524 -0.0532788 0.185265 62 50 62
0.0587273 -0.0537405 0.18687 62 50 62
0.059863 -0.0538817 0.187361 62 49 62
0.059313 -0.0525256 0.182646 60 47 60
0.0634991 -0.0553401 0.192433 62 49 61
0.0641461 -0.0550304 0.191356 61 48 60
0.0629546 -0.0531773 0.184912 61 49 61
0.0639231 -0.0531773 0.184912 61 49 61
0.0677733 -0.0555388 0.193124 61 48 60
0.0673218 -0.0543575 0.189016 62 49 60
0.0680792 -0.0541724 0.188372 62 49 60
0.0707367 -0.055483 0.192929 62 50 60
0.0695816 -0.0538082 0.187106 63 51 62
0.0723839 -0.0551978 0.191938 63 51 61
0.0760233 -0.057179 0.198827 62 50 61
0.0733754 -0.0544417 0.189309 61 49 60
0.0755139 -0.0552813 0.192228 62 49 60
0.0792734 -0.0572699 0.199143 62 50 60
0.0782942 -0.0558279 0.194129 62 50 61
0.0764819 -0.0538365 0.187204 63 52 61
0.078239 -0.0543762 0.189081 62 51 60
0.0786862 -0.0540034 0.187785 61 50 60
0.0759746 -0.0514987 0.179075 60 48 59
0.0809311 -0.0541894 0.188431 61 49 59
0.0805284 -0.0532701 0.185235 62 49 60
0.0771894 -0.0504535 0.175441 63 50 61
0.0844522 -0.0545513 0.18969 63 51 60
0.0803704 -0.051311 0.178422 62 49 59
0.0842907 -0.0531953 0.184974 63 49 60
0.0844033 -0.052661 0.183117 64 51 60
0.0863013 -0.0532403 0.185131 63 49 60
0.0845436 -0.0515764 0.179345 62 49 59
0.0836033 -0.0504423 0.175402 62 48 57
0.0889515 -0.0530858 0.184594 61 47 57
0.0855419 -0.050502 0.175609 61 47 57
0.0884985 -0.0516917 0.179746 61 47 57
0.0866766 -0.0500946 0.174193 60 42 53
0.0904711 -0.051743 0.179924 59 40 51
0.0891007 -0.0504338 0.175372 59 39 50
0.0883801 -0.0495155 0.172179 57 36 48
0.0927228 -0.0514238 0.178814 58 36 48
0.0958809 -0.0526435 0.183056 57 34 45
0.0949798 -0.0516324 0.17954 56 33 45
0.0968223 -0.052118 0.181229 58 37 48
0.0958188 -0.0510771 0.177609 57 35 47
0.0974715 -0.0514585 0.178935 57 35 48
0.0989284 -0.0517302 0.17988 57 37 49
0.102044 -0.0528561 0.183795 61 44 54
0.101255 -0.0519571 0.180669 63 49 57
0.10049 -0.051087 0.177643 64 53 59
0.106027 -0.0534075 0.185713 65 54 60
0.101797 -0.0508105 0.176682 66 55 61
0.107673 -0.0532594 0.185197 66 56 61
0.106336 -0.0521285 0.181265 68 59 63
0.109927 -0.053412 0.185728 68 61 65
0.11168 -0.0537876 0.187034 68 61 65
0.107208 -0.0511851 0.177984 68 62 65
0.110365 -0.0522382 0.181646 69 62 65
0.111024 -0.0521005 0.181168 69 63 65
0.112552 -0.0523704 0.182106 69 64 66
0.113429 -0.0523348 0.181982 68 62 65
-0.405019 -0.181944 0.644385 182 220 191
-0.413756 -0.187431 0.663817 182 220 190
-0.372526 -0.170184 0.602735 182 220 190
-0.404118 -0.186194 0.659437 181 220 189
-0.350731 -0.16299 0.577255 179 218 187
-0.393107 -0.184271 0.652625 181 219 190
-0.376632 -0.178097 0.630759 180 218 190
-0.382563 -0.182502 0.646362 182 219 187
-0.339758 -0.163529 0.579167 182 217 185
-0.357931 -0.173828 0.615641 179 213 181
-0.325378 -0.159455 0.564737 181 210 179
-0.348946 -0.172574 0.6112 172 201 169
-0.316715 -0.158084 0.559881 158 191 153
-0.319703 -0.161067 0.570447 153 181 142
-0.309647 -0.157473 0.557716 139 164 119
-0.304585 -0.156373 0.553822 130 148 109
-0.284319 -0.147372 0.521944 111 123 98
-0.281191 -0.147166 0.521213 95 106 91
-0.267128 -0.141176 0.5 95 106 91
-0.243487 -0.129957 0.460263 99 108 90
-0.226118 -0.121893 0.431704 94 104 85
-0.213852 -0.116445 0.41241 86 95 77
-0.186701 -0.102699 0.363725 83 88 79
-0.176856 -0.0982861 0.348097 81 82 77
-0.155326 -0.0872203 0.308905 79 76 74
-0.138855 -0.0787916 0.279054 83 76 74
-0.127843 -0.0733149 0.259657 78 68 68
-0.110285 -0.0639261 0.226405 78 69 69
-0.109278 -0.064031 0.226776 77 69 68
-0.100467 -0.059515 0.210782 75 67 67
-0.0947174 -0.0567324 0.200927 75 66 66
-0.0954856 -0.0578351 0.204833 75 66 66
-0.0873555 -0.053512 0.189522 73 63 64
-0.089246 -0.0552985 0.195849 72 62 63
-0.0846182 -0.0530407 0.187852 72 62 63
-0.0861633 -0.0546446 0.193533 72 62 63
-0.0851624 -0.0546528 0.193562 69 58 60
-0.0831187 -0.0539839 0.191193 70 59 60
-0.0830576 -0.0546021 0.193382 70 58 60
-0.0818072 -0.054444 0.192822 67 56 57
-0.0803404 -0.0541362 0.191732 67 55 57
-0.0789515 -0.0538737 0.190803 67 54 57
-0.0786659 -0.054367 0.19255 66 54 57
-0.0792293 -0.0554675 0.196447 66 53 56
-0.0745274 -0.0528623 0.187221 65 50 55
-0.072191 -0.0518879 0.183769 65 50 54
-0.0762292 -0.0555308 0.196671 66 50 54
-0.0720665 -0.0532175 0.188479 65 49 53
-0.0717516 -0.0537208 0.190261 65 48 52
-0.0708655 -0.0538047 0.190558 64 45 49
-0.0685361 -0.0527795 0.186927 62 40 45
-0.0692477 -0.0541003 0.191605 60 37 42
-0.0681608 -0.0540343 0.191372 60 37 42
-0.0653492 -0.0525787 0.186216 60 38 43
-0.0651028 -0.053174 0.188325 60 38 43
-0.0643606 -0.0533766 0.189042 61 41 45
-0.0635446 -0.0535232 0.189561 61 41 45
-0.0624403 -0.0534279 0.189224 62 40 44
-0.0616053 -0.0535637 0.189705 61 40 43
-0.0606754 -0.05362 0.189904 62 41 44
-0.0595837 -0.0535328 0.189595 62 41 43
-0.0576846 -0.052705 0.186664 62 40 42
-0.0571591 -0.0531253 0.188152 61 39 41
-0.0548283 -0.051853 0.183646 61 39 42
-0.0549984 -0.0529427 0.187505 61 38 41
-0.0545718 -0.0534872 0.189434 60 36 41
-0.0528128 -0.0527216 0.186722 60 37 41
-0.0520715 -0.0529625 0.187575 61 38 41
-0.0520175 -0.053925 0.190984 60 37 41
-0.0506666 -0.0535544 0.189672 60 36 40
-0.0487796 -0.0525911 0.18626 59 36 40
-0.048662 -0.053535 0.189603 59 36 40
-0.0464851 -0.0522055 0.184894 59 37 40
-0.0463728 -0.0531874 0.188372 59 36 40
-0.0451817 -0.0529479 0.187524 58 36 40
-0.0441122 -0.0528433 0.187153 59 38 41
-0.0440053 -0.0539133 0.190943 60 40 45
-0.0426371 -0.0534518 0.189309 59 38 45
-0.0417386 -0.0535713 0.189732 61 44 50
-0.0408908 -0.0537632 0.190411 61 45 51
-0.0401509 -0.0541102 0.19164 61 47 54
-0.0392104 -0.0541977 0.19195 61 47 55
-0.0363158 -0.0515176 0.182458 61 48 56
-0.0373078 -0.0543553 0.192508 62 49 57
-0.03589 -0.0537421 0.190337 63 51 58
-0.0347539 -0.0535278 0.189578 62 50 58
-0.0337591 -0.0535249 0.189567 63 53 61
-0.0324871 -0.0530691 0.187953 62 52 60
-0.0312194 -0.0525919 0.186263 63 54 61
-0.0306399 -0.0532806 0.188702 62 54 61
-0.030119 -0.0541206 0.191677 63 55 63
-0.0289125 -0.0537441 0.190344 64 56 65
-0.0273935 -0.0527392 0.186785 64 56 65
-0.0264727 -0.052854 0.187191 65 58 66
-0.0255895 -0.0530556 0.187905 64 57 65
-0.0249973 -0.053901 0.190899 64 58 67
-0.0233759 -0.0525051 0.185955 65 59 68
-0.022743 -0.0533045 0.188787 64 60 67
-0.0221469 -0.0542669 0.192195 66 59 67
-0.020688 -0.0531059 0.188083 65 59 67
-0.0197677 -0.0532806 0.188702 66 60 69
-0.0190223 -0.0539701 0.191144 65 59 68
-0.0179464 -0.0537462 0.190351 67 61 70
-0.0169932 -0.0538852 0.190843 66 60 69
-0.0158013 -0.0532374 0.188549 68 63 73
-0.0148844 -0.0534912 0.189448 65 66 74
-0.013726 -0.0528518 0.187183 65 68 76
-0.0127722 -0.052962 0.187574 68 68 77
-0.0115287 -0.0517895 0.183421 70 65 74
-0.0111096 -0.054444 0.192822 74 68 77
-0.00964889 -0.0520141 0.184217 73 69 78
-0.00875628 -0.052447 0.18575 76 74 81
-0.00754016 -0.0508083 0.179946 77 75 82
-0.00671666 -0.0517248 0.183192 80 76 87
-0.00582475 -0.0523323 0.185344 76 77 88
-0.00478484 -0.0515871 0.182704 82 87 92
-0.00388531 -0.0523612 0.185446 84 93 98
-0.00287742 -0.0517043 0.183119 80 93 97
-0.00189488 -0.0510735 0.180885 85 99 101
-0.000959912 -0.0517458 0.183266 83 103 102
0 -0.0523898 0.185547 83 108 107
0.000975607 -0.0525919 0.186263 92 117 113
0.00193427 -0.0521351 0.184645 89 121 115
0.00281746 -0.0506267 0.179303 93 129 126
0.00385489 -0.0519512 0.183994 94 138 133
0.00475881 -0.0513065 0.18171 108 160 149
0.00565012 -0.0507634 0.179787 104 161 146
0.00671839 -0.0517381 0.183239 121 181 164
0.00763537 -0.0514498 0.182218 151 201 183
0.0084289 -0.0504862 0.178805 128 192 170
0.009576 -0.0516212 0.182825 121 188 158
0.0105142 -0.0515261 0.182488 180 217 200
0.0110943 -0.0498381 0.17651 141 200 175
0.0125654 -0.0521049 0.184538 138 198 171
0.0131557 -0.0506557 0.179406 143 189 160
0.0146069 -0.0524941 0.185917 137 176 152
0.0148141 -0.0499113 0.176769 119 155 131
0.0163537 -0.0518573 0.183661 101 129 108
0.0168184 -0.0503681 0.178387 97 116 105
0.0175249 -0.0497217 0.176098 72 89 81
0.0182963 -0.0493147 0.174656 68 81 81
0.0196886 -0.0505404 0.178997 74 78 81
0.0208015 -0.0509701 0.180519 74 73 78
0.0213592 -0.0500611 0.1773 69 67 73
0.0221747 -0.0498069 0.176399 70 68 74
0.0236428 -0.0509803 0.180555 68 66 71
0.0243873 -0.0505631 0.179077 68 64 69
0.0258355 -0.0515818 0.182686 67 63 68
0.0263597 -0.0507488 0.179735 67 64 71
0.027149 -0.0504662 0.178734 68 62 71
0.0282056 -0.0506825 0.179501 67 60 69
0.0290609 -0.0505349 0.178978 67 59 68
0.0311901 -0.0525424 0.186088 67 60 69
0.0311225 -0.0508398 0.180058 66 59 69
0.0316916 -0.0502469 0.177958 66 58 68
0.0320134 -0.0493068 0.174628 65 57 67
0.033736 -0.0505166 0.178913 64 56 66
0.0349204 -0.050877 0.180189 65 56 66
0.035734 -0.0506923 0.179535 64 55 66
0.0371295 -0.0513213 0.181763 64 55 66
0.0373862 -0.0503843 0.178444 64 55 65
0.0387186 -0.0509073 0.180297 63 54 64
0.0398003 -0.0510836 0.180921 61 51 64
0.0401314 -0.0503107 0.178184 61 52 64
0.0422972 -0.0518206 0.183531 62 53 64
0.0422423 -0.0506033 0.17922 62 52 63
0.0438183 -0.0513501 0.181865 62 51 63
0.0447998 -0.0513833 0.181982 61 51 63
0.0455983 -0.0512096 0.181367 62 51 63
0.0468513 -0.0515429 0.182548 60 49 62
0.0481101 -0.0518692 0.183703 60 49 62
0.0501529 -0.0530114 0.187749 62 52 64
0.0492588 -0.0510651 0.180856 62 50 62
0.0504424 -0.0513054 0.181707 62 49 63
0.051087 -0.0509989 0.180621 60 50 63
0.0534856 -0.0524226 0.185663 60 48 62
0.0539702 -0.0519528 0.184 61 48 61
0.0556147 -0.0525967 0.18628 61 49 62
0.0555432 -0.0516234 0.182833 62 49 62
0.0577682 -0.0527813 0.186934 61 48 61
0.0590384 -0.0530429 0.18786 62 49 61
0.0601305 -0.0531384 0.188199 61 48 61
0.0612706 -0.0532726 0.188674 60 46 60
0.0618511 -0.0529237 0.187438 61 48 61
0.0626539 -0.0527731 0.186905 60 47 60
0.0636875 -0.0528183 0.187065 61 48 60
0.0642374 -0.0524672 0.185821 60 47 60
0.0675774 -0.0543714 0.192565 61 48 60
0.0672265 -0.0532936 0.188748 62 49 61
0.0669041 -0.0522694 0.185121 62 50 61
0.068191 -0.0525137 0.185986 61 48 60
0.0696094 -0.052851 0.187181 61 48 59
0.0710049 -0.0531618 0.188281 62 48 60
0.0718898 -0.053087 0.188016 61 48 60
0.0724723 -0.0527939 0.186978 62 49 60
0.0732124 -0.052622 0.186369 62 49 60
0.0733946 -0.0520588 0.184375 61 48 59
0.0758845 -0.0531259 0.188154 62 49 60
0.0791443 -0.0546976 0.193721 61 49 60
0.0751288 -0.0512653 0.181564 62 50 60
0.0741483 -0.0499637 0.176955 61 49 60
0.0794708 -0.0528891 0.187316 60 48 59
0.0788308 -0.0518234 0.183541 61 48 59
0.0822897 -0.0534455 0.189286 61 48 59
0.080016 -0.0513501 0.181865 61 47 59
0.0817104 -0.0518206 0.183531 62 48 59
0.0829815 -0.0520148 0.184219 61 47 58
0.0832311 -0.0515716 0.182649 60 45 57
0.0852209 -0.0522044 0.184891 61 47 58
0.0837168 -0.0507068 0.179587 61 47 58
0.0873459 -0.0523171 0.18529 61 46 57
0.0855981 -0.0507068 0.179587 61 46 57
0.0872414 -0.0511186 0.181045 60 44 55
0.0854937 -0.0495559 0.17551 60 44 55
0.0871391 -0.0499722 0.176985 59 42 53
0.0874177 -0.0496043 0.175682 60 41 52
0.0907904 -0.0509815 0.180559 59 37 49
0.0902088 -0.0501327 0.177553 58 35 47
0.092023 -0.0506191 0.179276 57 33 46
0.0930917 -0.0506897 0.179526 57 35 46
0.0957272 -0.0516035 0.182762 57 33 45
0.09448 -0.0504269 0.178595 56 32 44
0.0954154 -0.0504269 0.178595 57 34 46
0.099079 -0.0518547 0.183652 57 35 48
0.0988193 -0.0512215 0.181409 59 39 51
0.0994305 -0.0510474 0.180793 60 42 52
0.0995716 -0.0506376 0.179342 63 48 57
0.0990458 -0.0498995 0.176727 63 50 57
0.100861 -0.0503437 0.178301 65 55 61
0.103914 -0.0513914 0.182011 65 55 61
0.104252 -0.0510899 0.180944 68 58 63
0.105244 -0.0511113 0.181019 69 60 63
0.106533 -0.0512754 0.1816 68 59 63
0.111144 -0.0530215 0.187785 66 59 63
0.108364 -0.0512417 0.181481 69 62 65
0.110138 -0.0516277 0.182848 68 62 65
0.111044 -0.0516035 0.182762 70 63 66
0.115211 -0.0530828 0.188001 69 63 65
0.113204 -0.0517159 0.183161 69 63 65
0.114395 -0.0518206 0.183531 69 63 65
-0.422684 -0.186363 0.67249 178 218 187
-0.433023 -0.192526 0.694728 181 220 189
-0.412166 -0.184806 0.666871 185 222 192
-0.401986 -0.181782 0.655958 184 221 191
-0.40518 -0.184806 0.666871 182 220 189
-0.390806 -0.1798 0.648805 181 219 190
-0.385948 -0.179122 0.646362 182 221 192
-0.401903 -0.188178 0.679038 181 220 189
-0.382852 -0.180858 0.652625 181 220 189
-0.383394 -0.182746 0.659437 183 220 189
-0.366595 -0.176327 0.636275 183 216 184
-0.3745 -0.181782 0.655958 187 212 182
-0.342315 -0.167698 0.605137 182 210 176
-0.36225 -0.179122 0.646362 170 202 164
-0.339342 -0.169378 0.6112 163 190 149
-0.324665 -0.163596 0.590334 152 179 144
-0.327385 -0.166552 0.601003 133 157 120
-0.306147 -0.15726 0.567472 117 139 105
-0.306199 -0.158829 0.573133 111 124 99
-0.28941 -0.151607 0.547071 102 113 90
-0.281482 -0.148928 0.537405 94 103 84
-0.282001 -0.15071 0.543835 96 101 85
-0.26219 -0.141552 0.510789 89 90 83
-0.259335 -0.141454 0.510435 89 89 84
-0.226839 -0.125018 0.451125 84 85 79
-0.220917 -0.123036 0.443973 81 80 74
-0.20292 -0.114215 0.412143 83 82 75
-0.168536 -0.0958818 0.345989 81 76 72
-0.142234 -0.081798 0.295167 79 73 71
-0.129791 -0.0754622 0.272305 76 68 67
-0.116536 -0.0685082 0.247211 78 69 68
-0.100966 -0.0600222 0.21659 77 68 67
-0.10218 -0.0614341 0.221684 74 64 64
-0.0900165 -0.054743 0.19754 71 62 63
-0.0880218 -0.0541524 0.195408 72 63 63
-0.0841578 -0.0523843 0.189028 71 62 62
-0.085941 -0.0541311 0.195332 69 59 60
-0.0836892 -0.0533479 0.192505 71 60 61
-0.0811025 -0.0523294 0.18883 70 59 59
-0.0822637 -0.053734 0.193899 68 57 58
-0.0786417 -0.0520103 0.187679 69 58 59
-0.0792338 -0.0530651 0.191485 68 56 57
-0.0761992 -0.051687 0.186512 68 55 57
-0.0753913 -0.0518032 0.186931 67 55 56
-0.0766455 -0.0533579 0.192541 68 54 57
-0.0743456 -0.0524469 0.189254 67 53 55
-0.073067 -0.0522414 0.188513 65 50 53
-0.0714453 -0.0517817 0.186854 64 46 51
-0.0717271 -0.052708 0.190196 64 47 51
-0.0709428 -0.0528659 0.190766 65 47 50
-0.0691109 -0.0522365 0.188495 62 41 45
-0.069503 -0.0532943 0.192312 61 39 43
-0.0673208 -0.0523801 0.189013 61 40 45
-0.0650104 -0.0513374 0.185251 61 40 45
-0.0639757 -0.0512858 0.185064 60 39 43
-0.0627882 -0.0511082 0.184423 61 41 45
-0.0624459 -0.0516238 0.186284 63 46 48
-0.0609613 -0.0511964 0.184742 63 42 46
-0.0621438 -0.0530313 0.191363 63 42 45
-0.0598727 -0.0519308 0.187392 62 40 43
-0.0599159 -0.0528344 0.190652 62 40 42
-0.0571407 -0.0512412 0.184903 62 40 42
-0.0567575 -0.0517751 0.18683 62 40 43
-0.0548102 -0.050876 0.183585 61 39 42
-0.055739 -0.052662 0.19003 61 38 42
-0.0537441 -0.0517004 0.18656 61 37 42
-0.0530142 -0.0519427 0.187435 60 36 40
-0.0512951 -0.0512066 0.184778 61 38 41
-0.0513372 -0.0522342 0.188487 59 36 40
-0.0500557 -0.0519289 0.187385 60 36 41
-0.0488163 -0.051656 0.1864 59 36 40
-0.0487254 -0.0526121 0.18985 59 36 40
-0.0474693 -0.0523235 0.188809 59 37 40
-0.0469518 -0.0528543 0.190724 59 38 42
-0.0461708 -0.053105 0.191629 59 38 43
-0.0459296 -0.0540016 0.194864 60 38 42
-0.042741 -0.0513946 0.185457 60 40 45
-0.0427525 -0.052604 0.189821 60 40 47
-0.0419944 -0.0529015 0.190894 60 43 49
-0.0413446 -0.0533533 0.192525 61 46 52
-0.0399659 -0.0528635 0.190757 61 46 53
-0.039054 -0.0529817 0.191184 61 47 54
-0.0369121 -0.0513938 0.185454 60 46 54
-0.0371448 -0.0531157 0.191667 61 48 56
-0.0351979 -0.0517297 0.186666 62 50 57
-0.0342202 -0.0517297 0.186666 63 50 59
-0.0333935 -0.0519647 0.187514 62 52 60
-0.032695 -0.0524196 0.189156 62 53 61
-0.0316913 -0.0523981 0.189078 62 53 61
-0.0307135 -0.0524196 0.189156 63 54 62
-0.0298259 -0.0526015 0.189812 62 54 62
-0.0281403 -0.0513401 0.18526 63 55 63
-0.0276141 -0.0521794 0.188289 64 56 64
-0.0262536 -0.051446 0.185642 64 57 65
-0.0256877 -0.052273 0.188627 64 57 65
-0.0245091 -0.0518696 0.187171 65 58 66
-0.0235505 -0.0519176 0.187344 64 57 66
-0.0222494 -0.0511819 0.184689 64 58 66
-0.0217787 -0.0523764 0.189 65 57 65
-0.020894 -0.0526416 0.189957 65 58 67
-0.0198132 -0.0524144 0.189137 65 58 67
-0.0184653 -0.0514196 0.185547 65 58 67
-0.0174376 -0.0512555 0.184955 66 59 68
-0.0164771 -0.0512812 0.185048 67 60 69
-0.0156928 -0.0518928 0.187255 67 61 70
-0.0146901 -0.0518155 0.186976 65 63 72
-0.013906 -0.0525532 0.189638 64 64 73
-0.0131338 -0.0534531 0.192885 65 64 74
-0.0119298 -0.0525988 0.189802 69 64 74
-0.0106569 -0.0512582 0.184965 71 66 75
-0.0097389 -0.0515271 0.185935 69 65 74
-0.00876501 -0.0515271 0.185935 68 66 74
-0.00766623 -0.0507011 0.182955 73 69 78
-0.00674605 -0.0509891 0.183994 73 68 78
-0.00575862 -0.05078 0.183239 74 69 81
-0.00472216 -0.0499686 0.180311 74 72 80
-0.00390145 -0.051605 0.186216 75 79 85
-0.00297321 -0.0524361 0.189215 75 83 87
-0.00191308 -0.0506092 0.182623 80 87 90
-0.000969329 -0.0512858 0.185064 81 89 93
0 -0.0506708 0.182845 78 94 98
0.000943796 -0.0499349 0.180189 83 99 103
0.0019152 -0.0506652 0.182825 80 101 102
0.00284686 -0.0502077 0.181174 81 105 106
0.00382655 -0.0506143 0.182641 84 115 113
0.00467723 -0.0494931 0.178595 88 123 116
0.00554736 -0.0489171 0.176517 92 130 118
0.00649109 -0.049062 0.17704 102 143 128
0.00749959 -0.0495991 0.178978 97 150 134
0.00866655 -0.0509483 0.183846 107 161 149
0.00935916 -0.0495179 0.178685 113 173 158
0.0102658 -0.0493773 0.178178 125 185 166
0.0113327 -0.0499666 0.180304 119 174 158
0.0125153 -0.0509361 0.183802 122 174 158
0.0130009 -0.0491329 0.177296 116 164 148
0.0141371 -0.0498648 0.179937 100 130 118
0.0150389 -0.0497303 0.179451 96 119 110
0.0160972 -0.0500989 0.180782 85 102 92
0.0166918 -0.0490632 0.177044 74 90 82
0.0177705 -0.0494847 0.178565 69 83 78
0.0184282 -0.0487504 0.175915 68 74 76
0.0196782 -0.0495784 0.178903 68 70 76
0.0207406 -0.0498798 0.179991 69 67 74
0.0210493 -0.0484213 0.174728 70 66 74
0.0224415 -0.0494729 0.178522 68 65 72
0.0241169 -0.0510396 0.184176 67 64 71
0.0246137 -0.0500876 0.180741 68 63 69
0.0256757 -0.0503134 0.181556 67 63 68
0.0260015 -0.0491322 0.177293 66 61 69
0.0268183 -0.0489283 0.176557 66 60 69
0.0281691 -0.0496795 0.179268 67 60 69
0.029388 -0.0501572 0.180992 66 58 68
0.0300053 -0.0496105 0.179019 67 59 68
0.0318023 -0.0509883 0.183991 66 58 68
0.0319288 -0.0496855 0.17929 66 58 68
0.0323646 -0.0489247 0.176544 65 57 67
0.033767 -0.0496267 0.179077 64 56 66
0.0351077 -0.0502026 0.181156 64 55 66
0.0368588 -0.0513197 0.185187 63 55 65
0.0375698 -0.0509683 0.183919 63 54 65
0.0374244 -0.0495018 0.178627 63 54 64
0.0388732 -0.050164 0.181016 63 53 64
0.0390632 -0.049209 0.17757 63 53 65
0.0399636 -0.0491725 0.177438 61 51 63
0.0408937 -0.0491733 0.177441 62 52 64
0.0427516 -0.050265 0.181381 62 53 64
0.0430187 -0.0494795 0.178546 61 50 63
0.0448721 -0.0505131 0.182276 61 50 63
0.0463052 -0.0510404 0.184179 61 50 63
0.047747 -0.0515556 0.186038 61 50 63
0.0480258 -0.0508195 0.183382 61 50 63
0.0499148 -0.0517828 0.186858 62 51 63
0.0501511 -0.0510273 0.184132 62 50 63
0.0517344 -0.0516451 0.186361 61 48 62
0.0527146 -0.0516491 0.186375 61 51 63
0.0536364 -0.0515968 0.186186 61 50 63
0.05414 -0.0511512 0.184579 61 48 61
0.0542138 -0.0503223 0.181588 61 48 61
0.0549001 -0.0500807 0.180716 61 48 61
0.0565262 -0.0506902 0.182915 61 48 61
0.0575765 -0.0507715 0.183208 61 48 61
0.0584341 -0.050683 0.182889 59 45 60
0.0595814 -0.0508446 0.183472 61 47 61
0.0618351 -0.0519303 0.18739 61 48 61
0.0625681 -0.0517248 0.186649 61 47 61
0.0645672 -0.0525562 0.189649 61 47 60
0.0645234 -0.0517248 0.186649 62 49 60
0.065419 -0.05166 0.186415 61 48 60
0.0643118 -0.0500389 0.180565 61 48 60
0.0673346 -0.0516316 0.186312 61 48 60
0.0685497 -0.0518124 0.186964 61 46 59
0.0702203 -0.0523275 0.188823 61 47 60
0.0699738 -0.0514196 0.185547 62 48 60
0.0692322 -0.0501777 0.181066 61 47 59
0.0724693 -0.0518141 0.186971 63 49 61
0.0730576 -0.0515383 0.185975 61 47 59
0.075071 -0.0522618 0.188586 61 48 60
0.0740687 -0.0508944 0.183652 61 48 59
0.0775474 -0.0526015 0.189812 62 48 60
0.0758595 -0.0508053 0.18333 62 49 60
0.0768413 -0.0508195 0.183382 61 49 59
0.0779278 -0.0509018 0.183679 61 47 58
0.0798599 -0.0515277 0.185937 61 48 58
0.0808301 -0.0515254 0.185929 61 48 60
0.0813022 -0.0512093 0.184788 62 49 60
0.0823856 -0.0512812 0.185048 62 49 60
0.0814057 -0.0500821 0.180721 61 46 58
0.0835442 -0.0508069 0.183336 61 45 57
0.0827268 -0.0497381 0.17948 61 46 58
0.0858056 -0.0510096 0.184068 61 45 57
0.085505 -0.0502661 0.181385 61 46 57
0.0861139 -0.0500677 0.180669 62 48 58
0.0883026 -0.0507822 0.183247 61 45 56
0.0857894 -0.0488064 0.176117 60 43 55
0.0869686 -0.0489509 0.176639 59 40 52
0.0895872 -0.049894 0.180042 58 37 49
0.0897269 -0.0494512 0.178444 58 35 47
0.0909345 -0.0496002 0.178982 57 33 46
0.0944491 -0.0509915 0.184002 57 33 47
0.0935154 -0.0499774 0.180343 58 35 46
0.0964901 -0.0510515 0.184219 56 33 44
0.0932127 -0.0488292 0.1762 57 33 45
0.0944446 -0.0489895 0.176778 56 33 46
0.0995747 -0.0511491 0.184571 57 36 47
0.0999222 -0.050834 0.183434 59 39 50
0.0968771 -0.0488155 0.17615 61 44 54
0.102616 -0.0512197 0.184826 63 49 57
0.0989383 -0.0489223 0.176535 65 54 60
0.0994865 -0.0487379 0.17587 65 55 60
0.105054 -0.0509934 0.184009 67 57 62
0.108796 -0.0523294 0.18883 67 57 62
0.10593 -0.050492 0.1822 68 58 62
0.108848 -0.0514196 0.185547 67 59 63
0.107551 -0.0503571 0.181713 67 60 64
0.107539 -0.0499101 0.1801 68 62 65
0.109876 -0.0505512 0.182414 69 62 66
0.111096 -0.0506716 0.182848 68 62 65
0.11213 -0.0507062 0.182973 69 63 65
0.117719 -0.0527827 0.190466 68 61 64
0.113939 -0.0506582 0.1828 69 63 65
-0.417233 -0.180489 0.663817 183 221 192
-0.40633 -0.17725 0.651903 183 221 191
-0.422733 -0.185968 0.683967 182 220 189
-0.456674 -0.202616 0.745199 186 222 191
-0.410127 -0.183533 0.675013 184 221 190
-0.39721 -0.179298 0.659437 179 219 187
-0.410157 -0.186766 0.686904 183 221 192
-0.390302 -0.179298 0.659437 181 221 189
-0.386848 -0.179298 0.659437 181 220 189
-0.394789 -0.184627 0.679038 183 221 190
-0.370048 -0.17463 0.64227 186 221 192
-0.397424 -0.18927 0.696112 181 218 189
-0.383063 -0.18412 0.677171 184 215 185
-0.359956 -0.17463 0.64227 178 211 176
-0.358864 -0.175743 0.646362 176 210 172
-0.346897 -0.1715 0.630759 170 197 157
-0.352093 -0.175743 0.646362 162 189 150
-0.326467 -0.164534 0.605137 149 177 136
-0.323298 -0.164534 0.605137 136 158 118
-0.333682 -0.1715 0.630759 119 133 102
-0.31279 -0.16237 0.59718 109 118 92
-0.314798 -0.165063 0.607084 101 107 83
-0.299563 -0.158678 0.583598 100 105 85
-0.283357 -0.15164 0.557716 93 98 83
-0.275083 -0.148746 0.547071 93 97 85
-0.280368 -0.1532 0.563451 87 91 78
-0.251314 -0.138785 0.510435 80 83 73
-0.248641 -0.138785 0.510435 82 84 74
-0.222369 -0.12547 0.461464 81 81 75
-0.196443 -0.11206 0.412143 81 73 70
-0.167037 -0.096344 0.354342 77 68 67
-0.148583 -0.0866626 0.318735 78 70 69
-0.13224 -0.0780068 0.2869 74 66 65
-0.11925 -0.0711528 0.261692 74 65 65
-0.104727 -0.0632142 0.232494 74 65 65
-0.0996703 -0.0608696 0.223871 72 63 62
-0.0924361 -0.0571236 0.210094 73 63 63
-0.086434 -0.054058 0.198819 72 62 61
-0.0827001 -0.0523534 0.19255 71 60 60
-0.0834571 -0.0534849 0.196711 70 60 60
-0.0816329 -0.0529698 0.194817 68 57 58
-0.0814067 -0.0534917 0.196736 68 57 58
-0.0763196 -0.050792 0.186807 68 55 56
-0.0792631 -0.053436 0.196531 67 55 56
-0.0777014 -0.0530724 0.195194 67 55 56
-0.0766956 -0.0530838 0.195236 68 54 56
-0.0730203 -0.051223 0.188392 66 51 54
-0.074315 -0.0528454 0.194359 64 48 52
-0.0713289 -0.0514265 0.189141 64 47 49
-0.0704703 -0.051523 0.189495 63 44 46
-0.0692877 -0.051382 0.188977 63 43 46
-0.0669366 -0.050358 0.185211 62 41 44
-0.0679797 -0.0518948 0.190863 62 42 45
-0.0680309 -0.052709 0.193858 60 39 44
-0.0652333 -0.0513073 0.188702 61 41 45
-0.0644406 -0.0514635 0.189277 62 42 45
-0.0637759 -0.0517285 0.190251 62 42 45
-0.0616252 -0.0507774 0.186754 62 42 44
-0.0620224 -0.051929 0.190989 62 41 43
-0.0602124 -0.05124 0.188455 61 40 43
-0.0594016 -0.0513926 0.189016 63 42 44
-0.0576658 -0.0507364 0.186603 62 41 42
-0.0563434 -0.0504276 0.185467 62 41 43
-0.0552549 -0.050321 0.185075 62 39 43
-0.0563724 -0.0522555 0.19219 61 39 43
-0.0540646 -0.0510275 0.187673 62 39 43
-0.0528591 -0.0508135 0.186886 60 36 40
-0.053121 -0.0520288 0.191356 60 38 42
-0.051309 -0.0512205 0.188383 59 37 41
-0.0512794 -0.0521946 0.191966 59 36 40
-0.0498916 -0.0517977 0.190506 59 35 39
-0.0491259 -0.0520436 0.19141 58 35 39
-0.0479299 -0.0518345 0.190641 59 38 41
-0.0471674 -0.0520951 0.1916 59 37 41
-0.0462991 -0.0522478 0.192161 59 37 43
-0.0447135 -0.0515798 0.189705 60 39 45
-0.0435475 -0.0513764 0.188957 59 39 45
-0.043049 -0.0519695 0.191138 61 43 49
-0.0416197 -0.0514402 0.189191 60 43 50
-0.0403994 -0.0511499 0.188123 61 45 53
-0.0396378 -0.0514402 0.189191 61 45 53
-0.0382138 -0.0508638 0.187071 61 48 55
-0.0373359 -0.0510031 0.187584 60 47 54
-0.036867 -0.0517237 0.190234 61 47 55
-0.0351035 -0.0506175 0.186165 62 50 57
-0.0342902 -0.0508575 0.187048 64 52 60
-0.0329163 -0.0502557 0.184835 63 53 60
-0.032739 -0.0514996 0.18941 63 54 60
-0.0310841 -0.0504245 0.185455 62 52 60
-0.0301129 -0.0504249 0.185457 62 54 62
-0.0296411 -0.0512892 0.188636 63 55 63
-0.028143 -0.0503762 0.185278 63 54 63
-0.0269626 -0.049987 0.183846 63 55 63
-0.0268153 -0.0515552 0.189614 64 56 64
-0.0253431 -0.0505987 0.186096 63 56 64
-0.0246286 -0.051139 0.188083 62 55 63
-0.0230735 -0.0499064 0.18355 65 58 65
-0.0226347 -0.0510859 0.187888 65 58 66
-0.0211932 -0.0500066 0.183919 65 57 65
-0.0204792 -0.0506228 0.186185 63 55 64
-0.0198546 -0.051533 0.189532 63 56 65
-0.0186047 -0.0508303 0.186948 63 56 65
-0.0181627 -0.0523795 0.192646 65 57 66
-0.0164786 -0.0503182 0.185064 65 58 67
-0.01572 -0.0510019 0.187579 66 59 68
-0.0147307 -0.0509783 0.187492 64 59 68
-0.0135421 -0.0502123 0.184675 63 60 69
-0.0128439 -0.0512868 0.188627 63 60 69
-0.0117271 -0.0507297 0.186578 66 61 71
-0.0106797 -0.0503985 0.18536 67 61 71
-0.00977172 -0.0507252 0.186562 68 63 72
-0.00877261 -0.0505987 0.186096 66 64 72
-0.00777108 -0.0504249 0.185457 70 66 75
-0.0068296 -0.0506466 0.186272 69 63 74
-0.00578844 -0.0500799 0.184188 68 62 74
-0.00492059 -0.0510859 0.187888 69 66 74
-0.00391231 -0.0507723 0.186735 70 71 78
-0.00286659 -0.0496019 0.18243 69 73 79
-0.00189505 -0.0491864 0.180902 71 76 82
-0.000949789 -0.0493038 0.181334 76 77 85
0 -0.0498419 0.183313 81 81 93
0.000959455 -0.0498056 0.183179 78 84 94
0.00186945 -0.0485219 0.178458 78 89 94
0.00278794 -0.0482409 0.177424 76 88 90
0.00373581 -0.0484817 0.17831 78 85 87
0.00472113 -0.049015 0.180272 83 91 92
0.00576006 -0.0498344 0.183285 73 107 102
0.00667311 -0.0494861 0.182004 79 116 109
0.00749159 -0.0486113 0.178787 88 124 116
0.00854192 -0.0492681 0.181203 91 129 122
0.00959224 -0.0497936 0.183135 100 142 133
0.0102834 -0.0485285 0.178482 103 146 134
0.0116413 -0.0503584 0.185212 96 129 123
0.0123067 -0.0491419 0.180738 95 124 120
0.0131865 -0.0488938 0.179826 97 115 114
0.0139858 -0.0484005 0.178012 74 92 92
0.0146361 -0.0474854 0.174646 75 90 91
0.0159182 -0.0486068 0.17877 74 77 76
0.0168762 -0.0486693 0.179 69 75 72
0.0175958 -0.0480737 0.17681 67 74 73
0.0189519 -0.04919 0.180915 66 65 70
0.0196444 -0.0485592 0.178595 67 66 72
0.0213903 -0.0504717 0.185629 66 63 71
0.0216541 -0.0488726 0.179748 67 64 72
0.0224333 -0.0485216 0.178457 67 63 71
0.0235956 -0.0489941 0.180195 67 63 70
0.0248258 -0.0495658 0.182297 68 63 70
0.0257535 -0.0495138 0.182106 66 62 68
0.0260179 -0.0482355 0.177405 66 61 69
0.0277347 -0.0496454 0.18259 65 59 68
0.0285618 -0.0494216 0.181767 65 58 68
0.0293801 -0.0491977 0.180944 67 60 70
0.0302073 -0.0490022 0.180224 67 59 69
0.0315017 -0.0495534 0.182252 66 57 67
0.0322734 -0.0492741 0.181224 64 56 66
0.0330308 -0.0489897 0.180179 64 56 66
0.034338 -0.0495138 0.182106 64 56 65
0.0342397 -0.0480377 0.176677 62 52 64
0.0367751 -0.050237 0.184766 61 52 64
0.0368764 -0.0490837 0.180524 63 54 65
0.0372503 -0.0483418 0.177796 63 53 65
0.0388705 -0.0492141 0.181004 62 53 64
0.0400149 -0.0494567 0.181896 62 52 64
0.0400486 -0.0483473 0.177816 62 52 64
0.0419565 -0.0494994 0.182053 63 53 64
0.0424867 -0.0490111 0.180257 61 50 62
0.0441595 -0.0498333 0.183281 61 51 63
0.0450534 -0.0497603 0.183013 62 51 64
0.0452984 -0.0489886 0.180175 59 47 61
0.0464874 -0.0492484 0.18113 61 50 63
0.0475909 -0.0494091 0.181721 61 49 62
0.0488376 -0.0497093 0.182825 61 48 62
0.0505622 -0.0504749 0.185641 61 49 63
0.0523716 -0.0512948 0.188656 60 48 62
0.0528896 -0.0508429 0.186994 61 49 62
0.0537057 -0.0506887 0.186427 61 50 62
0.0543654 -0.050395 0.185347 61 49 62
0.0554263 -0.0504771 0.185649 61 48 62
0.0537332 -0.0480915 0.176875 60 47 61
0.0576365 -0.0507106 0.186508 59 46 60
0.056069 -0.0485093 0.178411 60 47 61
0.0569604 -0.0484727 0.178277 60 47 61
0.0609188 -0.051005 0.18759 60 47 60
0.0595862 -0.0490974 0.180575 61 47 60
0.063317 -0.0513563 0.188883 60 46 60
0.0632478 -0.050511 0.185774 61 48 60
0.0644939 -0.0507257 0.186563 61 47 60
0.0647547 -0.0501707 0.184522 61 47 60
0.0661686 -0.0505122 0.185778 61 47 60
0.0681017 -0.0512345 0.188435 61 47 60
0.0698391 -0.051791 0.190481 61 46 59
0.0689573 -0.0504168 0.185427 62 48 60
0.0686761 -0.0495138 0.182106 61 47 59
0.0714647 -0.0508185 0.186905 61 46 58
0.0720654 -0.0505532 0.185929 61 47 59
0.0718684 -0.0497428 0.182948 61 47 59
0.0733442 -0.0500963 0.184248 61 47 59
0.0740383 -0.0499136 0.183577 62 48 60
0.0766085 -0.0509842 0.187514 62 49 60
0.0755086 -0.0496161 0.182482 60 47 57
0.0768607 -0.0498732 0.183428 60 45 57
0.0781487 -0.050083 0.184199 60 46 57
0.0795887 -0.0503838 0.185306 62 48 59
0.0816994 -0.0510969 0.187928 61 46 58
0.0779508 -0.048172 0.177171 61 45 58
0.0817212 -0.0499079 0.183556 61 46 58
0.0796568 -0.0480814 0.176838 61 45 58
0.0816444 -0.0487147 0.179167 60 43 57
0.0833651 -0.0491762 0.180864 61 45 57
0.0818201 -0.0477225 0.175518 61 44 56
0.0858126 -0.049495 0.182037 60 42 55
0.086766 -0.049495 0.182037 59 41 53
0.0878858 -0.0495889 0.182382 61 43 55
0.0879583 -0.0490961 0.18057 60 42 54
0.0864713 -0.0477527 0.175629 58 36 49
0.0872089 -0.047653 0.175262 58 37 49
0.0912054 -0.0493177 0.181385 57 34 47
0.0907276 -0.0485536 0.178574 57 34 46
0.0935135 -0.0495338 0.182179 55 30 44
0.0933593 -0.0489526 0.180042 57 34 45
0.0956575 -0.049656 0.182629 55 30 42
0.0971381 -0.0499254 0.18362 56 31 44
0.0944544 -0.0480702 0.176796 57 35 47
0.0974105 -0.0490933 0.180559 58 37 48
0.0991553 -0.0494921 0.182026 60 41 52
0.0998388 -0.0493587 0.181535 63 48 56
0.0991441 -0.0485528 0.178572 63 50 57
0.104068 -0.0504879 0.185689 64 53 59
0.10186 -0.0489593 0.180067 66 56 61
0.105422 -0.0502063 0.184653 67 58 63
0.103443 -0.0488161 0.17954 66 56 62
0.1053 -0.0492445 0.181116 67 57 62
0.105111 -0.0487173 0.179176 67 59 63
0.10717 -0.049232 0.18107 68 61 65
0.107344 -0.0488796 0.179773 67 61 64
0.104975 -0.0473849 0.174276 68 61 65
0.115139 -0.0515248 0.189502 69 62 65
0.113707 -0.0504494 0.185547 68 62 64
0.111248 -0.0489401 0.179996 68 62 64
0.112119 -0.0489086 0.17988 67 61 64
-0.419152 -0.177832 0.666871 182 220 189
-0.4273 -0.182813 0.685547 183 221 190
-0.418532 -0.180579 0.677171 182 220 189
-0.4262 -0.185459 0.695471 185 222 190
-0.440329 -0.193259 0.724721 184 221 190
-0.406592 -0.180003 0.675013 181 220 189
-0.404345 -0.180579 0.677171 182 221 190
-0.402868 -0.181512 0.680669 182 220 189
-0.386848 -0.17585 0.659437 182 220 189
-0.383394 -0.17585 0.659437 183 221 190
-0.381678 -0.176654 0.662454 182 221 190
-0.412224 -0.192543 0.722035 182 221 191
-0.393416 -0.185459 0.695471 185 223 193
-0.375218 -0.178534 0.669501 183 222 190
-0.358864 -0.172363 0.646362 180 219 181
-0.344097 -0.166844 0.625666 180 216 176
-0.355505 -0.174033 0.652625 185 211 186
-0.343266 -0.169673 0.636275 175 203 173
-0.342235 -0.170822 0.640584 164 194 157
-0.336601 -0.169673 0.636275 154 184 144
-0.340432 -0.173321 0.649953 137 163 126
-0.33217 -0.170822 0.640584 122 140 110
-0.32607 -0.169397 0.635238 112 125 95
-0.322743 -0.169397 0.635238 103 113 88
-0.326815 -0.173321 0.649953 101 107 86
-0.308979 -0.165587 0.62095 93 103 88
-0.280861 -0.152119 0.570447 92 101 88
-0.292121 -0.159919 0.599696 88 92 80
-0.273682 -0.151453 0.56795 83 85 75
-0.258519 -0.144634 0.542379 86 81 77
-0.250448 -0.141676 0.531284 80 75 72
-0.224092 -0.128191 0.480714 83 81 75
-0.195068 -0.112856 0.423209 80 79 74
-0.172131 -0.10073 0.377738 76 68 67
-0.148873 -0.088133 0.330499 72 65 63
-0.11985 -0.0717859 0.269197 76 68 67
-0.119497 -0.0724265 0.271599 74 65 64
-0.102916 -0.0631282 0.236731 75 65 64
-0.0879755 -0.0546221 0.204833 73 63 62
-0.0850777 -0.053475 0.200531 72 62 62
-0.0837183 -0.0532783 0.199794 71 60 60
-0.0770462 -0.0496529 0.186198 69 57 59
-0.0793958 -0.0518231 0.194337 69 57 57
-0.0788192 -0.0521149 0.195431 68 56 56
-0.0763014 -0.0511139 0.191677 69 56 57
-0.0751993 -0.0510473 0.191427 68 55 56
-0.0758018 -0.0521516 0.195569 69 55 56
-0.0710948 -0.0495833 0.185937 66 52 53
-0.068905 -0.0487235 0.182713 66 50 51
-0.0719439 -0.0515889 0.193458 64 47 50
-0.0697096 -0.0507008 0.190128 63 44 47
-0.0684391 -0.0504982 0.189368 62 41 44
-0.0668059 -0.050018 0.187567 63 44 47
-0.0678161 -0.0515321 0.193246 61 40 44
-0.0673363 -0.0519428 0.194785 62 42 46
-0.0651854 -0.0510572 0.191465 63 45 47
-0.0640907 -0.0509842 0.191191 62 42 45
-0.0626821 -0.0506551 0.189957 62 41 44
-0.0602552 -0.0494792 0.185547 62 42 44
