ply
format ascii 1.0
element vertex 1212
property float x
property float y
property float z
property uchar red
property uchar green
property uchar blue
end_header
0.119645 -0.0602297 0.195236 84 83 78
0.117136 -0.0584669 0.189522 83 86 80
0.11829 -0.0585466 0.18978 82 84 88
-0.134357 -0.0648274 0.213763 71 61 64
-0.123553 -0.0601151 0.198224 69 62 65
-0.120546 -0.0591492 0.195039 69 62 64
-0.122266 -0.0605059 0.199513 67 60 62
-0.121508 -0.0606492 0.199985 66 59 61
-0.118436 -0.0596296 0.196624 67 59 61
-0.118944 -0.0604107 0.199199 66 57 60
-0.11735 -0.0601289 0.19827 66 58 61
-0.11019 -0.0569644 0.187835 68 60 62
-0.113776 -0.0593481 0.195695 69 61 63
-0.109088 -0.05742 0.189338 66 59 61
-0.106822 -0.0567432 0.187106 68 61 63
-0.112099 -0.0600977 0.198167 69 61 63
-0.10928 -0.0591339 0.194989 68 60 62
-0.106453 -0.0581472 0.191735 68 60 63
-0.10154 -0.0559922 0.184629 66 58 60
-0.10067 -0.0560462 0.184808 66 58 61
-0.0987364 -0.0555032 0.183017 66 58 62
-0.0989071 -0.0561443 0.185131 66 58 61
-0.0998328 -0.0572308 0.188714 66 58 61
-0.0996386 -0.0576907 0.19023 66 57 61
-0.0967474 -0.0565825 0.186576 66 56 60
-0.0964039 -0.0569569 0.18781 66 57 61
-0.0937713 -0.0559727 0.184565 66 56 60
-0.0928599 -0.056006 0.184675 64 54 58
-0.0904683 -0.0551379 0.181813 64 54 59
-0.0919207 -0.0566191 0.186697 64 54 58
-0.0905729 -0.0563888 0.185937 63 53 58
-0.088972 -0.0559942 0.184636 63 53 58
-0.0893006 -0.0568187 0.187355 64 54 59
-0.0897612 -0.0577463 0.190413 63 51 57
-0.0875282 -0.0569424 0.187763 64 53 58
-0.0872928 -0.0574346 0.189386 64 53 58
-0.086013 -0.057243 0.188754 64 53 59
-0.0865636 -0.0582793 0.192171 62 50 57
-0.0825576 -0.0562362 0.185434 64 53 59
-0.082211 -0.0566668 0.186854 64 53 59
-0.0816274 -0.0569424 0.187763 63 52 59
-0.079827 -0.0563656 0.185861 64 52 58
-0.0788938 -0.0563943 0.185955 64 53 58
-0.0769039 -0.0556592 0.183531 62 48 56
-0.0790823 -0.0579603 0.191119 62 53 59
-0.0780517 -0.0579383 0.191047 62 51 58
-0.0745058 -0.0560244 0.184736 62 51 59
-0.0750139 -0.0571486 0.188443 64 51 59
-0.0743998 -0.0574366 0.189392 67 54 60
-0.0725401 -0.0567576 0.187153 68 56 61
-0.0721844 -0.057253 0.188787 71 63 65
-0.0699738 -0.0562705 0.185547 69 61 62
-0.0713147 -0.0581565 0.191766 68 59 61
-0.069253 -0.057282 0.188883 67 59 61
-0.0704669 -0.0591308 0.194979 67 58 58
-0.0673843 -0.0573756 0.189191 69 59 56
-0.0656822 -0.0567611 0.187165 66 53 54
-0.0647267 -0.0567829 0.187237 67 53 56
-0.0639945 -0.0570043 0.187967 69 53 57
-0.0638109 -0.0577289 0.190356 67 50 56
-0.0614237 -0.0564512 0.186143 70 61 63
-0.0629685 -0.0588044 0.193902 66 57 59
-0.0615065 -0.0583807 0.192505 66 57 57
-0.0619165 -0.0597493 0.197018 72 67 65
-0.063895 -0.0627037 0.20676 72 71 69
-0.0596366 -0.0595337 0.196307 76 73 76
-0.0611537 -0.0621192 0.204833 77 71 75
-0.0613511 -0.0634326 0.209163 82 83 85
-0.0650821 -0.0685137 0.225918 84 87 87
-0.0631307 -0.06769 0.223202 84 89 88
-0.0639008 -0.0698085 0.230187 84 86 89
-0.0635812 -0.0707952 0.233441 86 86 90
-0.0637449 -0.0723691 0.238631 87 94 91
-0.0637081 -0.0737739 0.243263 84 98 92
-0.0663671 -0.0784214 0.258588 87 98 91
-0.0662131 -0.0798695 0.263363 91 98 91
-0.0690403 -0.0850516 0.28045 85 101 93
-0.0661709 -0.083289 0.274638 87 107 96
-0.0718618 -0.0924621 0.304886 95 110 96
-0.0667152 -0.087791 0.289483 95 119 103
-0.0708227 -0.0953635 0.314453 100 126 110
-0.0713675 -0.0983851 0.324416 116 140 128
-0.066984 -0.0945943 0.311917 123 149 139
-0.0676365 -0.0979037 0.322829 120 157 145
-0.0663864 -0.0985581 0.324987 126 167 152
-0.0676264 -0.103041 0.339769 132 171 154
-0.0805456 -0.126043 0.415615 132 174 156
-0.0942803 -0.151634 0.5 141 183 167
-0.104576 -0.172998 0.570447 141 183 165
-0.122537 -0.208674 0.688083 152 189 171
-0.124802 -0.21897 0.722035 149 189 170
-0.120677 -0.218349 0.719988 146 190 171
-0.132803 -0.248041 0.817894 155 202 183
-0.126835 -0.244791 0.807177 152 201 176
-0.0966477 -0.192962 0.636275 161 206 182
-0.122327 -0.252954 0.834095 172 211 190
-0.107163 -0.229805 0.757762 178 216 197
-0.103194 -0.229805 0.757762 164 209 184
-0.0922943 -0.213753 0.704833 174 215 187
-0.0952561 -0.229805 0.757762 184 222 194
-0.0912871 -0.229805 0.757762 174 216 185
-0.0865771 -0.227855 0.751332 174 219 191
-0.0736409 -0.203038 0.669501 176 221 194
-0.0856792 -0.248041 0.817894 174 220 193
-0.0733898 -0.223645 0.737451 175 220 193
-0.0749686 -0.241149 0.795167 178 221 195
-0.0627601 -0.213753 0.704833 195 228 205
-0.0618019 -0.223645 0.737451 170 213 182
-0.0529386 -0.204343 0.673803 177 217 189
-0.0529462 -0.21897 0.722035 176 219 189
-0.0419832 -0.186987 0.616572 180 221 194
-0.0420805 -0.203038 0.669501 178 219 193
-0.0355243 -0.186987 0.616572 179 220 195
-0.0369177 -0.213753 0.704833 188 225 203
-0.030678 -0.197362 0.650783 180 222 195
-0.0258955 -0.187418 0.617996 163 213 178
-0.0220649 -0.182508 0.601804 185 224 197
-0.0169622 -0.163685 0.539737 177 220 192
-0.0151678 -0.175643 0.579167 181 222 195
-0.0109057 -0.15786 0.520529 171 217 187
-0.00785669 -0.151634 0.5 191 227 204
-0.0052378 -0.151634 0.5 169 216 185
-0.00279424 -0.161786 0.533475 159 211 176
0 -0.165736 0.546499 161 214 180
0.00286245 -0.165736 0.546499 158 213 182
0.00477327 -0.138186 0.455656 176 222 195
0.00698901 -0.134888 0.444781 180 223 197
0.00958771 -0.138782 0.457621 181 222 195
0.0117083 -0.135582 0.447071 160 212 177
0.0127554 -0.123089 0.405876 180 223 198
0.0148993 -0.123238 0.406367 143 207 170
0.0170277 -0.123238 0.406367 160 216 182
0.019903 -0.128042 0.422208 185 228 202
0.0190079 -0.110056 0.362899 198 233 211
0.0207293 -0.109111 0.359785 180 224 197
0.0213557 -0.103041 0.339769 157 213 182
0.0243833 -0.108599 0.358097 162 215 185
0.024652 -0.101953 0.336183 171 218 189
0.0243534 -0.0940039 0.30997 145 205 163
0.0255509 -0.0924621 0.304886 159 210 173
0.0287455 -0.0979037 0.322829 203 233 216
0.0301358 -0.0969367 0.319641 139 207 178
0.031098 -0.094767 0.312486 157 213 189
0.0367897 -0.106506 0.351194 173 218 198
0.0339776 -0.093681 0.308905 167 213 198
0.033496 -0.0881552 0.290684 115 179 160
0.0361143 -0.0909138 0.29978 105 144 132
0.0413768 -0.0998215 0.329153 89 112 114
0.0440214 -0.101953 0.336183 73 89 93
0.0436627 -0.0972333 0.320618 66 71 75
0.0506423 -0.108599 0.358097 66 56 63
0.0525179 -0.108599 0.358097 66 56 63
0.0548027 -0.109416 0.360791 66 56 62
0.0566925 -0.109416 0.360791 65 54 61
0.0607812 -0.113524 0.374334 60 46 57
0.0588635 -0.106506 0.351194 64 51 61
0.0654461 -0.114828 0.378635 65 53 62
0.0699725 -0.119159 0.392916 62 49 59
0.0782545 -0.129455 0.426867 61 47 58
0.0842999 -0.135582 0.447071 61 47 59
0.0912951 -0.142864 0.471083 62 48 59
0.0965719 -0.147145 0.485198 60 48 59
0.102137 -0.151634 0.5 62 49 61
0.111769 -0.161786 0.533475 65 53 63
0.119065 -0.168142 0.554434 64 52 62
0.126395 -0.174244 0.574554 65 53 62
0.131618 -0.177225 0.584385 66 54 63
0.146203 -0.192389 0.634386 66 53 64
0.15461 -0.198931 0.655958 64 51 62
0.17768 -0.223645 0.737451 64 52 63
0.164815 -0.203038 0.669501 65 52 63
0.186609 -0.225097 0.742238 64 51 62
0.200605 -0.237042 0.781624 63 50 62
0.200673 -0.232379 0.76625 64 52 63
0.204686 -0.232379 0.76625 64 53 64
0.235763 -0.262513 0.865614 64 53 64
0.231548 -0.252954 0.834095 63 52 64
0.224906 -0.241149 0.795167 65 54 65
0.257791 -0.271383 0.894863 64 54 64
0.247571 -0.255971 0.844042 65 55 66
0.247949 -0.251864 0.830499 65 55 66
0.27427 -0.273796 0.90282 66 57 67
0.278999 -0.273796 0.90282 66 56 67
0.297634 -0.287216 0.947071 64 55 65
0.30389 -0.288446 0.951125 65 56 66
0.324743 -0.303268 1 63 54 64
0.256714 -0.235932 0.777965 66 57 68
0.315871 -0.285765 0.942284 64 56 65
0.340457 -0.303268 1 66 58 68
0.345695 -0.303268 1 67 58 68
0.314036 -0.271383 0.894863 64 56 65
0.315389 -0.268544 0.885502 65 56 65
0.305043 -0.255971 0.844042 65 57 65
0.291545 -0.241149 0.795167 64 56 65
0.29571 -0.241149 0.795167 63 56 64
0.299874 -0.241149 0.795167 66 59 67
0.309699 -0.245638 0.80997 65 59 66
0.327148 -0.255971 0.844042 66 59 67
0.294103 -0.227047 0.748668 65 60 67
0.264247 -0.201315 0.663817 65 59 66
0.309036 -0.232379 0.76625 67 61 68
0.261148 -0.193852 0.639209 66 61 68
0.264496 -0.193852 0.639209 66 62 68
0.223539 -0.161786 0.533475 66 63 69
0.236617 -0.169137 0.557716 66 62 69
0.203818 -0.143915 0.474549 68 65 72
0.158125 -0.110306 0.363725 69 64 71
0.198484 -0.136812 0.451125 69 64 71
0.212837 -0.144979 0.478056 68 63 71
0.191642 -0.129024 0.425446 68 64 71
0.195742 -0.13027 0.429553 65 61 68
0.17254 -0.113524 0.374334 68 64 71
0.137596 -0.0895148 0.295167 70 64 72
0.122715 -0.0789464 0.260319 69 63 72
0.121748 -0.0774638 0.25543 66 62 70
0.122256 -0.0769413 0.253707 69 62 71
0.116752 -0.0726876 0.239681 71 65 71
0.126104 -0.0776747 0.256126 71 70 75
0.115539 -0.070418 0.232197 69 70 74
0.100032 -0.0603316 0.198938 70 69 72
0.117538 -0.070159 0.231343 71 68 71
0.106321 -0.0628162 0.207131 74 68 71
0.109504 -0.0640434 0.211178 75 68 74
0.110137 -0.0637693 0.210274 73 66 73
0.105763 -0.0606303 0.199923 75 69 73
0.110229 -0.0625714 0.206324 75 71 73
0.106813 -0.0600433 0.197988 74 71 71
0.109494 -0.0609585 0.201005 72 69 69
0.108122 -0.0596213 0.196596 72 68 68
0.103017 -0.0562705 0.185547 77 71 72
0.102707 -0.0555771 0.183261 72 62 66
0.108184 -0.0579986 0.191245 70 60 65
0.108764 -0.0577744 0.190506 70 60 65
0.112285 -0.0591028 0.194886 73 64 68
0.105259 -0.0549051 0.181045 69 61 64
0.107133 -0.0553837 0.182623 71 63 68
0.108792 -0.055744 0.183811 72 63 69
0.108532 -0.0551229 0.181763 76 67 72
0.106222 -0.0534802 0.176346 78 68 72
0.11397 -0.0568868 0.187579 79 71 71
0.113356 -0.0560968 0.184974 78 77 72
0.112661 -0.05528 0.182281 81 84 78
0.113615 -0.05528 0.182281 81 83 87
-0.125492 -0.0595056 0.199657 73 61 65
-0.126294 -0.0603894 0.202622 70 62 65
-0.124147 -0.059866 0.200866 68 61 63
-0.1188 -0.0577772 0.193858 68 61 63
-0.11629 -0.0570438 0.191397 66 59 61
-0.11781 -0.0582919 0.195585 65 58 60
-0.12016 -0.0599762 0.201236 67 59 61
-0.115635 -0.0582285 0.195372 68 60 62
-0.116351 -0.0591122 0.198337 70 62 64
-0.112308 -0.0575722 0.19317 68 61 63
-0.113556 -0.0587409 0.197091 70 62 65
-0.108646 -0.056717 0.190301 67 59 62
-0.104278 -0.0549407 0.18434 69 61 63
-0.107778 -0.0573156 0.192309 68 60 63
-0.102479 -0.0550117 0.184579 66 59 61
-0.103662 -0.0561764 0.188487 67 60 62
-0.104686 -0.0572771 0.19218 66 58 61
-0.101403 -0.0560195 0.18796 66 57 60
-0.102374 -0.05711 0.191619 67 59 62
-0.0985808 -0.0555387 0.186347 65 57 60
-0.0959012 -0.0545694 0.183095 66 57 60
-0.096214 -0.0553003 0.185547 67 58 61
-0.0939915 -0.0545742 0.183111 67 57 62
-0.0956118 -0.0560873 0.188188 65 55 60
-0.0925041 -0.0548295 0.183967 66 56 59
-0.0885907 -0.0530627 0.178039 66 55 59
-0.0905118 -0.0547901 0.183835 63 53 57
-0.0912997 -0.0558614 0.18743 65 55 58
-0.0939607 -0.0581143 0.194989 64 53 58
-0.08609 -0.0538315 0.180619 64 54 59
-0.0880176 -0.0556483 0.186715 64 53 59
-0.0874003 -0.0558789 0.187488 65 53 59
-0.0868286 -0.0561442 0.188379 65 54 59
-0.0825389 -0.0539839 0.18113 64 52 58
-0.0871006 -0.0576299 0.193363 64 52 58
-0.0839845 -0.0562218 0.188639 63 51 57
-0.0818189 -0.0554242 0.185963 65 53 59
-0.0829507 -0.0568679 0.190807 63 49 57
-0.0794815 -0.055154 0.185056 62 47 55
-0.0787616 -0.0553292 0.185644 61 46 55
-0.0779901 -0.0554721 0.186123 62 47 56
-0.0763386 -0.0549847 0.184488 62 50 57
-0.0763504 -0.0556983 0.186882 61 49 56
-0.0757218 -0.0559571 0.187751 61 48 56
-0.0748208 -0.0560188 0.187958 64 51 58
-0.070876 -0.0537728 0.180422 65 51 58
-0.0719557 -0.0553297 0.185646 64 50 56
-0.0715985 -0.0558092 0.187255 64 52 56
-0.0721664 -0.0570332 0.191361 65 55 57
-0.0695067 -0.0557049 0.186905 67 57 59
-0.0705756 -0.0573695 0.19249 62 52 55
-0.0681964 -0.056239 0.188697 67 57 58
-0.0665972 -0.0557278 0.186981 69 59 57
-0.0688403 -0.0584646 0.196164 63 43 47
-0.0646683 -0.0557535 0.187068 66 48 56
-0.0643193 -0.0563057 0.188921 66 48 54
-0.0623684 -0.055451 0.186053 68 51 57
-0.0618235 -0.055839 0.187355 66 53 58
-0.0600779 -0.0551376 0.185001 66 56 59
-0.0621696 -0.0579927 0.194581 68 59 59
-0.0612946 -0.0581294 0.195039 69 61 61
-0.0600286 -0.0578937 0.194249 70 65 64
-0.0579946 -0.0568963 0.190902 76 70 73
-0.0587823 -0.0586808 0.19689 75 68 71
-0.0581486 -0.0590848 0.198245 76 75 75
-0.0582758 -0.0602908 0.202291 78 80 75
-0.0562239 -0.059245 0.198783 78 77 74
-0.0556681 -0.0597662 0.200531 83 79 82
-0.0583453 -0.0638451 0.214217 76 69 74
-0.0568044 -0.0633777 0.212649 79 76 74
-0.0552017 -0.0628214 0.210782 79 82 78
-0.0559276 -0.0649464 0.217912 79 84 78
-0.0571891 -0.0677949 0.22747 82 87 81
-0.0555897 -0.067301 0.225813 84 88 84
-0.0601796 -0.0744417 0.249771 82 89 86
-0.0603958 -0.0763693 0.256239 81 94 87
-0.0549722 -0.0710911 0.238529 89 107 96
-0.0548788 -0.0726209 0.243662 93 113 103
-0.0623238 -0.0844363 0.283306 106 122 115
-0.0623892 -0.0865865 0.29052 113 129 123
-0.0595013 -0.084643 0.284 108 145 133
-0.0630039 -0.0919237 0.308428 113 155 140
-0.067375 -0.100888 0.338506 117 159 142
-0.0704893 -0.108404 0.363725 125 164 149
-0.0855124 -0.135161 0.453501 137 173 158
-0.0981385 -0.15955 0.535331 136 171 157
-0.107172 -0.179361 0.601804 136 168 154
-0.115721 -0.199538 0.669501 143 176 165
-0.100868 -0.179361 0.601804 145 184 169
-0.0967296 -0.177551 0.595729 152 193 174
-0.0960402 -0.182161 0.6112 151 198 177
-0.0842164 -0.165243 0.554434 151 201 178
-0.0817937 -0.166221 0.557716 149 201 174
-0.0851074 -0.179361 0.601804 160 208 184
-0.0764553 -0.167324 0.561417 158 207 181
-0.0735147 -0.167324 0.561417 167 209 184
-0.0675556 -0.160168 0.537405 182 216 201
-0.0697718 -0.172614 0.579167 173 211 192
-0.0680251 -0.175943 0.590334 172 215 188
-0.0655265 -0.177551 0.595729 166 216 188
-0.0580803 -0.165243 0.554434 178 223 197
-0.0532752 -0.15955 0.535331 176 221 194
-0.0525816 -0.166221 0.557716 169 216 189
-0.0493682 -0.165243 0.554434 185 223 199
-0.0478061 -0.170015 0.570447 170 213 182
-0.0419135 -0.158997 0.533475 187 222 196
-0.0404414 -0.16437 0.551505 177 218 189
-0.0383661 -0.16793 0.563451 180 219 192
-0.0356233 -0.168919 0.566767 172 216 189
-0.0297482 -0.153884 0.51632 165 214 185
-0.0254137 -0.144608 0.485198 169 215 184
-0.0196777 -0.12441 0.417429 174 219 187
-0.0198847 -0.141434 0.474549 163 217 183
-0.0151485 -0.123139 0.413163 165 219 190
-0.0125803 -0.119306 0.400304 154 215 183
-0.0103411 -0.117685 0.394863 163 217 188
-0.00716128 -0.101872 0.341808 150 209 177
-0.00582554 -0.110494 0.370737 169 216 190
-0.00388627 -0.110568 0.370983 157 209 178
-0.00192701 -0.10965 0.367904 192 226 202
0 -0.106727 0.358097 157 212 175
0.00176086 -0.100196 0.336183 185 226 200
0.00328671 -0.0935096 0.313749 165 216 186
0.00449915 -0.0853363 0.286326 159 212 182
0.0064439 -0.0916671 0.307567 184 223 200
0.00773013 -0.0879714 0.295167 158 208 176
0.00963127 -0.0913392 0.306467 168 215 185
0.0108222 -0.0879714 0.295167 148 208 172
0.0110206 -0.0783861 0.263006 169 220 190
0.0118748 -0.0750772 0.251904 163 219 188
0.0139829 -0.0795649 0.266961 166 219 193
0.0147493 -0.0762962 0.255994 185 226 205
0.0162013 -0.0768232 0.257762 178 222 199
0.0177129 -0.0775303 0.260135 184 224 202
0.0190754 -0.0775303 0.260135 174 219 190
0.0201319 -0.0763693 0.256239 147 206 164
0.0201183 -0.0715477 0.240061 157 208 168
0.0215695 -0.0721964 0.242238 191 227 207
0.0240227 -0.0759407 0.254801 125 197 166
0.025222 -0.0755354 0.253441 123 199 166
0.0258006 -0.0734049 0.246293 146 209 180
0.0261921 -0.0709703 0.238124 163 213 198
0.0277962 -0.0718933 0.241221 132 194 175
0.0300681 -0.074388 0.249591 140 187 170
0.0309854 -0.0734634 0.246489 102 145 133
0.0319958 -0.0728246 0.244346 76 100 97
0.0334317 -0.0731661 0.245491 72 82 81
0.0348892 -0.0735279 0.246705 71 63 69
0.0387679 -0.0787843 0.264342 70 61 67
0.0389045 -0.0763355 0.256126 69 60 66
0.0405032 -0.0768232 0.257762 69 59 66
0.0415661 -0.0762962 0.255994 66 56 64
0.0452282 -0.0804236 0.269843 64 53 62
0.048198 -0.0831074 0.278847 65 54 62
0.0519244 -0.0868995 0.291571 62 49 59
0.0547855 -0.0890681 0.298847 61 47 58
0.0579951 -0.0916671 0.307567 63 51 61
0.0554895 -0.0853363 0.286326 64 54 63
0.0663048 -0.0992856 0.333129 63 52 61
0.0690244 -0.100708 0.337901 64 53 63
0.0734101 -0.104429 0.350387 63 53 62
0.0779324 -0.108158 0.362899 65 54 63
0.0823488 -0.111566 0.374334 64 52 62
0.0980322 -0.129725 0.435263 63 50 62
0.105465 -0.136389 0.457621 63 51 62
0.107399 -0.135804 0.455656 64 52 63
0.116537 -0.144156 0.48368 64 52 63
0.118612 -0.1436 0.481816 64 52 63
0.139393 -0.165243 0.554434 64 51 63
0.154454 -0.179361 0.601804 63 50 62
0.161847 -0.184187 0.617996 63 51 63
0.164703 -0.183763 0.616572 63 50 62
0.167933 -0.183763 0.616572 65 53 65
0.182096 -0.195501 0.655958 62 52 63
0.179965 -0.189635 0.636275 63 52 64
0.194108 -0.20082 0.673803 64 53 64
0.201826 -0.205076 0.688083 66 56 66
0.20543 -0.205076 0.688083 65 54 65
0.203389 -0.199538 0.669501 65 54 65
0.182431 -0.175943 0.590334 66 56 66
0.246386 -0.233663 0.784 63 53 64
0.225198 -0.210068 0.704833 65 55 66
0.241037 -0.221216 0.742238 62 52 63
0.232582 -0.210068 0.704833 65 56 67
0.24294 -0.215995 0.724721 64 56 66
0.239965 -0.210068 0.704833 65 57 66
0.2358 -0.203294 0.682106 66 57 66
0.247349 -0.210068 0.704833 65 56 65
0.269892 -0.225843 0.757762 64 55 64
0.226121 -0.186473 0.625666 63 55 64
0.24547 -0.199538 0.669501 64 56 65
0.248976 -0.199538 0.669501 65 57 65
0.208521 -0.164795 0.552929 64 57 65
0.239229 -0.186473 0.625666 65 58 66
0.219234 -0.168578 0.565624 66 59 66
0.187159 -0.141995 0.476432 65 59 66
0.199036 -0.14902 0.5 65 58 66
0.176885 -0.130715 0.438583 65 58 66
0.212153 -0.154767 0.519286 63 56 64
0.169514 -0.122096 0.409665 64 58 66
0.15416 -0.10965 0.367904 67 61 68
0.161629 -0.113543 0.380965 65 60 67
0.155666 -0.10802 0.362436 65 60 67
0.165276 -0.113307 0.380174 66 60 68
0.149839 -0.101501 0.340563 66 60 67
0.127956 -0.0856576 0.287404 64 58 66
0.11045 -0.0730789 0.245199 66 60 68
0.125442 -0.082044 0.275279 67 62 69
0.119613 -0.0773431 0.259506 69 65 71
0.108966 -0.0696667 0.23375 69 61 70
0.123479 -0.0780687 0.261941 69 62 71
0.108865 -0.0680723 0.2284 71 65 73
0.114422 -0.0707698 0.237451 67 59 66
0.11335 -0.0693526 0.232696 69 61 68
0.109043 -0.0660075 0.221473 67 65 69
0.108463 -0.0649655 0.217976 68 66 70
0.101293 -0.060039 0.201447 70 67 71
0.107965 -0.0633341 0.212503 72 69 72
0.10442 -0.0606293 0.203427 71 66 70
0.103584 -0.0595364 0.19976 74 66 73
0.103569 -0.0589323 0.197733 71 64 70
0.10538 -0.0593691 0.199199 73 67 70
0.0998149 -0.0556827 0.18683 72 67 69
0.104538 -0.0577513 0.193771 71 67 67
0.102037 -0.0558274 0.187316 67 63 63
0.107174 -0.0580796 0.194872 70 63 65
0.106205 -0.0570118 0.19129 68 57 61
0.104437 -0.0555387 0.186347 64 52 57
0.104226 -0.0549133 0.184248 68 57 61
0.111563 -0.0582394 0.195408 64 53 58
0.109602 -0.056696 0.19023 68 59 63
0.106504 -0.054597 0.183187 68 59 63
0.108542 -0.0551449 0.185026 66 57 63
0.11212 -0.0564587 0.189434 70 61 66
0.110016 -0.0549133 0.184248 73 64 69
0.109876 -0.0543664 0.182414 76 66 71
0.111121 -0.0545081 0.182889 79 70 72
0.114352 -0.0556138 0.186599 79 77 74
0.112847 -0.0544167 0.182582 81 82 78
0.114951 -0.0549654 0.184423 78 80 82
-0.125354 -0.0583975 0.199438 73 62 67
-0.123327 -0.0579363 0.197863 73 65 68
-0.126599 -0.0599772 0.204833 69 62 63
-0.118601 -0.0566685 0.193533 67 60 61
-0.118569 -0.0571413 0.195148 66 59 62
-0.120461 -0.0585578 0.199985 66 60 62
-0.115479 -0.0566289 0.193398 68 60 63
-0.113815 -0.0563066 0.192297 67 59 62
-0.113989 -0.0568963 0.194311 68 60 62
-0.11503 -0.0579329 0.197851 69 62 63
-0.113427 -0.0576449 0.196868 67 60 62
-0.11015 -0.0564933 0.192935 66 59 61
-0.11031 -0.0570992 0.195004 68 60 62
-0.105123 -0.0549227 0.187571 66 58 60
-0.10474 -0.055239 0.188651 68 60 63
-0.102732 -0.0546957 0.186796 66 59 62
-0.0993443 -0.0534008 0.182373 67 59 62
-0.100024 -0.0542881 0.185404 67 58 61
-0.0974223 -0.0533944 0.182352 67 59 61
-0.0988758 -0.0547276 0.186905 68 60 63
-0.0957014 -0.0535003 0.182713 67 57 61
-0.096278 -0.0543663 0.185671 68 58 61
-0.0939739 -0.0536067 0.183076 66 57 61
-0.0925567 -0.0533426 0.182175 67 57 61
-0.0916379 -0.0533632 0.182245 66 55 59
-0.0917331 -0.0539809 0.184355 65 55 59
-0.0929663 -0.0552886 0.188821 65 55 58
-0.0912085 -0.0548265 0.187242 65 55 58
-0.0868671 -0.0527844 0.180268 65 54 59
-0.0863442 -0.0530432 0.181152 65 54 59
-0.0867226 -0.0538676 0.183967 65 53 58
-0.0873663 -0.0548772 0.187415 65 53 58
-0.0852765 -0.0541732 0.185011 64 50 57
-0.0867048 -0.0557137 0.190272 65 53 58
-0.0829309 -0.0539083 0.184107 65 52 58
-0.0818439 -0.0538276 0.183831 63 49 56
-0.0816802 -0.0543595 0.185647 64 51 57
-0.080874 -0.0544715 0.18603 63 49 56
-0.0784303 -0.0534697 0.182609 63 48 55
-0.0780503 -0.0538676 0.183967 62 46 54
-0.0771702 -0.0539259 0.184167 62 48 56
-0.0746302 -0.0528111 0.180359 63 50 57
-0.0756932 -0.0542501 0.185274 63 50 56
-0.0743475 -0.0539776 0.184343 62 47 55
-0.0746318 -0.054897 0.187483 63 47 55
-0.07307 -0.0544648 0.186007 63 49 55
-0.0712375 -0.0538164 0.183793 67 54 58
-0.0726323 -0.0556218 0.189958 64 51 55
-0.0719973 -0.0559013 0.190913 63 49 53
-0.0701967 -0.0552709 0.18876 64 52 55
-0.0691174 -0.0551985 0.188513 61 47 51
-0.0685942 -0.0555746 0.189797 62 48 51
-0.0653557 -0.0537295 0.183496 66 52 52
-0.066573 -0.0555471 0.189703 61 40 46
-0.0667046 -0.0565002 0.192958 62 41 51
-0.0639348 -0.0549872 0.187791 67 51 56
-0.0644699 -0.0563139 0.192322 64 46 53
-0.0626175 -0.0555639 0.189761 66 52 57
-0.0589989 -0.0531974 0.181679 67 55 57
-0.0618817 -0.0567114 0.19368 67 56 57
-0.0590384 -0.0550074 0.18786 66 56 56
-0.0599195 -0.0567746 0.193895 69 63 63
-0.058014 -0.0559169 0.190966 71 65 68
-0.0586996 -0.0575703 0.196613 69 61 64
-0.056636 -0.0565383 0.193088 75 69 69
-0.0549703 -0.0558732 0.190817 74 68 65
-0.0543008 -0.0562148 0.191983 73 65 64
-0.0541479 -0.0571142 0.195055 75 66 67
-0.0528257 -0.056791 0.193951 77 68 70
-0.0538038 -0.0589768 0.201416 74 69 67
-0.0510984 -0.0571315 0.195114 73 73 69
-0.0515474 -0.0588097 0.200846 79 79 73
-0.0516825 -0.0601922 0.205567 76 75 69
-0.0522496 -0.0621474 0.212245 79 77 74
-0.0520428 -0.0632472 0.216 77 79 76
-0.0536534 -0.0666535 0.227633 77 83 79
-0.0550091 -0.0698907 0.238689 82 90 84
-0.0514416 -0.0668781 0.2284 94 102 94
-0.0527041 -0.0701509 0.239578 101 110 104
-0.0544264 -0.0742102 0.253441 98 114 108
-0.0548581 -0.0766688 0.261838 104 127 119
-0.0489284 -0.0701349 0.239523 104 136 127
-0.0488461 -0.0718595 0.245413 109 140 132
-0.0529503 -0.0800027 0.273224 114 141 131
-0.0625937 -0.0972 0.331955 128 151 139
-0.0729985 -0.116596 0.398196 124 153 142
-0.079123 -0.130095 0.444299 130 159 153
-0.0764476 -0.129505 0.442284 138 167 161
-0.0661828 -0.11562 0.394863 142 177 163
-0.0574904 -0.103674 0.354066 143 180 160
-0.0671376 -0.125107 0.427263 143 184 163
-0.0622266 -0.119954 0.409665 148 190 169
-0.063313 -0.126407 0.431704 146 191 166
-0.0567557 -0.117512 0.401326 145 198 174
-0.0539834 -0.116071 0.396405 151 202 179
-0.0504795 -0.112879 0.385502 159 205 185
-0.0496371 -0.11562 0.394863 160 205 187
-0.0503931 -0.122485 0.418307 162 206 187
-0.0475226 -0.120758 0.41241 167 211 189
-0.0386292 -0.102833 0.351194 164 211 179
-0.0367897 -0.102833 0.351194 158 212 178
-0.0380163 -0.111855 0.382004 161 213 181
-0.0349532 -0.108556 0.370737 186 224 202
-0.0346198 -0.113845 0.3888 184 221 197
-0.0283177 -0.0989409 0.337901 172 216 182
-0.0273489 -0.101926 0.348097 178 220 189
-0.024915 -0.099488 0.339769 163 215 180
-0.0259404 -0.111551 0.380965 196 230 206
-0.0208646 -0.0972 0.331955 162 214 184
-0.0201507 -0.102408 0.349743 173 220 194
-0.0171143 -0.0956748 0.326747 186 228 204
-0.0153044 -0.0950633 0.324658 161 218 184
-0.0125319 -0.0875717 0.299073 175 224 199
-0.0110952 -0.0886082 0.302613 185 229 207
-0.00841617 -0.0784154 0.267803 181 227 205
-0.00705 -0.0788237 0.269197 175 223 201
-0.00541913 -0.0757369 0.258655 174 222 198
-0.00410269 -0.0764514 0.261095 178 221 197
-0.00258689 -0.072308 0.246945 166 215 186
-0.00141729 -0.0792313 0.270589 177 221 194
0 -0.0729093 0.248998 156 214 179
0.00133033 -0.0743698 0.253986 182 226 200
0.00271598 -0.0759161 0.259267 177 220 195
0.00388453 -0.0723861 0.247211 162 213 184
0.00503547 -0.070375 0.240343 184 223 199
0.00617701 -0.0690631 0.235863 166 214 184
0.00758469 -0.0706683 0.241345 189 225 201
0.00827334 -0.0660725 0.225649 157 212 179
0.00905093 -0.0632472 0.216 155 213 180
0.0103626 -0.0643671 0.219825 185 226 206
0.0116659 -0.0652162 0.222725 154 213 185
0.0126578 -0.0643283 0.219693 164 215 188
0.0130964 -0.0610109 0.208363 177 221 197
0.0144185 -0.0620033 0.211752 185 225 203
0.0160829 -0.0642204 0.219324 181 223 198
0.0169705 -0.0632472 0.216 145 205 164
0.017166 -0.0599772 0.204833 147 204 161
0.0188133 -0.0618664 0.211285 175 219 193
0.0198161 -0.0615436 0.210182 133 200 164
0.0205944 -0.0605944 0.206941 137 202 166
0.0228762 -0.0639427 0.218376 156 212 182
0.0229987 -0.061224 0.209091 174 219 201
0.0243343 -0.061835 0.211178 131 200 176
0.0246761 -0.0599772 0.204833 147 201 185
0.0271052 -0.0631363 0.215622 96 162 149
0.0288406 -0.0644914 0.22025 85 122 114
0.0298682 -0.0642204 0.219324 75 86 82
0.0289675 -0.0599772 0.204833 71 69 74
0.0327459 -0.0653788 0.22328 69 61 68
0.0334365 -0.0644556 0.220128 67 59 65
0.0351384 -0.0654784 0.223621 67 59 65
0.0342626 -0.0617869 0.211013 66 57 65
0.0379657 -0.0663253 0.226513 66 56 64
0.0388069 -0.0657406 0.224516 65 55 63
0.0404024 -0.0664303 0.226871 61 49 59
0.041871 -0.0668781 0.2284 64 53 62
0.0446635 -0.0693567 0.236866 64 52 62
0.0454454 -0.0686635 0.234498 65 56 64
0.0517445 -0.0761234 0.259975 64 55 64
0.0541337 -0.0775963 0.265005 63 51 62
0.0545399 -0.0762241 0.260319 64 54 63
0.0534014 -0.0728126 0.248668 64 53 63
0.0558124 -0.0742881 0.253707 64 52 63
0.0682065 -0.0886738 0.302837 64 53 63
0.0739699 -0.093981 0.320962 64 51 62
0.0770144 -0.0956748 0.326747 64 52 63
0.0824121 -0.100155 0.342046 63 50 62
0.0841451 -0.100085 0.341808 63 51 62
0.0980399 -0.114182 0.389953 64 53 64
0.111484 -0.12719 0.434376 63 51 62
0.104493 -0.11683 0.398997 62 49 62
0.123572 -0.135453 0.462595 63 50 63
0.128649 -0.138306 0.472338 64 52 64
0.130392 -0.137535 0.469708 64 53 64
0.14142 -0.146405 0.5 63 52 64
0.144039 -0.146405 0.5 63 51 63
0.141871 -0.141627 0.48368 64 53 64
0.143848 -0.141081 0.481816 65 54 65
0.141163 -0.13606 0.464669 65 55 65
0.166074 -0.157358 0.537405 63 53 64
0.151073 -0.140758 0.480714 63 54 64
0.153194 -0.140394 0.479471 64 55 65
0.162372 -0.146405 0.5 64 54 64
0.185257 -0.164389 0.561417 64 54 64
0.186957 -0.163305 0.557716 64 54 64
0.1558 -0.133996 0.457621 64 55 64
0.172847 -0.146405 0.5 64 53 63
0.175466 -0.146405 0.5 64 54 63
0.171958 -0.141368 0.482798 65 55 64
0.15376 -0.124575 0.425446 64 55 64
0.157494 -0.125778 0.429553 64 56 65
0.168649 -0.13279 0.453501 64 55 64
0.166795 -0.129505 0.442284 64 56 64
0.14313 -0.109609 0.374334 64 56 65
0.161794 -0.122228 0.417429 63 55 63
0.147051 -0.109609 0.374334 65 58 66
0.143621 -0.105643 0.360791 65 57 65
0.124686 -0.0905243 0.309157 66 58 66
0.130784 -0.0937345 0.32012 63 56 64
0.134102 -0.0948954 0.324085 62 56 63
0.125943 -0.0880077 0.300562 64 58 65
0.116448 -0.0803681 0.274471 66 60 67
0.122535 -0.0835382 0.285298 64 59 65
0.114877 -0.0773736 0.264245 68 63 70
0.107357 -0.0714476 0.244006 65 58 65
0.101687 -0.0668781 0.2284 70 62 70
0.103732 -0.0674296 0.230284 66 59 67
0.0986138 -0.063366 0.216406 67 60 68
0.10932 -0.0694474 0.237175 70 63 69
0.101015 -0.0634502 0.216694 69 61 69
0.103301 -0.0641654 0.219136 68 61 69
0.0929394 -0.0570948 0.194989 69 63 71
0.0965078 -0.0586425 0.200275 70 61 69
0.0990926 -0.0595657 0.203427 69 62 68
0.0932682 -0.0554682 0.189434 72 68 72
0.0989624 -0.0582351 0.198883 71 68 71
0.0959316 -0.0558636 0.190784 67 63 66
0.0972767 -0.0560629 0.191465 65 60 65
0.0952421 -0.0543301 0.185547 69 64 68
0.100604 -0.0568091 0.194013 71 63 70
0.0971858 -0.0543301 0.185547 72 64 70
0.102943 -0.0569789 0.194593 70 63 67
0.0977712 -0.0535857 0.183005 68 61 64
0.0991778 -0.0538289 0.183835 71 65 67
0.101599 -0.0546127 0.186512 71 64 65
0.102306 -0.0544691 0.186022 67 57 60
0.101184 -0.0533632 0.182245 66 55 60
0.108066 -0.0564604 0.192822 66 55 61
0.105608 -0.0546653 0.186692 67 56 61
0.102869 -0.0527591 0.180182 66 55 60
0.100731 -0.0511929 0.174833 65 55 60
0.112277 -0.0565467 0.193117 65 56 60
0.109261 -0.0545361 0.186251 68 59 65
0.110236 -0.0545361 0.186251 70 61 67
0.109074 -0.0534879 0.182671 73 65 70
0.109256 -0.0531113 0.181385 75 66 71
0.110385 -0.0531974 0.181679 76 69 70
0.112493 -0.0537499 0.183565 77 74 72
0.112825 -0.0534519 0.182548 79 75 73
0.113885 -0.0535003 0.182713 75 72 74
-0.12504 -0.057211 0.198938 72 61 65
-0.128439 -0.0592603 0.206064 72 66 69
-0.117136 -0.054503 0.189522 72 65 67
-0.121914 -0.057211 0.198938 72 65 67
-0.118314 -0.0560004 0.194729 71 65 67
-0.114584 -0.0547067 0.19023 69 63 65
-0.115136 -0.0554522 0.192822 68 61 62
-0.118098 -0.0573823 0.199534 68 60 63
-0.114366 -0.0560648 0.194953 68 60 62
-0.109299 -0.0540639 0.187995 70 64 64
-0.107132 -0.0534734 0.185942 68 60 63
-0.110617 -0.0557194 0.193752 67 59 61
-0.105469 -0.0536183 0.186445 64 56 59
-0.105069 -0.0539143 0.187475 66 59 62
-0.104999 -0.0543866 0.189117 66 59 62
-0.101864 -0.0532651 0.185217 67 59 62
-0.101332 -0.0534965 0.186022 68 59 62
-0.0992051 -0.0528822 0.183886 67 59 61
-0.0985818 -0.0530651 0.184522 68 59 61
-0.0988928 -0.0537596 0.186937 67 58 61
-0.0959999 -0.0527088 0.183283 68 59 62
-0.0966838 -0.0536206 0.186453 67 57 60
-0.0964105 -0.0540146 0.187823 67 57 60
-0.0892421 -0.0505139 0.17565 66 56 60
-0.0878014 -0.0502161 0.174615 65 55 59
-0.0899965 -0.0520133 0.180864 65 55 59
-0.0887777 -0.0518548 0.180313 65 55 58
-0.0897897 -0.0530098 0.18433 64 54 58
-0.0864399 -0.0515868 0.179382 64 53 57
-0.0879988 -0.0530943 0.184623 65 53 57
-0.0892573 -0.054452 0.189344 65 53 59
-0.0863444 -0.0532668 0.185223 65 53 58
-0.0854263 -0.0532993 0.185336 65 54 58
-0.0865588 -0.0546266 0.189952 63 50 56
-0.0820561 -0.0523872 0.182165 63 49 55
-0.0825218 -0.0533043 0.185354 64 50 56
-0.0809638 -0.0529205 0.184019 63 49 55
-0.0808706 -0.0534965 0.186022 65 50 56
-0.0779591 -0.0521994 0.181512 63 48 54
-0.0796115 -0.0539639 0.187647 63 49 55
-0.0775976 -0.0532563 0.185187 62 47 54
-0.0748049 -0.0519895 0.180782 62 46 54
-0.0762067 -0.0536428 0.186531 64 49 56
-0.0753309 -0.053715 0.186782 63 47 55
-0.0742863 -0.0536671 0.186615 63 47 54
-0.0738255 -0.0540453 0.18793 63 48 54
-0.0721239 -0.0535131 0.18608 64 48 54
-0.0705062 -0.0530294 0.184398 62 47 51
-0.0714574 -0.0544913 0.189481 62 46 50
-0.0693087 -0.0535972 0.186372 62 47 51
-0.0695954 -0.0545878 0.189817 60 44 49
-0.0679598 -0.0540774 0.188042 63 45 50
-0.0654303 -0.0528303 0.183705 61 40 46
-0.0638862 -0.0523534 0.182047 60 36 46
-0.0654718 -0.0544657 0.189392 64 46 54
-0.0634578 -0.0536024 0.18639 61 41 48
-0.0626951 -0.0537857 0.187027 61 40 48
-0.0625707 -0.054531 0.189619 63 47 53
-0.0623956 -0.0552555 0.192138 65 53 55
-0.0621798 -0.055967 0.194613 64 52 54
-0.0592799 -0.0542461 0.188629 69 57 59
-0.0590285 -0.0549316 0.191012 66 58 60
-0.058533 -0.0554097 0.192675 67 60 61
-0.0579487 -0.0558189 0.194098 66 58 58
-0.0564701 -0.0553661 0.192523 74 66 65
-0.0556143 -0.0555183 0.193052 72 62 61
-0.0542325 -0.0551415 0.191742 70 60 60
-0.0524275 -0.054312 0.188858 71 62 63
-0.0524082 -0.0553361 0.192419 68 60 60
-0.0508442 -0.0547374 0.190337 72 65 65
-0.0500458 -0.0549554 0.191095 72 69 67
-0.0499775 -0.0560004 0.194729 72 69 65
-0.0481096 -0.0550304 0.191356 74 70 66
-0.0486519 -0.0568348 0.19763 75 68 69
-0.0474869 -0.0566798 0.197091 75 72 70
-0.0475018 -0.0579576 0.201534 79 82 78
-0.0495193 -0.0617923 0.214869 83 86 85
-0.0455951 -0.0582187 0.202442 86 88 82
-0.04604 -0.0601864 0.209285 86 96 85
-0.046804 -0.0626775 0.217947 93 108 102
-0.0474957 -0.065194 0.226697 93 109 103
-0.0452844 -0.0637524 0.221684 101 117 111
-0.0490856 -0.0709223 0.246616 106 124 120
-0.0463588 -0.0687928 0.239211 113 127 125
-0.0492323 -0.0750862 0.261095 122 137 132
-0.0523691 -0.0821524 0.285666 117 140 134
-0.0549265 -0.0886983 0.308428 117 142 139
-0.0527653 -0.0877905 0.305271 122 145 140
-0.0473175 -0.0811866 0.282308 129 161 149
-0.0458388 -0.0811866 0.282308 137 170 157
-0.0453495 -0.0829973 0.288604 134 171 158
-0.0438867 -0.0830899 0.288926 133 175 160
-0.0423734 -0.0830899 0.288926 137 179 163
-0.0391338 -0.0795795 0.27672 142 190 173
-0.0393671 -0.0831328 0.289075 139 194 177
-0.0366662 -0.0805265 0.280012 148 197 182
-0.0366984 -0.0839554 0.291936 156 201 184
-0.0325077 -0.0776018 0.269843 158 202 184
-0.0322237 -0.0804202 0.279643 165 206 186
-0.0297485 -0.0777784 0.270457 173 212 183
-0.0268169 -0.0736191 0.255994 162 209 175
-0.0273029 -0.0788982 0.274351 163 210 178
-0.0256065 -0.078107 0.271599 163 211 182
-0.0238194 -0.0769297 0.267506 186 223 202
-0.0208672 -0.0716073 0.248998 176 219 190
-0.019563 -0.0716073 0.248998 165 218 184
-0.019384 -0.0760199 0.264342 163 216 182
-0.0172127 -0.0726974 0.252789 189 228 202
-0.0160547 -0.073457 0.25543 156 212 180
-0.0136394 -0.0680795 0.236731 169 219 191
-0.0120983 -0.0664258 0.230981 187 230 206
-0.0119945 -0.0731731 0.254443 169 222 190
-0.0100389 -0.0688982 0.239578 158 214 181
-0.00818273 -0.0641819 0.223178 170 220 192
-0.00739318 -0.0676538 0.235251 171 222 196
-0.0059572 -0.0654161 0.22747 169 221 196
-0.00465189 -0.0638531 0.222035 162 218 188
-0.00347887 -0.0636692 0.221395 181 224 197
-0.00221957 -0.0609328 0.21188 187 225 201
-0.00115804 -0.0635824 0.221093 162 214 183
0 -0.0628009 0.218376 184 227 203
0.00114138 -0.0626675 0.217912 190 229 207
0.00215711 -0.059218 0.205917 167 216 185
0.00312304 -0.057157 0.198751 175 219 191
0.00433291 -0.0594747 0.20681 178 220 194
0.00536436 -0.0589062 0.204833 172 217 188
0.00622537 -0.0569674 0.198091 171 217 188
0.0075101 -0.0589062 0.204833 188 225 201
0.00820192 -0.0562909 0.195739 159 215 183
0.00928435 -0.0566398 0.196952 171 221 196
0.010248 -0.0562669 0.195655 159 210 180
0.011565 -0.057725 0.200726 195 226 207
0.0120822 -0.0552813 0.192228 153 210 179
0.0131687 -0.0556176 0.193398 168 218 192
0.0141817 -0.0556176 0.193398 171 221 194
0.0155678 -0.0569836 0.198147 177 225 197
0.0159109 -0.0545992 0.189856 140 206 165
0.0169968 -0.0548947 0.190884 186 226 202
0.0185555 -0.0565994 0.196812 161 216 186
0.0192986 -0.0557679 0.19392 168 219 188
0.0195741 -0.0537358 0.186854 164 217 181
0.0211047 -0.0551788 0.191872 187 225 207
0.0223738 -0.0558381 0.194164 129 198 174
0.0226698 -0.0541167 0.188179 122 187 165
0.0250164 -0.0572304 0.199006 126 179 171
0.0252134 -0.0553738 0.19255 83 117 111
0.0266934 -0.0563694 0.196012 80 91 87
0.0278066 -0.0565453 0.196624 71 74 77
0.027844 -0.0545992 0.189856 73 66 72
0.0297418 -0.0563094 0.195803 72 65 71
0.0305984 -0.0560004 0.194729 68 61 66
0.0327435 -0.057993 0.201658 67 58 66
0.0332291 -0.0570139 0.198253 67 57 65
0.0334951 -0.0557288 0.193784 64 55 63
0.0358581 -0.0579057 0.201354 66 57 66
0.0383666 -0.0601864 0.209285 64 55 64
0.0419164 -0.0639284 0.222297 64 54 63
0.0402923 -0.0597906 0.207908 64 54 63
0.0445317 -0.0643426 0.223737 64 54 64
0.04368 -0.0614937 0.21383 62 50 61
0.0454796 -0.0624265 0.217074 65 55 65
0.0494534 -0.0662255 0.230284 65 53 63
0.0513541 -0.0671333 0.233441 64 53 63
0.0508219 -0.0648926 0.225649 64 53 63
0.0542941 -0.0677505 0.235587 63 52 62
0.0575698 -0.0702416 0.244249 63 50 62
0.061543 -0.073457 0.25543 63 50 62
0.0634549 -0.0741277 0.257762 63 51 62
0.0687193 -0.078605 0.273331 63 50 63
0.0739794 -0.0828948 0.288248 63 49 62
0.0743766 -0.0816731 0.284 63 51 63
0.0788473 -0.0848847 0.295167 63 51 63
0.0937051 -0.0989401 0.344042 63 51 63
0.09872 -0.102268 0.355615 63 51 63
0.102294 -0.104009 0.361667 62 50 63
0.0910423 -0.0908852 0.316033 63 51 63
0.0983377 -0.096415 0.335261 63 52 64
0.111759 -0.107652 0.374334 64 53 64
0.11372 -0.107652 0.374334 62 52 63
0.10853 -0.100997 0.351194 62 52 63
0.124093 -0.113555 0.394863 64 53 64
0.110709 -0.099647 0.3465 63 53 64
0.126635 -0.112143 0.389953 63 53 64
0.124943 -0.108889 0.378635 64 55 64
0.120944 -0.103757 0.360791 64 54 64
0.133223 -0.112533 0.391307 63 51 62
0.121767 -0.101297 0.352238 63 52 63
0.124253 -0.101823 0.354066 63 52 63
0.111669 -0.0901644 0.313526 62 50 61
0.112729 -0.0897015 0.311917 65 55 64
0.117553 -0.092204 0.320618 65 56 65
0.111548 -0.0862612 0.299954 63 54 63
0.106381 -0.0811233 0.282088 65 56 65
0.111357 -0.0837546 0.291238 64 56 65
0.104191 -0.0773058 0.268813 64 55 63
0.102953 -0.0753689 0.262078 65 56 64
0.0998145 -0.0721096 0.250745 64 55 63
0.10029 -0.0715124 0.248668 63 55 63
0.0939454 -0.0661293 0.229949 63 54 63
0.099287 -0.0690046 0.239948 64 56 64
0.0942833 -0.0647079 0.225007 65 58 65
0.0935978 -0.0634444 0.220613 65 58 65
0.0978372 -0.0655093 0.227794 65 59 65
0.0939034 -0.0621178 0.216 66 59 65
0.0880668 -0.0575633 0.200163 63 56 62
0.0911941 -0.0589062 0.204833 66 59 66
0.0942178 -0.0601516 0.209163 66 58 66
0.0896986 -0.0566082 0.196842 65 58 66
0.0896612 -0.0559415 0.194524 66 60 67
0.0920483 -0.0567856 0.197459 68 60 67
0.0954981 -0.0582592 0.202583 69 62 69
0.0955811 -0.0576691 0.200531 62 56 63
0.0895568 -0.053447 0.18585 66 57 65
0.0923508 -0.0545218 0.189587 70 63 69
0.0946876 -0.0553067 0.192317 71 66 70
0.0994154 -0.057457 0.199794 70 64 68
0.0904883 -0.0517528 0.179959 70 64 68
0.0920372 -0.052096 0.181152 68 62 67
0.0994753 -0.0557317 0.193794 68 62 67
0.0980191 -0.0543611 0.189028 70 61 68
0.0960516 -0.0527372 0.183382 71 61 68
0.0979321 -0.0532373 0.185121 70 60 65
0.100923 -0.0543251 0.188903 66 57 60
0.0990984 -0.0528253 0.183688 66 57 59
0.0995995 -0.0525819 0.182842 64 55 58
0.105905 -0.0553783 0.192565 65 54 59
0.102109 -0.0528898 0.183912 64 50 57
0.10526 -0.0540121 0.187815 63 51 58
0.105077 -0.0534193 0.185754 63 51 58
0.104607 -0.0526922 0.183225 65 54 60
0.103639 -0.0517302 0.17988 65 54 59
0.104259 -0.0515706 0.179325 67 59 64
0.108848 -0.05336 0.185547 67 59 64
0.109951 -0.0534238 0.185769 69 60 66
0.112653 -0.0542561 0.188663 71 63 67
0.113942 -0.0543998 0.189163 78 70 74
0.116635 -0.0552059 0.191966 79 71 73
0.111083 -0.0521285 0.181265 76 72 72
0.114097 -0.0530889 0.184605 76 71 71
0.115801 -0.0534291 0.185787 76 70 72
-0.135198 -0.0607341 0.2151 79 67 69
-0.121513 -0.0550454 0.194953 71 63 67
-0.122852 -0.0561233 0.19877 74 66 69
-0.121476 -0.0559693 0.198224 74 67 68
-0.117269 -0.0544965 0.193008 68 62 65
-0.116146 -0.054444 0.192822 70 64 67
-0.1171 -0.0553729 0.196112 74 67 69
-0.111903 -0.0533833 0.189066 74 66 68
-0.11517 -0.0554328 0.196324 71 64 65
-0.112267 -0.0545221 0.193099 71 64 64
-0.115198 -0.056454 0.199941 70 63 65
-0.108492 -0.0536556 0.19003 68 61 63
-0.100067 -0.0499469 0.176895 69 62 64
-0.105044 -0.0529213 0.18743 67 60 62
-0.104209 -0.0529962 0.187695 67 59 62
-0.102814 -0.0527845 0.186945 67 59 61
-0.102176 -0.0529612 0.187571 67 59 62
-0.100533 -0.0526156 0.186347 67 58 61
-0.101206 -0.0534872 0.189434 66 57 60
-0.0946268 -0.0505052 0.178873 66 57 60
-0.0958279 -0.0516578 0.182955 70 61 64
-0.0954332 -0.0519647 0.184041 68 58 61
-0.0937874 -0.0515896 0.182713 68 58 61
-0.0936931 -0.0520691 0.184411 66 56 59
-0.0910538 -0.0511294 0.181083 66 57 60
-0.0891146 -0.0505672 0.179092 65 56 59
-0.0896966 -0.0514389 0.182179 66 55 58
-0.0893058 -0.0517655 0.183336 65 54 59
-0.0895836 -0.0524909 0.185905 66 55 59
-0.0876115 -0.0518996 0.183811 65 53 58
-0.0875719 -0.0524525 0.185769 65 53 58
-0.0860888 -0.0521436 0.184675 65 53 59
-0.0852308 -0.0522105 0.184912 66 54 57
-0.0859894 -0.0532806 0.188702 65 52 57
-0.0820297 -0.0514182 0.182106 64 51 55
-0.0815804 -0.0517381 0.183239 64 50 55
-0.0805139 -0.0516696 0.182997 65 51 56
-0.0805841 -0.0523378 0.185363 63 48 54
-0.0787623 -0.0517784 0.183382 61 44 51
-0.0784924 -0.052238 0.18501 63 47 54
-0.0756889 -0.0510019 0.180632 62 47 53
-0.0782172 -0.0533727 0.189028 63 48 54
-0.0763018 -0.0527331 0.186763 62 46 54
-0.0761397 -0.0533045 0.188787 62 46 53
-0.0748857 -0.0531164 0.188121 62 45 51
-0.0721874 -0.0518853 0.18376 63 45 51
-0.0723444 -0.0527008 0.186649 63 46 52
-0.0709456 -0.0523898 0.185547 60 42 48
-0.0707768 -0.052991 0.187677 63 47 51
-0.0705457 -0.0535619 0.189698 62 45 50
-0.0704164 -0.0542275 0.192056 62 44 49
-0.066567 -0.052006 0.184188 59 37 42
-0.066218 -0.0524941 0.185917 60 36 43
-0.0649818 -0.052283 0.185169 61 37 46
-0.0643452 -0.0525552 0.186133 60 37 45
-0.0639464 -0.0530331 0.187825 60 39 45
-0.0637018 -0.0536556 0.19003 62 44 50
-0.0609639 -0.0521646 0.18475 63 49 54
-0.0616609 -0.053612 0.189876 67 55 56
-0.0612419 -0.0541206 0.191677 65 54 55
-0.0598189 -0.0537441 0.190344 65 52 53
-0.0583585 -0.0533207 0.188844 64 54 56
-0.0575105 -0.0534518 0.189309 66 58 59
-0.0563719 -0.0533128 0.188816 65 56 57
-0.0573957 -0.0552504 0.195678 68 59 60
-0.0547904 -0.0537014 0.190192 67 55 56
-0.0545765 -0.0544823 0.192958 68 57 58
-0.0544552 -0.0553869 0.196162 69 60 61
-0.0536883 -0.0556571 0.197119 67 58 59
-0.0508797 -0.0537797 0.19047 67 56 58
-0.0517203 -0.0557616 0.197489 69 58 60
-0.0488905 -0.0537863 0.190493 70 58 61
-0.0481639 -0.0540909 0.191572 72 62 64
-0.0479714 -0.055021 0.194866 70 60 62
-0.0461455 -0.0540774 0.191524 73 63 63
-0.0462081 -0.0553541 0.196046 72 68 66
-0.0441255 -0.0540606 0.191465 72 73 73
-0.0445113 -0.0558015 0.19763 80 82 76
-0.0430883 -0.0553036 0.195867 80 87 78
-0.0417513 -0.0548947 0.194419 78 91 86
-0.0426138 -0.0574294 0.203396 92 106 101
-0.0413537 -0.0571602 0.202442 92 111 105
-0.0416678 -0.0591099 0.209348 94 116 111
-0.0447088 -0.0651381 0.230697 99 115 114
-0.044774 -0.0670451 0.237451 105 120 118
-0.0435897 -0.0671367 0.237776 103 125 121
-0.0424633 -0.0673254 0.238444 108 132 124
-0.0418702 -0.0683966 0.242238 115 140 130
-0.0387491 -0.0652762 0.231187 112 148 134
-0.0371618 -0.0646217 0.228869 120 156 146
-0.0368177 -0.0661574 0.234308 115 153 144
-0.0345518 -0.0642268 0.22747 123 163 154
-0.0330975 -0.0637208 0.225678 125 167 157
-0.0340516 -0.0679857 0.240783 123 171 160
-0.0319875 -0.066321 0.234887 135 180 169
-0.0312396 -0.0673612 0.238571 140 182 171
-0.0288857 -0.0648806 0.229785 135 176 162
-0.0281944 -0.0660814 0.234038 146 191 172
-0.0264233 -0.0647452 0.229306 164 203 185
-0.0251226 -0.0644896 0.2284 153 200 174
-0.0233623 -0.0629695 0.223017 154 204 176
-0.0214543 -0.06087 0.215581 159 208 178
-0.021411 -0.0641222 0.227099 164 212 184
-0.0207905 -0.0659266 0.23349 160 212 184
-0.0188621 -0.0635497 0.225072 160 216 186
-0.0176137 -0.0632999 0.224187 165 218 188
-0.0162816 -0.0626921 0.222035 184 223 200
-0.0147354 -0.061103 0.216406 179 219 195
-0.0133094 -0.0597889 0.211752 165 211 183
-0.0125683 -0.0615925 0.21814 157 210 181
-0.0107287 -0.0578351 0.204833 166 217 188
-0.0098411 -0.0589447 0.208762 172 218 190
-0.00854392 -0.057572 0.203901 157 206 170
-0.0075101 -0.0578351 0.204833 177 215 186
-0.00619938 -0.0556982 0.197264 176 224 198
-0.00534279 -0.0576026 0.204009 154 214 185
-0.00417637 -0.0562837 0.199338 149 211 176
-0.00305984 -0.0549822 0.194729 176 222 192
-0.0021296 -0.0573999 0.203291 167 217 184
-0.00102121 -0.0550502 0.194969 156 212 177
0 -0.0561314 0.198799 188 226 202
0.00099534 -0.0536556 0.19003 164 215 183
0.00203143 -0.054754 0.19392 176 220 191
0.0031409 -0.0564386 0.199887 178 221 195
0.00402595 -0.0542565 0.192158 176 220 194
0.00511394 -0.0551352 0.195271 184 224 199
0.00616026 -0.0553467 0.19602 150 208 170
0.00709724 -0.0546557 0.193572 164 214 182
0.00785637 -0.052939 0.187492 197 230 210
0.00873775 -0.0523361 0.185357 170 218 192
0.00967 -0.0521279 0.18462 141 204 167
0.0107955 -0.0529047 0.187371 197 228 208
0.0120217 -0.0540041 0.191265 153 210 178
0.0128279 -0.0531931 0.188392 172 220 193
0.0137864 -0.0530844 0.188007 162 218 187
0.0149196 -0.0536179 0.189897 173 222 194
0.015593 -0.0525357 0.186064 163 216 184
0.0166932 -0.052934 0.187475 145 208 172
0.0179035 -0.0536179 0.189897 179 223 198
0.0181535 -0.051505 0.182414 174 221 191
0.0186903 -0.0503768 0.178418 177 224 192
0.0205408 -0.0527281 0.186745 183 224 203
0.0212252 -0.0520082 0.184196 150 202 181
0.0224547 -0.0526287 0.186393 131 190 168
0.0230682 -0.051814 0.183508 136 180 174
0.0251787 -0.0542921 0.192285 88 120 114
0.0256137 -0.0531059 0.188083 80 91 86
0.0266514 -0.0532108 0.188455 70 74 74
0.027617 -0.0531694 0.188308 73 68 74
0.0283413 -0.0526824 0.186583 73 66 72
0.0299027 -0.0537319 0.190301 68 59 66
0.0300986 -0.0523393 0.185369 67 58 66
0.032432 -0.0546346 0.193498 67 58 67
0.0312684 -0.0510781 0.180902 67 58 66
0.032843 -0.0520725 0.184423 67 58 66
0.033979 -0.0523342 0.18535 65 56 65
0.0347605 -0.0520507 0.184346 64 54 63
0.0364855 -0.0531572 0.188265 64 54 64
0.0383518 -0.054406 0.192688 64 54 64
0.0395608 -0.0546819 0.193665 64 54 64
0.0409773 -0.0552239 0.195585 63 54 63
0.0415405 -0.0546174 0.193437 64 53 63
0.0448696 -0.0575899 0.203964 63 52 63
0.0463453 -0.0581006 0.205773 64 53 64
0.0476551 -0.0583848 0.20678 63 52 63
0.0497503 -0.0595973 0.211074 63 51 62
0.0485574 -0.0569038 0.201534 62 50 62
0.0521598 -0.0598249 0.21188 63 51 62
0.05848 -0.0656764 0.232604 63 50 62
0.0577287 -0.0635096 0.22493 62 49 62
0.0625667 -0.0674555 0.238905 62 50 63
0.059966 -0.0633839 0.224485 62 50 63
0.0678051 -0.0702915 0.248949 62 50 63
0.0715556 -0.0727799 0.257762 63 50 63
0.0691411 -0.0690218 0.244452 63 50 63
0.0729236 -0.0714742 0.253138 62 50 63
0.0765835 -0.073721 0.261095 62 49 62
0.0759342 -0.0718135 0.254339 63 51 63
0.078836 -0.0732724 0.259506 64 53 64
0.0829077 -0.0757507 0.268284 63 51 63
0.0781484 -0.0702122 0.248668 64 52 64
0.0769735 -0.0680229 0.240914 62 51 63
0.0790995 -0.0687742 0.243575 65 54 65
0.0853774 -0.0730543 0.258734 63 51 62
0.0917143 -0.0772504 0.273595 62 50 62
0.0805233 -0.0667809 0.236516 63 51 62
0.0828018 -0.0676301 0.239523 63 51 62
0.0924225 -0.0743612 0.263363 63 52 63
0.0885682 -0.0702122 0.248668 63 52 63
0.0841509 -0.0657436 0.232842 65 54 64
0.0834836 -0.0642905 0.227695 65 54 64
0.0854275 -0.0648609 0.229716 65 54 64
0.0791372 -0.0592505 0.209845 65 55 64
0.0818643 -0.0604527 0.214103 64 55 64
0.08111 -0.0590863 0.209264 65 55 64
0.0849508 -0.061059 0.216251 64 55 63
0.0848293 -0.0601694 0.2131 63 54 62
0.0821107 -0.0574847 0.203592 65 56 64
0.0827313 -0.0571767 0.202501 63 54 62
0.0838422 -0.057211 0.202622 62 54 62
0.0831078 -0.056001 0.198337 63 54 62
0.0833255 -0.0554545 0.196401 63 55 62
0.0790139 -0.0519437 0.183967 65 59 65
0.0818846 -0.0531824 0.188354 65 56 63
0.083291 -0.0534518 0.189309 66 57 65
0.0831494 -0.0527331 0.186763 67 59 66
0.0855992 -0.0536556 0.19003 67 58 66
0.0902678 -0.0559316 0.198091 67 59 65
0.0909809 -0.0557329 0.197387 64 56 63
0.0881089 -0.0533671 0.189008 66 57 64
0.0865331 -0.0518303 0.183565 64 56 64
0.0896977 -0.0531354 0.188188 67 59 66
0.0897368 -0.0525807 0.186223 67 57 64
0.0920785 -0.0533727 0.189028 69 61 67
0.0932403 -0.0534712 0.189377 68 62 67
0.0946343 -0.0536993 0.190185 66 61 65
0.0922096 -0.0517784 0.183382 67 59 64
0.098576 -0.0547827 0.194022 65 57 63
0.0948526 -0.0521755 0.184788 64 56 62
0.0975712 -0.0531288 0.188165 66 57 64
0.0979647 -0.0528096 0.187034 63 52 60
0.0982564 -0.0524425 0.185734 65 55 60
0.0940875 -0.0497251 0.17611 66 54 59
0.100202 -0.0524425 0.185734 62 48 54
0.0983742 -0.0509908 0.180592 66 55 60
0.101641 -0.0521823 0.184812 62 48 55
0.102502 -0.0521279 0.18462 63 49 57
0.102619 -0.0516997 0.183103 62 48 56
0.104531 -0.0521755 0.184788 63 50 57
0.103193 -0.051035 0.180749 63 51 57
0.104855 -0.0513853 0.18199 65 54 59
0.110661 -0.0537421 0.190337 66 59 62
0.109922 -0.0529065 0.187377 66 58 63
0.111162 -0.0530301 0.187815 69 61 66
0.112691 -0.0532879 0.188728 70 62 67
0.11318 -0.0530535 0.187898 75 66 70
0.111272 -0.0517096 0.183138 76 69 71
0.110546 -0.0509331 0.180388 73 69 70
0.116799 -0.0533583 0.188977 75 71 72
0.11043 -0.0500248 0.177171 72 67 70
-0.133174 -0.058717 0.21188 85 74 76
-0.126579 -0.0562781 0.203079 75 68 70
-0.122956 -0.0551306 0.198938 77 69 71
-0.120918 -0.0546805 0.197314 74 67 68
-0.1223 -0.0557822 0.201289 72 65 68
-0.118128 -0.0543475 0.196112 72 66 68
-0.120523 -0.0559358 0.201844 74 68 69
-0.114021 -0.0533868 0.192646 73 67 68
-0.11448 -0.0540802 0.195148 70 64 65
