ply
format ascii 1.0
element vertex 1243
property float x
property float y
property float z
property uchar red
property uchar green
property uchar blue
end_header
-0.106529 -0.380603 1.07045 190 223 200
-0.104193 -0.392938 1.10514 168 216 182
-0.101438 -0.405052 1.13921 167 216 184
-0.0993545 -0.421528 1.18555 170 219 186
-0.0908201 -0.411007 1.15596 175 221 188
-0.0825441 -0.400237 1.12567 169 218 182
-0.0820387 -0.428385 1.20483 166 217 181
-0.0700502 -0.396266 1.1145 190 227 203
-0.0636733 -0.392938 1.10514 171 219 191
-0.0557014 -0.378116 1.06345 161 215 182
-0.0537025 -0.405052 1.13921 175 220 191
-0.0467001 -0.396266 1.1145 178 219 190
-0.0412721 -0.400237 1.12567 183 222 195
-0.0332406 -0.376077 1.05772 182 224 199
-0.0291876 -0.396266 1.1145 154 211 176
-0.0224271 -0.380603 1.07045 152 210 171
-0.0164814 -0.372933 1.04887 185 227 201
-0.0110301 -0.374375 1.05293 171 220 190
-0.0055401 -0.376077 1.05772 158 212 180
0 -0.400237 1.12567 145 206 168
0.0052378 -0.355556 1 141 206 167
0.0104756 -0.355556 1 177 223 196
0.0157134 -0.355556 1 165 218 187
0.0209512 -0.355556 1 191 229 205
0.0245273 -0.332995 0.936549 169 219 188
0.0296129 -0.335034 0.942284 163 214 181
0.0328098 -0.318174 0.894863 185 225 200
0.0441202 -0.374375 1.05293 168 215 185
0.0471402 -0.355556 1 181 224 203
0.0551503 -0.374375 1.05293 153 211 180
0.0503754 -0.310874 0.874334 185 226 201
0.0521998 -0.295288 0.830499 186 227 202
0.0644873 -0.336736 0.947071 150 209 175
0.0733291 -0.355556 1 201 231 213
0.0695712 -0.314845 0.885502 165 213 188
0.0742092 -0.314845 0.885502 195 227 208
0.0833927 -0.332995 0.936549 179 221 199
0.0782997 -0.295288 0.830499 166 217 193
0.0856643 -0.306059 0.860791 173 221 199
0.0884184 -0.300104 0.844042 192 227 209
0.104618 -0.338178 0.951125 156 207 191
0.115232 -0.355556 1 110 170 160
0.106676 -0.314845 0.885502 90 126 120
0.111314 -0.314845 0.885502 72 83 88
0.130945 -0.355556 1 77 68 76
0.119069 -0.310874 0.874334 76 67 71
0.149583 -0.376077 1.05772 73 63 68
0.1218 -0.295288 0.830499 70 59 65
0.151896 -0.355556 1 67 56 63
0.173654 -0.392938 1.10514 67 56 64
0.162372 -0.355556 1 69 58 66
0.167609 -0.355556 1 67 56 64
0.19102 -0.392938 1.10514 66 55 63
0.178085 -0.355556 1 67 56 65
0.220873 -0.428385 1.20483 66 55 64
0.212256 -0.400237 1.12567 66 55 64
0.220777 -0.405052 1.13921 66 55 64
0.224048 -0.400237 1.12567 66 55 64
0.253757 -0.441685 1.24224 66 56 65
0.271353 -0.460504 1.29517 66 54 64
0.26677 -0.441685 1.24224 65 54 64
0.298218 -0.481997 1.35562 66 55 65
0.28328 -0.447204 1.25776 66 55 65
0.291824 -0.450222 1.26625 67 56 65
0.299717 -0.452124 1.2716 67 56 65
0.312056 -0.460504 1.29517 66 56 65
0.327537 -0.473066 1.3305 65 54 64
0.340821 -0.481997 1.35562 65 55 65
0.374101 -0.518265 1.45762 66 56 66
0.381736 -0.518265 1.45762 66 56 66
0.387636 -0.515956 1.45113 65 56 66
0.389361 -0.508286 1.42955 66 56 67
0.416405 -0.533333 1.5 66 57 67
0.37415 -0.470339 1.32283 66 58 68
0.406095 -0.501214 1.40967 66 57 67
0.407358 -0.493796 1.3888 68 59 69
0.410313 -0.488652 1.37433 67 59 69
0.442814 -0.518265 1.45762 66 57 67
0.463545 -0.533333 1.5 66 57 66
0.443012 -0.501214 1.40967 66 58 67
0.439107 -0.488652 1.37433 66 57 66
0.452973 -0.495951 1.39486 67 59 69
0.460279 -0.495951 1.39486 67 59 68
0.47629 -0.505185 1.42083 66 59 68
0.494045 -0.515956 1.45113 67 60 69
0.518542 -0.533333 1.5 66 58 68
0.466915 -0.473066 1.3305 67 60 70
0.48283 -0.481997 1.35562 68 60 70
0.504115 -0.495951 1.39486 67 60 70
0.532049 -0.515956 1.45113 67 60 70
0.481651 -0.460504 1.29517 67 60 70
0.506867 -0.477881 1.34404 67 60 69
0.508728 -0.473066 1.3305 67 60 69
0.546382 -0.501214 1.40967 68 60 70
0.508787 -0.460504 1.29517 68 61 71
0.500681 -0.447204 1.25776 68 61 71
0.576554 -0.508286 1.42955 68 62 71
0.612822 -0.533333 1.5 68 62 71
0.498543 -0.428385 1.20483 69 62 71
0.604351 -0.512812 1.44228 69 62 71
0.564479 -0.473066 1.3305 69 63 72
0.556273 -0.460504 1.29517 71 65 73
0.584305 -0.477881 1.34404 71 65 73
0.553384 -0.447204 1.25776 70 64 73
0.576625 -0.460504 1.29517 69 64 72
0.45045 -0.355556 1 71 65 74
0.496853 -0.387674 1.09033 70 65 74
0.460926 -0.355556 1 71 66 75
0.417153 -0.318174 0.894863 71 65 73
0.428818 -0.323437 0.909666 70 65 73
0.416742 -0.310874 0.874334 70 66 73
0.339643 -0.250607 0.704833 71 67 74
0.400812 -0.292561 0.822829 70 65 73
0.274593 -0.198299 0.557716 70 63 71
0.248795 -0.177778 0.5 71 64 71
0.296837 -0.209897 0.590334 70 63 70
0.208137 -0.145659 0.409665 72 62 69
0.234899 -0.16271 0.457621 69 59 66
0.201609 -0.13824 0.3888 67 59 65
0.154603 -0.104948 0.295167 66 58 64
0.166351 -0.111805 0.314453 66 57 64
0.140268 -0.0933506 0.262549 67 58 65
0.127383 -0.0839526 0.236117 69 60 67
0.106829 -0.0697289 0.196112 69 60 66
0.095586 -0.0617965 0.173803 68 60 65
0.128143 -0.0820632 0.230803 71 63 68
0.108646 -0.0689272 0.193858 72 68 70
0.132228 -0.0831112 0.23375 72 70 72
0.0973744 -0.0606425 0.170557 74 75 74
0.104579 -0.0645375 0.181512 78 80 79
0.122393 -0.0748504 0.210517 79 81 80
0.118742 -0.0719688 0.202412 78 83 82
0.116244 -0.0698315 0.196401 79 85 84
0.112923 -0.0672416 0.189117 79 86 85
0.121285 -0.0715925 0.201354 82 89 87
0.121391 -0.0710377 0.199794 81 89 86
0.12071 -0.0700351 0.196974 82 89 86
0.133172 -0.0766106 0.215467 79 90 91
0.127672 -0.0728294 0.204833 78 89 90
-0.153721 -0.0856794 0.24457 87 82 76
-0.137508 -0.0772868 0.220613 82 78 74
-0.139438 -0.0790356 0.225605 83 77 76
-0.136068 -0.0777846 0.222035 81 75 74
-0.133372 -0.0769006 0.219511 79 73 72
-0.129621 -0.0753878 0.215193 79 73 73
-0.127888 -0.0750326 0.214179 79 72 72
-0.123458 -0.0730742 0.208589 76 68 69
-0.126895 -0.0757792 0.21631 74 66 67
-0.121446 -0.0731789 0.208888 73 64 66
-0.120212 -0.0730939 0.208645 72 63 65
-0.116522 -0.0715 0.204095 73 65 66
-0.1195 -0.0740061 0.211249 71 64 65
-0.118634 -0.0741564 0.211678 70 63 64
-0.116332 -0.0734034 0.209528 71 63 65
-0.111568 -0.0710679 0.202862 68 60 63
-0.111579 -0.0717584 0.204833 68 60 62
-0.105576 -0.0685573 0.195695 69 60 63
-0.10564 -0.0692712 0.197733 68 60 62
-0.10836 -0.0717584 0.204833 69 60 64
-0.105529 -0.0705825 0.201476 67 59 63
-0.105078 -0.0709907 0.202641 68 60 63
-0.0995079 -0.0679135 0.193858 65 57 61
-0.0977057 -0.067371 0.192309 67 58 62
-0.0986847 -0.0687549 0.196259 66 57 62
-0.0992384 -0.0698684 0.199438 66 57 61
-0.100039 -0.0711811 0.203185 65 56 60
-0.0933175 -0.0671127 0.191572 66 56 61
-0.0907415 -0.0659694 0.188308 64 55 59
-0.0948729 -0.069731 0.199045 64 55 60
-0.0935105 -0.0694932 0.198367 64 54 59
-0.0938339 -0.0705171 0.201289 65 54 59
-0.093085 -0.0707493 0.201952 65 54 59
-0.0891885 -0.0685669 0.195723 63 51 57
-0.0878328 -0.0683098 0.194989 64 53 58
-0.0890981 -0.0701091 0.200125 65 51 58
-0.0870141 -0.0692844 0.197771 65 52 58
-0.0869195 -0.0700429 0.199936 65 52 59
-0.083925 -0.0684546 0.195402 65 51 58
-0.0841265 -0.069466 0.198289 64 50 57
-0.0815959 -0.0682186 0.194729 63 49 56
-0.0816984 -0.069169 0.197441 64 49 57
-0.0821473 -0.0704407 0.201071 65 51 57
-0.0807371 -0.0701305 0.200186 63 49 56
-0.0809829 -0.0712697 0.203438 64 48 56
-0.0773187 -0.0689522 0.196822 65 49 56
-0.078286 -0.0707583 0.201978 64 48 55
-0.0783197 -0.0717584 0.204833 64 47 55
-0.0733175 -0.0681083 0.194414 64 48 55
-0.0728507 -0.0686278 0.195896 64 48 55
-0.0733163 -0.0700531 0.199965 64 46 54
-0.0726167 -0.0703902 0.200927 63 46 53
-0.0711284 -0.0699615 0.199703 62 45 51
-0.0718824 -0.0717584 0.204833 63 47 54
-0.0712569 -0.0722117 0.206127 62 43 51
-0.0676095 -0.0695696 0.198585 64 48 53
-0.0666168 -0.0696191 0.198726 64 48 53
-0.0687143 -0.072951 0.208237 64 47 53
-0.065868 -0.0710571 0.202831 64 49 54
-0.0654452 -0.0717584 0.204833 63 47 53
-0.068721 -0.076606 0.21867 65 52 56
-0.0698381 -0.0791708 0.225991 66 55 58
-0.0718286 -0.0828313 0.23644 66 52 56
-0.0702643 -0.0824488 0.235348 70 59 62
-0.0752742 -0.0899048 0.256631 68 59 61
-0.0812635 -0.0988229 0.282088 68 60 61
-0.0834854 -0.103405 0.295167 67 59 59
-0.0739118 -0.0932745 0.26625 67 58 58
-0.0822577 -0.105803 0.302012 67 59 59
-0.0888392 -0.116509 0.332572 68 60 60
-0.087708 -0.117326 0.334904 68 61 62
-0.0874062 -0.119308 0.340563 69 62 62
-0.0742092 -0.103405 0.295167 69 61 61
-0.0806252 -0.114735 0.32751 72 60 60
-0.0796299 -0.115783 0.330499 70 57 57
-0.076091 -0.113096 0.322829 73 60 62
-0.0769966 -0.117043 0.334095 76 66 67
-0.0823454 -0.128084 0.365614 78 72 69
-0.0744671 -0.118588 0.338506 78 81 78
-0.0827864 -0.135052 0.385502 84 87 85
-0.0858298 -0.143517 0.409665 88 93 89
-0.0737002 -0.126395 0.360791 91 99 94
-0.058749 -0.103405 0.295167 86 105 101
-0.0832468 -0.150484 0.429553 89 110 107
-0.0754816 -0.140237 0.400304 93 113 110
-0.078747 -0.150484 0.429553 96 114 108
-0.114755 -0.225745 0.644385 106 128 121
-0.133369 -0.270312 0.771599 100 132 126
-0.155802 -0.325647 0.929553 106 135 128
-0.172674 -0.372555 1.06345 119 146 133
-0.149454 -0.333205 0.951125 124 155 139
-0.170984 -0.394351 1.12567 129 163 146
-0.155964 -0.372555 1.06345 129 169 150
-0.167661 -0.415329 1.18555 137 175 157
-0.146964 -0.378061 1.07917 137 179 164
-0.130945 -0.350327 1 137 187 165
-0.141504 -0.394351 1.12567 147 199 176
-0.130006 -0.378061 1.07917 145 199 181
-0.128425 -0.390439 1.1145 153 204 187
-0.103014 -0.328098 0.936549 161 207 189
-0.104756 -0.350327 1 159 206 183
-0.0995181 -0.350327 1 175 214 192
-0.106128 -0.394351 1.12567 166 214 184
-0.0890425 -0.350327 1 175 218 190
-0.0838047 -0.350327 1 171 216 188
-0.0785669 -0.350327 1 168 217 187
-0.0690969 -0.330107 0.942284 171 218 189
-0.0716954 -0.368869 1.05293 171 218 185
-0.0700502 -0.390439 1.1145 173 217 189
-0.0542904 -0.330107 0.942284 175 217 189
-0.0496056 -0.331784 0.947071 189 226 204
-0.0471402 -0.350327 1 141 206 167
-0.0419024 -0.350327 1 149 208 170
-0.0304499 -0.290946 0.830499 180 222 198
-0.0314268 -0.350327 1 160 213 183
-0.0231904 -0.310215 0.885502 165 216 186
-0.0185523 -0.310215 0.885502 167 220 188
-0.0157134 -0.350327 1 186 228 203
-0.0099636 -0.333205 0.951125 182 227 201
-0.00463808 -0.310215 0.885502 165 219 189
0 -0.333205 0.951125 190 228 205
0.00472879 -0.316282 0.90282 190 227 203
0.00896308 -0.299745 0.855615 170 219 189
0.0132628 -0.29569 0.844042 157 211 177
0.0183183 -0.306303 0.874334 178 220 192
0.0221046 -0.29569 0.844042 161 215 182
0.0265255 -0.29569 0.844042 178 224 196
0.0309464 -0.29569 0.844042 174 221 192
0.0339396 -0.283754 0.80997 167 215 186
0.0352923 -0.262279 0.748668 189 225 205
0.0401346 -0.268438 0.76625 178 220 196
0.0458142 -0.278568 0.795167 166 214 180
0.0509095 -0.283754 0.80997 158 210 172
0.052175 -0.268438 0.76625 148 209 170
0.0516848 -0.246922 0.704833 193 228 208
0.0538613 -0.240166 0.685547 143 207 171
0.0571637 -0.23896 0.682106 179 222 198
0.0610428 -0.240166 0.685547 187 225 204
0.0736918 -0.273824 0.781624 154 213 185
0.0721228 -0.253889 0.724721 166 218 193
0.0669609 -0.223932 0.639209 174 220 196
0.0797147 -0.253889 0.724721 180 220 206
0.0789966 -0.240166 0.685547 154 200 188
0.093721 -0.272542 0.777965 119 165 154
0.0977958 -0.272542 0.777965 66 106 103
0.0953803 -0.255178 0.7284 70 79 83
0.11652 -0.299745 0.855615 75 68 73
0.108363 -0.268438 0.76625 73 63 69
0.125483 -0.299745 0.855615 70 60 67
0.144472 -0.333205 0.951125 68 57 65
0.140613 -0.313495 0.894863 69 59 67
0.1453 -0.313495 0.894863 69 59 67
0.158738 -0.331784 0.947071 67 56 65
0.153057 -0.310215 0.885502 68 57 65
0.157695 -0.310215 0.885502 67 56 65
0.154732 -0.29569 0.844042 65 54 63
0.17858 -0.331784 0.947071 65 54 64
0.193798 -0.350327 1 65 54 64
0.213058 -0.375006 1.07045 66 56 66
0.204274 -0.350327 1 65 55 64
0.248386 -0.415329 1.18555 65 54 63
0.25115 -0.409708 1.1695 65 54 64
0.250612 -0.399095 1.13921 66 55 65
0.279783 -0.435189 1.24224 67 56 66
0.262546 -0.399095 1.13921 65 54 64
0.28398 -0.422085 1.20483 65 54 64
0.285644 -0.415329 1.18555 65 54 64
0.291854 -0.415329 1.18555 65 55 64
0.308837 -0.430342 1.2284 66 56 66
0.304273 -0.415329 1.18555 65 55 65
0.355022 -0.474908 1.35562 66 56 66
0.345975 -0.453732 1.29517 66 56 66
0.378261 -0.486534 1.3888 65 55 66
0.344849 -0.435189 1.24224 65 56 67
0.37415 -0.463422 1.32283 65 56 66
0.37311 -0.453732 1.29517 65 56 67
0.403115 -0.481466 1.37433 66 57 67
0.414632 -0.486534 1.3888 66 57 67
0.417512 -0.481466 1.37433 66 57 67
0.42471 -0.481466 1.37433 66 57 67
0.431909 -0.481466 1.37433 66 57 67
0.396902 -0.435189 1.24224 66 57 67
0.42958 -0.463422 1.32283 66 58 68
0.465163 -0.493844 1.40967 65 57 67
0.454428 -0.474908 1.35562 66 58 68
0.440948 -0.453732 1.29517 67 59 68
0.416504 -0.422085 1.20483 66 57 67
0.435941 -0.435189 1.24224 65 57 67
0.502081 -0.493844 1.40967 66 58 68
0.504115 -0.488658 1.39486 66 58 68
0.516848 -0.493844 1.40967 67 59 69
0.467741 -0.440628 1.25776 67 59 69
0.47753 -0.443601 1.26625 66 58 68
0.55147 -0.505271 1.44228 68 60 69
0.55409 -0.500811 1.42955 67 60 69
0.508787 -0.453732 1.29517 67 59 69
0.479611 -0.422085 1.20483 67 60 69
0.522354 -0.453732 1.29517 69 62 70
0.561482 -0.481466 1.37433 68 61 70
0.508295 -0.430342 1.2284 67 60 69
0.527032 -0.440628 1.25776 69 62 71
0.53362 -0.440628 1.25776 68 60 69
0.590275 -0.481466 1.37433 68 61 70
0.469154 -0.378061 1.07917 69 62 71
0.495265 -0.394351 1.12567 69 63 72
0.50719 -0.399095 1.13921 70 63 72
0.45045 -0.350327 1 70 63 71
0.407779 -0.313495 0.894863 70 64 72
0.342117 -0.260026 0.742238 69 63 72
0.393462 -0.29569 0.844042 70 64 73
0.235701 -0.175163 0.5 70 64 73
0.35378 -0.260026 0.742238 70 64 72
0.284469 -0.20681 0.590334 70 64 71
0.267365 -0.192285 0.548874 70 63 71
0.184304 -0.131139 0.374334 70 63 71
0.193463 -0.136207 0.3888 71 62 70
0.219509 -0.152935 0.436549 71 62 69
0.184796 -0.127423 0.363725 69 59 66
0.169646 -0.115783 0.330499 67 56 63
0.100975 -0.0682186 0.194729 66 55 63
0.135011 -0.090301 0.257762 68 57 63
0.125616 -0.0831856 0.237451 66 55 62
0.120642 -0.0791082 0.225813 66 55 63
0.11711 -0.0760468 0.217074 67 57 63
0.125443 -0.0806746 0.230284 66 57 63
0.112652 -0.0717584 0.204833 67 57 63
0.122671 -0.0774034 0.220946 71 62 68
0.105651 -0.0660411 0.188513 68 62 65
0.117457 -0.0727409 0.207637 70 69 71
0.104696 -0.0642435 0.183382 74 74 74
0.114209 -0.0694433 0.198224 77 79 78
0.111019 -0.0668957 0.190952 78 80 79
0.115918 -0.0692241 0.197599 79 83 81
0.121235 -0.0717584 0.204833 79 82 81
0.113903 -0.0668275 0.190757 75 80 79
0.118128 -0.0687035 0.196112 79 84 83
0.116837 -0.0673668 0.192297 80 86 84
0.119603 -0.0683722 0.195167 81 87 85
0.122368 -0.0693604 0.197988 79 88 90
0.118445 -0.0665727 0.19003 80 88 89
-0.1362 -0.0747806 0.216694 90 93 77
-0.154721 -0.0856635 0.248229 88 84 80
-0.128887 -0.0719647 0.208534 81 76 75
-0.131207 -0.0738866 0.214103 85 82 78
-0.12917 -0.0733665 0.212596 81 77 73
-0.12474 -0.0714664 0.20709 83 79 77
-0.130917 -0.0756635 0.219252 81 75 74
-0.125693 -0.0732872 0.212366 77 70 70
-0.124277 -0.0731082 0.211848 76 69 69
-0.125664 -0.0745902 0.216142 77 70 71
-0.120693 -0.072291 0.20948 76 68 70
-0.121991 -0.0737385 0.213674 75 67 68
-0.119871 -0.0731284 0.211906 73 66 67
-0.116726 -0.0718749 0.208274 74 68 68
-0.112977 -0.0702229 0.203487 72 66 66
-0.114098 -0.0715952 0.207463 72 65 66
-0.10851 -0.0687432 0.199199 69 61 63
-0.108863 -0.0696362 0.201787 70 61 63
-0.107251 -0.0692778 0.200748 68 59 61
-0.10387 -0.0677583 0.196345 68 58 61
-0.10272 -0.067678 0.196112 69 60 63
-0.105107 -0.0699501 0.202696 68 59 62
-0.104317 -0.0701331 0.203226 68 59 63
-0.101657 -0.0690493 0.200086 68 59 63
-0.0991392 -0.0680406 0.197163 68 59 62
-0.0971728 -0.0673931 0.195287 68 59 62
-0.0988014 -0.0692515 0.200672 65 56 60
-0.0946938 -0.0670861 0.194397 67 57 60
-0.0924762 -0.0662272 0.191908 66 56 60
-0.0940375 -0.0680854 0.197293 63 54 58
-0.0929738 -0.0680631 0.197228 66 56 60
-0.0964848 -0.0714271 0.206976 65 55 60
-0.0927305 -0.0694279 0.201183 65 54 59
-0.0905005 -0.0685371 0.198602 65 54 59
-0.0842716 -0.064562 0.187083 63 51 57
-0.088123 -0.0683069 0.197935 65 53 58
-0.0865706 -0.0679024 0.196763 64 50 58
-0.087437 -0.0694082 0.201126 65 51 58
-0.0827808 -0.0665135 0.192738 64 50 57
-0.081666 -0.0664279 0.19249 63 48 56
-0.0809997 -0.0667094 0.193306 63 50 56
-0.0810016 -0.0675555 0.195757 64 50 56
-0.0798337 -0.067435 0.195408 63 49 55
-0.0805378 -0.0689133 0.199692 63 47 55
-0.0796458 -0.0690468 0.200079 65 49 56
-0.0774116 -0.0680047 0.197059 63 46 54
-0.0770297 -0.0685837 0.198737 63 47 54
-0.0735084 -0.0663449 0.19225 62 45 53
-0.0745379 -0.0682085 0.19765 63 46 53
-0.075313 -0.0698885 0.202518 62 43 50
-0.0719752 -0.0677452 0.196307 62 44 52
-0.0702112 -0.0670427 0.194271 61 41 49
-0.0708559 -0.0686532 0.198938 60 41 49
-0.0693019 -0.0681498 0.197479 62 43 51
-0.0713734 -0.0712502 0.206464 62 41 49
-0.0679904 -0.0689173 0.199703 62 43 49
-0.0664346 -0.0683924 0.198183 60 40 47
-0.0654474 -0.0684457 0.198337 62 44 50
-0.0653759 -0.0694736 0.201316 65 50 54
-0.0664398 -0.0717617 0.207946 64 48 53
-0.0635601 -0.0697955 0.202248 67 54 57
-0.0620737 -0.0693186 0.200866 67 54 56
-0.06496 -0.0737924 0.21383 66 52 56
-0.0674606 -0.0779775 0.225958 65 52 56
-0.0663327 -0.0780429 0.226147 64 54 56
-0.0650518 -0.0779275 0.225813 67 57 59
-0.0662398 -0.08082 0.234194 64 53 55
-0.0705251 -0.0876722 0.25405 64 53 55
-0.0702055 -0.0889532 0.257762 65 54 55
-0.072138 -0.0931939 0.270051 66 55 56
-0.0760382 -0.100197 0.290344 63 53 55
-0.0633174 -0.0851375 0.246705 66 57 58
-0.06768 -0.0928994 0.269197 67 58 59
-0.0794729 -0.111408 0.322829 72 58 61
-0.0669726 -0.0959253 0.277965 69 55 58
-0.0827768 -0.121197 0.351194 70 58 60
-0.0701826 -0.105092 0.304529 72 62 63
-0.0765246 -0.117254 0.339769 68 60 59
-0.0574377 -0.0901034 0.261095 75 68 67
-0.0738828 -0.118728 0.344042 78 69 68
-0.070921 -0.116818 0.338506 82 73 75
-0.072643 -0.122722 0.355615 84 80 83
-0.0649251 -0.11257 0.326197 82 94 96
-0.0572029 -0.101862 0.295167 82 96 99
-0.0842999 -0.154283 0.447071 89 95 99
-0.078747 -0.148238 0.429553 92 98 101
-0.0777429 -0.150652 0.436549 94 108 107
-0.121828 -0.243236 0.704833 90 112 110
-0.130394 -0.268474 0.777965 94 117 115
-0.146592 -0.311562 0.90282 102 129 119
-0.140613 -0.308815 0.894863 99 135 121
-0.137135 -0.311562 0.90282 101 136 128
-0.129866 -0.305585 0.885502 108 147 131
-0.133935 -0.326832 0.947071 107 153 134
-0.119069 -0.301731 0.874334 108 150 142
-0.117178 -0.308815 0.894863 128 165 150
-0.112491 -0.308815 0.894863 117 169 146
-0.108762 -0.311562 0.90282 132 184 164
-0.102038 -0.305585 0.885502 136 187 171
-0.0928393 -0.291277 0.844042 145 192 177
-0.0848491 -0.279519 0.80997 154 197 181
-0.0890551 -0.308815 0.894863 162 207 184
-0.0857636 -0.313924 0.909666 165 210 187
-0.0751556 -0.291277 0.844042 172 213 192
-0.0756606 -0.311562 0.90282 169 214 192
-0.0663138 -0.291277 0.844042 162 212 188
-0.0649331 -0.305585 0.885502 154 211 178
-0.0565498 -0.286603 0.830499 173 220 190
-0.0562453 -0.308815 0.894863 167 217 187
-0.0478498 -0.286603 0.830499 155 209 176
-0.0436882 -0.287845 0.834095 166 216 187
-0.0341634 -0.2501 0.724721 184 224 201
-0.0347999 -0.286603 0.830499 153 210 175
-0.0274496 -0.258364 0.748668 178 223 195
-0.023814 -0.261502 0.757762 180 223 199
-0.0189797 -0.2501 0.724721 162 215 189
-0.016376 -0.269737 0.781624 177 224 199
-0.0116631 -0.256145 0.742238 164 217 186
-0.00784274 -0.258364 0.748668 159 214 182
-0.00388769 -0.256145 0.742238 185 226 202
0 -0.261502 0.757762 156 213 177
0.00369177 -0.243236 0.704833 199 232 208
0.00848491 -0.279519 0.80997 188 226 200
0.00999804 -0.219577 0.636275 179 223 199
0.0144162 -0.237456 0.688083 188 228 205
0.0184589 -0.243236 0.704833 169 220 190
0.0216242 -0.237456 0.688083 184 225 201
0.0211199 -0.198787 0.576031 155 211 176
0.0250232 -0.206085 0.59718 183 221 198
0.0281511 -0.206085 0.59718 155 208 178
0.0287489 -0.189415 0.548874 189 226 206
0.0316238 -0.189415 0.548874 186 226 204
0.0378255 -0.207681 0.601804 143 208 172
0.0340457 -0.172549 0.5 157 214 182
0.0405458 -0.190815 0.552929 185 226 203
0.0392835 -0.172549 0.5 148 209 176
0.0457067 -0.188215 0.545396 155 209 177
0.0557109 -0.215916 0.625666 160 211 183
0.0543084 -0.198787 0.576031 153 210 180
0.0519429 -0.180122 0.521944 171 220 193
0.0633917 -0.208832 0.605137 147 205 168
0.0622151 -0.195196 0.565624 186 220 207
0.0603315 -0.180682 0.523568 180 212 198
0.0790228 -0.22637 0.655958 121 162 147
0.0810037 -0.222376 0.644385 76 117 111
0.0866193 -0.22828 0.661494 67 90 86
0.0793361 -0.201044 0.582571 72 76 76
0.0927659 -0.22637 0.655958 72 65 70
0.093315 -0.219577 0.636275 71 62 68
0.0966477 -0.219577 0.636275 70 60 67
0.120404 -0.264431 0.76625 72 62 68
0.105348 -0.223902 0.648805 69 60 66
0.123604 -0.254493 0.737451 68 57 66
0.125266 -0.2501 0.724721 66 55 64
0.141607 -0.274411 0.795167 66 56 65
0.145772 -0.274411 0.795167 66 55 65
0.159153 -0.291277 0.844042 65 54 64
0.165817 -0.295271 0.855615 66 55 65
0.179694 -0.311562 0.90282 65 55 64
0.172416 -0.291277 0.844042 67 56 66
0.190586 -0.313924 0.909666 66 56 65
0.178349 -0.286603 0.830499 66 55 65
0.209236 -0.328232 0.951125 66 55 65
0.225225 -0.345098 1 65 55 65
0.230463 -0.345098 1 64 54 64
0.222097 -0.32518 0.942284 65 54 64
0.257912 -0.369409 1.07045 65 55 65
0.311721 -0.43698 1.26625 65 55 65
0.280201 -0.384611 1.1145 64 54 64
0.29238 -0.393139 1.13921 65 55 65
0.310483 -0.40913 1.18555 65 55 65
0.345975 -0.44696 1.29517 65 55 65
0.328155 -0.415785 1.20483 65 55 65
0.312488 -0.388465 1.12567 64 54 65
0.351356 -0.428694 1.24224 65 55 66
0.36478 -0.43698 1.26625 65 56 66
0.334149 -0.393139 1.13921 66 56 66
0.420862 -0.486473 1.40967 64 55 65
0.386302 -0.438826 1.2716 64 54 66
0.391309 -0.43698 1.26625 64 55 66
0.397941 -0.43698 1.26625 66 57 67
0.384951 -0.415785 1.20483 66 57 67
0.391261 -0.415785 1.20483 66 57 68
0.443508 -0.463826 1.34404 66 58 68
0.403883 -0.415785 1.20483 66 58 68
0.461528 -0.46782 1.35562 65 57 67
0.437736 -0.43698 1.26625 66 58 68
0.489503 -0.481364 1.39486 66 57 68
0.4613 -0.44696 1.29517 66 58 68
0.38434 -0.366995 1.06345 66 57 67
0.431605 -0.406239 1.17717 65 57 67
0.410982 -0.381381 1.10514 65 57 67
0.474329 -0.434051 1.25776 66 58 68
0.430409 -0.388465 1.12567 67 59 68
0.456268 -0.406239 1.17717 66 57 67
0.462434 -0.406239 1.17717 66 57 67
0.434032 -0.376272 1.09033 66 59 68
0.507268 -0.434051 1.25776 66 58 67
0.472265 -0.398919 1.15596 67 59 68
0.451165 -0.376272 1.09033 67 59 69
0.374969 -0.308815 0.894863 66 59 67
0.385936 -0.313924 0.909666 68 61 69
0.429499 -0.345098 1 68 61 69
0.357714 -0.283957 0.822829 66 59 67
0.371357 -0.291277 0.844042 68 61 69
0.375778 -0.291277 0.844042 68 61 69
0.317492 -0.243236 0.704833 68 60 69
0.285109 -0.215916 0.625666 68 61 69
0.278923 -0.208832 0.605137 69 61 69
0.275193 -0.203723 0.590334 67 60 68
0.303764 -0.222376 0.644385 68 60 68
0.220491 -0.159641 0.462595 68 61 68
0.226341 -0.162095 0.469708 67 60 67
0.215443 -0.152631 0.442284 69 61 68
0.172912 -0.121197 0.351194 67 59 66
0.139332 -0.0966318 0.280012 70 61 68
0.148418 -0.101862 0.295167 69 58 66
0.123073 -0.0835958 0.242238 69 58 65
0.115911 -0.0779275 0.225813 66 55 62
0.131081 -0.0872369 0.252789 65 52 59
0.110137 -0.0725651 0.210274 65 52 60
0.105828 -0.0690356 0.200046 63 49 58
0.11385 -0.0735404 0.2131 65 54 61
0.110506 -0.0706874 0.204833 66 55 62
0.116509 -0.0738108 0.213884 67 56 63
0.111211 -0.0697833 0.202213 66 56 63
0.106097 -0.0659465 0.191095 72 62 68
0.110223 -0.0678709 0.196671 70 63 67
0.104325 -0.0636441 0.184423 74 74 73
0.116943 -0.0706874 0.204833 75 75 75
0.109072 -0.06533 0.189309 75 75 75
0.1139 -0.0676077 0.195909 74 75 75
0.116782 -0.0686992 0.199072 77 80 79
0.118041 -0.0688256 0.199438 76 80 79
0.116025 -0.0670564 0.194311 77 81 80
0.122618 -0.0702506 0.203567 78 82 81
0.117016 -0.066463 0.192592 79 84 82
0.120285 -0.0677358 0.19628 79 84 83
0.12736 -0.0711123 0.206064 75 83 85
0.123819 -0.0685545 0.198652 78 86 86
-0.149247 -0.0807024 0.237451 103 101 84
-0.138824 -0.0756974 0.222725 92 87 87
-0.137231 -0.0754627 0.222035 88 84 84
-0.137862 -0.0764578 0.224962 91 89 86
-0.133188 -0.0745027 0.21921 89 87 83
-0.136017 -0.0767468 0.225813 80 76 74
-0.123566 -0.0703328 0.206941 82 78 76
-0.12576 -0.0722152 0.212479 82 78 76
-0.122272 -0.0708388 0.208429 79 74 72
-0.122502 -0.0716118 0.210704 77 72 71
-0.12076 -0.071235 0.209595 78 73 72
-0.115674 -0.0688607 0.202609 77 71 71
-0.118706 -0.07132 0.209845 75 68 68
-0.116335 -0.070549 0.207577 73 66 66
-0.12077 -0.0739295 0.217523 72 66 66
-0.116224 -0.0718241 0.211329 71 64 65
-0.111923 -0.0698312 0.205465 73 65 66
-0.111817 -0.0704422 0.207263 70 61 63
-0.106254 -0.0675943 0.198883 70 60 63
-0.106553 -0.0684552 0.201416 68 59 62
-0.101859 -0.066094 0.194469 69 60 63
-0.105667 -0.0692575 0.203777 67 58 61
-0.0993256 -0.0657656 0.193503 67 58 62
-0.0993124 -0.0664347 0.195471 69 60 64
-0.0984733 -0.0665596 0.195839 68 58 61
-0.0994673 -0.0679391 0.199898 67 57 61
-0.0981416 -0.0677468 0.199332 68 58 62
-0.0970329 -0.0677017 0.199199 68 58 60
-0.0962303 -0.0678715 0.199699 67 57 60
-0.093916 -0.0669671 0.197038 65 55 59
-0.0919863 -0.0663199 0.195134 66 56 60
-0.0950168 -0.0692746 0.203827 66 55 60
-0.0902994 -0.0665834 0.195909 65 53 59
-0.0909279 -0.0678174 0.19954 66 54 59
-0.0899356 -0.0678573 0.199657 66 54 59
-0.0873396 -0.0666738 0.196175 65 53 58
-0.087383 -0.0675011 0.198609 64 52 57
-0.0864162 -0.0675586 0.198778 64 51 57
-0.0845284 -0.0668886 0.196807 63 49 56
-0.083203 -0.0666526 0.196112 63 49 56
-0.0822228 -0.0666908 0.196225 64 49 56
-0.0794426 -0.0652514 0.19199 64 49 56
-0.0799196 -0.0664848 0.195619 63 48 55
-0.0793613 -0.0668777 0.196775 63 45 53
-0.078985 -0.0674364 0.198419 65 48 55
-0.0793581 -0.0686584 0.202014 62 45 52
-0.0778209 -0.0682382 0.200778 63 45 52
-0.0760305 -0.0675816 0.198846 65 49 55
-0.0726006 -0.0654291 0.192513 66 49 54
-0.0731892 -0.0668886 0.196807 61 40 47
-0.0727274 -0.0674161 0.198359 63 42 49
-0.07118 -0.0669379 0.196952 62 42 49
-0.0708633 -0.0676201 0.198959 62 42 48
-0.0683108 -0.0661573 0.194655 62 42 50
-0.0691296 -0.0679647 0.199973 61 41 49
-0.0673513 -0.0672351 0.197826 62 42 48
-0.0651368 -0.0660404 0.194311 62 43 49
-0.0663134 -0.0683005 0.200961 63 45 51
-0.0632671 -0.066214 0.194822 63 45 51
-0.0660429 -0.0702521 0.206703 64 48 53
-0.062915 -0.0680403 0.200196 65 50 54
-0.0609293 -0.0670096 0.197163 66 51 55
-0.0610822 -0.0683361 0.201066 65 49 53
-0.0592143 -0.0674086 0.198337 63 47 52
-0.0587565 -0.0680819 0.200318 63 48 52
-0.0601578 -0.0709729 0.208824 64 51 54
-0.0601119 -0.0722321 0.212529 64 51 54
-0.0568622 -0.0696164 0.204833 64 50 53
-0.0641851 -0.0800929 0.235658 66 53 55
-0.0559887 -0.071235 0.209595 64 50 53
-0.0612168 -0.0794445 0.23375 64 52 55
-0.0578396 -0.0765935 0.225362 65 55 57
-0.0580882 -0.0785253 0.231046 65 54 56
-0.062038 -0.0856492 0.252006 67 54 57
-0.0601796 -0.0848897 0.249771 66 51 55
-0.0621975 -0.0896858 0.263883 70 57 60
-0.0581648 -0.085777 0.252382 71 61 63
-0.0632576 -0.0954569 0.280864 67 58 60
-0.0577574 -0.0892322 0.262549 72 64 64
-0.0633871 -0.100318 0.295167 77 68 67
-0.0596899 -0.0968288 0.2849 85 76 78
-0.0686734 -0.114258 0.336183 85 80 84
-0.0657812 -0.112326 0.330499 79 82 86
-0.0666748 -0.116929 0.344042 78 85 89
-0.0658487 -0.118688 0.349217 83 85 89
-0.0738462 -0.136906 0.40282 87 84 90
-0.0803387 -0.153324 0.451125 85 90 94
-0.100696 -0.197998 0.582571 91 98 100
-0.112215 -0.227543 0.669501 91 107 107
-0.107785 -0.225611 0.663817 95 113 111
-0.120404 -0.260425 0.76625 97 116 113
-0.112743 -0.252264 0.742238 100 121 121
-0.114632 -0.26565 0.781624 102 129 126
-0.108363 -0.260425 0.76625 99 134 132
-0.10108 -0.252264 0.742238 103 141 139
-0.0869235 -0.225611 0.663817 108 146 144
-0.0911025 -0.24631 0.724721 100 150 145
-0.0821728 -0.231827 0.682106 112 161 150
-0.0832011 -0.245397 0.722035 126 167 153
-0.0816415 -0.252264 0.742238 132 170 157
-0.0818798 -0.26565 0.781624 140 177 162
-0.0738661 -0.252264 0.742238 147 185 167
-0.0699784 -0.252264 0.742238 154 196 179
-0.0627601 -0.239551 0.704833 158 203 180
-0.0642154 -0.260425 0.76625 160 207 184
-0.0419135 -0.181312 0.533475 174 215 195
-0.0544277 -0.252264 0.742238 173 218 194
-0.0455872 -0.227543 0.669501 175 221 197
-0.0399922 -0.21625 0.636275 173 221 196
-0.0366595 -0.21625 0.636275 169 216 189
-0.0327711 -0.212645 0.625666 158 209 176
-0.0268909 -0.193877 0.570447 179 220 194
-0.023169 -0.187924 0.552929 160 212 179
-0.0209152 -0.193877 0.570447 157 211 175
-0.01714 -0.185363 0.545396 153 209 172
-0.0156395 -0.202963 0.59718 193 231 209
-0.0119515 -0.193877 0.570447 198 233 213
-0.0090514 -0.195775 0.576031 164 214 183
-0.00687155 -0.22294 0.655958 182 223 198
-0.00273383 -0.177393 0.521944 166 216 185
0 -0.196841 0.579167 158 212 177
0.00272642 -0.176912 0.520529 168 216 183
0.00597577 -0.193877 0.570447 188 225 198
0.00726893 -0.157222 0.462595 172 221 193
0.00964305 -0.156429 0.460263 187 230 209
0.011142 -0.144596 0.425446 165 217 190
0.0152005 -0.164388 0.48368 158 213 181
0.015197 -0.140872 0.414488 149 207 169
0.0182924 -0.14837 0.436549 169 215 184
0.0193117 -0.139233 0.409665 158 210 175
0.0218641 -0.141871 0.417429 171 220 193
0.0221451 -0.130632 0.384359 166 218 192
0.0222274 -0.120191 0.353638 149 212 180
0.0281329 -0.140422 0.413163 188 228 207
0.0295385 -0.136906 0.40282 194 230 210
0.0270303 -0.116929 0.344042 179 221 197
0.0293356 -0.11897 0.350047 195 227 208
0.0355277 -0.135607 0.398997 178 218 198
0.0330026 -0.11897 0.350047 169 215 189
0.039296 -0.134202 0.394863 159 213 182
0.0397603 -0.128998 0.379552 144 207 170
0.0400074 -0.123619 0.363725 157 203 183
0.0431351 -0.127225 0.374334 136 182 157
0.0457994 -0.12921 0.380174 121 153 135
0.0484603 -0.13102 0.385502 82 109 103
0.0613078 -0.159125 0.468195 68 92 86
0.0545145 -0.136051 0.400304 66 79 77
0.0592304 -0.142346 0.418825 71 65 70
0.0684197 -0.158557 0.466525 72 64 70
0.0813148 -0.181943 0.535331 70 60 67
0.084811 -0.18344 0.539737 71 62 68
0.0872594 -0.182648 0.537405 69 60 67
0.0705356 -0.143028 0.420833 68 57 66
0.089972 -0.176912 0.520529 66 56 64
0.101588 -0.193877 0.570447 66 56 64
0.113032 -0.209554 0.616572 65 55 64
0.123688 -0.22294 0.655958 65 54 64
0.117275 -0.205667 0.605137 66 55 65
0.126642 -0.21625 0.636275 65 54 64
0.154791 -0.25754 0.757762 66 56 66
0.155508 -0.252264 0.742238 65 55 65
0.142555 -0.225611 0.663817 66 55 65
0.168565 -0.260425 0.76625 66 55 65
0.168619 -0.254449 0.748668 65 55 65
0.183257 -0.270253 0.795167 65 54 65
0.201669 -0.290797 0.855615 65 54 64
0.227033 -0.320253 0.942284 65 55 65
0.231968 -0.320253 0.942284 65 54 65
0.264721 -0.357858 1.05293 65 54 65
0.241839 -0.320253 0.942284 64 55 65
0.26189 -0.339869 1 64 54 65
0.293087 -0.372898 1.09718 65 55 65
0.272365 -0.339869 1 66 56 67
0.312488 -0.382579 1.12567 65 55 66
0.318384 -0.382579 1.12567 65 55 65
0.304706 -0.359485 1.05772 66 56 67
0.347741 -0.402931 1.18555 65 56 66
0.336072 -0.382579 1.12567 66 56 67
0.351171 -0.392875 1.15596 67 57 68
0.344413 -0.378784 1.1145 65 55 67
0.390395 -0.422198 1.24224 66 56 67
0.378789 -0.402931 1.18555 65 56 67
0.34762 -0.363812 1.07045 65 57 67
0.353227 -0.363812 1.07045 67 57 68
0.358834 -0.363812 1.07045 66 57 67
0.36741 -0.366776 1.07917 65 56 67
0.365647 -0.359485 1.05772 66 57 67
0.350932 -0.339869 1 66 57 68
0.422256 -0.402931 1.18555 65 56 67
0.411719 -0.387182 1.13921 66 56 67
0.333525 -0.309167 0.909666 65 57 67
0.429882 -0.392875 1.15596 66 57 67
0.435937 -0.392875 1.15596 66 58 67
0.441991 -0.392875 1.15596 67 58 67
0.418282 -0.366776 1.07917 68 59 69
0.392835 -0.339869 1 66 57 67
0.398072 -0.339869 1 66 58 67
0.340411 -0.286864 0.844042 66 58 67
0.408548 -0.339869 1 66 58 67
0.413786 -0.339869 1 67 59 68
0.353673 -0.286864 0.844042 67 60 68
0.32736 -0.262243 0.771599 67 59 68
0.331401 -0.262243 0.771599 67 59 68
0.316663 -0.247561 0.7284 66 57 66
0.275277 -0.212645 0.625666 66 58 67
0.241474 -0.184338 0.542379 67 59 68
0.281831 -0.212645 0.625666 67 59 67
0.227844 -0.169935 0.5 67 59 67
0.245893 -0.181312 0.533475 69 60 68
0.174501 -0.127225 0.374334 67 59 67
0.176462 -0.127225 0.374334 67 57 66
0.155478 -0.110864 0.326197 68 59 67
0.148625 -0.104825 0.308428 68 59 66
0.127183 -0.0887382 0.261095 68 59 66
0.119266 -0.0823292 0.242238 67 58 65
0.116996 -0.0799118 0.235125 67 57 64
0.113843 -0.076948 0.226405 67 56 63
0.0993124 -0.0664347 0.195471 65 54 60
0.105141 -0.0696164 0.204833 64 51 59
0.108079 -0.0708388 0.208429 64 51 59
0.0927986 -0.060215 0.177171 64 51 59
0.10836 -0.0696164 0.204833 65 52 59
0.10325 -0.0656828 0.193259 67 56 63
0.109409 -0.0689251 0.202799 67 56 63
0.1056 -0.0658863 0.193858 70 59 65
0.114475 -0.0707433 0.208148 69 59 65
0.112847 -0.0690795 0.203253 71 61 67
0.115614 -0.0701115 0.20629 72 65 69
0.109525 -0.0658041 0.193616 72 71 71
0.111654 -0.0664678 0.195569 74 73 73
0.110531 -0.0652013 0.191842 75 74 74
0.111154 -0.0649776 0.191184 76 77 76
0.113116 -0.0655344 0.192822 78 79 79
0.111504 -0.0640288 0.188392 78 79 79
0.116819 -0.0664921 0.19564 78 79 79
0.113202 -0.0638734 0.187935 77 80 79
0.118523 -0.0662992 0.195073 77 81 79
0.110037 -0.061026 0.179557 76 80 79
0.118403 -0.0651094 0.191572 77 84 86
0.11714 -0.0638734 0.187935 78 86 86
-0.15578 -0.0829396 0.247847 117 119 85
-0.150986 -0.0810626 0.242238 96 102 93
-0.141629 -0.076683 0.22915 96 100 94
-0.140334 -0.0766315 0.228997 85 88 83
-0.134454 -0.0740537 0.221293 90 91 84
-0.133357 -0.0740879 0.221395 90 88 84
-0.128278 -0.0718912 0.214831 86 82 81
-0.12764 -0.072167 0.215655 84 81 77
-0.124012 -0.0707415 0.211396 83 79 75
-0.119089 -0.0685453 0.204833 81 77 74
-0.119425 -0.0693637 0.207278 81 77 75
-0.118699 -0.0695745 0.207908 74 68 67
-0.120009 -0.070994 0.21215 75 68 68
-0.116791 -0.0697355 0.208389 74 67 67
-0.118265 -0.0712823 0.213012 73 66 66
-0.114835 -0.069874 0.208803 72 66 67
-0.110537 -0.0679056 0.202921 71 64 65
-0.109843 -0.0681341 0.203604 72 65 66
-0.104597 -0.0655166 0.195782 71 63 64
-0.104376 -0.0660254 0.197303 71 63 65
-0.105242 -0.0672384 0.200927 70 61 64
-0.0995687 -0.0642565 0.192017 68 58 62
-0.101657 -0.0662735 0.198044 67 58 61
-0.101771 -0.0670321 0.200311 67 58 62
-0.0967293 -0.0643749 0.19237 68 59 62
-0.0985427 -0.0662721 0.19804 67 58 61
-0.0964902 -0.0655821 0.195978 67 57 60
-0.0943459 -0.0648142 0.193683 69 59 61
-0.0955367 -0.0663457 0.198259 69 58 61
-0.0947324 -0.06651 0.198751 67 56 59
-0.0906749 -0.0643686 0.192352 67 56 59
-0.0927796 -0.0666028 0.199028 66 55 59
-0.0930969 -0.06759 0.201978 67 56 60
-0.0910157 -0.0668386 0.199732 66 55 59
-0.0888365 -0.0659968 0.197217 64 53 58
-0.0888582 -0.0667896 0.199586 65 53 58
-0.0856161 -0.0651187 0.194593 66 54 58
-0.085822 -0.0660618 0.197411 65 51 56
-0.0836902 -0.0652065 0.194855 64 50 57
-0.0839091 -0.0661842 0.197777 64 50 57
-0.0811332 -0.0647946 0.193624 62 46 54
-0.0805009 -0.0651034 0.194547 63 48 55
-0.0799509 -0.0654876 0.195695 63 49 56
-0.0801919 -0.066538 0.198834 63 47 54
-0.0783574 -0.0658714 0.196842 63 46 54
-0.0766588 -0.0653026 0.195143 63 45 52
-0.0753144 -0.0650244 0.194311 64 47 54
-0.0760125 -0.0665261 0.198799 62 43 49
-0.0755071 -0.0670016 0.20022 64 45 50
-0.0732692 -0.0659315 0.197022 62 41 47
-0.0720242 -0.0657371 0.196441 63 41 48
-0.070677 -0.0654424 0.19556 61 39 45
-0.0708697 -0.0665858 0.198977 60 37 44
-0.0700661 -0.0668134 0.199657 61 39 46
-0.0665988 -0.0644693 0.192652 62 42 48
-0.0684655 -0.0672959 0.201099 63 43 49
-0.0670593 -0.0669436 0.200046 63 42 48
-0.0667861 -0.0677291 0.202394 62 41 47
-0.064349 -0.0663102 0.198153 63 43 48
-0.0637642 -0.0667847 0.199572 63 44 48
-0.0634987 -0.067615 0.202053 65 47 51
-0.061014 -0.0660705 0.197437 63 45 49
-0.059701 -0.0657633 0.196519 64 46 50
-0.0609679 -0.0683371 0.20421 65 47 51
-0.0559151 -0.0637927 0.190631 63 45 49
-0.0601638 -0.069888 0.208845 62 43 48
-0.0569403 -0.0673683 0.201316 64 48 51
-0.0555969 -0.06702 0.200275 65 50 53
-0.0553481 -0.0680033 0.203213 64 48 52
-0.0539866 -0.067631 0.202101 64 48 51
-0.0533802 -0.0682088 0.203827 64 49 52
-0.0569856 -0.0743017 0.222035 64 50 53
-0.0528372 -0.070328 0.21016 64 50 53
-0.0511642 -0.0695502 0.207836 64 46 52
-0.0521848 -0.0724796 0.21659 66 49 54
-0.0543528 -0.0771684 0.230601 69 56 60
-0.0539892 -0.0783942 0.234264 68 57 61
-0.0573217 -0.0851689 0.254509 69 60 62
-0.0499849 -0.0760361 0.227217 74 66 67
-0.0553543 -0.0862576 0.257762 75 68 66
-0.0554944 -0.0886379 0.264875 76 68 69
-0.0616933 -0.101066 0.302012 75 69 74
-0.0572038 -0.096177 0.287404 74 75 78
-0.0554895 -0.0958162 0.286326 75 81 83
-0.0574221 -0.101908 0.304529 77 79 82
-0.0559632 -0.102156 0.305271 82 80 87
-0.0680292 -0.127834 0.382004 80 79 86
-0.0718379 -0.139082 0.415615 81 83 87
-0.0940988 -0.187873 0.561417 85 98 100
-0.0751123 -0.154803 0.462595 89 105 108
-0.0852261 -0.181502 0.542379 89 105 110
-0.0819839 -0.180618 0.539737 91 106 111
-0.0892699 -0.203693 0.608693 86 108 110
-0.082644 -0.195559 0.584385 93 117 121
-0.0738626 -0.181502 0.542379 93 118 122
-0.0710217 -0.181502 0.542379 92 131 131
-0.0728054 -0.193813 0.579167 93 134 134
-0.0602347 -0.16732 0.5 105 143 141
-0.0720964 -0.209373 0.625666 108 144 139
-0.0633598 -0.192763 0.576031 112 150 146
-0.052378 -0.16732 0.5 122 159 150
-0.0519429 -0.174664 0.521944 125 165 156
-0.0511356 -0.181502 0.542379 126 172 163
-0.0482948 -0.181502 0.542379 142 183 174
-0.0494728 -0.19755 0.590334 146 191 178
-0.0407987 -0.173774 0.519286 152 197 181
-0.0339217 -0.154803 0.462595 167 209 190
-0.0365926 -0.179838 0.537405 163 213 194
-0.0337778 -0.179838 0.537405 180 222 203
-0.0288079 -0.16732 0.5 182 221 201
-0.0244356 -0.156118 0.466525 170 216 188
-0.0204227 -0.144977 0.433233 164 213 182
-0.0159633 -0.127486 0.380965 157 209 179
-0.0139389 -0.127222 0.380174 149 205 174
-0.0128745 -0.137091 0.409665 152 207 170
-0.00994008 -0.127014 0.379552 199 230 208
-0.00762046 -0.121717 0.363725 167 216 185
-0.00603958 -0.128622 0.384359 158 212 177
-0.00413642 -0.132137 0.394863 193 230 209
-0.00203646 -0.130108 0.3888 186 227 206
0 -0.116077 0.346871 153 211 178
0.00172136 -0.109977 0.328643 163 217 185
0.00357747 -0.114282 0.341505 162 212 177
0.00434103 -0.0924489 0.276263 172 220 193
0.00668249 -0.106735 0.318955 201 235 217
0.00758763 -0.0969541 0.289726 173 221 195
0.00895349 -0.0953391 0.2849 163 215 186
0.0111785 -0.102027 0.304886 163 214 181
0.0125615 -0.100319 0.29978 169 216 183
0.0137029 -0.0972747 0.290684 175 218 187
0.0136953 -0.0874986 0.261471 165 215 182
0.0151269 -0.0878594 0.262549 174 221 195
0.0165657 -0.0881978 0.26356 164 218 192
0.0178453 -0.087702 0.262078 171 220 195
0.0202717 -0.0925109 0.276449 157 210 181
0.0191515 -0.0815723 0.243761 163 216 188
0.0208396 -0.0832144 0.248668 182 225 203
0.0243058 -0.0913463 0.272969 169 215 191
0.0235738 -0.0836732 0.250039 166 212 185
0.0263236 -0.0885159 0.26451 161 213 184
0.0270021 -0.0862576 0.257762 160 212 186
0.0292858 -0.089098 0.26625 155 197 179
0.0320951 -0.0932065 0.278527 138 170 150
0.0334139 -0.0928173 0.277364 106 122 112
0.034438 -0.0916763 0.273954 74 95 89
0.036235 -0.0926016 0.27672 65 87 84
0.0401967 -0.0987749 0.295167 64 73 72
0.0402907 -0.0953391 0.2849 72 67 71
0.0424907 -0.0969541 0.289726 71 63 68
0.0456905 -0.10066 0.300801 68 58 66
0.0511407 -0.108912 0.32546 68 58 66
0.0542476 -0.111802 0.334095 67 58 66
0.0581389 -0.116077 0.346871 67 57 65
0.0621241 -0.120275 0.359416 65 55 64
0.0722805 -0.135823 0.405876 66 55 65
0.0835323 -0.152481 0.455656 65 55 64
0.091203 -0.161859 0.48368 65 55 65
0.0896502 -0.154803 0.462595 66 55 65
0.103604 -0.17419 0.520529 64 54 63
0.102137 -0.16732 0.5 65 54 64
0.118505 -0.189281 0.565624 65 54 65
0.144699 -0.225482 0.673803 65 54 65
0.121638 -0.185033 0.552929 66 55 66
0.148985 -0.221363 0.661494 65 54 65
0.149526 -0.217117 0.648805 65 54 64
0.157802 -0.224042 0.669501 65 54 64
0.174613 -0.242521 0.724721 65 54 64
0.184304 -0.250535 0.748668 64 53 64
0.177205 -0.235866 0.704833 65 55 65
0.19666 -0.256418 0.76625 65 54 65
0.228979 -0.292588 0.874334 62 51 64
0.225467 -0.282451 0.844042 65 54 66
0.259054 -0.318285 0.951125 65 54 66
0.234309 -0.282451 0.844042 65 54 66
0.266517 -0.315326 0.942284 64 53 65
0.288079 -0.334641 1 64 54 65
0.326901 -0.372956 1.1145 63 53 64
0.298554 -0.334641 1 65 55 66
0.303792 -0.334641 1 64 55 66
0.273647 -0.296325 0.885502 65 56 67
0.314268 -0.334641 1 66 56 66
0.319506 -0.334641 1 65 55 66
0.350452 -0.361133 1.07917 64 54 65
0.288514 -0.292588 0.874334 65 55 66
0.335219 -0.334641 1 65 55 66
0.364441 -0.358215 1.07045 65 55 66
0.325742 -0.315326 0.942284 65 56 66
0.350932 -0.334641 1 66 56 67
0.37877 -0.355874 1.06345 65 56 66
0.305043 -0.282451 0.844042 65 54 66
0.304499 -0.277919 0.830499 66 57 67
0.313885 -0.282451 0.844042 65 56 66
0.357161 -0.316928 0.947071 66 57 67
0.280556 -0.245543 0.73375 65 56 65
0.321899 -0.277919 0.830499 66 57 66
0.319945 -0.272549 0.814453 64 55 65
0.292086 -0.245543 0.73375 65 56 66
0.284266 -0.235866 0.704833 65 56 66
0.332743 -0.272549 0.814453 66 57 66
0.282246 -0.22826 0.682106 66 57 67
0.256107 -0.204532 0.6112 66 58 67
0.242018 -0.190895 0.570447 65 57 66
0.26251 -0.204532 0.6112 67 59 68
0.217369 -0.16732 0.5 67 58 67
0.233315 -0.177457 0.530292 67 58 67
0.191243 -0.143746 0.429553 67 58 67
0.16384 -0.121717 0.363725 67 58 67
0.189391 -0.139082 0.415615 67 58 67
0.141586 -0.102794 0.307178 68 60 67
0.13239 -0.0950378 0.284 66 57 65
0.130446 -0.0926016 0.27672 66 56 65
0.118525 -0.0832144 0.248668 66 56 65
0.112034 -0.0778021 0.232494 66 57 65
0.102041 -0.0701003 0.20948 66 57 65
0.10669 -0.0725146 0.216694 68 57 64
0.108662 -0.0730774 0.218376 66 55 62
0.101493 -0.0675452 0.201844 64 52 59
0.0974686 -0.0641982 0.191842 65 52 60
0.100336 -0.0654126 0.195471 64 50 58
0.108252 -0.0698604 0.208762 63 49 58
0.105414 -0.0673485 0.201256 63 48 57
0.110114 -0.0696549 0.208148 63 50 58
0.101336 -0.0634739 0.189678 65 52 60
0.105906 -0.0656923 0.196307 66 55 62
0.110152 -0.0676686 0.202213 68 58 64
0.107095 -0.0651641 0.194729 67 57 63
0.10504 -0.063311 0.189191 70 60 66
0.109551 -0.0654126 0.195471 72 66 70
0.11067 -0.0654692 0.19564 74 70 71
0.107464 -0.0629891 0.188229 73 71 71
0.112393 -0.0652792 0.195073 74 73 73
0.109188 -0.0628467 0.187804 76 75 75
0.114625 -0.0653868 0.195394 76 76 76
0.109084 -0.0616755 0.184304 75 77 76
0.111345 -0.0624017 0.186474 76 77 77
0.118046 -0.0655821 0.195978 75 77 77
0.109468 -0.0602922 0.18017 74 77 76
0.121331 -0.0662547 0.197988 76 79 78
0.114307 -0.06189 0.184945 75 80 82
0.119203 -0.0639984 0.191245 74 81 82
-0.185523 -0.0972315 0.295167 144 158 121
-0.147171 -0.0777796 0.236117 118 135 106
-0.140645 -0.0749608 0.22756 104 118 100
-0.137889 -0.07412 0.225007 104 118 100
-0.133243 -0.0722396 0.219299 98 104 93
-0.13204 -0.0722103 0.21921 94 93 88
-0.129814 -0.0716153 0.217404 93 88 86
-0.127411 -0.0709119 0.215268 92 86 82
-0.125309 -0.0703645 0.213606 87 83 78
-0.121241 -0.0686936 0.208534 85 81 79
-0.12149 -0.0694607 0.210863 82 80 77
-0.11787 -0.0680093 0.206457 85 83 80
-0.116755 -0.0679896 0.206397 77 73 72
-0.120619 -0.0708959 0.21522 75 69 69
-0.118416 -0.0702579 0.213283 76 70 70
-0.114177 -0.0683881 0.207607 76 70 71
-0.109053 -0.0659468 0.200196 78 72 73
-0.108762 -0.0664098 0.201601 73 66 67
-0.108102 -0.0666535 0.202341 73 65 66
-0.108682 -0.0676746 0.205441 72 63 65
-0.105765 -0.0665167 0.201926 71 62 64
-0.106214 -0.0674743 0.204833 71 62 65
-0.101508 -0.0651423 0.197753 69 60 63
-0.104069 -0.0674743 0.204833 69 60 63
-0.0992592 -0.0650265 0.197402 69 60 61
-0.0983637 -0.0651181 0.19768 66 57 59
-0.095203 -0.0636962 0.193363 65 56 59
-0.0949696 -0.0642233 0.194963 67 58 59
-0.0960112 -0.0656333 0.199244 67 57 59
-0.0940335 -0.0649877 0.197284 67 55 58
-0.090283 -0.0630891 0.19152 67 56 59
-0.091937 -0.0649667 0.19722 67 55 59
-0.0909809 -0.0650217 0.197387 67 56 60
-0.0883743 -0.0638848 0.193936 66 55 59
-0.0914824 -0.0669006 0.203091 66 54 59
-0.087465 -0.0647151 0.196457 64 52 57
-0.0878006 -0.0657368 0.199558 64 52 56
-0.0857351 -0.0649637 0.197211 64 52 57
-0.0848214 -0.0650552 0.197489 65 51 57
-0.0818985 -0.0635889 0.193038 64 50 56
-0.0811503 -0.0637956 0.193665 64 49 56
-0.0814188 -0.0648168 0.196765 63 49 55
-0.0805325 -0.0649332 0.197119 63 48 55
-0.0827556 -0.0675923 0.205191 64 48 55
-0.0773795 -0.0640329 0.194385 64 48 55
-0.076142 -0.0638489 0.193827 66 50 55
-0.0760695 -0.0646501 0.196259 63 45 51
-0.0727545 -0.0626798 0.190278 62 43 49
-0.0734363 -0.0641459 0.194729 62 41 48
-0.0720689 -0.0638381 0.193794 61 39 46
-0.0719038 -0.0646018 0.196112 61 39 46
-0.0713901 -0.0650698 0.197533 61 38 44
-0.0698876 -0.0646371 0.19622 61 38 44
-0.0686077 -0.0644004 0.195501 60 37 44
-0.0693805 -0.0661126 0.200699 60 37 44
-0.066179 -0.0640321 0.194383 61 37 44
-0.0645263 -0.0634084 0.19249 61 38 44
-0.064491 -0.0643797 0.195438 64 43 49
-0.0641177 -0.0650395 0.197441 62 41 47
-0.0640962 -0.0660835 0.200611 64 44 49
-0.061962 -0.0649478 0.197163 63 43 48
-0.0607485 -0.0647551 0.196578 63 44 49
-0.0581508 -0.0630549 0.191417 64 45 49
-0.0603904 -0.0666321 0.202276 64 45 49
-0.0584014 -0.0655882 0.199107 62 42 47
-0.0571679 -0.0653703 0.198445 61 40 45
-0.0562466 -0.0655078 0.198863 62 44 48
-0.0540323 -0.0641163 0.194639 61 43 47
-0.0521278 -0.0630458 0.191389 61 43 47
-0.0527656 -0.0650686 0.19753 64 48 51
-0.0527886 -0.0663989 0.201568 64 49 53
-0.0496271 -0.0636962 0.193363 63 47 50
-0.0514979 -0.0674743 0.204833 63 46 50
-0.0489243 -0.0654662 0.198737 65 48 53
-0.0481813 -0.0658735 0.199973 64 46 52
-0.049584 -0.0692978 0.210368 64 46 52
-0.0460373 -0.0658034 0.19976 65 52 56
-0.0464543 -0.0679435 0.206257 67 58 60
-0.0505143 -0.0756407 0.229624 68 61 62
-0.0464582 -0.0712638 0.216337 70 64 66
-0.0457523 -0.0719356 0.218376 71 63 66
-0.0482325 -0.0777796 0.236117 73 67 72
-0.05358 -0.0886767 0.269197 69 69 72
-0.0465435 -0.0791129 0.240164 71 75 76
-0.0473913 -0.0827917 0.251332 74 76 80
-0.0518668 -0.0931992 0.282926 75 73 81
-0.0561819 -0.103922 0.315478 79 78 86
-0.0581082 -0.110743 0.336183 79 80 85
-0.0590384 -0.116031 0.352238 79 86 90
-0.0558626 -0.113331 0.344042 76 91 94
-0.0594965 -0.124727 0.378635 78 92 96
-0.0542645 -0.117682 0.357248 82 93 101
-0.0512156 -0.115036 0.349217 85 95 103
-0.0522861 -0.12179 0.369721 89 97 105
-0.0509778 -0.12331 0.374334 86 103 108
-0.0484131 -0.12179 0.369721 84 103 106
-0.0442788 -0.116031 0.352238 86 110 114
-0.04454 -0.12179 0.369721 86 116 119
-0.0405889 -0.116031 0.352238 95 122 124
-0.0396847 -0.118849 0.360791 101 132 132
-0.0409917 -0.128901 0.391307 100 134 130
-0.039296 -0.130073 0.394863 103 138 132
-0.0316954 -0.110743 0.336183 103 148 141
-0.0345043 -0.127648 0.387504 111 154 148
-0.0317314 -0.124727 0.378635 124 165 159
-0.029079 -0.121921 0.370118 140 178 172
-0.0240991 -0.108259 0.328643 137 182 174
-0.0232536 -0.112496 0.341505 135 192 175
-0.0193072 -0.101188 0.307178 150 201 180
-0.0186 -0.106344 0.322829 154 206 184
-0.0151869 -0.0955127 0.289949 170 215 191
-0.0136779 -0.0955803 0.290155 176 218 192
-0.0108563 -0.0853459 0.259086 156 207 176
-0.00990129 -0.0889578 0.270051 155 206 177
-0.00791974 -0.0830138 0.252006 151 205 169
-0.00668946 -0.0841417 0.25543 165 213 182
-0.00552189 -0.0868197 0.26356 180 220 196
-0.00405032 -0.0849099 0.257762 167 217 183
-0.00268837 -0.0845374 0.256631 202 235 214
-0.00132671 -0.0834382 0.253295 163 217 189
0 -0.0821953 0.249522 173 221 197
0.00123882 -0.077911 0.236516 173 221 194
0.00268006 -0.0842763 0.255839 176 221 196
0.00400763 -0.084015 0.255045 161 216 188
0.00504902 -0.0793848 0.24099 179 226 201
0.00584363 -0.0735027 0.223133 167 220 190
0.00704332 -0.0738272 0.224118 171 221 192
0.00777839 -0.0698847 0.21215 193 229 207
0.00865566 -0.0680457 0.206567 192 228 205
0.0105312 -0.0735914 0.223403 164 216 184
0.0112391 -0.0706839 0.214576 153 210 174
0.0133253 -0.0761859 0.231279 201 232 214
0.0134572 -0.0705281 0.214103 173 218 197
0.0143621 -0.0694811 0.210925 178 218 195
0.0155694 -0.0699414 0.212322 169 214 186
0.0168042 -0.0704558 0.213884 169 218 191
0.0181677 -0.0714121 0.216787 196 231 212
0.0195882 -0.0724665 0.219987 176 222 200
0.0203143 -0.0709775 0.215467 156 208 178
0.0210057 -0.0695302 0.211074 171 215 189
0.0235661 -0.0741053 0.224962 154 200 173
0.0254392 -0.0761859 0.231279 120 164 142
0.0258368 -0.0738595 0.224216 109 135 119
0.0266421 -0.0728503 0.221153 87 103 102
