ply
format ascii 1.0
element vertex 1253
property float x
property float y
property float z
property uchar red
property uchar green
property uchar blue
end_header
0.0255903 0.0408739 0.195428 59 50 67
0.0258233 0.0396596 0.189622 60 53 69
0.0275189 0.0406984 0.194589 57 51 65
0.0284758 0.0406095 0.194164 56 48 64
0.0287687 0.0396125 0.189397 57 49 66
0.0296608 0.0394795 0.188761 58 50 67
0.0312994 0.0403167 0.192764 56 48 65
0.0324656 0.0405119 0.193698 53 45 62
0.0327368 0.0396125 0.189397 52 45 62
0.0340388 0.0399765 0.191138 54 46 63
0.0352687 0.0402375 0.192386 54 46 62
0.0350355 0.0388612 0.185805 55 46 62
0.0362065 0.0390746 0.186825 54 45 61
0.0379636 0.0398927 0.190737 55 45 61
0.0377497 0.0386508 0.184799 54 44 60
0.0406734 0.0406032 0.194134 53 43 59
0.0405035 0.0394475 0.188608 52 42 58
0.0403746 0.0383856 0.183531 53 44 59
0.0420915 0.0390873 0.186886 50 42 58
0.0429283 0.0389584 0.18627 51 44 59
0.0435085 0.0386075 0.184592 50 43 57
0.045073 0.0391263 0.187072 52 44 59
0.0456376 0.0387735 0.185386 52 44 59
0.0470625 0.0391511 0.187191 52 43 58
0.0478522 0.0389956 0.186448 52 43 58
0.0504189 0.0402655 0.19252 52 43 58
0.0505229 0.0395574 0.189134 51 42 56
0.0498979 0.0383167 0.183202 53 44 58
0.0515085 0.0388072 0.185547 53 43 58
0.0513474 0.0379695 0.181542 52 42 56
0.0534015 0.0387705 0.185371 51 41 55
0.0533366 0.0380318 0.18184 54 43 57
0.0557247 0.0390376 0.186649 52 41 55
0.0545628 0.0375646 0.179606 50 38 52
0.0578771 0.039171 0.187286 53 41 54
0.0590818 0.0393199 0.187998 50 38 51
0.0593153 0.0388282 0.185647 50 37 51
0.0620173 0.0399421 0.190973 50 38 51
0.0619888 0.0392901 0.187856 50 38 51
0.0620923 0.0387407 0.185229 52 41 54
0.06365 0.0391017 0.186955 48 36 49
0.0656039 0.0396913 0.189774 50 36 49
0.0654711 0.0390198 0.186563 50 35 48
0.0683725 0.0401497 0.191966 49 33 47
0.0685183 0.0396522 0.189587 48 31 47
0.0717227 0.0409137 0.195619 49 33 48
0.0704229 0.0396064 0.189368 51 35 49
0.0709715 0.0393606 0.188193 49 31 43
0.0726983 0.0397659 0.190131 48 28 41
0.0731294 0.0394612 0.188674 43 21 35
0.0743032 0.03956 0.189146 42 19 33
0.0773581 0.0406445 0.194332 42 22 36
0.0771312 0.039999 0.191245 44 26 38
0.0797749 0.0408396 0.195264 41 18 30
0.0827763 0.0418397 0.200046 41 19 32
0.0811113 0.0404857 0.193572 43 21 35
0.0853045 0.042053 0.201066 42 20 33
0.0879755 0.0428408 0.204833 44 24 37
0.0922294 0.0443712 0.21215 48 31 43
0.0916602 0.0435724 0.208331 52 37 47
0.131412 0.0617343 0.295167 51 36 47
0.182827 0.0848891 0.405876 51 36 46
0.217845 0.0999856 0.478056 52 37 47
0.3144 0.142663 0.682106 53 39 49
0.342048 0.153464 0.73375 52 37 47
0.438193 0.194416 0.929553 52 37 47
0.443062 0.194416 0.929553 52 38 48
0.606087 0.263061 1.25776 54 40 50
0.612675 0.263061 1.25776 53 39 49
0.710113 0.301654 1.44228 54 41 51
0.644463 0.270885 1.29517 51 38 49
0.754243 0.313726 1.5 52 38 49
0.675981 0.278274 1.3305 52 38 48
0.744868 0.303503 1.45113 51 36 47
0.71265 0.287442 1.37433 51 36 47
0.892957 0.356566 1.70483 49 33 46
0.860006 0.340009 1.62567 49 34 47
0.69195 0.270885 1.29517 49 35 46
0.9483 0.367637 1.75776 50 35 47
0.817096 0.313726 1.5 50 35 47
0.918173 0.349177 1.6695 50 36 48
0.871922 0.328459 1.57045 50 35 47
0.873013 0.325797 1.55772 50 35 47
0.91961 0.340009 1.62567 49 34 46
0.945419 0.346344 1.65596 51 35 47
0.982252 0.356566 1.70483 50 35 47
1.08973 0.392018 1.87433 51 36 48
0.95367 0.340009 1.62567 51 36 48
0.941273 0.332619 1.59033 50 35 48
1.07191 0.37546 1.79517 52 37 49
0.979214 0.340009 1.62567 52 38 49
0.911376 0.313726 1.5 53 38 49
0.974592 0.332619 1.59033 52 38 50
0.92709 0.313726 1.5 53 39 50
0.807275 0.270885 1.29517 52 39 49
-0.146769 0.0500595 0.233509 172 216 179
-0.142362 0.0489643 0.2284 171 216 179
-0.140729 0.0488131 0.227695 171 215 178
-0.13622 0.0476527 0.222283 171 215 178
-0.14589 0.0514754 0.240114 171 215 177
-0.1395 0.0496491 0.231595 170 214 178
-0.13822 0.0496249 0.231482 170 215 179
-0.131672 0.0476924 0.222468 168 214 177
-0.135867 0.0496514 0.231605 168 214 180
-0.131139 0.0483553 0.22556 186 224 198
-0.131759 0.0490253 0.228685 172 217 187
-0.127822 0.0479968 0.223888 150 206 170
-0.130164 0.0493287 0.2301 137 198 160
-0.127238 0.0486708 0.227031 134 195 158
-0.122846 0.0474341 0.221263 156 211 181
-0.123122 0.0479933 0.223871 162 213 186
-0.11835 0.0465766 0.217263 141 205 173
-0.121181 0.048154 0.224621 176 220 200
-0.115749 0.0464463 0.216655 138 204 172
-0.116146 0.0470669 0.21955 146 207 175
-0.114381 0.0468152 0.218376 180 224 203
-0.112476 0.0465006 0.216908 152 212 184
-0.117239 0.0489643 0.2284 148 207 175
-0.113729 0.0479882 0.223847 143 203 172
-0.113336 0.0483203 0.225397 153 206 179
-0.112878 0.0486316 0.226849 144 205 175
-0.112174 0.0488426 0.227833 155 210 183
-0.108156 0.0475996 0.222035 154 208 177
-0.106092 0.0471986 0.220164 151 207 174
-0.10502 0.0472349 0.220333 158 208 178
-0.105514 0.0479846 0.223831 146 202 169
-0.10286 0.0473032 0.220652 154 206 175
-0.102284 0.0475728 0.22191 150 205 173
-0.101686 0.0478382 0.223148 158 210 180
-0.100517 0.0478382 0.223148 150 207 173
-0.100176 0.0482368 0.225007 146 203 167
-0.0997483 0.0486027 0.226714 162 210 180
-0.096419 0.0475465 0.221787 155 207 174
-0.094508 0.0471725 0.220042 150 203 171
-0.0950379 0.0480226 0.224008 142 199 167
-0.0970946 0.0496751 0.231716 132 193 155
-0.0931384 0.0482543 0.225088 150 201 165
-0.0919031 0.0482247 0.224951 149 201 165
-0.0937138 0.0498135 0.232362 118 187 147
-0.0913851 0.0492148 0.229569 157 205 175
-0.0869953 0.0474753 0.221455 145 187 148
-0.0887638 0.0490951 0.22901 139 173 131
-0.0865313 0.0485159 0.226309 131 159 115
-0.0848165 0.0482149 0.224905 114 153 110
-0.0817001 0.0470975 0.219693 105 148 104
-0.0834764 0.048809 0.227676 99 134 94
-0.0820088 0.0486458 0.226915 88 116 83
-0.0806386 0.0485365 0.226405 88 110 79
-0.0796317 0.0486458 0.226915 86 106 73
-0.079216 0.049125 0.22915 87 102 74
-0.0794765 0.0500448 0.233441 87 95 67
-0.0774847 0.049553 0.231147 85 92 64
-0.074955 0.0486961 0.227149 84 90 67
-0.0743369 0.0490734 0.22891 78 82 64
-0.0733832 0.049238 0.229677 79 79 65
-0.0720215 0.0491298 0.229172 76 70 56
-0.0709042 0.0491874 0.229441 75 69 55
-0.0708165 0.0499736 0.233108 73 69 55
-0.0699329 0.0502158 0.234238 74 68 54
-0.0702876 0.0513718 0.239631 72 64 55
-0.0661266 0.0492093 0.229543 74 66 57
-0.0673072 0.0510155 0.237969 66 58 50
-0.0668184 0.0516005 0.240698 67 57 51
-0.0659772 0.0519307 0.242238 66 54 53
-0.0669396 0.0537213 0.25059 64 51 51
-0.0625667 0.0512162 0.238905 62 51 52
-0.0631399 0.0527402 0.246014 64 53 55
-0.0640606 0.054624 0.254801 63 52 53
-0.0697613 0.0607506 0.283379 62 50 52
-0.0698336 0.0621356 0.28984 60 49 52
-0.0667536 0.060715 0.283213 62 51 54
-0.0664726 0.0618335 0.288431 62 51 55
-0.0641028 0.0610158 0.284616 62 51 55
-0.0634109 0.0617943 0.288248 62 51 55
-0.0517363 0.051647 0.240914 61 49 55
-0.0505042 0.0516775 0.241057 62 50 56
-0.0488349 0.0512506 0.239065 59 48 54
-0.0444409 0.0478666 0.22328 59 49 56
-0.0432348 0.0478261 0.223091 60 50 57
-0.0433035 0.0492328 0.229653 61 52 58
-0.0408445 0.0477639 0.222801 59 50 56
-0.0414038 0.0498419 0.232494 60 51 58
-0.0373757 0.0463564 0.216236 60 51 57
-0.0362389 0.046351 0.21621 58 48 56
-0.0354213 0.0467666 0.218149 58 50 58
-0.0336675 0.0459328 0.21426 59 50 58
-0.0322409 0.0455034 0.212257 60 50 58
-0.0302335 0.044194 0.206149 59 50 58
-0.029732 0.0450707 0.210238 56 46 54
-0.0281665 0.0443397 0.206828 56 45 54
-0.0273752 0.0448179 0.209059 53 42 52
-0.0261287 0.0445594 0.207853 57 46 56
-0.0251168 0.0446962 0.208491 61 51 60
-0.0239756 0.0446046 0.208064 58 45 55
-0.0234295 0.0456644 0.213008 57 45 54
-0.0218279 0.0446701 0.20837 53 40 51
-0.0206621 0.0445098 0.207622 55 42 53
-0.0195676 0.0444939 0.207548 56 42 52
-0.0181493 0.0436963 0.203827 53 39 50
-0.0177504 0.0454069 0.211806 54 39 49
-0.0160149 0.0436985 0.203838 55 40 50
-0.0151659 0.0443379 0.20682 53 36 47
-0.0138792 0.0436974 0.203832 50 33 44
-0.0130407 0.0444787 0.207477 53 35 47
-0.0119333 0.044402 0.207119 50 32 44
-0.0106597 0.0436293 0.203515 51 34 44
-0.0096404 0.0438416 0.204505 52 35 46
-0.00833725 0.0426547 0.198968 53 37 47
-0.00759184 0.0443898 0.207062 51 34 44
-0.00636794 0.0434391 0.202628 51 33 44
-0.00535624 0.0438454 0.204523 52 35 46
-0.00421288 0.0431075 0.201081 49 30 42
-0.00316835 0.043226 0.201634 51 32 47
-0.00211787 0.0433414 0.202172 52 35 48
-0.00109668 0.0448862 0.209377 57 45 56
0 0.0442985 0.206636 56 44 56
0.00105931 0.0433567 0.202243 57 45 58
0.00211406 0.0432635 0.201808 58 47 60
0.00315362 0.0430251 0.200696 57 47 61
0.00413819 0.0423432 0.197516 57 48 62
0.0051871 0.0424608 0.198064 57 47 62
0.00621739 0.0424122 0.197837 56 47 61
0.00731018 0.0427429 0.19938 56 47 62
0.00842797 0.0431188 0.201133 55 47 61
0.00932642 0.0424137 0.197845 55 47 60
0.0104896 0.042933 0.200267 56 47 61
0.0111628 0.0415349 0.193745 54 46 63
0.0128543 0.043843 0.204512 56 48 64
0.0136247 0.0428959 0.200094 56 48 64
0.0141957 0.0415013 0.193588 56 48 64
0.014969 0.0408447 0.190526 56 46 63
0.0163391 0.0417966 0.194966 56 47 65
0.0170608 0.0410755 0.191602 57 48 65
0.0184016 0.0418423 0.195179 55 46 63
0.0192162 0.041395 0.193093 55 46 64
0.0204224 0.0417937 0.194953 54 46 63
0.0212784 0.0414718 0.193451 56 49 65
0.0228006 0.0424187 0.197868 59 50 65
0.0241302 0.0429405 0.200302 56 47 64
0.0245934 0.0419412 0.19564 56 47 64
0.026057 0.0426598 0.198992 56 47 64
0.0264684 0.0416665 0.194359 58 51 66
0.0281054 0.042605 0.198737 58 51 65
0.02862 0.0418356 0.195148 55 47 63
0.0291605 0.0411557 0.191977 55 47 64
0.0299932 0.04092 0.190877 53 44 61
0.0314035 0.041462 0.193405 54 46 63
0.0320443 0.0409859 0.191184 54 47 63
0.0325919 0.0404231 0.188559 53 46 62
0.0338416 0.0407385 0.19003 51 43 60
0.0352501 0.0412218 0.192285 53 45 62
0.0351488 0.0399615 0.186406 53 44 61
0.0366772 0.0405722 0.189254 52 44 59
0.038003 0.0409325 0.190935 53 44 59
0.0389477 0.0408743 0.190664 53 43 59
0.0394276 0.0403435 0.188188 53 43 58
0.0400859 0.0400168 0.186664 52 43 58
0.0410964 0.0400487 0.186813 52 43 59
0.0410778 0.0390996 0.182385 51 42 58
0.0432838 0.040263 0.187812 52 43 58
0.043659 0.0397096 0.185231 52 43 58
0.0454754 0.0404625 0.188743 51 43 58
0.0457975 0.039882 0.186035 53 45 60
0.0479327 0.0408719 0.190652 52 43 58
0.0467501 0.0390499 0.182154 51 42 57
0.047916 0.0392233 0.182963 51 42 57
0.0493024 0.0395669 0.184565 52 43 57
0.0501308 0.039458 0.184057 51 41 55
0.0517657 0.0399761 0.186474 52 43 57
0.052113 0.039499 0.184248 50 40 54
0.0526573 0.0391859 0.182788 55 45 58
0.0543166 0.0396989 0.185181 53 41 56
0.0541242 0.0388643 0.181288 52 42 55
0.0549822 0.0387997 0.180986 53 42 56
0.0575207 0.039903 0.186133 50 38 51
0.0579731 0.0395466 0.18447 51 39 53
0.0598289 0.0401435 0.187255 50 38 51
0.0602889 0.0397997 0.185651 49 38 51
0.0614718 0.0399364 0.186289 52 41 53
0.0619446 0.0396148 0.184788 49 36 50
0.0632835 0.0398484 0.185878 47 34 48
0.0642209 0.039826 0.185774 50 37 50
0.0657595 0.0401714 0.187385 49 35 48
0.0681317 0.0410085 0.19129 51 36 49
0.0680497 0.0403656 0.188291 48 32 48
0.0700853 0.0409792 0.191153 46 31 46
0.0707055 0.0407595 0.190128 51 36 48
0.071551 0.040674 0.189729 48 30 42
0.0720709 0.0404083 0.18849 47 29 41
0.0750449 0.0415072 0.193616 44 24 37
0.0777556 0.0424331 0.197935 43 21 35
0.0761295 0.040999 0.191245 37 17 30
0.0783584 0.0416513 0.194288 42 21 34
0.0809927 0.0424996 0.198245 44 21 35
0.0810016 0.0419663 0.195757 42 20 35
0.0852276 0.0436038 0.203396 42 20 35
0.0850653 0.0429834 0.200502 42 20 35
0.0855979 0.0427251 0.199297 46 27 41
0.0968792 0.0477734 0.222845 47 30 42
0.105959 0.0516288 0.240829 51 37 47
0.146316 0.0704541 0.328643 50 35 46
0.184534 0.0878237 0.409665 52 37 47
0.251963 0.118536 0.552929 54 39 49
0.302348 0.140624 0.655958 52 38 48
0.439259 0.202006 0.942284 52 38 48
0.501313 0.227982 1.06345 53 39 49
0.514373 0.231351 1.07917 53 38 48
0.567252 0.252361 1.17717 51 36 47
0.679459 0.299029 1.39486 52 38 48
0.676657 0.294628 1.37433 52 39 49
0.683856 0.294628 1.37433 50 36 47
0.729667 0.311091 1.45113 52 38 49
0.732776 0.309196 1.44228 50 36 48
0.715989 0.299029 1.39486 51 36 48
0.842976 0.348509 1.62567 49 33 46
0.861295 0.352522 1.64438 49 33 46
0.824059 0.333942 1.55772 52 37 49
0.718061 0.288134 1.34404 51 35 47
0.847245 0.336671 1.57045 49 33 46
0.928675 0.365481 1.70483 49 33 46
0.882775 0.344108 1.60514 51 36 48
0.864854 0.333942 1.55772 51 36 48
0.911095 0.348509 1.62567 49 33 46
0.848523 0.321569 1.5 51 36 48
0.973323 0.365481 1.70483 51 35 47
1.01275 0.376827 1.75776 52 36 48
0.991182 0.365481 1.70483 52 36 48
0.95367 0.348509 1.62567 50 34 47
1.06251 0.384846 1.79517 51 36 48
0.895663 0.321569 1.5 53 38 50
0.90352 0.321569 1.5 51 36 47
0.835024 0.294628 1.37433 52 36 48
0.793707 0.277657 1.29517 52 37 49
0.92709 0.321569 1.5 52 37 49
0.623298 0.214379 1 51 38 49
-0.144854 0.0506113 0.230462 171 215 179
-0.145993 0.051438 0.234227 169 215 178
-0.142082 0.0504842 0.229884 170 215 179
-0.141501 0.0507077 0.230901 172 216 178
-0.140232 0.0506861 0.230803 171 215 178
-0.133742 0.0487605 0.222035 168 213 176
-0.133698 0.049172 0.223908 169 214 177
-0.134633 0.0499541 0.22747 170 214 179
-0.133631 0.0500253 0.227794 154 207 168
-0.132103 0.0498987 0.227217 173 219 196
-0.131424 0.0500933 0.228104 196 232 216
-0.131252 0.050487 0.229896 180 224 205
-0.125357 0.0486658 0.221603 157 208 180
-0.121827 0.0477373 0.217375 144 203 169
-0.123164 0.0487167 0.221835 152 208 178
-0.122112 0.0487605 0.222035 146 206 173
-0.123171 0.0496564 0.226114 168 216 190
-0.119199 0.0485215 0.220946 159 213 185
-0.119392 0.0490765 0.223473 135 202 166
-0.117097 0.0486098 0.221348 143 202 169
-0.115419 0.0483921 0.220357 184 225 205
-0.112562 0.0476711 0.217074 158 214 188
-0.116896 0.0500116 0.227732 153 212 185
-0.112406 0.0485867 0.221243 149 207 179
-0.11635 0.0508153 0.231391 149 205 177
-0.116122 0.0512497 0.233369 148 204 174
-0.109757 0.0489556 0.222923 148 202 171
-0.1083 0.0488254 0.22233 155 207 177
-0.106309 0.0484485 0.220613 157 211 180
-0.107767 0.0496528 0.226097 165 213 186
-0.108207 0.0504095 0.229543 153 205 174
-0.103569 0.0487908 0.222172 156 207 178
-0.104083 0.0495902 0.225813 152 205 175
-0.100754 0.0485558 0.221102 158 209 181
-0.100318 0.0489078 0.222705 148 206 173
-0.0996324 0.0491452 0.223786 146 203 172
-0.096789 0.048311 0.219987 162 210 185
-0.0958187 0.0484029 0.220406 151 202 170
-0.0951866 0.04867 0.221622 147 200 163
-0.0943185 0.0488215 0.222312 163 209 177
-0.0926796 0.0485728 0.22118 134 194 151
-0.0931636 0.0494446 0.225149 149 199 158
-0.0930588 0.0500221 0.227779 148 200 160
-0.0908151 0.0494501 0.225174 142 200 167
-0.0899425 0.0496193 0.225945 160 208 180
-0.0909917 0.0508674 0.231629 151 202 169
-0.0894585 0.0506861 0.230803 150 193 156
-0.0840844 0.0482939 0.21991 142 182 142
-0.0849544 0.0494713 0.225271 139 181 143
-0.0835274 0.0493253 0.224606 139 182 143
-0.0848791 0.0508396 0.231502 140 180 140
-0.084349 0.0512543 0.23339 130 167 129
-0.0835213 0.0514976 0.234498 120 154 112
-0.0798265 0.0499541 0.22747 117 146 108
-0.0817182 0.0519128 0.236389 105 126 94
-0.0796461 0.0513748 0.233939 102 116 84
-0.0786823 0.0515462 0.234719 91 104 74
-0.0784275 0.0521948 0.237673 93 104 73
-0.078153 0.052851 0.240661 88 96 75
-0.0767009 0.0527194 0.240061 83 90 70
-0.0742039 0.0518531 0.236117 83 90 69
-0.0725146 0.0515315 0.234652 82 85 63
-0.0750593 0.0542595 0.247074 82 85 63
-0.0709759 0.0522078 0.237732 78 76 57
-0.072879 0.054565 0.248465 82 78 64
-0.0742558 0.0566066 0.257762 75 72 58
-0.0727397 0.0564777 0.257175 77 74 60
-0.0740496 0.0585795 0.266746 73 66 56
-0.0790544 0.0637415 0.290251 71 61 57
-0.0781143 0.0642184 0.292423 71 62 57
-0.0756668 0.0634504 0.288926 68 57 57
-0.0802927 0.0687036 0.312847 66 56 57
-0.0806944 0.0704858 0.320962 67 57 57
-0.0860984 0.0768062 0.349743 68 57 58
-0.0944276 0.0860678 0.391916 65 54 57
-0.0985953 0.0918635 0.418307 63 52 54
-0.0966583 0.0921055 0.419409 62 50 53
-0.107305 0.104628 0.476432 62 51 55
-0.080243 0.0801045 0.364762 60 49 54
-0.0677488 0.0692814 0.315478 60 49 55
-0.0689165 0.0722374 0.328938 60 50 56
-0.0575285 0.0618469 0.281624 61 51 57
-0.0488035 0.0538476 0.245199 58 48 54
-0.0451244 0.0511339 0.232842 60 50 57
-0.0413038 0.0481046 0.219048 61 52 57
-0.0403287 0.048311 0.219987 61 52 57
-0.0395877 0.0488181 0.222297 60 51 57
-0.0382061 0.048542 0.221039 58 48 55
-0.0354423 0.0464378 0.211458 59 50 57
-0.0343596 0.0464713 0.211611 60 51 58
-0.0333272 0.0465776 0.212094 59 50 57
-0.0324228 0.0468761 0.213454 59 49 56
-0.0309899 0.0464046 0.211307 58 48 56
-0.0295447 0.0458791 0.208914 59 49 56
-0.0285275 0.0460033 0.20948 58 47 56
-0.0271192 0.0454816 0.207104 54 43 51
-0.0263499 0.0460328 0.209614 56 46 53
-0.0247635 0.0451423 0.205559 55 44 53
-0.0241874 0.0460962 0.209902 54 41 50
-0.0232321 0.046384 0.211213 55 42 51
-0.0215679 0.0452145 0.205887 55 42 52
-0.0205232 0.0452888 0.206226 54 42 52
-0.0195636 0.0455697 0.207505 52 39 49
-0.0182388 0.0449829 0.204833 54 40 50
-0.0168895 0.0442585 0.201534 53 39 49
-0.0159879 0.0446889 0.203494 55 40 49
-0.0151181 0.045276 0.206167 52 36 46
-0.0135222 0.0436116 0.198588 53 37 47
-0.0127716 0.0446235 0.203196 52 35 46
-0.0118016 0.0449829 0.204833 51 34 46
-0.0107287 0.0449829 0.204833 53 37 47
-0.00959404 0.0446949 0.203521 49 31 43
-0.00844757 0.0442732 0.201601 50 33 45
-0.00742804 0.0444913 0.202595 50 34 44
-0.00635893 0.0444357 0.202341 53 36 47
-0.00538863 0.0451864 0.205759 50 32 44
-0.0042526 0.0445753 0.202977 48 32 44
-0.00323854 0.0452614 0.206101 54 39 52
-0.00215261 0.0451267 0.205488 53 40 53
-0.00109306 0.0458292 0.208687 57 46 57
0 0.0447431 0.203741 59 48 60
0.00106889 0.044816 0.204073 57 45 59
0.0021219 0.044483 0.202556 56 45 59
0.00314162 0.0439068 0.199933 57 47 62
0.00419982 0.044022 0.200457 57 47 62
0.00525234 0.0440435 0.200555 57 47 62
0.00630503 0.0440591 0.200626 56 47 62
0.00729457 0.0436919 0.198954 55 46 61
0.00815506 0.0427402 0.19462 56 48 63
0.00930764 0.0433607 0.197446 56 48 62
0.0101029 0.0423591 0.192885 56 47 62
0.0115557 0.0440456 0.200565 55 48 64
0.0125059 0.043695 0.198968 54 46 62
0.0132038 0.0425848 0.193913 53 45 62
0.0142392 0.0426438 0.194182 53 46 62
0.0153259 0.0428384 0.195068 56 48 64
0.0163942 0.0429606 0.195624 57 48 65
0.0170715 0.042104 0.191723 55 46 63
0.0187185 0.0436012 0.198541 55 47 64
0.0191204 0.0421933 0.19213 56 47 64
0.0207903 0.0435843 0.198464 55 48 64
0.0214578 0.0428416 0.195082 57 49 65
0.0225673 0.0430087 0.195843 56 48 63
0.0237851 0.0433587 0.197437 56 48 64
0.0244038 0.0426329 0.194132 56 48 64
0.0252705 0.0423812 0.192986 59 51 66
0.0260068 0.0419386 0.19097 57 49 65
0.0270922 0.0420707 0.191572 57 49 65
0.0286612 0.0429176 0.195428 57 49 65
0.0294266 0.0425443 0.193728 54 45 62
0.0304698 0.0425841 0.19391 56 47 63
0.0306579 0.0414648 0.188813 56 47 64
0.0310686 0.0407071 0.185363 53 45 62
0.0330265 0.0419612 0.191073 53 45 62
0.0333392 0.0411127 0.18721 54 46 62
0.0345959 0.0414434 0.188716 53 44 60
0.0344419 0.0401129 0.182657 54 46 62
0.0365776 0.0414489 0.18874 54 46 61
0.0377844 0.0416896 0.189837 54 45 60
0.0378521 0.0406935 0.185301 52 42 58
0.0399963 0.0419236 0.190902 53 43 59
0.040309 0.0412209 0.187702 52 43 58
0.0406262 0.0405561 0.184675 53 44 59
0.0415249 0.0404892 0.184371 53 44 59
0.0422228 0.040234 0.183208 53 44 59
0.0444921 0.0414543 0.188765 51 42 57
0.0452491 0.0412431 0.187804 53 45 59
0.0447834 0.0399501 0.181916 52 43 58
0.0451203 0.0394121 0.179466 52 42 57
0.0465321 0.0398158 0.181304 52 43 58
0.0487207 0.0408548 0.186035 50 41 56
0.0503755 0.0414141 0.188582 54 45 59
0.0489484 0.0394671 0.179716 53 44 57
0.0511082 0.0404309 0.184105 52 42 56
0.050814 0.0394538 0.179656 50 40 54
0.0527805 0.0402356 0.183216 50 41 54
0.054666 0.0409288 0.186372 54 45 58
0.0544179 0.0400282 0.182271 52 42 55
0.055678 0.040249 0.183277 53 42 55
0.0560089 0.039802 0.181241 51 39 52
0.0567254 0.0396393 0.1805 52 39 53
0.059868 0.0411495 0.187377 49 38 51
0.0613731 0.0415036 0.188989 50 40 53
0.0614718 0.0409105 0.186289 50 37 50
0.0635921 0.0416603 0.189703 49 36 50
0.0646393 0.0416949 0.189861 50 38 51
0.064381 0.0408991 0.186237 49 36 49
0.0657228 0.0411283 0.187281 50 37 49
0.0672636 0.0414735 0.188852 50 34 48
0.0686785 0.0417321 0.19003 52 37 50
0.0698877 0.0418602 0.190614 50 35 48
0.0714078 0.0421684 0.192017 47 30 44
0.0701243 0.0408352 0.185946 45 28 40
0.0707319 0.0406248 0.184988 46 28 40
0.0745255 0.0422253 0.192276 44 21 35
0.0755942 0.0422597 0.192433 43 19 32
0.0782755 0.0431829 0.196636 42 20 33
0.0758252 0.0412879 0.188007 42 19 33
0.0782393 0.0420561 0.191506 40 17 30
0.0818301 0.0434295 0.197759 41 18 33
0.0882579 0.0462555 0.210628 42 21 36
0.0895505 0.0463535 0.211074 45 25 40
0.0948963 0.0485215 0.220946 49 31 44
0.102376 0.0517153 0.23549 47 32 44
0.136641 0.0682028 0.310566 50 37 47
0.189797 0.09362 0.426305 52 39 49
0.201383 0.0981802 0.447071 53 38 48
0.330247 0.159154 0.724721 51 36 48
0.382798 0.182384 0.830499 53 39 50
0.499003 0.235078 1.07045 52 37 48
0.544921 0.253857 1.15596 53 38 48
0.550975 0.253857 1.15596 53 39 49
0.624112 0.284429 1.29517 52 37 48
0.702558 0.316737 1.44228 52 37 48
0.676657 0.301815 1.37433 49 35 46
0.775105 0.342087 1.55772 51 37 48
0.817431 0.357009 1.62567 53 39 49
0.786931 0.340145 1.54887 51 38 48
0.85001 0.363661 1.65596 50 35 47
0.858684 0.363661 1.65596 49 33 46
0.8159 0.342087 1.55772 50 34 46
0.824059 0.342087 1.55772 49 34 46
0.89194 0.366636 1.6695 49 33 45
0.893378 0.363661 1.65596 49 32 45
0.778722 0.313941 1.42955 49 32 45
0.937604 0.374395 1.70483 50 34 47
0.871922 0.344882 1.57045 50 33 46
0.801185 0.313941 1.42955 50 34 46
0.888373 0.344882 1.57045 51 36 47
0.973323 0.374395 1.70483 50 35 47
1.0343 0.394233 1.79517 51 35 47
0.924613 0.34925 1.59033 50 34 46
1.03116 0.386018 1.75776 51 35 47
1.18374 0.439216 2 49 34 46
0.949603 0.34925 1.59033 52 36 48
1.0269 0.374395 1.70483 51 35 47
0.987729 0.357009 1.62567 50 35 46
0.842222 0.301815 1.37433 51 36 48
1.05369 0.374395 1.70483 51 35 47
0.807275 0.284429 1.29517 51 39 48
-0.15358 0.0549379 0.244346 171 215 178
-0.145218 0.0523832 0.232983 169 215 178
-0.145826 0.0530482 0.235941 169 215 178
-0.138107 0.0506696 0.225362 170 215 177
-0.140536 0.0520053 0.231302 171 215 177
-0.136519 0.0509583 0.226646 165 213 175
-0.133757 0.0503651 0.224008 167 213 177
-0.136552 0.0518725 0.230712 162 208 169
-0.132303 0.0507071 0.225529 133 191 150
-0.132425 0.0512114 0.227772 151 210 182
-0.133997 0.0522902 0.23257 149 214 188
-0.130934 0.0515637 0.229339 139 208 181
-0.134807 0.0535804 0.238308 181 220 200
-0.127159 0.051013 0.226889 146 202 169
-0.123394 0.0499696 0.222248 140 200 165
-0.1201 0.0490989 0.218376 143 202 167
-0.121165 0.0500106 0.222431 179 219 195
-0.126885 0.0528798 0.235192 155 208 176
-0.121336 0.0510632 0.227112 132 197 159
-0.115525 0.0490989 0.218376 131 195 156
-0.112891 0.0484593 0.215531 161 214 188
-0.118311 0.0512989 0.228161 148 211 184
-0.11335 0.0496495 0.220825 157 213 189
-0.116043 0.0513528 0.2284 164 213 190
-0.112408 0.0502626 0.223551 146 206 175
-0.112529 0.0508461 0.226147 157 207 178
-0.110128 0.0502907 0.223677 155 204 172
-0.108929 0.0502781 0.223621 155 205 174
-0.105348 0.0491538 0.21862 161 211 184
-0.103623 0.0488803 0.217404 171 215 190
-0.104171 0.0496847 0.220982 169 214 190
-0.107246 0.0517259 0.23006 153 205 181
-0.105276 0.0513528 0.2284 158 208 181
-0.102005 0.0503291 0.223847 156 209 179
-0.10134 0.0505828 0.224976 145 204 170
-0.100318 0.0506615 0.225326 144 203 171
-0.0991378 0.0506615 0.225326 154 206 179
-0.0963943 0.0498531 0.22173 143 199 165
-0.0960224 0.0502663 0.223568 145 200 161
-0.0979207 0.0518929 0.230803 170 211 182
-0.094124 0.0505044 0.224627 175 215 186
-0.0932681 0.0506786 0.225402 156 203 165
-0.0897808 0.0494092 0.219756 145 198 158
-0.0926166 0.0516317 0.229641 163 207 180
-0.0908159 0.051294 0.228139 159 207 181
-0.0914321 0.0523306 0.23275 145 202 170
-0.0877538 0.0509041 0.226405 170 209 182
-0.088469 0.052022 0.231377 158 202 168
-0.0872044 0.0519905 0.231237 161 206 178
-0.0846864 0.0512004 0.227723 166 208 181
-0.0852117 0.052254 0.232409 160 203 169
-0.0822685 0.0511803 0.227633 131 187 141
-0.0838517 0.0529324 0.235426 130 180 132
-0.0845446 0.0541664 0.240914 143 179 136
-0.0835001 0.0543077 0.241543 127 165 127
-0.0824715 0.0544639 0.242238 124 157 119
-0.0829853 0.0556596 0.247556 120 152 113
-0.0868056 0.059146 0.263062 118 144 108
-0.0853505 0.0590926 0.262825 104 127 90
-0.0884135 0.0622167 0.27672 104 116 86
-0.0874579 0.06257 0.278291 92 101 75
-0.0896353 0.0652147 0.290054 88 99 71
-0.0854658 0.0632532 0.28133 78 87 60
-0.0872269 0.0656892 0.292164 83 85 61
-0.0865774 0.0663644 0.295167 82 81 66
-0.0952096 0.0743082 0.330499 78 78 62
-0.0960012 0.0763135 0.339417 76 77 60
-0.0990311 0.0802073 0.356736 76 74 61
-0.102883 0.0849294 0.377738 77 74 62
-0.105055 0.0884227 0.393275 80 74 63
-0.121518 0.104325 0.464003 77 69 63
-0.124992 0.109498 0.48701 72 65 62
-0.14513 0.129788 0.577255 76 68 65
-0.127106 0.116088 0.51632 71 61 59
-0.133585 0.124657 0.554434 69 58 59
-0.14406 0.13742 0.6112 65 55 57
-0.132413 0.129181 0.574554 64 54 56
-0.135541 0.135308 0.601804 63 53 57
-0.118222 0.120828 0.537405 63 53 57
-0.103681 0.108551 0.482798 63 53 58
-0.089316 0.0958491 0.426305 62 52 58
-0.0734194 0.0808099 0.359416 62 52 57
-0.0574427 0.0648888 0.288604 60 51 57
-0.0477311 0.0553756 0.246293 61 51 57
-0.0425794 0.0507709 0.225813 58 49 54
-0.0414294 0.0508111 0.225991 62 52 57
-0.0405985 0.0512565 0.227972 60 51 57
-0.0373112 0.0485337 0.215862 60 51 58
-0.0357176 0.0479127 0.2131 59 50 57
-0.0343418 0.0475532 0.211501 59 50 57
-0.0327131 0.0468078 0.208186 58 48 55
-0.031388 0.0464605 0.206641 60 51 58
-0.0303548 0.0465358 0.206976 61 51 58
-0.0294246 0.0467805 0.208064 56 46 53
-0.028837 0.0476097 0.211752 56 46 53
-0.028044 0.0481525 0.214167 58 47 55
-0.026023 0.0465441 0.207013 58 47 55
-0.0254979 0.0475877 0.211655 56 45 53
-0.0242128 0.0472434 0.210123 56 44 52
-0.0224919 0.0459754 0.204484 57 45 53
-0.0217496 0.046681 0.207622 57 46 54
-0.020694 0.0467529 0.207942 55 42 51
-0.0193438 0.0461306 0.205174 55 42 51
-0.0186592 0.0471153 0.209553 51 38 46
-0.0174144 0.0467203 0.207797 52 37 46
-0.0159895 0.0457576 0.203515 55 39 49
-0.0150685 0.0462019 0.205491 52 36 46
-0.0137902 0.045535 0.202525 52 36 46
-0.0129366 0.0462763 0.205822 52 36 47
-0.0115003 0.0448783 0.199604 50 34 45
-0.0107458 0.046127 0.205158 52 36 45
-0.0097326 0.04642 0.206461 51 33 45
-0.00843425 0.0452559 0.201283 52 36 47
-0.00740596 0.0454152 0.201992 52 37 48
-0.00623817 0.0446297 0.198498 52 37 47
-0.0053806 0.0461933 0.205453 53 37 49
-0.00421967 0.0452832 0.201405 55 40 51
-0.00323377 0.0462707 0.205797 54 39 54
-0.00217679 0.0467203 0.207797 54 42 56
-0.00104725 0.0449541 0.199941 59 49 60
0 0.0470444 0.209238 56 45 60
0.00106292 0.0456266 0.202932 54 43 57
0.00211309 0.0453531 0.201716 57 48 62
0.00311745 0.0446064 0.198395 57 47 63
0.00421349 0.0452169 0.20111 57 48 63
0.00520342 0.0446722 0.198687 57 48 63
0.00626816 0.0448443 0.199453 56 47 62
0.00718862 0.0440825 0.196064 54 45 61
0.00825295 0.0442831 0.196957 56 48 63
0.00901743 0.0430089 0.19129 55 46 62
0.0103291 0.0443384 0.197203 55 46 62
0.0113805 0.0444105 0.197523 54 47 63
0.0123774 0.0442759 0.196925 55 47 63
0.0131545 0.0434359 0.193189 56 49 65
0.0138807 0.04256 0.189293 55 47 64
0.0152764 0.0437166 0.194437 55 46 63
0.0166456 0.0446578 0.198623 56 48 64
0.0176432 0.04455 0.198144 57 49 66
0.0185527 0.0442438 0.196782 54 46 63
0.0188328 0.0425479 0.189239 55 46 64
0.0206006 0.0442149 0.196653 54 47 64
0.0217971 0.0445552 0.198167 54 47 63
0.0224081 0.0437221 0.194462 55 47 63
0.0236018 0.044049 0.195915 56 48 64
0.0248375 0.0444237 0.197582 56 47 63
0.0252845 0.0434143 0.193093 56 47 63
0.0259336 0.0428161 0.190432 56 48 64
0.0268553 0.0426957 0.189897 53 45 62
0.0283832 0.0435133 0.193533 57 48 65
0.0290754 0.0430374 0.191417 56 47 64
0.0303882 0.0434813 0.193391 55 46 62
0.030447 0.04216 0.187514 54 46 62
0.0319927 0.0429161 0.190877 53 45 61
0.0325367 0.0423231 0.188239 54 47 62
0.0329809 0.0416391 0.185197 54 46 62
0.0335599 0.0411596 0.183064 52 44 60
0.0350185 0.0417555 0.185715 51 43 59
0.036039 0.0418109 0.185961 52 43 59
0.03844 0.0434228 0.19313 52 44 60
0.0382383 0.0420874 0.187191 52 43 59
0.0389766 0.0418275 0.186035 53 44 59
0.0405324 0.0424362 0.188743 54 44 60
0.0412642 0.0421738 0.187575 51 42 58
0.041256 0.0411848 0.183177 51 43 57
0.0428343 0.0417886 0.185862 52 43 57
0.043306 0.0413098 0.183733 51 42 57
0.0440474 0.0411037 0.182816 52 44 59
0.0451298 0.0412177 0.183323 50 41 56
0.0467096 0.0417718 0.185787 51 42 56
0.0469958 0.04117 0.183111 52 43 58
0.0467723 0.0401548 0.178595 52 44 58
0.0493386 0.0415274 0.1847 53 44 58
0.0502127 0.0414504 0.184358 52 42 56
0.0525874 0.0425916 0.189434 52 43 57
0.0524306 0.0416782 0.185371 52 43 57
0.0523388 0.0408488 0.181682 51 42 56
0.0547724 0.0419848 0.186735 53 43 57
0.0550069 0.0414249 0.184244 50 39 53
0.0560208 0.041461 0.184405 53 42 55
0.0567374 0.0412797 0.183599 52 40 53
0.0588866 0.0421292 0.187377 50 38 51
0.0600368 0.042248 0.187905 49 39 52
0.0603926 0.0418129 0.18597 51 41 54
0.0610136 0.0415724 0.1849 51 37 51
0.060736 0.0407366 0.181183 51 38 52
0.0618375 0.0408373 0.181631 47 34 48
0.0650017 0.0422765 0.188032 51 38 51
0.0666878 0.0427258 0.19003 50 36 49
0.0666104 0.0420486 0.187019 48 33 46
0.0687138 0.0427477 0.190128 49 33 47
0.0682238 0.0418366 0.186076 50 34 48
0.0706691 0.0427258 0.19003 50 33 47
0.0702898 0.0419062 0.186385 47 29 41
0.0737618 0.0433738 0.192912 46 29 40
0.0760396 0.0441089 0.196182 44 20 34
0.0757875 0.0433765 0.192925 41 17 31
0.0774068 0.0437204 0.194454 42 20 34
0.0777673 0.0433536 0.192822 42 20 34
0.0799233 0.0439842 0.195628 41 17 32
0.0831002 0.0451537 0.200829 42 18 33
0.0874764 0.0469374 0.208762 46 26 41
0.0921979 0.0488601 0.217314 48 30 43
0.0939511 0.049182 0.218746 52 35 47
0.119674 0.0618929 0.275279 52 37 48
0.158134 0.0808099 0.359416 53 39 49
0.203739 0.10289 0.457621 52 40 50
0.23887 0.119229 0.530292 53 38 49
0.321184 0.158472 0.704833 52 37 49
0.460926 0.224837 1 54 41 52
0.466164 0.224837 1 54 40 51
0.537025 0.256136 1.13921 51 36 47
0.655062 0.309001 1.37433 53 39 49
0.606087 0.282791 1.25776 52 37 48
0.702558 0.324278 1.44228 51 35 47
0.738529 0.337255 1.5 51 36 48
0.775105 0.350232 1.55772 49 35 46
0.691054 0.309001 1.37433 51 38 48
0.791423 0.350232 1.55772 49 36 46
0.769956 0.337255 1.5 50 34 47
0.807741 0.350232 1.55772 50 34 47
0.822568 0.353094 1.57045 51 35 47
0.819382 0.348244 1.54887 49 32 46
0.734245 0.309001 1.37433 49 33 45
0.900684 0.375365 1.6695 50 33 45
0.902051 0.37232 1.65596 48 31 44
0.824953 0.337255 1.5 51 34 47
0.946534 0.383309 1.70483 51 34 47
0.880148 0.353094 1.57045 50 33 45
0.848523 0.337255 1.5 50 34 46
0.907953 0.357565 1.59033 51 34 46
0.916283 0.357565 1.59033 49 33 45
0.924613 0.357565 1.59033 51 36 47
0.87995 0.337255 1.5 51 35 47
1.00904 0.383309 1.70483 51 35 47
0.895663 0.337255 1.5 51 35 47
0.849107 0.316944 1.40967 50 33 45
0.786923 0.291201 1.29517 50 34 45
1.13007 0.414608 1.84404 51 35 47
1.00476 0.365509 1.62567 49 33 45
0.934947 0.337255 1.5 51 38 48
-0.146553 0.0536433 0.233166 170 215 178
-0.143781 0.0530709 0.230677 168 214 177
-0.145459 0.0541455 0.235348 168 214 177
-0.138458 0.0519797 0.225935 168 214 176
-0.138773 0.052547 0.2284 169 214 176
-0.136427 0.052108 0.226492 164 213 176
-0.133537 0.0514515 0.223639 159 209 175
-0.137067 0.053279 0.231582 120 183 133
-0.131574 0.0516006 0.224287 127 186 141
-0.132397 0.0523911 0.227723 139 203 167
-0.133581 0.05334 0.231847 127 197 157
-0.124232 0.0500622 0.2176 132 197 161
-0.128635 0.0523165 0.227398 150 207 177
-0.126719 0.0520188 0.226105 146 203 171
-0.128384 0.0531996 0.231237 142 200 167
-0.123733 0.0517608 0.224983 147 203 170
-0.121659 0.0513825 0.223339 148 205 172
-0.127045 0.054178 0.23549 144 203 168
-0.120246 0.0517812 0.225072 154 207 175
-0.119372 0.0519141 0.225649 140 199 163
-0.1164 0.0511275 0.22223 162 213 189
-0.119383 0.0529674 0.230228 149 209 183
-0.118435 0.0530833 0.230731 170 218 197
-0.117227 0.0530833 0.230731 149 208 176
-0.108131 0.0494744 0.215045 155 210 177
-0.110301 0.0509987 0.221671 159 207 176
-0.106406 0.049721 0.216117 154 202 171
-0.110904 0.0523803 0.227676 158 205 174
-0.105493 0.0503661 0.218921 145 202 168
-0.107111 0.0517004 0.224721 143 200 166
-0.107778 0.0526004 0.228632 167 212 188
-0.104212 0.0514315 0.223551 160 208 187
-0.103802 0.0518113 0.225203 155 206 179
-0.107171 0.054108 0.235185 157 209 181
-0.101624 0.051904 0.225605 149 206 174
-0.100442 0.051904 0.225605 155 208 177
-0.101319 0.0529804 0.230284 154 207 175
-0.0981379 0.0519352 0.225741 157 207 175
-0.0978882 0.0524348 0.227912 162 209 176
-0.0973302 0.0527795 0.229411 149 207 171
-0.0925632 0.0508219 0.220902 155 209 174
-0.095752 0.0532382 0.231405 149 201 161
-0.0954261 0.0537372 0.233574 139 195 157
-0.0969329 0.0552946 0.240343 152 202 171
-0.0929709 0.0537324 0.233553 165 211 187
-0.0874206 0.0511983 0.222538 166 214 191
-0.090773 0.05388 0.234194 160 211 185
-0.0894702 0.0538342 0.233995 162 210 183
-0.0918733 0.0560479 0.243617 148 204 172
-0.0895047 0.055372 0.240679 148 203 171
-0.100444 0.0630274 0.273954 161 209 181
-0.0939067 0.0597792 0.259836 139 196 158
-0.0923432 0.0596484 0.259267 148 199 163
-0.0907468 0.0594921 0.258588 151 199 165
-0.0967988 0.0644212 0.280012 126 184 147
-0.09225 0.0623384 0.27096 143 185 153
-0.100216 0.0687796 0.298957 166 198 170
-0.105634 0.0736485 0.32012 136 167 124
-0.111725 0.0791521 0.344042 137 168 124
-0.105596 0.0760363 0.330499 128 158 115
-0.120903 0.0885091 0.384713 117 147 108
-0.119132 0.0886906 0.385502 109 139 98
-0.127078 0.0962379 0.418307 106 136 91
-0.132046 0.101754 0.442284 95 110 80
-0.134755 0.105697 0.45942 91 103 77
-0.147941 0.118148 0.513543 87 97 69
-0.150889 0.122734 0.533475 89 92 70
-0.152369 0.126277 0.548874 83 87 64
-0.146371 0.123638 0.537405 82 84 63
-0.163268 0.140616 0.6112 84 88 71
-0.163856 0.143944 0.625666 70 79 63
-0.180897 0.162158 0.704833 73 84 69
-0.177205 0.162158 0.704833 72 79 62
-0.181543 0.169662 0.737451 82 75 61
-0.173966 0.166115 0.722035 78 67 62
-0.170184 0.166115 0.722035 72 63 63
-0.162438 0.162158 0.704833 69 62 62
-0.154974 0.158304 0.688083 64 57 58
-0.135638 0.141852 0.616572 68 60 63
-0.151363 0.162158 0.704833 65 56 59
-0.108566 0.119216 0.518184 64 55 60
-0.0794218 0.0894495 0.3888 65 56 61
-0.0518129 0.0598903 0.260319 66 58 62
-0.0480323 0.0570209 0.247847 64 55 61
-0.046074 0.0562155 0.244346 61 51 56
-0.0422744 0.0530532 0.230601 60 51 56
-0.038937 0.0503021 0.218643 59 51 56
-0.0380407 0.0506335 0.220083 59 50 56
-0.0345288 0.0473952 0.206007 60 52 58
-0.0348868 0.0494313 0.214857 59 50 57
-0.0339282 0.0496756 0.215919 57 48 55
-0.0325967 0.0493718 0.214599 59 50 57
-0.031406 0.0492672 0.214144 59 50 56
-0.0297032 0.0483216 0.210034 59 49 56
-0.0282627 0.0477467 0.207535 57 47 54
-0.0271633 0.0477248 0.20744 54 44 51
-0.0266687 0.0488083 0.21215 54 43 51
-0.0252296 0.0481821 0.209428 56 45 53
-0.0238053 0.0475284 0.206587 56 44 53
-0.0232914 0.0487169 0.211752 55 43 51
-0.0223987 0.0491921 0.213818 54 43 51
-0.0204867 0.047361 0.205859 57 45 53
-0.0191199 0.046657 0.202799 58 45 53
-0.01839 0.0475155 0.20653 56 43 51
-0.0174453 0.0478917 0.208166 56 42 50
-0.0160931 0.0471249 0.204833 51 35 45
-0.014801 0.0464373 0.201844 51 37 46
-0.0139917 0.0472748 0.205484 50 35 45
-0.0128745 0.0471249 0.204833 51 36 47
-0.0118959 0.0475014 0.206469 51 36 46
-0.0107115 0.0470491 0.204503 55 40 48
-0.0094256 0.0460012 0.199948 51 33 45
-0.00855598 0.0469767 0.204188 51 34 46
-0.00748648 0.0469767 0.204188 51 37 47
-0.006457 0.0472696 0.205462 54 39 49
-0.00533983 0.0469094 0.203896 52 36 49
-0.00421249 0.0462574 0.201062 54 39 51
-0.00319863 0.0468323 0.203561 55 42 56
-0.0021251 0.0466715 0.202862 56 44 58
-0.00107104 0.0470446 0.204484 58 47 59
0 0.0471249 0.204833 56 46 60
0.00104885 0.04607 0.200247 58 47 62
0.00215386 0.0473031 0.205607 57 48 62
0.00314656 0.04607 0.200247 56 46 61
0.00421257 0.0462583 0.201066 57 46 61
0.00532586 0.0467867 0.203362 57 48 63
0.00622089 0.0455411 0.197949 55 47 62
0.00712706 0.0447214 0.194385 55 46 62
0.00843721 0.0463246 0.201354 54 46 62
0.00931576 0.0454651 0.197618 55 47 63
0.0103227 0.0453417 0.197082 54 47 63
0.0112594 0.0449598 0.195422 54 46 63
0.0124306 0.0455002 0.197771 54 46 62
0.0136283 0.0460469 0.200147 53 45 61
0.0142681 0.0447652 0.194576 54 46 62
0.0151495 0.0443618 0.192822 54 47 63
0.0160074 0.0439444 0.191008 55 47 64
0.0172187 0.0444893 0.193377 53 46 63
0.018411 0.0449271 0.19528 55 47 64
0.0192052 0.0443985 0.192982 54 47 64
0.0205683 0.0451722 0.196345 55 48 65
0.0213096 0.0445717 0.193735 55 47 64
0.0226393 0.0452005 0.196468 53 45 62
0.0238325 0.045514 0.197831 55 47 63
0.024059 0.044032 0.191389 55 47 63
0.0250853 0.044074 0.191572 56 47 63
0.0258428 0.0436586 0.189766 54 46 62
0.0270963 0.0440808 0.191601 55 47 63
0.0281751 0.0441987 0.192114 55 46 62
0.0289687 0.0438767 0.190714 55 46 62
0.0300925 0.0440595 0.191509 55 47 63
0.0306041 0.0433631 0.188482 53 45 62
0.0318276 0.0436874 0.189891 54 46 62
0.0328814 0.0437662 0.190234 54 47 62
0.0327493 0.0423083 0.183897 54 47 62
0.0340769 0.0427656 0.185885 52 45 60
0.0355061 0.0433215 0.188301 51 43 59
0.0368027 0.0436898 0.189902 51 44 59
0.0376977 0.0435746 0.189401 52 44 60
0.0377194 0.0424817 0.184651 52 44 59
0.0388405 0.0426509 0.185386 52 43 58
0.0400859 0.0429448 0.186664 51 42 57
0.0410274 0.042907 0.186499 51 42 58
0.0415747 0.0424682 0.184592 53 45 60
0.0418063 0.0417342 0.181401 52 43 58
0.0438636 0.0428149 0.186099 52 44 59
0.0436357 0.0416665 0.181107 51 44 59
0.0455595 0.0425778 0.185068 50 42 57
0.0459261 0.0420262 0.182671 53 45 59
0.0469484 0.042085 0.182926 51 44 58
0.0485929 0.042688 0.185547 54 45 60
0.0484868 0.0417595 0.181512 51 42 56
0.0504901 0.0426487 0.185376 50 42 57
0.0513615 0.0425662 0.185018 49 41 55
0.0510797 0.0415487 0.180595 51 42 57
0.0538981 0.0430441 0.187095 52 43 58
0.0537489 0.0421584 0.183245 53 44 58
0.0541037 0.0416922 0.181219 52 42 55
0.055494 0.0420262 0.182671 51 40 53
0.0568843 0.042349 0.184074 52 41 54
0.0586937 0.0429677 0.186763 49 38 51
0.0588148 0.0423506 0.184081 51 41 53
0.0617915 0.0437764 0.190278 51 41 53
0.0615975 0.0429462 0.18667 51 39 52
0.0640225 0.0439395 0.190987 50 38 50
0.0632927 0.0427704 0.185905 49 36 48
0.0625088 0.0416006 0.180821 49 35 48
0.0662012 0.0434004 0.188644 48 34 47
0.0677891 0.0437878 0.190328 49 34 48
0.0683484 0.0435093 0.189117 48 33 47
0.069246 0.043451 0.188864 45 27 42
0.0725532 0.0448849 0.195096 49 31 45
0.0720924 0.0439805 0.191165 46 25 39
0.0742727 0.0446899 0.194249 43 21 34
0.0765187 0.0454191 0.197418 40 17 29
0.075536 0.044238 0.192285 40 17 31
0.079078 0.045703 0.198652 41 19 33
0.0789794 0.0450532 0.195828 41 19 34
0.0801214 0.0451187 0.196112 42 18 33
0.0859525 0.0477897 0.207722 43 20 36
0.08274 0.0454285 0.197459 44 22 37
0.106461 0.0577307 0.250932 46 29 42
0.112961 0.0605086 0.263006 48 31 44
0.148465 0.0785686 0.341505 50 34 46
0.211502 0.110596 0.480714 52 38 49
0.278554 0.143944 0.625666 52 40 50
0.337238 0.172243 0.748668 53 39 50
0.392252 0.198038 0.860791 54 40 51
0.493397 0.246273 1.07045 54 40 51
0.515175 0.254254 1.10514 55 41 52
0.57907 0.282612 1.2284 55 41 51
0.603545 0.29132 1.26625 54 40 51
0.722816 0.345098 1.5 52 37 49
0.730673 0.345098 1.5 51 36 47
0.759394 0.354848 1.54238 52 37 48
0.746386 0.345098 1.5 51 36 48
0.783264 0.358376 1.55772 48 33 45
0.737268 0.333854 1.45113 48 34 47
0.795044 0.356342 1.54887 51 35 48
0.803156 0.356342 1.54887 49 33 46
0.822568 0.361305 1.57045 50 34 46
0.921674 0.400829 1.74224 49 33 46
0.910816 0.392223 1.70483 49 33 45
0.893378 0.380979 1.65596 50 34 47
0.928675 0.392223 1.70483 49 31 45
0.824953 0.345098 1.5 49 31 44
0.882964 0.365881 1.59033 50 33 45
0.955464 0.392223 1.70483 51 34 46
0.899623 0.365881 1.59033 50 33 45
0.81616 0.328891 1.42955 49 33 45
1.01275 0.4044 1.75776 49 32 44
0.991182 0.392223 1.70483 49 33 45
1.00011 0.392223 1.70483 50 34 46
0.813428 0.316187 1.37433 51 36 48
1.07191 0.413006 1.79517 48 33 45
0.90352 0.345098 1.5 47 32 44
1.03583 0.392223 1.70483 50 36 46
0.738348 0.27719 1.20483 50 34 46
1.00476 0.374009 1.62567 50 35 47
0.934947 0.345098 1.5 51 39 48
-0.149595 0.0560012 0.238005 169 214 176
-0.145503 0.0549273 0.233441 167 213 176
-0.145934 0.0555569 0.236117 164 213 175
-0.146675 0.0563163 0.239344 167 214 177
-0.144641 0.0560138 0.238059 169 214 177
-0.143471 0.0560441 0.238187 166 213 177
-0.140021 0.055176 0.234498 159 208 176
-0.138207 0.0549433 0.233509 138 191 151
-0.132606 0.0531872 0.226046 154 200 166
-0.12797 0.0517903 0.220109 144 206 171
-0.130296 0.0532111 0.226147 140 204 169
-0.130185 0.0536535 0.228027 158 211 182
-0.12685 0.0527628 0.224242 147 204 174
-0.128619 0.053999 0.229496 168 214 190
-0.127599 0.054076 0.229823 159 211 184
-0.12504 0.0534961 0.227359 169 215 191
-0.124779 0.0538976 0.229065 142 201 168
-0.117611 0.0512947 0.218002 148 204 172
-0.122701 0.0540395 0.229668 163 210 183
-0.121965 0.0542469 0.230549 135 197 161
-0.119791 0.053813 0.228705 172 217 194
-0.116859 0.0530263 0.225362 150 208 180
-0.117239 0.0537413 0.2284 165 215 188
-0.120743 0.055918 0.237651 147 204 168
-0.112577 0.0526794 0.223888 153 206 169
-0.115621 0.0546733 0.232362 163 208 176
-0.112858 0.0539343 0.229221 159 204 173
-0.111126 0.0536779 0.228131 148 199 165
-0.106133 0.0518234 0.22025 145 197 161
-0.108353 0.0534886 0.227326 148 201 167
-0.106903 0.0533592 0.226776 151 204 173
-0.106724 0.0538685 0.228941 166 212 189
-0.10427 0.0532276 0.226217 155 208 180
-0.106823 0.055158 0.234422 157 209 182
-0.106359 0.0555569 0.236117 165 213 186
-0.10231 0.0540707 0.2298 168 213 184
-0.104992 0.0561485 0.238631 136 196 154
-0.102315 0.0553761 0.235348 148 201 164
-0.101354 0.0555253 0.235983 183 221 198
-0.0998228 0.0553614 0.235286 144 204 167
-0.0962564 0.0540508 0.229716 148 206 171
-0.0958253 0.0544898 0.231582 164 209 178
-0.0954982 0.055 0.23375 147 200 162
-0.0974334 0.0568434 0.241584 140 197 162
-0.0970142 0.0573435 0.24371 136 195 163
-0.0971132 0.0581674 0.247211 164 214 186
-0.0975677 0.0592294 0.251725 138 202 167
-0.102723 0.0632133 0.268657 157 209 180
-0.105599 0.0658853 0.280012 164 210 184
-0.0939201 0.0594241 0.252553 142 200 168
-0.0990129 0.0635413 0.270051 158 208 182
-0.104933 0.0683163 0.290344 168 213 189
-0.103192 0.0681709 0.289726 163 211 184
-0.111932 0.0750482 0.318955 158 203 172
-0.102038 0.0694511 0.295167 136 190 154
-0.122366 0.0845685 0.359416 139 193 163
-0.157916 0.110843 0.471083 159 205 177
-0.164991 0.117647 0.5 145 194 158
-0.168277 0.121926 0.518184 153 192 157
-0.185047 0.136275 0.579167 147 189 153
-0.189128 0.141601 0.601804 137 181 141
-0.198206 0.150913 0.641382 132 176 134
-0.197703 0.153125 0.650783 129 174 133
-0.202172 0.159334 0.677171 135 171 131
-0.197637 0.158542 0.673803 129 157 107
-0.214991 0.175598 0.746293 115 139 100
-0.21824 0.181553 0.771599 116 138 100
-0.214198 0.181553 0.771599 107 124 90
-0.213534 0.18447 0.784 97 110 85
-0.244586 0.215439 0.915615 89 102 81
-0.228979 0.205726 0.874334 85 99 77
-0.231711 0.212428 0.90282 87 101 77
-0.215114 0.201321 0.855615 77 84 60
-0.217129 0.20753 0.882004 87 83 61
-0.203362 0.198598 0.844042 84 76 64
-0.198941 0.198598 0.844042 76 75 69
-0.211015 0.215439 0.915615 72 76 67
-0.196922 0.205726 0.874334 71 76 66
-0.158839 0.16989 0.722035 76 75 67
-0.155057 0.16989 0.722035 73 65 68
-0.131084 0.147216 0.625666 68 59 64
-0.0979435 0.112817 0.479471 70 61 64
-0.0568579 0.0672156 0.285666 67 57 61
-0.054266 0.0658853 0.280012 63 53 58
-0.051213 0.0639058 0.271599 62 53 57
-0.0401245 0.0514997 0.218874 62 52 57
-0.0404174 0.0534014 0.226956 60 52 57
-0.036249 0.0493452 0.209717 60 51 56
-0.0346227 0.0486041 0.206567 59 50 57
-0.0335776 0.0486576 0.206795 60 51 57
-0.0322588 0.0483047 0.205295 59 51 57
-0.0313146 0.0485078 0.206158 61 52 58
-0.0315709 0.0506513 0.215268 56 46 53
-0.0298196 0.0496135 0.210857 58 48 54
-0.0282627 0.0488318 0.207535 58 48 54
-0.0278855 0.0501073 0.212956 56 46 52
-0.0266163 0.0498194 0.211733 57 47 54
-0.0248457 0.0485273 0.206241 57 46 53
-0.0240832 0.049176 0.208998 56 45 52
-0.0226055 0.0483567 0.205516 57 46 53
-0.0215649 0.0484374 0.205859 56 45 53
-0.0206906 0.0489196 0.207908 55 44 51
-0.0194701 0.0485912 0.206512 54 42 49
-0.0181493 0.0479593 0.203827 56 44 51
-0.0172506 0.0484336 0.205843 57 45 51
-0.0161974 0.0485083 0.20616 54 40 47
-0.0151905 0.0487423 0.207155 52 38 46
-0.0135657 0.0468772 0.199228 51 37 45
-0.0129156 0.0483501 0.205488 51 36 46
-0.0121265 0.0495229 0.210472 50 36 45
-0.010625 0.0477298 0.202852 51 36 45
-0.00962469 0.0480404 0.204172 53 38 47
-0.00852831 0.047889 0.203528 51 35 46
-0.00752191 0.0482717 0.205155 53 38 49
-0.00625753 0.0468505 0.199115 52 38 49
-0.00528141 0.0474507 0.201666 52 38 51
-0.00422546 0.0474544 0.201681 55 43 55
-0.00310295 0.0464639 0.197471 55 43 58
-0.00211443 0.0474927 0.201844 56 44 59
-0.00105445 0.0473684 0.201316 59 49 62
0 0.0473301 0.201153 56 46 60
0.00105279 0.0472936 0.200998 56 45 60
0.00209683 0.0470972 0.200163 55 46 61
0.0030981 0.0463913 0.197163 57 48 62
0.00418113 0.0469566 0.199565 55 45 61
0.00521939 0.0468934 0.199297 55 46 61
0.00630051 0.0471723 0.200482 54 45 61
0.0072577 0.0465762 0.197949 55 46 62
0.00821147 0.0461098 0.195967 54 46 62
0.00932608 0.0465499 0.197837 55 47 63
0.0102571 0.0460771 0.195828 56 48 64
0.0112884 0.0460999 0.195925 56 48 65
0.0123323 0.0461664 0.196207 53 45 62
0.0130902 0.0452341 0.192245 53 44 61
0.0144171 0.0462607 0.196608 52 44 61
0.0153503 0.0459715 0.195379 54 46 63
0.0162462 0.0456136 0.193858 54 46 63
0.0171295 0.0452647 0.192375 54 47 64
0.0178654 0.0445864 0.189492 55 47 64
0.0190257 0.0449832 0.191178 55 47 65
0.0200034 0.0449299 0.190952 54 47 64
0.0216555 0.0463245 0.196879 54 47 64
0.0224768 0.0458959 0.195058 55 47 65
0.0232831 0.0454753 0.19327 54 47 64
0.0243373 0.0455536 0.193603 55 47 63
0.0245489 0.0441117 0.187475 54 46 62
0.0259149 0.0447754 0.190295 52 44 60
0.0267352 0.0444817 0.189047 54 46 62
0.028652 0.0459685 0.195366 54 46 62
0.0285101 0.0441635 0.187695 54 46 62
0.030048 0.0449942 0.191225 54 46 62
0.030993 0.0449122 0.190877 54 46 62
0.0314325 0.0441257 0.187534 53 47 62
0.0319482 0.0434905 0.184835 52 45 60
0.0335687 0.0443525 0.188498 52 45 60
0.0343251 0.0440562 0.187239 53 45 60
0.0354307 0.044212 0.187901 51 44 59
0.0367529 0.0446224 0.189645 52 45 60
0.0377851 0.0446683 0.18984 53 46 61
0.0384494 0.0442881 0.188224 53 45 59
0.0394276 0.0442795 0.188188 53 45 60
0.0397098 0.0435087 0.184912 53 45 60
0.0413528 0.0442301 0.187978 52 45 60
0.041068 0.042904 0.182342 53 45 60
0.0428353 0.0437332 0.185866 54 45 60
0.0441448 0.0440686 0.187292 50 42 57
0.0453673 0.0443045 0.188294 50 43 58
0.0449823 0.0429938 0.182724 50 43 57
0.0461579 0.0431984 0.183593 53 45 58
0.0474128 0.0434672 0.184736 52 44 58
0.0475743 0.042743 0.181658 52 44 58
0.0491428 0.0432865 0.183967 51 44 58
0.0497135 0.0429471 0.182525 51 44 56
0.0511633 0.0433656 0.184304 52 44 57
0.0531528 0.0442176 0.187925 50 41 55
0.0533722 0.0435928 0.185269 52 43 57
0.0528779 0.0424178 0.180276 54 43 57
0.0550247 0.0433656 0.184304 54 44 57
0.0562161 0.0435407 0.185048 53 42 55
0.0563685 0.0429187 0.182405 49 37 51
0.0587684 0.0440003 0.187001 49 37 51
0.0592486 0.0436326 0.185438 51 41 53
0.0599666 0.0434491 0.184658 50 38 51
0.0607266 0.0433013 0.184031 49 36 50
0.0624837 0.0438581 0.186397 50 38 50
0.0627922 0.0433965 0.184435 49 36 49
0.065457 0.0445528 0.189349 47 32 46
0.06558 0.0439703 0.186874 48 34 47
0.0666719 0.044045 0.187191 50 35 48
0.0675727 0.0439931 0.186971 47 32 45
0.0697142 0.0447389 0.19014 51 35 47
0.072706 0.0460018 0.195507 48 29 42
0.0717089 0.0447407 0.190148 42 21 35
0.0734193 0.0451804 0.192017 41 19 31
0.0767394 0.0465853 0.197988 42 20 33
0.0751038 0.0449845 0.191184 36 15 27
0.0784852 0.0463913 0.197163 41 18 33
0.0829293 0.0483816 0.205622 42 20 35
