ply
format ascii 1.0
element vertex 1199
property float x
property float y
property float z
property uchar red
property uchar green
property uchar blue
end_header
0.0619992 -0.0123784 0.182106 45 15 33
0.0624794 -0.0122853 0.180736 46 16 34
0.064606 -0.0125139 0.184098 45 15 33
0.0634772 -0.0121144 0.178222 50 18 38
0.0662319 -0.0124569 0.183261 50 19 39
0.0658168 -0.012202 0.179511 53 25 44
0.0681298 -0.0124529 0.183202 55 30 47
0.0689091 -0.0124204 0.182724 56 32 49
0.0690165 -0.0122694 0.180502 56 32 49
0.0702729 -0.0123239 0.181304 57 36 52
0.0714075 -0.0123559 0.181775 58 41 55
0.0715236 -0.0122132 0.179675 58 41 55
0.0746728 -0.0125853 0.18515 58 41 55
0.0739756 -0.012308 0.18107 58 41 55
0.0759175 -0.0124712 0.183471 58 42 55
0.0765434 -0.0124168 0.182671 59 43 56
0.0753134 -0.0120665 0.177517 58 42 55
0.0778871 -0.0123267 0.181344 59 44 57
0.0795249 -0.0124342 0.182926 58 42 56
0.0789626 -0.0121993 0.179471 57 41 56
0.0808966 -0.0123511 0.181703 58 42 56
0.0785597 -0.0118548 0.174403 58 43 57
0.081677 -0.0121836 0.179239 57 41 56
0.0827602 -0.0122048 0.179552 56 39 54
0.0834028 -0.0121614 0.178913 57 41 55
0.0832 -0.011997 0.176495 57 40 54
0.0887579 -0.0126578 0.186216 56 39 53
0.0860374 -0.0121365 0.178546 57 39 54
0.0858262 -0.0119765 0.176193 57 38 53
0.0896314 -0.0123744 0.182047 56 37 52
0.0906443 -0.0123826 0.182166 57 38 53
0.0918174 -0.0124121 0.182602 56 35 52
0.0909392 -0.0121667 0.178991 57 36 52
0.0944009 -0.012501 0.183908 56 35 51
0.0957442 -0.0125508 0.184641 56 36 52
0.0963251 -0.0125007 0.183904 56 36 51
0.0965225 -0.0124023 0.182456 57 38 52
0.0940916 -0.0119714 0.176117 57 35 50
0.0986055 -0.0124239 0.182774 56 34 50
0.0976217 -0.0121817 0.179211 56 35 50
0.101752 -0.0125761 0.185014 56 35 50
0.100882 -0.0123509 0.181701 56 35 50
0.102953 -0.0124867 0.183698 55 31 47
0.104707 -0.0125819 0.185099 56 34 49
0.105933 -0.0126124 0.185547 57 35 50
0.107644 -0.0126996 0.18683 56 32 48
0.110255 -0.0128904 0.189638 56 32 48
0.108848 -0.0126124 0.185547 55 30 46
0.111613 -0.0128183 0.188577 54 29 45
0.112923 -0.012855 0.189117 53 28 44
0.107429 -0.0121232 0.178351 53 28 45
0.118314 -0.0132364 0.194729 53 28 45
0.114409 -0.0126902 0.186692 53 26 44
0.116049 -0.012763 0.187763 53 26 44
0.120692 -0.0131621 0.193635 51 26 44
-0.443012 -0.0442248 0.704833 67 63 64
-0.451717 -0.0454727 0.724721 66 62 63
-0.412166 -0.0418429 0.666871 65 62 62
-0.420118 -0.0430147 0.685547 67 63 64
-0.410127 -0.0423538 0.675013 68 64 64
-0.418915 -0.0436374 0.695471 67 63 63
-0.384768 -0.040432 0.644385 68 64 63
-0.373678 -0.0396141 0.63135 68 65 63
-0.408363 -0.0436776 0.696112 68 64 64
-0.393704 -0.0424892 0.677171 69 65 65
-0.370048 -0.0402993 0.64227 71 66 64
-0.366684 -0.0402993 0.64227 69 64 62
-0.373032 -0.0413764 0.659437 69 65 63
-0.353836 -0.0396141 0.63135 70 66 64
-0.35398 -0.040004 0.637564 69 65 63
-0.353228 -0.0402993 0.64227 67 62 61
-0.332079 -0.0382507 0.60962 67 63 61
-0.348708 -0.040556 0.646362 68 62 60
-0.336986 -0.039577 0.630759 68 60 60
-0.317941 -0.03771 0.601003 69 62 61
-0.29723 -0.0356061 0.567472 71 63 61
-0.311645 -0.03771 0.601003 73 65 62
-0.304966 -0.0372784 0.594124 73 68 64
-0.31788 -0.0392575 0.625666 73 71 66
-0.296837 -0.0370406 0.590334 71 71 67
-0.289882 -0.0365535 0.582571 74 74 70
-0.274593 -0.0349939 0.557716 73 74 69
-0.255955 -0.0329695 0.525451 79 80 71
-0.272134 -0.0354345 0.564737 83 81 70
-0.267974 -0.0352762 0.562215 79 76 68
-0.247699 -0.0329695 0.525451 75 76 71
-0.2389 -0.0321557 0.512481 75 80 74
-0.213222 -0.0290256 0.462595 79 80 72
-0.215764 -0.0297091 0.473489 78 82 74
-0.213284 -0.0297091 0.473489 78 89 79
-0.19998 -0.0281838 0.449179 81 93 82
-0.214703 -0.030619 0.48799 80 93 88
-0.201719 -0.0291139 0.464003 82 96 89
-0.193758 -0.0283059 0.451125 83 105 90
-0.191395 -0.0283059 0.451125 80 106 89
-0.189788 -0.0284191 0.452929 82 109 95
-0.172301 -0.0261272 0.416402 84 112 98
-0.149371 -0.0229405 0.365614 86 120 106
-0.157818 -0.0245526 0.391307 88 125 109
-0.150724 -0.0237575 0.378635 100 135 123
-0.13909 -0.0222159 0.354066 99 144 130
-0.126733 -0.0205159 0.326972 97 146 129
-0.124442 -0.020421 0.32546 92 149 127
-0.11792 -0.0196194 0.312684 111 166 146
-0.120055 -0.0202559 0.322829 105 166 146
-0.11208 -0.0191805 0.305689 110 171 153
-0.101408 -0.0176057 0.280591 116 176 158
-0.099003 -0.017441 0.277965 119 190 169
-0.0850091 -0.0151992 0.242238 127 197 176
-0.0818832 -0.0148622 0.236866 147 201 181
-0.0772944 -0.0142451 0.227031 137 193 167
-0.0763959 -0.0142995 0.227898 163 213 188
-0.0700769 -0.0133249 0.212366 178 220 200
-0.0674092 -0.0130244 0.207577 142 205 176
-0.0680198 -0.0133579 0.212891 154 209 183
-0.0655188 -0.0130812 0.208481 153 207 180
-0.0625219 -0.0126944 0.202316 146 203 174
-0.0622266 -0.0128523 0.204833 162 213 187
-0.0598495 -0.0125782 0.200464 157 212 183
-0.0586176 -0.0125392 0.199844 155 210 180
-0.058467 -0.0127344 0.202955 150 208 176
-0.0560873 -0.0124423 0.1983 146 207 175
-0.0553688 -0.0125147 0.199453 178 221 199
-0.0545502 -0.0125668 0.200283 165 215 192
-0.0538967 -0.0126597 0.201764 159 211 187
-0.0525083 -0.0125802 0.200498 156 210 181
-0.0506227 -0.012376 0.197243 168 217 190
-0.0501449 -0.0125146 0.199451 149 209 175
-0.0497291 -0.0126749 0.202006 175 220 195
-0.0484391 -0.0126145 0.201043 160 213 185
-0.0470108 -0.0125146 0.199451 163 214 190
-0.0448426 -0.0122087 0.194576 177 221 200
-0.0450334 -0.0125458 0.199948 160 215 186
-0.0438527 -0.0125077 0.199342 164 211 180
-0.0422124 -0.0123335 0.196565 166 212 184
-0.0418023 -0.012519 0.199522 171 215 192
-0.040341 -0.0123912 0.197485 153 207 178
-0.0390516 -0.0123108 0.196203 161 210 185
-0.0380326 -0.0123136 0.196248 146 201 171
-0.0368856 -0.012274 0.195617 138 196 164
-0.0365231 -0.0125006 0.199228 160 207 178
-0.0341835 -0.0120439 0.19195 179 220 198
-0.0334171 -0.0121307 0.193333 174 218 198
-0.0326657 -0.0122285 0.194892 150 208 178
-0.0320551 -0.012387 0.197418 159 210 179
-0.0303839 -0.0121326 0.193363 170 217 189
-0.0303946 -0.0125554 0.200101 159 213 185
-0.0283832 -0.0121432 0.193533 155 211 182
-0.0275386 -0.0122183 0.194729 167 213 185
-0.0257636 -0.0118704 0.189184 166 211 183
-0.0251966 -0.0120735 0.192421 147 202 173
-0.0240727 -0.0120156 0.191499 150 201 181
-0.0231903 -0.0120784 0.192499 129 184 160
-0.022352 -0.012171 0.193975 101 152 131
-0.0208678 -0.0119039 0.189718 68 94 80
-0.0200755 -0.0120245 0.19164 64 76 75
-0.01941 -0.0122378 0.195039 64 62 66
-0.0178586 -0.0118852 0.18942 65 61 68
-0.017115 -0.0120604 0.192212 64 56 66
-0.0158571 -0.0118723 0.189215 64 55 67
-0.0146531 -0.0117022 0.186504 62 53 65
-0.0138071 -0.0118142 0.188289 62 53 65
-0.0130378 -0.0120141 0.191475 61 51 63
-0.0119081 -0.0118876 0.189458 62 51 63
-0.0110139 -0.0119944 0.19116 61 51 64
-0.00997575 -0.0119502 0.190457 61 51 64
-0.00887011 -0.0118064 0.188165 61 51 65
-0.00778654 -0.0116597 0.185826 60 50 65
-0.00695954 -0.0119101 0.189817 60 50 65
-0.00587517 -0.0117301 0.186948 61 51 65
-0.00498606 -0.0119459 0.190388 61 50 65
-0.00386975 -0.0115892 0.184703 60 49 65
-0.00295922 -0.0118165 0.188325 61 51 65
-0.00197819 -0.0118486 0.188838 60 49 64
-0.00099534 -0.0119235 0.19003 59 47 63
0 -0.0119755 0.19086 61 49 64
0.0010026 -0.0120104 0.191417 60 47 63
0.00196621 -0.0117769 0.187695 60 47 63
0.00293788 -0.0117312 0.186966 60 46 63
0.00396297 -0.0118684 0.189153 60 47 64
0.0050139 -0.0120126 0.191451 59 45 62
0.00592294 -0.0118254 0.188468 59 45 62
0.00685128 -0.0117248 0.186864 58 43 62
0.00773832 -0.0115875 0.184675 58 43 62
0.00880405 -0.0117185 0.186763 57 42 61
0.00983974 -0.0117873 0.18786 57 40 61
0.0106557 -0.0116044 0.184945 57 40 61
0.0118424 -0.011822 0.188413 57 41 61
0.0126229 -0.0116318 0.185381 56 39 59
0.0137577 -0.011772 0.187616 57 39 59
0.0146173 -0.0116737 0.186049 58 41 60
0.0156341 -0.0117053 0.186554 57 38 59
0.0167312 -0.0117899 0.187901 56 36 58
0.0172774 -0.0114984 0.183256 57 38 59
0.018012 -0.0113564 0.180992 57 38 58
0.0195457 -0.0117072 0.186583 57 38 59
0.0203803 -0.0116258 0.185286 56 37 58
0.0224126 -0.012204 0.194501 57 39 59
0.0223742 -0.0116533 0.185725 56 37 58
0.0233473 -0.0116535 0.185728 55 37 57
0.0240308 -0.0115149 0.183519 54 35 56
0.0248145 -0.0114331 0.182215 55 37 57
0.0257298 -0.0114157 0.181938 56 38 57
0.0265909 -0.0113764 0.181312 56 37 57
0.0279981 -0.0115654 0.184324 54 34 55
0.0289477 -0.0115591 0.184223 55 37 57
0.0299905 -0.0115892 0.184703 55 37 57
0.0300292 -0.0112415 0.179162 56 39 58
0.0313906 -0.0113951 0.181609 55 38 57
0.0320983 -0.0113093 0.180241 57 40 58
0.033364 -0.0114193 0.181996 55 37 56
0.0336317 -0.0111912 0.17836 56 37 57
0.0350283 -0.0113409 0.180746 55 36 57
0.0365868 -0.0115338 0.18382 55 37 57
0.0372212 -0.0114329 0.182212 55 37 57
0.0379542 -0.0113666 0.181156 56 36 57
0.0380474 -0.0111166 0.177171 56 37 57
0.0400838 -0.0114328 0.18221 56 38 57
0.0408062 -0.0113681 0.18118 55 35 56
0.0419805 -0.0114295 0.182157 55 35 55
0.0417303 -0.0111089 0.177048 56 36 56
0.0433269 -0.0112832 0.179826 56 36 56
0.0436734 -0.0111314 0.177407 54 34 54
0.0446609 -0.011146 0.177639 55 36 55
0.0454418 -0.0111094 0.177056 53 32 53
0.0463993 -0.0111166 0.177171 55 34 54
0.047661 -0.011195 0.17842 54 32 52
0.0472944 -0.0108953 0.173643 52 27 51
0.0492468 -0.011131 0.1774 54 30 53
0.0503355 -0.0111664 0.177964 53 29 51
0.051072 -0.0111238 0.177285 51 27 49
0.0526156 -0.0112553 0.179382 52 27 48
0.0527914 -0.0110948 0.176824 52 24 47
0.0552491 -0.0114111 0.181865 51 21 45
0.0552505 -0.011218 0.178787 53 23 46
0.0558233 -0.0111454 0.17763 50 20 42
0.0576816 -0.0113276 0.180534 48 18 39
0.0574595 -0.011102 0.176938 46 16 36
0.0598207 -0.0113747 0.181285 47 17 36
0.0603604 -0.011298 0.180063 47 17 35
0.0629516 -0.0116018 0.184903 45 15 32
0.062854 -0.0114083 0.18182 45 16 33
0.0632724 -0.0113128 0.180298 46 16 35
0.0636841 -0.011219 0.178803 48 18 38
0.0654449 -0.0113621 0.181083 52 23 43
0.0672473 -0.0115082 0.183412 53 24 44
0.0677934 -0.0114383 0.182297 55 30 48
0.0686217 -0.0114172 0.181962 57 35 51
0.067743 -0.0111166 0.177171 58 38 53
0.0690241 -0.0111738 0.178082 58 38 54
0.0715934 -0.0114352 0.182248 58 40 55
0.0735382 -0.0115913 0.184736 58 41 55
0.0737684 -0.0114765 0.182907 59 41 56
0.075186 -0.0115471 0.184032 57 40 55
0.0745924 -0.0113109 0.180268 57 41 55
0.0762464 -0.0114172 0.181962 57 41 55
0.0774833 -0.0114592 0.182631 58 42 56
0.0779046 -0.011381 0.181385 57 40 55
0.0784683 -0.0113252 0.180496 59 42 56
0.0803213 -0.0114547 0.182559 57 40 55
0.07971 -0.0112338 0.179038 57 40 55
0.0809619 -0.0112775 0.179735 57 40 55
0.0818872 -0.0112753 0.1797 57 39 55
0.0835078 -0.0113678 0.181174 57 40 54
0.0836558 -0.01126 0.179456 56 39 54
0.0852616 -0.0113486 0.180868 56 38 54
0.0864762 -0.0113838 0.181429 56 38 54
0.0856447 -0.0111518 0.177731 57 39 54
0.0918934 -0.0118368 0.188648 56 36 53
0.090604 -0.0115465 0.184022 55 35 50
0.0919082 -0.0115894 0.184706 57 38 53
0.0890107 -0.0111071 0.17702 55 34 50
0.0932728 -0.011519 0.183584 55 34 51
0.0942592 -0.011522 0.183632 54 32 50
0.0947126 -0.0114605 0.182652 55 35 51
0.0928892 -0.0111275 0.177344 57 37 52
0.0980273 -0.0116267 0.185301 55 33 48
0.0978002 -0.011486 0.183059 55 31 48
0.0990383 -0.0115185 0.183577 55 33 48
0.10159 -0.0117017 0.186495 57 35 50
0.100968 -0.0115193 0.183589 55 33 49
0.0987097 -0.0111554 0.177789 56 35 50
0.101569 -0.0113712 0.181229 57 37 51
0.0982113 -0.0108935 0.173616 57 35 49
0.106301 -0.0116827 0.186192 58 37 51
0.102356 -0.0111468 0.177653 56 33 48
0.107568 -0.011609 0.185018 56 32 47
0.108958 -0.0116539 0.185734 56 31 47
0.111673 -0.0118386 0.188678 56 32 47
0.109682 -0.0115255 0.183688 55 32 47
0.114667 -0.0119446 0.190367 54 30 45
0.116445 -0.0120253 0.191653 53 27 44
0.108788 -0.0111385 0.17752 52 26 43
0.114357 -0.0116094 0.185026 54 29 45
0.116173 -0.0116948 0.186385 53 30 47
-0.443012 -0.0405394 0.704833 62 59 61
-0.398417 -0.036765 0.639209 66 62 63
-0.435629 -0.0405394 0.704833 66 62 62
-0.425745 -0.0399582 0.694728 67 63 63
-0.440329 -0.0416833 0.724721 68 63 63
-0.435665 -0.0416004 0.72328 67 62 62
-0.409346 -0.0394302 0.685547 68 63 62
-0.434285 -0.0422026 0.73375 68 63 62
-0.402165 -0.0394302 0.685547 66 61 62
-0.381371 -0.0377283 0.655958 69 63 63
-0.384223 -0.038356 0.666871 67 62 60
-0.366684 -0.036941 0.64227 66 61 60
-0.393416 -0.040001 0.695471 66 62 60
-0.379517 -0.0389484 0.677171 67 62 60
-0.371711 -0.0385073 0.669501 65 59 58
-0.377776 -0.0395082 0.686904 64 58 57
-0.349864 -0.036941 0.64227 63 57 56
-0.355762 -0.0379284 0.659437 65 58 56
-0.339933 -0.0365962 0.636275 70 62 61
-0.352786 -0.038356 0.666871 70 63 62
-0.321862 -0.0353437 0.614498 74 66 64
-0.333044 -0.036941 0.64227 73 65 62
-0.31292 -0.0350631 0.60962 72 66 62
-0.32327 -0.0365962 0.636275 69 66 62
-0.292933 -0.0335074 0.582571 69 65 62
-0.305769 -0.0353437 0.614498 70 67 63
-0.30255 -0.0353437 0.614498 70 68 63
-0.270456 -0.0319342 0.555219 74 71 64
-0.280728 -0.0335074 0.582571 74 69 61
-0.277676 -0.0335074 0.582571 75 70 65
-0.268909 -0.03281 0.570447 73 71 67
-0.273302 -0.0337207 0.58628 74 76 70
-0.264431 -0.0329968 0.573695 76 76 69
-0.241021 -0.0304214 0.528917 71 71 69
-0.251223 -0.0320778 0.557716 71 74 69
-0.235481 -0.0304214 0.528917 74 79 69
-0.23271 -0.0304214 0.528917 69 83 71
-0.211481 -0.0279792 0.486457 76 89 78
-0.19732 -0.0264241 0.45942 74 91 76
-0.212131 -0.0287582 0.5 75 93 76
-0.198403 -0.0272334 0.473489 79 97 84
-0.177743 -0.0247063 0.429553 79 97 86
-0.193876 -0.0272943 0.474549 82 98 90
-0.165222 -0.0235625 0.409665 83 95 89
-0.167522 -0.0242048 0.420833 86 105 95
-0.16655 -0.0243852 0.423969 86 112 100
-0.150698 -0.0223624 0.3888 90 115 102
-0.155378 -0.0233727 0.406367 90 118 104
-0.111314 -0.0169769 0.295167 90 136 120
-0.122907 -0.0190091 0.330499 93 140 126
-0.120495 -0.0189023 0.328643 101 146 136
-0.111016 -0.0176677 0.307178 98 145 133
-0.109215 -0.0176366 0.306637 96 158 138
-0.0942803 -0.0154522 0.268657 95 167 146
-0.0830853 -0.0138237 0.240343 108 171 154
-0.0745524 -0.0125948 0.218978 116 170 154
-0.0789405 -0.0135445 0.23549 136 183 168
-0.0697566 -0.0121587 0.211396 152 206 191
-0.0657699 -0.0116487 0.202529 132 200 176
-0.0667291 -0.0120123 0.208851 153 209 186
-0.0643723 -0.0117812 0.204833 157 208 183
-0.0636953 -0.0118549 0.206114 148 204 177
-0.0609708 -0.0115435 0.200699 145 206 175
-0.0581749 -0.0112074 0.194855 172 218 195
-0.0579136 -0.0113563 0.197444 145 205 173
-0.0587891 -0.0117375 0.204073 154 208 178
-0.0571044 -0.0116123 0.201896 162 212 183
-0.0570615 -0.0118225 0.20555 154 209 178
-0.0547488 -0.0115615 0.201012 167 215 191
-0.052646 -0.0113354 0.197082 166 214 191
-0.0521682 -0.0114572 0.199199 147 207 178
-0.0512288 -0.0114805 0.199604 166 215 188
-0.0496564 -0.01136 0.197508 149 206 172
-0.0487063 -0.0113797 0.197851 177 220 197
-0.0484436 -0.0115644 0.201062 167 216 193
-0.0470108 -0.0114717 0.199451 158 211 187
-0.0450759 -0.0112495 0.195589 157 210 185
-0.045039 -0.0115017 0.199973 162 213 185
-0.0433995 -0.0113469 0.197282 164 212 182
-0.0419411 -0.0112331 0.195302 172 217 192
-0.0415256 -0.0113998 0.198202 162 212 188
-0.0406852 -0.0114555 0.19917 144 204 171
-0.0385395 -0.0111369 0.19363 160 210 182
-0.0380326 -0.0112875 0.196248 163 211 183
-0.0362279 -0.0110505 0.192129 142 199 163
-0.0357176 -0.0112062 0.194834 160 208 180
-0.0351482 -0.0113519 0.197367 157 208 184
-0.0334975 -0.0111466 0.193798 156 209 186
-0.0329109 -0.0112936 0.196354 164 213 189
-0.0315268 -0.0111676 0.194164 161 211 185
-0.02982 -0.0109151 0.189774 162 213 187
-0.0283941 -0.0107516 0.186931 162 213 186
-0.0290906 -0.0114087 0.198356 142 204 172
-0.02742 -0.0111519 0.19389 170 215 192
-0.0260888 -0.0110185 0.191572 166 212 193
-0.0253028 -0.011114 0.193233 159 209 187
-0.0238984 -0.0109345 0.190112 128 185 163
-0.0236714 -0.0113016 0.196493 111 163 141
-0.0228567 -0.0114086 0.198354 87 117 102
-0.0209629 -0.0109616 0.190582 71 86 75
-0.0200208 -0.0109925 0.191119 65 73 73
-0.0188811 -0.0109123 0.189725 66 64 70
-0.0181096 -0.0110479 0.192082 65 62 70
-0.0170938 -0.0110416 0.191974 66 59 70
-0.0162554 -0.0111563 0.193968 64 56 67
-0.0149301 -0.0109298 0.19003 62 54 65
-0.0138763 -0.010884 0.189232 63 54 66
-0.0132395 -0.0111833 0.194437 62 53 65
-0.0120907 -0.011064 0.192364 61 51 64
-0.0110013 -0.0109823 0.190943 61 51 65
-0.00964108 -0.0105869 0.184068 61 52 65
-0.00865442 -0.0105594 0.183589 61 52 66
-0.0078692 -0.0108015 0.187798 60 50 65
-0.00693038 -0.0108718 0.189021 61 51 65
-0.00582228 -0.0106558 0.185265 62 51 66
-0.00496728 -0.0109092 0.189671 62 51 66
-0.00398434 -0.010938 0.190172 61 50 65
-0.0029693 -0.0108687 0.188966 62 52 67
-0.00202111 -0.0110969 0.192935 62 51 66
-0.000987788 -0.0108469 0.188588 60 48 64
0 -0.0108626 0.188861 61 49 64
0.000985143 -0.0108179 0.188083 61 49 64
0.00200941 -0.0110327 0.191818 60 47 64
0.00294632 -0.0107845 0.187504 59 46 64
0.00393736 -0.0108091 0.18793 60 46 64
0.00494285 -0.0108555 0.188738 56 40 60
0.00596572 -0.0109183 0.189829 60 45 63
0.00680944 -0.0106821 0.185723 59 44 63
0.00770572 -0.0105771 0.183897 58 44 63
0.00890841 -0.0108693 0.188977 58 43 62
0.00993955 -0.0109146 0.189766 58 42 62
0.0108597 -0.0108409 0.188484 58 41 61
0.0115616 -0.0105798 0.183945 58 41 61
0.0128912 -0.0108891 0.189322 57 40 60
0.0140085 -0.0109877 0.191037 57 39 60
0.0144802 -0.0106005 0.184304 57 38 60
0.0154021 -0.0105707 0.183786 57 38 59
0.0158925 -0.0102656 0.178482 57 38 59
0.0170503 -0.0104017 0.180847 56 37 58
0.0182849 -0.0105677 0.183734 56 36 58
0.018957 -0.0104084 0.180963 56 37 58
0.020013 -0.0104649 0.181947 56 37 58
0.0211849 -0.0105742 0.183846 56 37 58
0.0224401 -0.0107137 0.186272 56 37 58
0.0234521 -0.0107303 0.186562 55 36 56
0.0238818 -0.0104899 0.18238 53 34 55
0.0247165 -0.0104389 0.181495 55 36 57
0.026076 -0.0106052 0.184386 56 37 57
0.0264849 -0.0103868 0.180589 56 38 58
0.0272243 -0.0103087 0.17923 55 35 56
0.0282221 -0.0103303 0.179606 56 39 58
0.0296051 -0.0104869 0.182329 54 37 56
0.030262 -0.0103846 0.180551 55 38 57
0.0299957 -0.00998131 0.173539 56 38 58
0.0318617 -0.0102904 0.178913 56 37 57
0.0327493 -0.0102749 0.178643 55 36 57
0.0344817 -0.0105179 0.182868 56 38 58
0.0349011 -0.0103581 0.180089 55 36 57
0.0354726 -0.0102507 0.178222 55 37 57
0.0365395 -0.0102882 0.178875 56 38 57
0.0371194 -0.0101902 0.177171 56 36 57
0.037692 -0.010095 0.175516 56 37 57
0.0398097 -0.0104084 0.180963 56 38 56
0.0391131 -0.00998841 0.173662 57 39 57
0.0413248 -0.0103134 0.179312 56 36 56
0.0422486 -0.0103096 0.179247 56 36 56
0.0427165 -0.0101972 0.177292 55 34 55
0.0425653 -0.0099449 0.172906 56 36 56
0.044336 -0.0101428 0.176346 55 35 54
0.045858 -0.0102769 0.178678 53 30 53
0.0462507 -0.0101576 0.176604 53 29 52
0.0478119 -0.0102946 0.178985 52 29 51
0.0490908 -0.0103667 0.180239 53 29 52
0.04953 -0.0102621 0.17842 54 30 52
0.0503689 -0.0102426 0.178082 53 29 51
0.0513068 -0.0102436 0.1781 51 26 48
0.0520019 -0.010197 0.177289 52 27 48
0.053991 -0.0104013 0.180841 49 21 44
0.0546216 -0.0103414 0.179799 52 22 45
0.0550438 -0.0102447 0.178118 51 20 42
0.0553464 -0.0101293 0.176112 50 20 41
0.0567566 -0.0102171 0.177639 46 17 36
0.0586378 -0.0103855 0.180567 46 16 35
0.0607131 -0.0105824 0.18399 48 17 36
0.0608367 -0.0104383 0.181484 45 15 32
0.062454 -0.0105509 0.183442 46 16 34
0.0624209 -0.0103855 0.180567 45 16 35
0.0634861 -0.0104051 0.180907 48 18 38
0.0640299 -0.0103399 0.179773 50 20 41
0.0627773 -0.00999071 0.173702 54 26 45
0.065664 -0.0103008 0.179094 54 29 47
0.0676687 -0.0104658 0.181962 54 29 47
0.0686761 -0.0104741 0.182106 57 36 52
0.0688192 -0.0103521 0.179986 58 38 53
0.0702349 -0.0104223 0.181206 57 38 54
0.0707868 -0.0103641 0.180195 58 40 55
0.0729276 -0.0105371 0.183202 58 41 55
0.0730424 -0.0104166 0.181107 58 41 55
0.0738534 -0.0103972 0.18077 57 40 55
0.0742697 -0.0103235 0.179488 58 42 55
0.0764266 -0.0104905 0.182392 59 43 57
0.0792075 -0.010738 0.186695 57 41 56
0.0792269 -0.0106097 0.184463 57 40 56
0.0791025 -0.0104654 0.181955 58 42 57
0.0800538 -0.0104652 0.181951 57 40 55
0.0795061 -0.0102713 0.17858 57 40 56
0.0819327 -0.0104617 0.181891 56 39 54
0.0811603 -0.0102439 0.178105 57 40 55
0.0830779 -0.0103668 0.180241 57 40 54
0.0848653 -0.0104709 0.18205 56 38 54
0.086082 -0.010503 0.182609 56 37 54
0.0863075 -0.0104148 0.181075 57 39 55
0.0883145 -0.0105411 0.183272 55 36 53
0.0897877 -0.0106017 0.184325 55 34 51
0.0898119 -0.0104918 0.182414 56 36 51
0.090273 -0.0104346 0.18142 55 35 50
0.0919867 -0.010522 0.182939 55 34 49
0.0922199 -0.0104399 0.181512 54 32 49
0.0922181 -0.0103331 0.179656 56 36 52
0.0945392 -0.0104862 0.182317 55 33 49
0.0953071 -0.0104657 0.18196 54 33 48
0.094896 -0.0103174 0.179382 55 31 48
0.0977897 -0.0105277 0.183039 55 32 49
0.0985497 -0.0105066 0.182671 56 35 50
0.0985131 -0.0104017 0.180847 57 35 50
0.101964 -0.0106635 0.1854 56 33 49
0.0992147 -0.0102781 0.178699 57 36 50
0.102217 -0.0104901 0.182385 57 36 50
0.102471 -0.0104188 0.181145 56 34 49
0.107001 -0.0107796 0.187419 57 34 49
0.110838 -0.0110647 0.192375 56 34 49
0.10766 -0.0106506 0.185175 56 33 47
0.110236 -0.010808 0.187912 55 30 45
0.105747 -0.0102762 0.178666 55 31 46
0.113165 -0.0109006 0.189522 54 28 44
0.116492 -0.0111235 0.193398 53 26 43
0.11198 -0.0106005 0.184304 51 25 43
0.111599 -0.0104741 0.182106 53 27 44
0.116396 -0.0108317 0.188325 52 26 44
0.114513 -0.0105669 0.18372 53 29 46
-0.450032 -0.0374379 0.716 65 61 63
-0.439321 -0.036854 0.704833 67 62 63
-0.441975 -0.0373908 0.7151 68 63 63
-0.401986 -0.0342985 0.655958 66 61 61
-0.416528 -0.0358456 0.685547 67 61 62
-0.412937 -0.0358456 0.685547 67 61 61
-0.398194 -0.0348691 0.666871 67 61 61
-0.411629 -0.0363645 0.695471 66 59 59
-0.407987 -0.0363645 0.695471 65 59 59
-0.38594 -0.0347094 0.663817 66 60 60
-0.373814 -0.0339245 0.648805 65 59 58
-0.3745 -0.0342985 0.655958 65 57 57
-0.398711 -0.036854 0.704833 66 60 59
-0.369578 -0.0344804 0.659437 64 57 56
-0.37597 -0.0354076 0.677171 64 56 55
-0.344097 -0.0327146 0.625666 64 57 56
-0.357321 -0.0342985 0.655958 63 56 55
-0.369848 -0.0358456 0.685547 65 58 57
-0.356279 -0.0348691 0.666871 67 58 58
-0.352786 -0.0348691 0.666871 68 60 59
-0.333943 -0.0333367 0.637564 68 61 58
-0.336433 -0.0339245 0.648805 72 65 62
-0.333034 -0.0339245 0.648805 70 64 61
-0.321147 -0.0330508 0.632096 68 64 61
-0.308987 -0.0321306 0.614498 69 64 61
-0.291727 -0.0306551 0.58628 70 65 61
-0.308048 -0.0327146 0.625666 68 63 59
-0.293601 -0.0315155 0.602735 69 62 57
-0.290444 -0.0315155 0.602735 69 62 57
-0.298217 -0.0327146 0.625666 71 65 60
-0.289676 -0.0321306 0.614498 67 63 59
-0.286457 -0.0321306 0.614498 69 67 63
-0.272101 -0.0308672 0.590334 69 66 61
-0.261426 -0.0299971 0.573695 70 66 63
-0.265916 -0.0308672 0.590334 69 66 62
-0.236093 -0.0277277 0.530292 69 67 60
-0.239497 -0.0284624 0.544343 69 74 64
-0.236646 -0.0284624 0.544343 70 74 66
-0.20109 -0.0244808 0.468195 75 80 69
-0.224399 -0.0276558 0.528917 70 81 68
-0.196185 -0.0244808 0.468195 75 86 75
-0.189357 -0.0239279 0.457621 76 84 76
-0.181714 -0.0232565 0.444781 78 85 78
-0.179385 -0.0232565 0.444781 75 82 77
-0.181384 -0.0238252 0.455656 74 91 81
-0.170986 -0.0227588 0.435263 75 98 84
-0.153048 -0.0206464 0.394863 75 96 82
-0.165381 -0.0226159 0.432528 80 101 86
-0.14495 -0.0200972 0.384359 77 104 88
-0.130177 -0.0183031 0.350047 85 104 92
-0.113649 -0.0162076 0.30997 86 101 94
-0.106676 -0.0154336 0.295167 91 124 113
-0.0882756 -0.0129593 0.247847 96 134 121
-0.0910691 -0.013569 0.259506 101 134 122
-0.0784835 -0.0118709 0.227031 95 133 121
-0.0800499 -0.0122941 0.235125 108 150 137
-0.0768155 -0.0119817 0.22915 117 156 144
-0.0702693 -0.0111346 0.212949 133 172 159
-0.0670139 -0.01079 0.206359 121 174 158
-0.0682062 -0.011162 0.213474 133 189 173
-0.0627458 -0.0104396 0.199657 144 200 181
-0.0637034 -0.0107786 0.20614 147 203 180
-0.0620996 -0.0106884 0.204415 151 205 180
-0.0595889 -0.0104362 0.199592 152 207 179
-0.0587112 -0.0104661 0.200163 144 202 172
-0.0585692 -0.0106306 0.20331 161 209 187
-0.0579351 -0.0107102 0.204833 154 206 179
-0.0559672 -0.0105416 0.201608 147 203 168
-0.0563603 -0.0108198 0.206929 144 201 166
-0.0545332 -0.0106743 0.204147 180 222 202
-0.0523377 -0.0104495 0.199846 166 216 192
-0.0525707 -0.0107102 0.204833 167 217 191
-0.0505259 -0.0105081 0.200967 143 203 171
-0.0495686 -0.0105283 0.201354 154 208 181
-0.0482159 -0.0104636 0.200117 162 212 185
-0.0468517 -0.0103935 0.198776 163 212 186
-0.0464654 -0.0105421 0.201618 165 212 188
-0.0452539 -0.010506 0.200927 146 204 175
-0.043321 -0.0102967 0.196925 171 216 193
-0.0434193 -0.0105718 0.202186 164 214 189
-0.0406215 -0.0101378 0.193886 159 212 186
-0.0402995 -0.0103154 0.197282 159 211 183
-0.0384035 -0.0100887 0.192947 155 209 180
-0.0384798 -0.010382 0.198556 167 213 188
-0.0367381 -0.0101874 0.194834 170 214 189
-0.0353952 -0.0100955 0.193076 162 211 186
-0.0345812 -0.0101534 0.194183 156 208 184
-0.0334871 -0.0101301 0.193738 178 217 199
-0.0325438 -0.0101524 0.194164 164 209 184
-0.0310071 -0.00998503 0.190964 185 220 202
-0.0301881 -0.0100453 0.192117 152 208 182
-0.0296527 -0.0102074 0.195217 165 215 190
-0.0281835 -0.0100482 0.192171 152 206 174
-0.0277928 -0.0102759 0.196526 151 206 175
-0.0264219 -0.0101448 0.194018 180 219 199
-0.0256991 -0.0102619 0.196259 157 208 185
-0.0242475 -0.0100857 0.192889 127 185 160
-0.023405 -0.0101585 0.194282 100 151 129
-0.021989 -0.00997776 0.190825 81 91 91
-0.0213006 -0.0101257 0.193653 67 75 77
-0.0199396 -0.00995261 0.190344 64 70 71
-0.019177 -0.0100758 0.192699 67 65 71
-0.0181278 -0.0100536 0.192276 65 62 70
-0.0169932 -0.00997874 0.190843 64 57 69
-0.0159806 -0.00997061 0.190688 62 55 66
-0.0150665 -0.010027 0.191766 64 56 67
-0.0137771 -0.00982383 0.187881 62 53 65
-0.0129925 -0.00997699 0.19081 62 52 65
-0.0121519 -0.0101091 0.193336 62 53 65
-0.0109367 -0.00992528 0.189821 61 52 65
-0.0098243 -0.00980735 0.187566 61 52 66
-0.00871153 -0.00966277 0.1848 59 49 64
-0.007736 -0.00965332 0.18462 61 51 66
-0.00698592 -0.00996267 0.190536 62 52 66
-0.00580153 -0.00965253 0.184605 61 50 65
-0.00494481 -0.00987256 0.188813 62 51 66
-0.00400088 -0.00998493 0.190962 62 50 66
-0.00284194 -0.00945677 0.180861 60 48 65
-0.00195794 -0.00977279 0.186905 60 49 65
-0.000971858 -0.00970181 0.185547 60 48 64
0 -0.00986331 0.188636 59 46 64
0.000977009 -0.00975323 0.186531 60 47 64
0.00199068 -0.00993623 0.19003 60 47 64
0.0029731 -0.00989322 0.189208 59 46 64
0.00382838 -0.00955444 0.182729 57 43 62
0.00496964 -0.00992213 0.189761 58 44 63
0.00597633 -0.00994336 0.190167 59 44 63
0.00694296 -0.00990141 0.189364 57 42 62
0.00790158 -0.00985993 0.188571 57 42 62
0.00877108 -0.00972883 0.186064 58 42 62
0.0096478 -0.00963116 0.184196 58 43 62
0.010589 -0.00960972 0.183786 57 41 61
0.011536 -0.00959671 0.183537 57 40 60
0.012741 -0.00978382 0.187116 57 41 60
0.0136778 -0.00975297 0.186526 57 39 60
0.0146875 -0.00977478 0.186943 55 36 58
0.0154455 -0.0096368 0.184304 56 38 59
0.0167179 -0.0098171 0.187752 57 39 60
0.0171788 -0.00952729 0.18221 56 38 59
0.0181228 -0.00952188 0.182106 56 38 59
0.0194277 -0.00969709 0.185457 57 38 59
0.02057 -0.00977835 0.187011 56 38 58
0.021591 -0.00979716 0.187371 56 36 58
0.0222642 -0.00966338 0.184812 55 36 57
0.0235718 -0.00980466 0.187514 55 35 56
0.0241971 -0.00966214 0.184788 55 36 57
0.0251903 -0.00967186 0.184974 55 35 57
0.025705 -0.00950395 0.181763 55 37 57
0.0266324 -0.00949515 0.181595 55 36 57
0.0273701 -0.00942167 0.180189 55 36 56
0.0289156 -0.00962191 0.184019 55 36 56
0.0291674 -0.00939259 0.179633 55 37 56
0.0304478 -0.00949851 0.181659 55 37 57
0.0313595 -0.00948648 0.181429 55 37 56
0.0326576 -0.00958859 0.183382 55 36 56
0.0327757 -0.00934833 0.178787 55 36 56
0.0340377 -0.0094386 0.180513 57 38 58
0.0351333 -0.00947909 0.181288 56 38 57
0.035396 -0.00929867 0.177837 56 37 57
0.0373552 -0.00956173 0.182868 56 37 56
0.0368708 -0.00920179 0.175984 56 36 56
0.0382706 -0.00931818 0.17821 56 36 56
0.0392287 -0.00932404 0.178322 57 37 56
0.0395941 -0.00919205 0.175798 55 33 54
0.0410033 -0.00930286 0.177917 55 32 54
0.0414724 -0.00920019 0.175954 54 33 54
0.0428899 -0.00930779 0.178012 56 36 56
0.0432361 -0.00918329 0.17563 54 33 54
0.0456027 -0.00948417 0.181385 53 31 53
0.0449973 -0.00916727 0.175324 54 32 54
0.0460074 -0.00918561 0.175675 53 29 51
0.0465979 -0.00912108 0.174441 53 28 51
0.0466569 -0.008957 0.171303 53 29 51
0.0495636 -0.00933548 0.178541 51 27 50
0.050046 -0.00925178 0.17694 50 23 47
0.0518803 -0.00941651 0.180091 50 22 45
0.0517566 -0.00922631 0.176453 52 22 46
0.0528221 -0.00925105 0.176926 48 19 41
0.0540452 -0.00930206 0.177902 48 18 40
0.0553798 -0.00937022 0.179205 50 19 40
0.0557921 -0.00928263 0.17753 48 18 38
0.0583112 -0.00954271 0.182504 46 16 35
0.0574189 -0.00924514 0.176813 46 16 35
0.0593659 -0.0094069 0.179907 44 15 30
0.0595901 -0.00929489 0.177765 46 16 34
0.0613689 -0.00942507 0.180255 47 16 35
0.0622297 -0.00941248 0.180014 47 17 37
0.0640956 -0.00954999 0.182644 50 19 39
0.0640299 -0.00939991 0.179773 50 19 41
0.0654959 -0.00947579 0.181224 54 25 45
0.0659226 -0.00940127 0.179799 55 31 48
0.0672519 -0.00945576 0.180841 56 35 51
0.0685279 -0.00950134 0.181713 56 35 51
0.0686049 -0.00938171 0.179425 57 36 53
0.0719807 -0.00971034 0.18571 58 41 55
0.0716128 -0.00953189 0.182297 58 40 55
0.0730114 -0.00959018 0.183412 58 40 55
0.0729207 -0.00945388 0.180806 58 41 56
0.0740637 -0.00947896 0.181285 58 42 56
0.0753529 -0.00952188 0.182106 58 42 56
0.0764918 -0.00954498 0.182548 58 42 57
0.0757771 -0.00933906 0.178609 57 41 56
0.0783007 -0.00953239 0.182307 57 42 56
0.0787367 -0.00946998 0.181113 56 40 55
0.0783442 -0.0093106 0.178065 57 40 56
0.0811476 -0.0095303 0.182267 56 39 55
0.0824201 -0.0095672 0.182973 56 39 55
0.0796965 -0.00914471 0.174893 57 39 55
0.0837082 -0.00949588 0.181609 56 39 54
0.0825282 -0.00925683 0.177037 55 38 54
0.084112 -0.00932965 0.178429 56 37 53
0.0867166 -0.00951286 0.181933 55 37 53
0.0885839 -0.00961208 0.183831 54 33 51
0.0889735 -0.00955053 0.182654 56 35 52
0.0901164 -0.00957031 0.183032 54 34 50
0.092381 -0.00970754 0.185657 55 34 50
0.091435 -0.00950805 0.181841 54 34 50
0.0926257 -0.00953257 0.18231 55 34 50
0.0912057 -0.00929065 0.177684 56 36 51
0.0935487 -0.00943305 0.180407 55 34 49
0.092413 -0.00922535 0.176435 55 35 50
0.0966709 -0.00955486 0.182737 55 34 49
0.0943321 -0.00923228 0.176567 56 34 50
0.100798 -0.0097693 0.186838 56 34 50
0.0996253 -0.00956283 0.182889 57 36 51
0.101199 -0.00962139 0.184009 57 35 50
0.103106 -0.00971022 0.185708 57 34 48
0.103232 -0.00963116 0.184196 57 35 49
0.104067 -0.00961921 0.183967 56 34 48
0.106974 -0.00979716 0.187371 56 34 48
0.104791 -0.00950998 0.181878 56 34 48
0.10894 -0.0097975 0.187377 56 33 47
0.112339 -0.010013 0.191499 55 30 45
0.10982 -0.00970181 0.185547 54 28 44
0.113798 -0.0099651 0.190582 54 28 44
0.108639 -0.00943056 0.180359 53 29 45
0.112572 -0.00968774 0.185278 51 25 43
0.111803 -0.00953929 0.182439 52 27 45
0.112443 -0.00951259 0.181928 53 29 46
0.11767 -0.00987121 0.188787 55 32 48
-0.435464 -0.0326034 0.692823 61 56 58
-0.439321 -0.0331686 0.704833 66 60 61
-0.428846 -0.0326521 0.693858 65 60 60
-0.420118 -0.032261 0.685547 64 58 58
-0.416528 -0.032261 0.685547 65 58 59
-0.441972 -0.0345294 0.73375 65 59 59
-0.415272 -0.0327281 0.695471 65 58 59
-0.384009 -0.030532 0.648805 63 56 56
-0.401238 -0.0321867 0.683967 62 55 56
-0.381371 -0.0308686 0.655958 64 57 58
-0.400273 -0.0326931 0.694728 65 58 58
-0.390491 -0.0321867 0.683967 63 55 56
-0.398711 -0.0331686 0.704833 63 55 55
-0.389357 -0.0326931 0.694728 62 54 54
-0.391328 -0.0331686 0.704833 63 55 55
-0.382487 -0.0327281 0.695471 62 52 52
-0.340819 -0.0294431 0.625666 61 50 50
-0.355762 -0.0310323 0.659437 61 53 52
-0.360629 -0.0317653 0.675013 62 53 52
-0.354178 -0.0315059 0.669501 64 56 56
-0.359076 -0.032261 0.685547 69 62 60
-0.340142 -0.0308686 0.655958 67 60 58
-0.327264 -0.030003 0.637564 68 62 59
-0.335038 -0.0310323 0.659437 68 63 60
-0.320585 -0.030003 0.637564 69 64 61
-0.317246 -0.030003 0.637564 69 63 60
-0.319441 -0.030532 0.648805 69 63 60
-0.293601 -0.028364 0.602735 67 60 57
-0.296113 -0.0289176 0.614498 68 60 57
-0.289631 -0.0285954 0.607653 68 59 57
-0.278285 -0.0277804 0.590334 67 61 58
-0.283266 -0.0285954 0.607653 68 62 59
-0.280083 -0.0285954 0.607653 67 61 57
-0.25539 -0.026374 0.560448 66 62 59
-0.260025 -0.0271649 0.577255 67 61 58
-0.250856 -0.0265153 0.563451 68 62 57
-0.253978 -0.0271649 0.577255 65 64 59
-0.210933 -0.0228328 0.485198 70 65 62
-0.22841 -0.0250261 0.531804 67 64 58
-0.224983 -0.0249549 0.530292 68 74 65
-0.215714 -0.024226 0.514802 69 75 68
-0.195447 -0.0222277 0.472338 69 76 68
-0.204274 -0.0235294 0.5 74 81 73
-0.178378 -0.0208134 0.442284 73 80 74
-0.176061 -0.0208134 0.442284 70 84 74
-0.168743 -0.0202143 0.429553 68 83 73
-0.172396 -0.0209309 0.444781 73 84 71
-0.156639 -0.0192784 0.409665 78 90 76
-0.127296 -0.0158845 0.337546 71 94 78
-0.137315 -0.0173761 0.369241 73 88 80
-0.125066 -0.0160521 0.341108 75 88 82
-0.120194 -0.0156505 0.332572 80 95 87
-0.10513 -0.0138902 0.295167 83 99 90
-0.0867545 -0.0116335 0.247211 76 105 95
-0.0852847 -0.0116097 0.246705 78 112 102
-0.075022 -0.0103697 0.220357 85 119 107
-0.0758399 -0.0106466 0.22624 91 123 112
-0.0712761 -0.0101647 0.216 99 133 125
-0.067756 -0.00981858 0.208645 94 139 129
-0.0654452 -0.00963919 0.204833 100 147 134
-0.0664348 -0.00994803 0.211396 103 160 146
-0.0620758 -0.00945286 0.200873 111 179 164
-0.0599424 -0.00928536 0.197314 119 185 172
-0.0592019 -0.00933154 0.198295 131 192 178
-0.0587914 -0.00943232 0.200437 135 192 176
-0.0594504 -0.00971147 0.206369 150 200 178
-0.0569802 -0.00948031 0.201457 151 203 179
-0.0566598 -0.00960487 0.204104 157 206 180
-0.056464 -0.00975576 0.20731 145 201 164
-0.052948 -0.00932764 0.198212 148 206 176
-0.052484 -0.00943081 0.200405 186 224 207
-0.0515474 -0.00945156 0.200846 170 217 197
-0.0510843 -0.00956178 0.203188 167 214 192
-0.0498627 -0.0095317 0.202549 170 214 191
-0.0478028 -0.00933659 0.198402 165 212 184
-0.0471511 -0.00941394 0.200046 163 212 184
-0.0466745 -0.00953059 0.202525 177 219 198
-0.0454673 -0.00949999 0.201875 156 211 185
-0.0432513 -0.00925215 0.196608 177 221 202
-0.0426328 -0.00934227 0.198523 152 209 185
-0.0418756 -0.00940575 0.199872 146 205 178
-0.0408127 -0.00940205 0.199794 174 217 196
-0.0395198 -0.00934381 0.198556 157 210 184
-0.0384044 -0.0093255 0.198167 147 203 173
-0.0362279 -0.00904135 0.192129 186 221 202
-0.0355493 -0.00912548 0.193916 159 209 183
-0.0352521 -0.00931532 0.197951 148 203 173
-0.0331693 -0.00903056 0.191899 164 212 187
-0.0321717 -0.00903269 0.191945 140 200 167
-0.0313203 -0.00907731 0.192893 180 218 195
-0.0306545 -0.00918049 0.195086 153 208 178
-0.0291784 -0.00903973 0.192094 171 216 194
-0.0272968 -0.00875884 0.186125 140 197 168
-0.027259 -0.00907065 0.192751 165 209 183
-0.0257138 -0.00888556 0.188818 144 198 163
-0.0252134 -0.00906117 0.19255 132 189 157
-0.023806 -0.00891186 0.189377 116 171 144
-0.0226693 -0.00885528 0.188175 98 139 121
-0.0224072 -0.00915078 0.194454 69 84 85
-0.0204202 -0.00873643 0.185649 66 71 78
-0.0201009 -0.00902979 0.191883 63 67 69
-0.0186027 -0.00879659 0.186927 62 59 65
-0.0182194 -0.009094 0.193247 65 61 69
-0.0167958 -0.00887655 0.188627 62 55 67
-0.0158828 -0.00891867 0.189522 63 55 67
-0.0148447 -0.00889148 0.188944 62 54 66
-0.0139761 -0.00896912 0.190594 62 54 66
-0.0126903 -0.00877045 0.186372 61 53 66
-0.0117241 -0.00877791 0.186531 62 52 66
-0.0111063 -0.00907132 0.192766 61 52 65
-0.00969486 -0.00871032 0.185094 61 52 66
-0.00864305 -0.00862813 0.183348 61 52 66
-0.00792044 -0.00889512 0.189021 61 52 66
-0.00693531 -0.00890144 0.189156 61 51 66
-0.00586407 -0.00878093 0.186595 61 50 66
-0.00496338 -0.00891867 0.189522 61 51 66
-0.00386014 -0.00867032 0.184244 61 51 66
-0.00290403 -0.00869705 0.184812 60 49 65
-0.00196946 -0.00884727 0.188004 59 47 64
-0.000984311 -0.00884351 0.187925 60 48 65
0 -0.00889003 0.188913 59 47 64
0.00103043 -0.00925784 0.196729 60 48 64
0.00196906 -0.00884549 0.187967 60 47 65
0.00291134 -0.00871896 0.185278 59 45 64
0.00401112 -0.00900944 0.191451 58 45 63
0.00485013 -0.00871517 0.185197 58 44 63
0.00592761 -0.00887608 0.188617 58 43 62
0.00697228 -0.0089489 0.190164 58 44 63
0.00800733 -0.0089927 0.191095 57 41 61
0.00877891 -0.00876377 0.18623 57 41 62
0.00964305 -0.00866377 0.184105 57 42 62
0.0110459 -0.00902198 0.191717 57 41 62
0.0120009 -0.00898518 0.190935 57 40 61
0.0128093 -0.00885268 0.18812 58 42 62
0.0132712 -0.00851675 0.180981 56 39 60
0.0144126 -0.00863267 0.183444 55 37 59
0.0159419 -0.00895182 0.190226 56 37 59
0.0163958 -0.00866516 0.184135 56 37 59
0.01757 -0.00876985 0.186359 56 38 59
0.0183664 -0.00868488 0.184554 56 38 59
0.019139 -0.0085977 0.182701 55 37 57
0.0199704 -0.00854398 0.18156 56 37 58
0.0213701 -0.00872725 0.185454 56 37 58
0.0222731 -0.00870054 0.184886 55 35 57
0.0235505 -0.0088162 0.187344 55 37 57
0.0234662 -0.00843326 0.179207 55 36 57
0.0246916 -0.00853233 0.181312 55 36 57
0.0261849 -0.00871324 0.185156 54 34 56
0.026699 -0.008567 0.182049 55 35 57
0.0280384 -0.00868655 0.184589 56 37 57
0.0282946 -0.00847372 0.180067 55 37 57
0.0300044 -0.00869592 0.184788 55 36 56
0.0295589 -0.00829909 0.176356 55 35 56
0.0316605 -0.00861978 0.18317 55 36 56
0.0318617 -0.00841944 0.178913 55 36 56
0.0327724 -0.00841265 0.178769 55 35 56
0.0335592 -0.00837531 0.177975 55 36 56
0.0347496 -0.00843801 0.179308 56 38 57
0.0351563 -0.00831213 0.176633 56 36 56
0.0371209 -0.00855158 0.181721 56 35 55
0.037259 -0.00836881 0.177837 55 33 54
0.0379914 -0.00832519 0.17691 56 35 56
0.0378467 -0.00809601 0.17204 55 34 55
0.0396473 -0.00828396 0.176034 55 33 54
0.0406591 -0.00830228 0.176423 54 30 53
0.0415571 -0.00829707 0.176313 54 31 53
0.0422554 -0.00825309 0.175378 54 31 53
0.0431158 -0.00824196 0.175142 54 32 54
0.0440061 -0.00823691 0.175034 52 30 52
0.0445984 -0.0081774 0.17377 54 31 53
0.0448767 -0.00806388 0.171357 53 28 51
0.0467121 -0.00822909 0.174868 52 26 50
0.048035 -0.0082994 0.176362 53 28 50
0.0480957 -0.0081531 0.173253 52 27 49
0.0500453 -0.0083265 0.176938 52 24 48
0.0513509 -0.00838838 0.178253 51 23 46
0.0521099 -0.00836036 0.177658 52 23 45
0.0520041 -0.008197 0.174186 50 20 43
0.0525341 -0.00813778 0.172928 45 15 36
0.0535153 -0.00814927 0.173172 47 17 37
0.0550569 -0.00824428 0.175191 47 17 36
0.0570014 -0.00839553 0.178405 46 16 35
0.0574951 -0.00833167 0.177048 45 15 33
0.0579392 -0.00826275 0.175583 45 15 33
0.0608609 -0.00854379 0.181556 45 16 34
0.0629421 -0.00870003 0.184876 46 17 35
0.0615406 -0.00837741 0.17802 49 19 38
0.0635975 -0.00852821 0.181224 52 21 42
0.0630176 -0.00832617 0.176931 54 26 46
0.0664217 -0.00864875 0.183786 53 27 46
0.0659323 -0.00846238 0.179826 53 29 48
0.0675555 -0.0085486 0.181658 57 36 53
0.0675822 -0.00843319 0.179205 57 37 53
0.0710098 -0.00873953 0.185715 58 39 55
0.0705647 -0.00856739 0.182057 59 41 56
0.0728564 -0.00872769 0.185463 58 40 55
0.0724914 -0.00856969 0.182106 58 41 56
0.0750001 -0.00875112 0.185961 58 41 56
0.0750586 -0.00864567 0.18372 58 41 56
0.0752723 -0.00856053 0.181911 58 41 56
0.0765376 -0.00859562 0.182657 57 41 56
0.0778425 -0.00863424 0.183478 57 40 56
0.0789429 -0.00864952 0.183802 56 39 55
0.078755 -0.00852496 0.181156 57 41 56
0.0805034 -0.00861048 0.182973 56 39 55
0.0798847 -0.00844379 0.17943 56 38 54
0.080048 -0.00836266 0.177706 56 38 54
0.0836594 -0.00863949 0.183589 55 37 54
0.0836031 -0.00853556 0.181381 54 34 51
0.0841281 -0.00849265 0.180469 55 37 54
0.0853023 -0.00851551 0.180955 55 36 52
0.086234 -0.00851393 0.180921 55 35 52
0.0894609 -0.00873651 0.185651 56 35 53
0.0887369 -0.00857262 0.182168 54 33 51
0.0908219 -0.00868071 0.184465 55 35 50
0.0920497 -0.00870545 0.184991 55 35 51
0.0900767 -0.00843012 0.17914 55 34 51
0.0905407 -0.00838619 0.178207 56 35 51
0.0924983 -0.00848008 0.180202 55 35 51
0.0966194 -0.00876843 0.186329 55 34 49
0.0956329 -0.00859211 0.182582 55 33 49
0.0979375 -0.00871204 0.185131 56 34 50
0.0932986 -0.00821803 0.174633 55 31 48
0.099448 -0.00867463 0.184336 55 31 48
0.0970068 -0.00838034 0.178082 55 33 48
0.102136 -0.00873942 0.185713 56 34 48
0.102347 -0.00867485 0.18434 56 33 48
0.103889 -0.00872322 0.185369 55 33 47
0.105384 -0.00876686 0.186296 57 35 48
0.107283 -0.00884293 0.187912 56 34 48
0.110499 -0.00902524 0.191786 57 34 48
0.110288 -0.00892683 0.189695 55 32 46
0.112103 -0.0089927 0.191095 54 28 44
0.108807 -0.00865107 0.183835 54 28 45
0.113704 -0.00896115 0.190424 53 28 45
0.116954 -0.00913714 0.194164 53 29 46
0.110134 -0.00853012 0.181265 54 31 47
0.119334 -0.0091637 0.194729 55 32 47
0.112081 -0.00853384 0.181344 55 31 47
0.113249 -0.00855026 0.181693 53 27 45
-0.436114 -0.0290241 0.693858 62 56 58
-0.44572 -0.0299127 0.7151 63 57 58
-0.441501 -0.0298806 0.714334 64 57 58
-0.431937 -0.0294832 0.704833 64 56 57
-0.447253 -0.0307918 0.736117 64 57 58
-0.424554 -0.0294832 0.704833 63 56 57
-0.432737 -0.0303151 0.724721 64 57 57
-0.405755 -0.0286765 0.685547 65 57 57
-0.389417 -0.0277675 0.663817 63 55 57
-0.409787 -0.0294832 0.704833 63 56 57
-0.377935 -0.0274388 0.655958 63 55 56
-0.397058 -0.0290916 0.695471 63 55 55
-0.381843 -0.0282358 0.675013 63 54 55
-0.367628 -0.0274388 0.655958 64 55 55
-0.368556 -0.0277675 0.663817 64 55 55
-0.353228 -0.0268662 0.64227 63 53 54
-0.373439 -0.0286765 0.685547 60 50 51
-0.364165 -0.0282358 0.675013 59 48 49
-0.366257 -0.0286765 0.685547 63 54 54
-0.330988 -0.0261716 0.625666 66 58 57
-0.337516 -0.0269547 0.644385 66 59 56
-0.315094 -0.0254182 0.607653 64 56 54
-0.327264 -0.0266693 0.637564 66 59 57
-0.323925 -0.0266693 0.637564 66 60 57
-0.311666 -0.0259273 0.619825 65 59 57
-0.326399 -0.0274388 0.655958 68 61 59
-0.30255 -0.0257045 0.614498 68 60 58
-0.301541 -0.0258943 0.619035 65 57 54
-0.271514 -0.0235692 0.563451 66 57 55
-0.283499 -0.0248799 0.594786 68 59 57
-0.262908 -0.0233293 0.557716 66 59 57
-0.265922 -0.0238618 0.570447 65 57 55
-0.262934 -0.0238618 0.570447 65 58 55
-0.241648 -0.0221822 0.530292 64 59 56
-0.2452 -0.0227699 0.544343 66 60 57
-0.222606 -0.020915 0.5 67 59 56
-0.20666 -0.0196479 0.469708 68 62 58
-0.21062 -0.0202657 0.484476 72 64 63
-0.21475 -0.020915 0.5 70 61 58
-0.193318 -0.0190601 0.455656 70 69 63
-0.190931 -0.0190601 0.455656 70 70 64
-0.183011 -0.0185008 0.442284 69 74 67
-0.187695 -0.0192176 0.45942 70 75 69
-0.168353 -0.0174611 0.417429 67 74 68
-0.164691 -0.0173059 0.41372 69 79 72
-0.165318 -0.0176035 0.420833 67 78 70
-0.158785 -0.0171363 0.409665 71 79 71
-0.137426 -0.0150344 0.359416 73 77 69
-0.135543 -0.0150344 0.359416 71 78 72
-0.139209 -0.0156584 0.374334 72 81 77
-0.118946 -0.0135704 0.324416 72 80 79
-0.114428 -0.0132442 0.316618 71 79 78
-0.0932068 -0.0109466 0.261692 73 79 74
-0.0892559 -0.010639 0.254339 73 84 78
-0.0733391 -0.00887424 0.21215 71 87 80
-0.0865277 -0.0106312 0.254152 72 91 81
-0.0787619 -0.00982825 0.234957 79 100 95
-0.0696846 -0.00883357 0.211178 74 97 97
-0.0677271 -0.0087239 0.208556 83 110 103
-0.0640352 -0.00838356 0.20042 83 116 105
-0.0645187 -0.00858765 0.205298 88 128 117
-0.0627612 -0.00849531 0.203091 92 134 127
-0.0612114 -0.00842838 0.201491 97 144 138
-0.0593203 -0.0083113 0.198692 100 162 150
-0.0598483 -0.00853501 0.20404 120 172 161
-0.0585585 -0.0085029 0.203272 127 174 162
-0.0580418 -0.00858395 0.20521 120 173 155
-0.0561392 -0.00845922 0.202228 131 185 164
-0.0553064 -0.00849399 0.203059 136 191 166
-0.0525544 -0.00822961 0.196739 132 191 166
-0.0525598 -0.00839506 0.200694 160 209 193
-0.050993 -0.00831102 0.198685 153 208 189
-0.0507385 -0.00844183 0.201812 152 207 183
-0.0503439 -0.00855439 0.204503 163 210 188
-0.0489598 -0.00850006 0.203205 146 202 173
-0.047128 -0.00836385 0.199948 142 195 164
-0.0469782 -0.00852675 0.203843 160 209 188
-0.0448445 -0.00832877 0.19911 142 202 177
-0.0444099 -0.00844444 0.201875 183 224 206
-0.0421747 -0.00821501 0.19639 155 212 188
-0.0414508 -0.00827585 0.197845 149 207 181
-0.0397888 -0.00814773 0.194782 159 211 187
-0.0386017 -0.00811265 0.193943 160 212 187
-0.0376142 -0.00811876 0.194089 143 203 171
-0.0363829 -0.00807113 0.192951 173 217 195
-0.0351588 -0.00802243 0.191786 140 203 171
-0.0338561 -0.00795239 0.190112 157 210 182
-0.0335504 -0.00811939 0.194104 175 219 196
-0.033061 -0.00825098 0.19725 150 206 174
-0.0307709 -0.00792717 0.189509 162 211 181
-0.0304 -0.00809268 0.193466 158 209 178
-0.0296701 -0.00817074 0.195332 163 210 184
-0.0284973 -0.00812805 0.194311 149 202 174
-0.0271411 -0.00802793 0.191918 172 213 188
-0.0267897 -0.00822876 0.196719 155 204 172
-0.0252315 -0.00806014 0.192688 136 180 152
-0.024689 -0.00821548 0.196401 107 143 120
-0.0230958 -0.00801947 0.191716 86 104 92
-0.0220872 -0.00801787 0.191677 67 76 80
-0.0212161 -0.0080684 0.192885 68 69 76
-0.0199467 -0.00796492 0.190411 61 60 67
-0.0194905 -0.00819237 0.195849 63 60 68
-0.0177326 -0.00786754 0.188083 66 61 71
-0.0166919 -0.00784148 0.18746 64 57 69
-0.0161006 -0.00803642 0.192121 62 53 66
-0.014969 -0.0079697 0.190526 63 55 67
-0.0139554 -0.00796075 0.190312 63 55 67
-0.012796 -0.0078609 0.187925 61 53 66
-0.0117769 -0.00783773 0.187371 61 52 65
-0.0107844 -0.00782968 0.187178 60 51 65
-0.010016 -0.00799897 0.191225 62 53 68
-0.00901866 -0.00800275 0.191316 62 53 67
-0.00784655 -0.00783301 0.187258 62 53 67
-0.00705884 -0.00805333 0.192525 62 53 67
-0.00592384 -0.00788483 0.188497 61 51 66
-0.00499755 -0.00798228 0.190826 61 50 66
-0.0038953 -0.00777716 0.185923 61 50 66
-0.00295797 -0.0078743 0.188245 59 47 65
-0.0019389 -0.00774221 0.185087 57 46 63
-0.000993115 -0.00793121 0.189606 59 48 64
0 -0.00793725 0.18975 59 47 64
0.000979965 -0.0078262 0.187095 59 46 64
0.00196337 -0.00783995 0.187424 58 44 63
0.00292529 -0.00778731 0.186165 57 44 63
0.00391672 -0.00781993 0.186945 59 46 64
0.00488856 -0.0078082 0.186665 59 45 63
0.00605809 -0.00806351 0.192768 59 44 63
0.00681887 -0.00777954 0.18598 58 42 62
0.00777845 -0.00776503 0.185633 58 42 62
0.00883855 -0.00784293 0.187495 58 43 63
0.0097713 -0.00780355 0.186554 57 42 63
0.0107686 -0.00781823 0.186905 57 41 62
0.0118586 -0.00789207 0.18867 57 41 62
0.0127493 -0.00783221 0.187239 57 40 61
0.0134661 -0.00768163 0.183639 57 40 61
0.0144204 -0.00767763 0.183543 57 40 61
0.0154439 -0.00770863 0.184285 56 39 60
0.0167086 -0.0078493 0.187647 56 39 60
0.0171895 -0.00762659 0.182323 57 39 60
0.0180301 -0.00757852 0.181174 57 39 60
0.0196019 -0.00782722 0.18712 57 38 59
0.0196635 -0.00747792 0.178769 56 37 58
0.0206308 -0.00748917 0.179038 57 37 59
0.0218843 -0.00759881 0.181659 56 36 58
0.022892 -0.00761751 0.182106 54 35 57
0.0244098 -0.00779766 0.186413 55 35 57
0.0246981 -0.00758631 0.18136 55 35 57
0.0259905 -0.0076876 0.183782 55 35 56
0.0267995 -0.0076438 0.182735 56 36 57
0.0278333 -0.00766491 0.183239 55 35 56
0.0284205 -0.00756573 0.180868 55 36 56
0.0289226 -0.00745103 0.178126 55 36 56
0.0298084 -0.00743925 0.177845 55 36 56
0.0307641 -0.0074451 0.177984 56 37 57
0.0310987 -0.00730471 0.174628 55 36 56
0.0326742 -0.00745551 0.178233 55 37 56
0.0337323 -0.00748314 0.178894 56 38 58
0.035345 -0.00762898 0.18238 55 36 56
0.0346526 -0.0072827 0.174102 56 36 56
0.0366832 -0.00751178 0.179578 55 34 55
0.0363668 -0.00726082 0.173579 56 35 55
0.0366696 -0.00714271 0.170755 54 33 54
0.0384341 -0.00730815 0.174711 55 33 54
0.0401048 -0.00744848 0.178065 54 32 54
0.0400872 -0.00727601 0.173942 54 30 52
0.0410308 -0.00728178 0.17408 53 29 52
0.0428318 -0.00743616 0.177771 52 27 52
0.0429098 -0.00729119 0.174305 53 29 52
0.044156 -0.00734663 0.17563 54 31 53
0.0452907 -0.00738164 0.176467 53 29 52
0.0460391 -0.00735354 0.175796 53 28 50
0.0464015 -0.00726611 0.173706 50 24 49
0.0488632 -0.00750445 0.179403 53 27 51
0.0484031 -0.00729353 0.174361 52 26 49
0.0487873 -0.00721527 0.17249 52 23 47
0.0507945 -0.00737554 0.176321 52 22 46
0.0512114 -0.00730329 0.174594 52 21 44
0.0521506 -0.00730675 0.174677 51 21 44
0.053007 -0.00729869 0.174484 49 18 39
0.0558669 -0.00756211 0.180782 47 16 35
0.0562409 -0.00748585 0.178959 47 16 36
0.0561213 -0.00734747 0.17565 46 16 34
0.0576579 -0.00742689 0.177549 45 15 32
0.0571435 -0.00724379 0.173172 44 15 32
