ply
format ascii 1.0
element vertex 1244
property float x
property float y
property float z
property uchar red
property uchar green
property uchar blue
end_header
-0.0288216 0.0154135 0.196522 155 208 181
-0.0272169 0.0150944 0.192454 140 204 173
-0.0257976 0.0148575 0.189434 157 212 186
-0.0253521 0.015185 0.193609 166 216 192
-0.0240015 0.0149751 0.190932 137 202 170
-0.0238091 0.0155009 0.197636 151 207 175
-0.0224213 0.0152609 0.194576 200 237 221
-0.0207245 0.0147777 0.188416 140 210 185
-0.0194176 0.014538 0.18536 151 207 181
-0.018811 0.0148252 0.189021 168 216 196
-0.017609 0.0146489 0.186773 135 201 174
-0.0166149 0.0146349 0.186595 125 185 156
-0.0156616 0.0146574 0.186882 138 187 165
-0.0144721 0.0144472 0.184201 132 174 157
-0.0141132 0.0150952 0.192464 97 120 113
-0.0127251 0.0146574 0.186882 71 84 84
-0.011935 0.014893 0.189886 67 63 67
-0.0110596 0.0150553 0.191955 68 61 70
-0.00999509 0.0149668 0.190826 63 54 65
-0.00875581 0.0145678 0.18574 62 56 66
-0.00791177 0.014809 0.188814 61 54 65
-0.00676607 0.0144737 0.18454 61 55 65
-0.00598428 0.0149349 0.19042 61 54 65
-0.0047616 0.0142601 0.181817 60 53 64
-0.0038189 0.0142962 0.182276 59 51 64
-0.00292734 0.0146114 0.186296 60 53 65
-0.00193882 0.0145161 0.18508 60 53 65
-0.000964511 0.0144427 0.184144 60 53 66
0 0.0147004 0.18743 59 52 65
0.000963312 0.0144247 0.183916 60 51 65
0.00194166 0.0145373 0.18535 59 49 64
0.00284867 0.0142188 0.181289 57 47 63
0.00384819 0.0144058 0.183674 58 48 63
0.00482562 0.0144519 0.184262 58 48 63
0.00590955 0.0147484 0.188042 60 49 64
0.00652539 0.0139589 0.177975 58 47 62
0.00748421 0.0140087 0.178611 59 47 63
0.00848363 0.014115 0.179966 58 46 62
0.0094954 0.0142185 0.181286 58 45 62
0.0103991 0.0141561 0.18049 58 45 62
0.0115717 0.0144396 0.184105 58 44 62
0.0124402 0.0143293 0.182698 57 44 62
0.0131425 0.0140569 0.179226 55 41 60
0.0142191 0.0141946 0.180981 56 42 60
0.0151088 0.01414 0.180285 56 41 60
0.0164395 0.0144804 0.184625 55 39 59
0.0169205 0.0140761 0.179471 57 41 61
0.0175242 0.0138111 0.176091 56 39 59
0.0185095 0.0138582 0.176692 55 39 59
0.0197406 0.0140761 0.179471 55 39 60
0.0205026 0.0139549 0.177925 55 40 59
0.0216184 0.0140746 0.179451 54 37 58
0.0227396 0.0141877 0.180893 55 38 59
0.023352 0.013987 0.178335 55 39 59
0.0240045 0.0138248 0.176267 55 38 58
0.0251114 0.0139267 0.177566 54 38 58
0.0261971 0.0140099 0.178627 53 36 57
0.0270519 0.0139682 0.178095 53 36 57
0.0275901 0.0137713 0.175583 52 35 56
0.0288953 0.0139575 0.177958 53 35 56
0.0286694 0.0134156 0.171049 52 33 55
0.0298824 0.0135595 0.172883 53 35 56
0.0306922 0.0135173 0.172345 53 35 56
0.0318807 0.0136396 0.173905 54 36 56
0.0336355 0.0139906 0.17838 53 34 56
0.0332088 0.0134398 0.171357 53 34 56
0.0353828 0.0139428 0.177771 54 35 56
0.0356807 0.0136997 0.174671 52 34 55
0.036519 0.013671 0.174305 53 35 56
0.0369724 0.0135031 0.172165 54 37 57
0.0378741 0.0135031 0.172165 53 35 55
0.038278 0.0133298 0.169955 52 33 54
0.0391159 0.013312 0.169728 54 37 56
0.0398811 0.0132707 0.169202 52 35 54
0.0408394 0.0132942 0.169501 53 35 54
0.0416195 0.0132599 0.169064 54 36 55
0.0425409 0.0132711 0.169207 53 34 54
0.0431233 0.0131782 0.168023 48 28 50
0.0452091 0.0135393 0.172626 53 35 54
0.0446136 0.013099 0.167012 48 30 50
0.0462078 0.0133062 0.169654 51 33 52
0.0472841 0.0133592 0.17033 51 34 53
0.0491772 0.0136368 0.173869 51 32 53
0.0486114 0.0132348 0.168743 51 33 53
0.0496284 0.0132704 0.169197 51 32 53
0.0514297 0.0135108 0.172262 50 30 51
0.0527391 0.0136159 0.173603 53 33 53
0.0518812 0.0131674 0.167884 50 29 50
0.0531501 0.0132646 0.169124 50 28 49
0.0538554 0.0132203 0.168559 51 31 51
0.0564413 0.0136316 0.173803 48 25 48
0.0572242 0.0136013 0.173417 49 25 45
0.0568471 0.0133006 0.169582 49 25 45
0.059063 0.0136064 0.173482 46 21 42
0.0600322 0.0136201 0.173657 47 20 42
0.06035 0.0134879 0.17197 47 19 41
0.0601591 0.0132475 0.168905 48 20 40
0.062663 0.0135989 0.173386 47 19 39
0.0644036 0.013777 0.175656 45 17 35
0.0643704 0.0135759 0.173093 42 14 30
0.066815 0.0138958 0.177171 45 17 35
0.0682476 0.0139993 0.178491 42 15 31
0.0700434 0.0141735 0.180712 45 16 34
0.0671565 0.0134081 0.170954 47 17 35
0.0713954 0.0140669 0.179353 49 19 38
0.0697175 0.0135579 0.172863 49 19 38
0.0717787 0.0137798 0.175692 50 23 41
0.0732404 0.0138824 0.177001 51 24 42
0.0743872 0.0139235 0.177525 52 29 46
0.0777813 0.0143791 0.183334 52 31 47
0.0783518 0.0143079 0.182426 55 37 52
0.0791321 0.0142763 0.182023 55 37 53
0.0787866 0.0140448 0.179071 58 42 56
0.0781977 0.0137758 0.175641 56 39 54
0.0840897 0.0146415 0.186679 55 37 53
0.0803976 0.0138377 0.176431 55 37 53
0.0851848 0.0144951 0.184812 56 41 54
0.0880834 0.0148199 0.188954 53 36 50
0.0894145 0.0148767 0.189678 56 40 53
0.0908706 0.0149528 0.190649 56 41 54
0.0916966 0.0149247 0.19029 55 40 54
0.11016 0.017737 0.226147 55 39 53
0.109043 0.0173704 0.221473 54 39 52
0.13395 0.0211135 0.269197 53 38 52
0.135993 0.0212123 0.270457 54 38 52
0.162241 0.0250456 0.319331 52 35 51
0.188348 0.028779 0.366932 54 34 53
0.202909 0.0306907 0.391307 51 31 50
0.228655 0.0342391 0.436549 55 39 55
0.284297 0.0421494 0.537405 55 36 53
0.350449 0.0514477 0.655958 54 35 51
0.318481 0.0463007 0.590334 52 32 48
0.40432 0.0582147 0.742238 52 30 47
0.368205 0.0525099 0.669501 53 32 48
0.45684 0.0645356 0.822829 52 32 47
0.319703 0.0447409 0.570447 54 33 48
0.449812 0.0623661 0.795167 53 31 47
0.499175 0.0685752 0.874334 54 33 49
0.576158 0.0784314 1 50 27 45
0.672069 0.0906634 1.15596 52 30 47
0.660353 0.0882875 1.12567 51 28 46
0.591871 0.0784314 1 53 31 48
0.672145 0.0882875 1.12567 54 33 49
0.725727 0.0944967 1.20483 53 31 47
0.607584 0.0784314 1 51 28 45
0.738348 0.0944967 1.20483 53 30 46
1.00476 0.127503 1.62567 53 32 47
0.623298 0.0784314 1 53 31 48
-0.13153 0.017507 0.209264 64 64 64
-0.136113 0.0182693 0.218376 67 67 67
-0.139483 0.0188802 0.225678 68 69 68
-0.136436 0.0186257 0.222636 71 71 67
-0.127598 0.0175693 0.210008 70 68 65
-0.126307 0.0175429 0.209692 68 68 66
-0.124455 0.0174372 0.208429 71 73 68
-0.120734 0.0170656 0.203987 73 73 69
-0.120636 0.017204 0.205642 70 69 68
-0.120441 0.0173309 0.207159 65 66 65
-0.128738 0.0186932 0.223442 67 70 70
-0.116536 0.0170767 0.20412 67 70 67
-0.118981 0.0175964 0.210333 66 66 62
-0.114797 0.0171363 0.204833 69 68 66
-0.117547 0.0177124 0.211718 71 76 72
-0.119195 0.0181317 0.216731 68 72 66
-0.11345 0.0174237 0.208268 68 70 65
-0.111692 0.0173203 0.207032 69 69 64
-0.10915 0.0170921 0.204304 68 68 62
-0.110505 0.0174756 0.208888 68 72 65
-0.10907 0.0174211 0.208237 66 70 65
-0.106942 0.0172537 0.206236 68 67 64
-0.106962 0.017433 0.208379 69 66 65
-0.103404 0.0170268 0.203524 69 66 65
-0.102573 0.0170661 0.203993 64 64 60
-0.102747 0.0172749 0.206488 66 73 64
-0.10165 0.0172722 0.206457 66 76 61
-0.098598 0.0169338 0.202412 70 76 60
-0.0965453 0.0167615 0.200352 69 80 65
-0.0964921 0.0169364 0.202442 69 80 68
-0.0956463 0.0169745 0.202898 68 80 69
-0.0972627 0.0174553 0.208645 71 82 72
-0.0932052 0.0169172 0.202213 74 85 76
-0.095177 0.0174736 0.208864 78 87 78
-0.0919366 0.017075 0.204099 80 91 81
-0.0903726 0.016982 0.202987 79 93 78
-0.0887907 0.0168833 0.201808 78 92 76
-0.0887121 0.0170716 0.204059 79 91 76
-0.0884816 0.0172349 0.206011 75 96 81
-0.0860767 0.0169735 0.202886 74 100 85
-0.0859927 0.0171689 0.205222 77 106 88
-0.0836534 0.0169132 0.202166 88 106 82
-0.0854839 0.0175049 0.209238 83 103 78
-0.0850785 0.0176481 0.21095 82 107 92
-0.0833985 0.0175273 0.209506 79 113 107
-0.0804654 0.0171363 0.204833 85 121 113
-0.0799325 0.0172529 0.206226 89 126 117
-0.0775336 0.0169643 0.202777 98 134 127
-0.077503 0.0171932 0.205512 96 134 126
-0.0765475 0.0172204 0.205837 98 145 132
-0.0754656 0.0172195 0.205827 102 165 140
-0.0729646 0.0168901 0.20189 102 169 142
-0.0724858 0.0170261 0.203515 81 154 137
-0.0717675 0.0171089 0.204505 108 172 155
-0.0700159 0.0169443 0.202537 116 178 156
-0.0685033 0.0168333 0.20121 124 174 150
-0.0692239 0.0172761 0.206504 131 182 158
-0.0666098 0.0168876 0.201859 157 202 175
-0.0634458 0.0163448 0.195372 167 211 189
-0.0662111 0.0173369 0.20723 144 201 176
-0.0638331 0.0169928 0.203117 164 210 192
-0.0615962 0.0166752 0.199321 154 210 185
-0.0613783 0.0169027 0.202041 145 207 177
-0.0605299 0.0169615 0.202743 167 213 185
-0.0590377 0.0168388 0.201276 156 208 175
-0.0570248 0.0165604 0.197949 152 202 171
-0.0570021 0.0168604 0.201534 147 201 175
-0.0570684 0.0171985 0.205576 154 209 185
-0.0547694 0.016823 0.201088 162 212 189
-0.052941 0.0165803 0.198186 146 207 179
-0.0517162 0.0165206 0.197473 165 215 192
-0.05115 0.0166732 0.199297 163 213 186
-0.0495696 0.0164947 0.197163 152 207 173
-0.0495446 0.0168371 0.201256 155 208 177
-0.0474628 0.0164803 0.196991 166 213 191
-0.0473587 0.0168096 0.200927 160 210 187
-0.0456552 0.0165732 0.198102 161 211 185
-0.0437703 0.0162585 0.19434 168 214 188
-0.0433092 0.0164703 0.196871 170 212 185
-0.0428702 0.016701 0.199629 169 212 185
-0.0408676 0.0163188 0.195061 159 209 179
-0.0392288 0.0160661 0.19204 176 222 198
-0.0399455 0.0167901 0.200694 159 213 184
-0.0389518 0.016815 0.200991 157 210 181
-0.0376422 0.016701 0.199629 157 211 184
-0.0367165 0.0167557 0.200283 176 219 198
-0.0355509 0.016701 0.199629 150 207 177
-0.0333516 0.0161426 0.192954 158 210 181
-0.0330464 0.0164947 0.197163 139 201 167
-0.0321957 0.0165885 0.198284 151 211 185
-0.0309037 0.0164536 0.196671 183 224 207
-0.0296273 0.0163179 0.19505 170 216 195
-0.0286041 0.016317 0.195039 160 211 186
-0.0274154 0.0162182 0.193858 165 214 192
-0.0263738 0.016202 0.193665 162 214 191
-0.0246565 0.0157529 0.188297 174 219 198
-0.0236808 0.0157599 0.18838 141 204 173
-0.0227756 0.0158166 0.189057 133 199 161
-0.0219404 0.0159291 0.190403 184 231 211
-0.0207566 0.0157873 0.188707 160 217 197
-0.0197629 0.015783 0.188656 147 205 179
-0.0189115 0.015898 0.19003 159 211 190
-0.0178013 0.0157961 0.188813 153 207 187
-0.016235 0.0152537 0.182329 138 194 174
-0.0155017 0.015475 0.184974 119 174 156
-0.0144881 0.0154274 0.184405 83 130 111
-0.0139563 0.0159225 0.190324 72 96 88
-0.0124036 0.0152396 0.182161 69 80 79
-0.0118447 0.0157657 0.188449 68 65 69
-0.0107284 0.015578 0.186205 67 61 70
-0.00990456 0.01582 0.189098 62 55 65
-0.00862767 0.0153116 0.183022 62 56 66
-0.00775849 0.0154902 0.185156 61 55 65
-0.00700381 0.0159811 0.191024 60 53 65
-0.00571191 0.0152055 0.181753 60 53 65
-0.00491023 0.0156856 0.187492 60 53 65
-0.0038538 0.0153886 0.183942 60 52 65
-0.00290823 0.0154838 0.18508 59 51 64
-0.00193213 0.0154304 0.184441 59 52 65
-0.000963055 0.0153823 0.183866 60 53 67
0 0.015273 0.18256 59 52 66
0.00095899 0.0153174 0.18309 60 54 67
0.00191136 0.0152645 0.182458 59 49 65
0.00291243 0.0155062 0.185347 58 48 64
0.00386095 0.0154171 0.184283 58 49 64
0.00477066 0.0152398 0.182163 58 47 63
0.00587589 0.015642 0.186971 57 46 63
0.00648149 0.0147893 0.176778 58 47 63
0.00760448 0.0151827 0.181481 59 48 63
0.0085185 0.0151179 0.180706 59 47 62
0.00956496 0.0152775 0.182614 57 44 61
0.010498 0.0152435 0.182207 57 43 62
0.0114806 0.0152811 0.182657 57 44 62
0.0124846 0.0153391 0.18335 57 44 62
0.0133429 0.0152227 0.181958 56 42 61
0.0140987 0.0150126 0.179448 56 42 61
0.0151088 0.0150827 0.180285 55 41 60
0.0160435 0.0150738 0.180179 56 42 61
0.0172249 0.0152846 0.182698 55 39 60
0.0176797 0.0148625 0.177653 57 41 60
0.0189519 0.0151354 0.180915 56 40 60
0.0194877 0.0148222 0.177171 56 39 60
0.0207638 0.0150749 0.180192 56 41 60
0.0216184 0.0150129 0.179451 55 39 59
0.0225761 0.0150247 0.179593 55 39 59
0.023486 0.0150051 0.179358 55 38 59
0.0243929 0.0149851 0.179119 54 38 58
0.0252238 0.0149216 0.17836 55 39 59
0.0261003 0.0148887 0.177967 55 38 59
0.0278805 0.0153558 0.18355 54 37 57
0.0277368 0.0147674 0.176517 54 36 57
0.0278537 0.0143513 0.171543 53 34 56
0.0293793 0.0146643 0.175284 51 31 54
0.0304532 0.0147397 0.176186 53 34 56
0.0305902 0.0143706 0.171773 53 35 56
0.0311578 0.014219 0.169962 53 35 56
0.0326651 0.0144928 0.173234 53 35 56
0.0335088 0.0144653 0.172906 52 34 55
0.0339309 0.0142621 0.170476 51 32 54
0.0361198 0.0147928 0.17682 51 33 54
0.0368743 0.0147243 0.176001 52 34 55
0.0368731 0.0143647 0.171703 53 35 55
0.0369379 0.0140473 0.167909 51 34 54
0.0395036 0.0146736 0.175396 52 35 55
0.0384483 0.0139571 0.166831 52 35 54
0.0398821 0.0141558 0.169207 53 36 55
0.0416233 0.0144527 0.172755 53 35 54
0.042857 0.0145644 0.174091 53 35 54
0.042993 0.0143063 0.171005 53 36 55
0.044134 0.0143862 0.17196 53 36 55
0.0437991 0.0139915 0.167243 53 33 53
0.0461133 0.0144419 0.172626 53 34 53
0.0461057 0.0141619 0.169279 53 35 54
0.0462397 0.0139351 0.166568 52 33 53
0.0467857 0.0138385 0.165413 52 32 53
0.0496512 0.0144191 0.172353 52 33 53
0.0496298 0.0141555 0.169202 51 30 52
0.0502097 0.0140696 0.168176 51 31 51
0.0516498 0.0142236 0.170017 50 29 50
0.0533186 0.0144343 0.172535 49 27 49
0.0534795 0.0142366 0.170172 51 29 50
0.0533096 0.0139587 0.16685 55 34 54
0.053556 0.0137971 0.164918 49 25 47
0.056089 0.0142203 0.169977 50 25 46
0.056982 0.0142209 0.169984 48 22 43
0.0591723 0.0145404 0.173803 50 26 45
0.0587683 0.0142223 0.170001 50 24 43
0.060641 0.0144565 0.1728 48 20 40
0.060767 0.0142735 0.170612 46 19 38
0.0627588 0.0145277 0.173651 48 19 38
0.0646045 0.0147413 0.176204 44 15 32
0.0646488 0.0145436 0.173842 44 16 31
0.0653201 0.0144905 0.173207 44 17 32
0.0667011 0.0145942 0.174446 42 15 30
0.067752 0.0146238 0.1748 43 15 31
0.0685915 0.0146076 0.174606 48 18 36
0.0696679 0.0146416 0.175013 49 20 40
0.0719684 0.0149287 0.178444 50 21 40
0.0721804 0.0147807 0.176675 50 25 42
0.0748608 0.0151355 0.180917 53 30 46
0.0751375 0.0150016 0.179316 52 30 46
0.0755639 0.0149005 0.178107 55 35 50
0.0780406 0.0152012 0.181701 55 36 51
0.0800968 0.0154137 0.184242 57 39 53
0.0783301 0.0148943 0.178033 57 40 54
0.0779549 0.0146485 0.175096 53 35 50
0.081802 0.0151927 0.1816 55 37 52
0.0851317 0.0156294 0.18682 56 39 54
0.086367 0.015676 0.187377 56 39 53
0.0884998 0.0158826 0.189847 55 38 52
0.0902128 0.0160102 0.191372 55 39 53
0.0970512 0.0170345 0.203616 56 41 54
0.103652 0.0179953 0.2151 56 40 54
0.117265 0.0201397 0.240733 52 35 50
0.131089 0.0222745 0.26625 52 36 51
0.154692 0.0260085 0.310883 54 38 53
0.143256 0.0238348 0.2849 53 37 52
0.19881 0.0327368 0.391307 52 34 50
0.214268 0.0349221 0.417429 52 32 51
0.259271 0.0418301 0.5 52 33 51
0.303356 0.0484532 0.579167 53 34 51
0.330988 0.0523433 0.625666 53 34 51
0.435126 0.0681372 0.814453 52 31 48
0.455355 0.0706126 0.844042 51 30 47
0.44822 0.068838 0.822829 52 30 47
0.549969 0.0836601 1 53 32 47
0.555206 0.0836601 1 54 34 48
0.560444 0.0836601 1 52 28 45
0.565682 0.0836601 1 54 31 47
0.630944 0.0924559 1.10514 54 32 48
0.406095 0.0589664 0.704833 51 28 46
0.581395 0.0836601 1 52 29 46
0.586633 0.0836601 1 52 30 47
0.591871 0.0836601 1 54 31 48
0.773356 0.108354 1.29517 54 32 48
0.478966 0.0665238 0.795167 53 31 47
0.786923 0.108354 1.29517 53 29 46
0.612822 0.0836601 1 52 28 45
0.800491 0.108354 1.29517 51 28 45
0.623298 0.0836601 1 50 28 45
-0.136154 0.0192552 0.216621 65 63 62
-0.132387 0.0188799 0.212398 63 63 63
-0.129028 0.0185567 0.208762 65 65 64
-0.130076 0.0188673 0.212257 69 67 64
-0.128657 0.0188224 0.211752 71 68 65
-0.127845 0.0188662 0.212245 66 63 62
-0.128326 0.0191033 0.214912 67 64 62
-0.126128 0.0189422 0.2131 69 67 65
-0.120997 0.018334 0.206257 66 63 62
-0.121497 0.0185756 0.208976 64 63 62
-0.118395 0.0182659 0.205491 64 67 66
-0.117667 0.0183201 0.206101 64 67 64
-0.11761 0.0184807 0.207908 66 64 61
-0.117475 0.018632 0.20961 66 63 62
-0.116852 0.0187081 0.210466 67 65 64
-0.113556 0.0183536 0.206478 69 70 66
-0.115895 0.0189117 0.212757 66 67 63
-0.114046 0.0187907 0.211396 67 66 62
-0.110988 0.0184661 0.207744 71 67 63
-0.109833 0.0184548 0.207617 72 67 63
-0.110078 0.0186809 0.21016 70 61 60
-0.106883 0.018322 0.206122 71 63 62
-0.105991 0.0183545 0.206488 66 61 60
-0.104883 0.0183499 0.206436 68 62 62
-0.101457 0.0179353 0.201772 66 62 59
-0.100015 0.0178665 0.200998 67 67 61
-0.099537 0.0179703 0.202166 65 67 60
-0.101426 0.0185082 0.208217 68 70 60
-0.0983403 0.0181402 0.204078 69 76 64
-0.0967467 0.0180424 0.202977 69 77 66
-0.0953656 0.0179824 0.202302 68 75 66
-0.0976518 0.0186204 0.20948 67 72 65
-0.0934336 0.0180185 0.202708 70 74 67
-0.0922123 0.0179874 0.202358 75 78 70
-0.0913153 0.0180196 0.20272 78 81 73
-0.0908732 0.0181433 0.204112 75 79 72
-0.0905984 0.0183038 0.205917 74 83 72
-0.0888868 0.0181743 0.204461 76 85 74
-0.087487 0.0181062 0.203695 71 84 72
-0.0893358 0.0187171 0.210568 72 83 71
-0.0859879 0.0182409 0.20521 80 86 75
-0.0849121 0.0182407 0.205208 80 87 72
-0.0839789 0.0182715 0.205555 78 89 73
-0.0843479 0.0185901 0.209139 73 92 79
-0.0819628 0.0183021 0.205899 78 96 90
-0.0807396 0.0182694 0.205531 80 96 91
-0.0789943 0.018116 0.203805 79 95 90
-0.077011 0.0179031 0.20141 83 105 98
-0.0759832 0.0179095 0.201482 85 114 102
-0.0751946 0.0179733 0.202199 81 116 102
-0.0748636 0.0181498 0.204185 94 131 119
-0.0729646 0.0179458 0.20189 94 129 121
-0.0713374 0.0178036 0.20029 99 135 127
-0.0707541 0.0179216 0.201618 101 140 130
-0.071588 0.0184075 0.207085 103 147 133
-0.0694048 0.0181207 0.203858 104 153 131
-0.0686638 0.0182074 0.204833 98 153 131
-0.0678093 0.0182662 0.205495 113 162 145
-0.0655575 0.0179444 0.201875 122 177 163
-0.0636263 0.0177013 0.19914 116 172 155
-0.0636317 0.0179979 0.202476 122 176 157
-0.0636149 0.0182981 0.205854 140 198 182
-0.0606711 0.0177522 0.199713 138 201 180
-0.0590879 0.0175923 0.197913 135 196 168
-0.0590492 0.0178947 0.201316 156 206 180
-0.0573577 0.0176981 0.199104 156 203 179
-0.0564712 0.0177473 0.199657 159 206 186
-0.0543011 0.0173873 0.195607 163 210 190
-0.0558921 0.0182409 0.20521 143 200 175
-0.053301 0.0177364 0.199534 176 218 201
-0.0522722 0.0177419 0.199596 179 220 202
-0.0513279 0.0177769 0.19999 166 213 188
-0.0515911 0.0182403 0.205204 147 202 170
-0.048877 0.0176484 0.198544 151 205 175
-0.049089 0.0181103 0.203741 153 205 178
-0.0463994 0.0174984 0.196857 167 212 187
-0.0461282 0.0177915 0.200154 156 208 179
-0.0443005 0.0174839 0.196694 166 213 188
-0.0442826 0.017893 0.201296 155 208 178
-0.0433815 0.0179564 0.20201 159 207 176
-0.0424698 0.0180185 0.202708 155 206 175
-0.0414081 0.0180185 0.202708 181 224 205
-0.038937 0.0173891 0.195628 153 210 184
-0.0386595 0.0177318 0.199483 147 206 175
-0.037756 0.0177984 0.200232 140 203 172
-0.0363097 0.0176057 0.198064 147 205 179
-0.0349844 0.017462 0.196447 145 203 175
-0.0338225 0.0173936 0.195678 162 212 185
-0.0332162 0.0176156 0.198176 149 206 175
-0.0313839 0.0171809 0.193285 146 208 178
-0.0301471 0.0170539 0.191856 158 212 187
-0.0291255 0.0170441 0.191746 162 211 189
-0.0284597 0.0172493 0.194055 163 213 190
-0.0264448 0.0166217 0.186994 157 211 188
-0.0259896 0.0169639 0.190843 145 204 179
-0.0253773 0.0172268 0.193802 149 206 180
-0.0234607 0.0165893 0.18663 157 210 184
-0.0230211 0.0169862 0.191095 148 207 175
-0.0217511 0.0167787 0.18876 153 208 178
-0.0207654 0.0167811 0.188787 162 211 189
-0.0198993 0.0168852 0.189958 158 210 188
-0.018798 0.0167902 0.18889 151 208 184
-0.017328 0.0163371 0.183793 151 206 190
-0.0165133 0.0164848 0.185454 138 192 174
-0.0158765 0.0168397 0.189446 122 175 158
-0.0146897 0.0166196 0.186971 92 124 107
-0.013786 0.0167112 0.188001 64 85 77
-0.0128069 0.0167185 0.188083 65 77 75
-0.0118577 0.0167694 0.188656 70 68 73
-0.0107012 0.0165097 0.185734 64 59 68
-0.00972349 0.0165014 0.185641 63 57 67
-0.00895806 0.0168916 0.19003 61 55 66
-0.00783652 0.0166239 0.187019 61 54 65
-0.00693684 0.0168175 0.189197 60 53 65
-0.00587164 0.0166076 0.186835 59 52 64
-0.00482134 0.0163643 0.184098 60 54 66
-0.0038107 0.0161675 0.181885 59 53 66
-0.00282179 0.0159625 0.179578 59 52 65
-0.00196902 0.0167078 0.187962 60 53 66
-0.00096937 0.0164509 0.185072 59 51 66
0 0.0161253 0.181409 58 50 65
0.000965009 0.0163768 0.18424 61 55 68
0.00192802 0.0163599 0.184049 58 49 65
0.00282854 0.0160007 0.180008 56 46 63
0.00375558 0.0159337 0.179254 59 50 64
0.00464349 0.0157606 0.177307 59 49 65
0.00575673 0.0162826 0.183179 60 50 65
0.00641174 0.0155445 0.174876 59 49 64
0.00762418 0.0161734 0.181951 59 48 63
0.00855578 0.016133 0.181497 56 44 61
0.00960183 0.016295 0.183318 56 44 62
0.0104258 0.0160847 0.180953 56 43 62
0.01154 0.0163201 0.183601 57 45 63
0.0124846 0.0162978 0.18335 58 45 63
0.0131845 0.0159822 0.179799 57 44 62
0.0142574 0.0161305 0.181468 57 44 62
0.0148975 0.0158013 0.177765 56 42 61
0.0158402 0.0158129 0.177895 56 42 61
0.0169974 0.0160254 0.180285 57 42 61
0.0175596 0.0156841 0.176446 54 37 58
0.0186984 0.0158663 0.178495 55 40 59
0.0198962 0.0160787 0.180885 55 39 59
0.0210198 0.0162145 0.182414 55 38 58
0.0216155 0.0159491 0.179428 54 37 58
0.0218259 0.0154333 0.173625 54 38 58
0.0235134 0.0159615 0.179567 54 38 58
0.0238812 0.0155877 0.175361 54 37 58
0.0248878 0.0156431 0.175984 54 36 57
0.0266436 0.0161485 0.181671 54 38 58
0.0265731 0.0155504 0.174942 54 38 58
0.027333 0.015462 0.173947 54 36 57
0.0290518 0.0159041 0.178921 53 34 56
0.0288635 0.0153073 0.172207 53 34 56
0.0299362 0.0153951 0.173194 51 32 54
0.0306439 0.0152955 0.172074 54 36 56
0.0318317 0.0154345 0.173638 52 33 55
0.0326977 0.0154139 0.173407 52 33 55
0.0337909 0.0154987 0.174361 51 32 55
0.0343408 0.0153365 0.172535 50 32 54
0.03555 0.0154694 0.174031 50 33 54
0.0356367 0.0151195 0.170094 51 34 55
0.0368356 0.0152469 0.171528 53 35 55
0.0372882 0.0150668 0.169501 53 35 55
0.0382593 0.0150997 0.169871 53 35 55
0.0397941 0.0153484 0.17267 53 35 54
0.0401713 0.0151496 0.170433 54 35 54
0.0403545 0.0148879 0.167489 53 35 55
0.0422173 0.0152437 0.171492 53 35 54
0.0422435 0.0149354 0.168024 54 37 56
0.0434663 0.0150541 0.169359 53 34 54
0.0445586 0.0151238 0.170142 52 32 52
0.0455105 0.015144 0.17037 54 33 53
0.0468226 0.015281 0.171911 53 35 54
0.0464006 0.0148575 0.167147 52 33 53
0.0480682 0.0151065 0.169948 52 32 53
0.0487868 0.0150535 0.169352 50 30 52
0.0505153 0.0153085 0.172221 52 31 53
0.0494361 0.0147187 0.165585 50 29 49
0.0510965 0.0149507 0.168196 50 28 49
0.0523585 0.0150603 0.169429 47 23 46
0.0542081 0.0153325 0.17249 47 24 47
0.0546131 0.0151938 0.17093 49 28 48
0.055246 0.015122 0.170122 49 25 45
0.0574883 0.0154859 0.174217 49 24 44
0.0575244 0.0152535 0.171602 48 21 41
0.0578779 0.0151112 0.170001 46 19 38
0.0588287 0.0151267 0.170176 45 18 36
0.0593348 0.0150291 0.169078 47 19 38
0.0608002 0.0151738 0.170705 48 21 39
0.0608171 0.0149581 0.168278 46 17 34
0.0636536 0.0154321 0.173611 42 14 29
0.0652694 0.0156009 0.17551 39 14 27
0.0659156 0.0155366 0.174786 42 15 30
0.0684568 0.0159145 0.179038 44 16 32
0.0680481 0.0156057 0.175564 44 17 33
0.0691859 0.0156551 0.17612 44 17 34
0.0705879 0.0157622 0.177324 48 19 38
0.0699167 0.0154095 0.173357 48 23 40
0.0735198 0.0159959 0.179954 49 25 42
0.0728136 0.0156417 0.175969 54 33 47
0.0743894 0.0157805 0.17753 55 35 50
0.0754084 0.0157991 0.17774 56 36 51
0.0790302 0.016356 0.184005 54 35 50
0.0763696 0.015615 0.175669 55 36 51
0.0784478 0.0158489 0.178301 56 38 53
0.0783422 0.0156414 0.175966 55 37 52
0.0801651 0.0158192 0.177967 56 39 54
0.0845516 0.0164931 0.185547 54 37 52
0.0902907 0.0174124 0.19589 54 37 52
0.0873635 0.0166586 0.18741 56 39 53
0.0952976 0.0179696 0.202158 55 39 53
0.107532 0.0200538 0.225605 55 38 52
0.12421 0.0229122 0.257762 53 37 51
0.15024 0.0274158 0.308428 52 35 50
0.172912 0.0312173 0.351194 52 35 50
0.209403 0.0374074 0.420833 53 36 52
0.239564 0.0423495 0.476432 52 36 52
0.227141 0.0397396 0.447071 53 37 53
0.273835 0.04742 0.533475 52 32 50
0.324434 0.0556147 0.625666 52 32 50
0.337516 0.0572786 0.644385 55 36 52
0.420657 0.0706815 0.795167 53 35 51
0.439601 0.0731403 0.822829 53 32 50
0.539493 0.0888889 1 49 27 46
0.412776 0.0673566 0.757762 52 31 48
0.464196 0.0750259 0.844042 54 34 48
0.555206 0.0888889 1 51 30 45
0.560444 0.0888889 1 51 28 44
0.616783 0.0969186 1.09033 52 29 44
0.57092 0.0888889 1 51 29 44
0.74622 0.115126 1.29517 51 28 45
0.581395 0.0888889 1 52 30 47
0.586633 0.0888889 1 52 29 46
0.713105 0.107096 1.20483 55 33 49
0.597109 0.0888889 1 51 29 45
0.827825 0.122163 1.37433 52 29 46
0.732037 0.107096 1.20483 52 29 46
0.738348 0.107096 1.20483 50 27 43
1.05369 0.151541 1.70483 51 28 44
0.750969 0.107096 1.20483 50 29 45
-0.136859 0.0204934 0.217742 64 60 58
-0.12942 0.0195423 0.207637 67 65 65
-0.126062 0.0191966 0.203964 62 60 58
-0.127532 0.0195864 0.208106 64 60 56
-0.125392 0.0194238 0.206378 65 62 59
-0.126505 0.0197666 0.21002 61 58 57
-0.130661 0.020595 0.218822 64 61 58
-0.126385 0.0200974 0.213535 63 60 58
-0.122077 0.0195856 0.208097 64 60 60
-0.120176 0.0194544 0.206703 62 60 60
-0.115596 0.0188831 0.200633 61 61 61
-0.118588 0.0195495 0.207713 63 64 62
-0.12038 0.0200286 0.212804 70 68 63
-0.112665 0.0189202 0.201027 66 62 59
-0.115191 0.019527 0.207474 64 58 58
-0.115475 0.0197616 0.209967 65 61 59
-0.112378 0.0194165 0.206301 65 63 60
-0.10949 0.0191011 0.202949 64 61 57
-0.109675 0.019321 0.205285 66 61 57
-0.107203 0.0190725 0.202645 69 63 61
-0.102304 0.018383 0.195319 67 54 56
-0.106214 0.0192784 0.204833 69 57 58
-0.10635 0.0195 0.207188 68 62 61
-0.10426 0.0193139 0.20521 64 57 57
-0.105186 0.0196883 0.209188 63 57 56
-0.101031 0.0191096 0.203039 62 60 56
-0.102641 0.0196208 0.208471 64 63 58
-0.101151 0.0195438 0.207653 64 63 58
-0.0985322 0.0192448 0.204476 65 65 60
-0.0966188 0.0190784 0.202708 65 66 62
-0.095235 0.0190141 0.202025 69 72 66
-0.0979382 0.0197735 0.210094 67 69 63
-0.0950445 0.0194074 0.206203 68 66 63
-0.0947643 0.0195726 0.207959 66 65 60
-0.0936674 0.019571 0.207942 69 68 63
-0.0908871 0.0192135 0.204143 67 68 64
-0.0887106 0.0189766 0.201627 64 69 61
-0.0877861 0.0190051 0.201929 66 72 63
-0.0881376 0.0193139 0.20521 70 78 67
-0.0857846 0.0190303 0.202197 68 76 64
-0.0864582 0.0194195 0.206332 70 74 64
-0.0835274 0.0189987 0.201861 69 73 65
-0.0863349 0.0198891 0.211321 69 74 66
-0.0837485 0.0195438 0.207653 72 80 72
-0.0827894 0.0195742 0.207976 73 79 76
-0.0801915 0.0192127 0.204135 69 76 75
-0.0807192 0.0196005 0.208255 73 84 81
-0.0807757 0.0198829 0.211256 72 87 81
-0.0763628 0.0190577 0.202489 71 92 78
-0.0776353 0.0196482 0.208762 65 95 80
-0.075101 0.0192784 0.204833 69 98 90
-0.0741434 0.0193084 0.205152 68 93 89
-0.072727 0.019218 0.204192 70 95 91
-0.0721099 0.0193394 0.205481 73 106 101
-0.0705879 0.019218 0.204192 73 108 103
-0.0677402 0.0187264 0.198968 76 120 98
-0.0673479 0.0189089 0.200907 81 131 109
-0.0665995 0.0189956 0.201828 84 131 118
-0.06395 0.0185341 0.196925 92 138 131
-0.0637484 0.0187786 0.199522 97 144 136
-0.0639516 0.0191524 0.203494 104 150 139
-0.0637163 0.0194053 0.206182 107 159 148
-0.0609961 0.0188971 0.200782 102 164 151
-0.0593891 0.0187221 0.198922 120 176 160
-0.059166 0.0189848 0.201714 123 178 155
-0.0579834 0.0189436 0.201276 127 184 162
-0.0573062 0.0190691 0.202609 152 197 183
-0.0556118 0.0188544 0.200328 143 193 177
-0.0552687 0.0190984 0.202921 123 182 160
-0.0541048 0.0190628 0.202543 158 205 185
-0.0513183 0.0184427 0.195954 159 208 187
-0.0510988 0.0187386 0.199098 171 215 194
-0.051115 0.019135 0.20331 153 208 182
-0.0498646 0.0190641 0.202556 164 211 188
-0.0485434 0.0189625 0.201476 150 206 176
-0.0473323 0.0189002 0.200815 157 208 178
-0.0446915 0.0182513 0.19392 163 212 183
-0.0451537 0.0188689 0.200482 157 211 181
-0.0440372 0.0188405 0.200181 157 210 184
-0.0426084 0.0186739 0.19841 155 205 178
-0.0423817 0.0190388 0.202288 139 199 167
-0.0399896 0.0184249 0.195765 175 220 201
-0.0394614 0.01866 0.198262 155 211 188
-0.0394834 0.019175 0.203735 156 209 187
-0.0383493 0.0191416 0.203379 161 213 192
-0.035719 0.0183381 0.194842 170 219 196
-0.0341825 0.0180654 0.191945 160 213 186
-0.0343008 0.0186772 0.198445 149 205 173
-0.0322745 0.0181231 0.192558 135 196 160
-0.0312236 0.0180985 0.192297 139 199 164
-0.03059 0.0183223 0.194675 181 223 201
-0.029099 0.0180303 0.191572 172 218 195
-0.0281895 0.0180905 0.192212 162 213 188
-0.0273374 0.0181935 0.193306 172 217 196
-0.0257571 0.0178011 0.189137 155 210 188
-0.0251692 0.0180905 0.192212 143 203 177
-0.0240777 0.0180271 0.191538 176 217 199
-0.0229929 0.0179634 0.190861 167 213 193
-0.0216731 0.017702 0.188083 161 209 187
-0.0209745 0.0179471 0.190688 162 209 188
-0.0195544 0.0175686 0.186666 183 221 204
-0.0184746 0.0174721 0.185641 172 217 198
-0.0180373 0.0180062 0.191316 158 208 195
-0.0163877 0.0173218 0.184044 122 184 165
-0.0161301 0.0181151 0.192473 112 162 143
-0.0145038 0.0173746 0.184605 79 105 95
-0.013419 0.0172232 0.182997 64 79 75
-0.0129005 0.0178314 0.189458 64 73 74
-0.0119396 0.0178786 0.18996 68 66 71
-0.010883 0.0177779 0.18889 65 60 69
-0.00990456 0.0177974 0.189098 63 57 68
-0.00890685 0.017783 0.188944 60 54 65
-0.0079502 0.0178571 0.189732 61 54 66
-0.00690993 0.0177377 0.188463 59 52 64
-0.00577902 0.0173071 0.183888 59 51 64
-0.0049094 0.0176433 0.18746 58 50 63
-0.00383622 0.0172332 0.183103 59 51 65
-0.00288756 0.0172955 0.183764 58 50 65
-0.00191343 0.0171911 0.182656 60 53 66
-0.000982953 0.0176626 0.187665 59 51 65
0 0.0172768 0.183565 59 52 67
0.000956012 0.0171785 0.182522 59 53 67
0.00192802 0.0173222 0.184049 60 51 66
0.00286962 0.017188 0.182623 58 48 65
0.00382814 0.0171969 0.182717 57 47 63
0.00474064 0.0170368 0.181016 59 48 65
0.00559632 0.01676 0.178075 58 48 64
0.00661735 0.0169867 0.180483 58 47 63
0.00747112 0.016781 0.178298 58 46 63
0.00840446 0.0167799 0.178287 59 47 65
0.00947796 0.0170309 0.180953 58 47 64
0.0104378 0.0170505 0.181162 57 45 63
0.011272 0.0168788 0.179337 57 43 63
0.0124467 0.0172042 0.182794 58 45 63
0.0133644 0.0171531 0.182252 56 42 62
0.0141728 0.016978 0.180391 55 41 60
0.0150089 0.0168559 0.179094 56 42 61
0.0159254 0.0168331 0.178851 57 42 61
0.0171033 0.0170738 0.181409 57 42 61
0.0178606 0.0168914 0.179471 55 39 60
0.0184202 0.0165496 0.175839 55 37 59
0.0195557 0.0167331 0.177789 55 39 59
0.0208021 0.0169905 0.180524 55 39 59
0.0213736 0.0166983 0.177419 55 39 59
0.0224134 0.016781 0.178298 54 38 58
0.0233629 0.0167923 0.178418 54 37 58
0.0242844 0.0167833 0.178322 54 38 58
0.024372 0.01622 0.172337 54 37 58
0.025527 0.0163819 0.174057 54 38 57
0.0267389 0.0165679 0.176034 54 37 57
0.028075 0.0168159 0.178669 52 34 57
0.0282151 0.0163547 0.173769 52 34 56
0.0287404 0.0161386 0.171472 53 36 56
0.0299959 0.0163332 0.17354 53 35 56
0.0305466 0.0161438 0.171528 53 35 56
0.0318027 0.0163275 0.173479 54 36 56
0.0326688 0.0163062 0.173253 53 34 56
0.0327507 0.0159053 0.168994 52 34 55
0.0342264 0.0161845 0.17196 53 36 56
0.0350994 0.0161718 0.171825 52 34 55
0.036637 0.0164582 0.174868 52 34 55
0.0365111 0.0160016 0.170017 51 34 54
0.0371919 0.0159119 0.169064 52 34 54
0.0375835 0.0157055 0.166871 53 35 54
0.0394473 0.0161097 0.171165 54 35 55
0.04037 0.0161202 0.171277 53 35 55
0.0400228 0.0156341 0.166112 53 35 54
0.0417272 0.0159531 0.169501 50 31 52
0.0430352 0.0161104 0.171173 53 33 54
0.0433441 0.0158948 0.168883 53 33 53
0.0436918 0.0157019 0.166833 52 31 51
0.0449742 0.0158459 0.168362 52 31 51
0.0459286 0.0158709 0.168629 50 29 50
0.0460408 0.0156095 0.165851 52 31 52
0.0482316 0.0160495 0.170526 53 33 53
0.0490391 0.0160215 0.170228 51 30 51
0.0501006 0.016076 0.170807 54 34 54
0.0503246 0.0158646 0.168561 52 32 51
0.0503034 0.0155845 0.165585 49 26 47
0.0524936 0.0159874 0.169866 48 24 47
0.0543646 0.0162812 0.172988 50 26 47
0.0534328 0.0157398 0.167236 50 27 47
0.0557705 0.0161635 0.171737 52 28 47
0.0566518 0.0161583 0.171682 48 22 41
0.0564685 0.0158544 0.168453 49 22 42
0.0589639 0.0163003 0.173191 47 19 39
0.0594008 0.0161723 0.17183 46 18 37
0.0599312 0.0160731 0.170777 48 20 38
0.0596327 0.0157579 0.167428 44 18 35
0.0629937 0.0164048 0.174301 44 17 33
0.0633776 0.016269 0.172858 42 15 28
0.0656799 0.0166225 0.176614 41 14 28
0.0666025 0.0166219 0.176608 42 16 31
0.0675223 0.0166206 0.176594 41 16 30
0.067477 0.016385 0.174091 48 21 38
0.068012 0.0162947 0.173131 50 22 39
0.0710207 0.0167917 0.178411 48 21 39
0.0708819 0.0165412 0.17575 53 32 47
0.0724497 0.0166903 0.177335 54 33 47
0.0723793 0.016463 0.17492 55 35 49
0.0725726 0.0163007 0.173194 55 36 51
0.0751669 0.0166749 0.177171 54 35 50
0.0791978 0.0173549 0.184396 54 36 51
0.0763454 0.0165283 0.175613 54 36 51
0.0786901 0.0168331 0.178851 53 35 51
0.0796919 0.0168468 0.178997 55 39 53
0.0846013 0.0176767 0.187815 53 35 50
0.0842059 0.0173918 0.184788 56 40 54
0.0919048 0.0187663 0.199392 55 39 53
0.0935028 0.018878 0.200579 53 36 50
0.10547 0.0210576 0.223737 55 37 52
0.127408 0.025158 0.267304 54 38 52
0.12421 0.02426 0.257762 52 35 50
0.21265 0.041087 0.436549 53 35 51
0.207198 0.0396078 0.420833 53 35 50
0.207709 0.0392874 0.417429 53 36 52
0.268247 0.0502094 0.533475 50 31 49
0.33327 0.0617372 0.655958 55 37 53
0.376637 0.0690588 0.73375 56 37 54
0.400107 0.0726211 0.771599 54 33 50
0.416492 0.0748393 0.795167 50 29 47
0.481229 0.0856156 0.909666 52 33 50
0.439601 0.0774427 0.822829 49 27 46
0.698734 0.121898 1.29517 50 28 47
0.656309 0.113396 1.20483 52 30 48
0.683192 0.116917 1.24224 52 30 47
0.605361 0.10262 1.09033 52 30 46
0.725869 0.121898 1.29517 52 29 45
0.7603 0.126498 1.34404 50 27 43
0.687863 0.113396 1.20483 50 29 45
0.694174 0.113396 1.20483 50 28 45
0.78142 0.126498 1.34404 52 30 47
0.80623 0.129349 1.37433 51 27 44
0.684178 0.108796 1.15596 52 29 45
0.672145 0.105945 1.12567 53 31 47
0.725727 0.113396 1.20483 53 31 46
0.732037 0.113396 1.20483 54 31 46
0.842222 0.129349 1.37433 52 30 45
0.849421 0.129349 1.37433 50 27 43
0.807275 0.121898 1.29517 49 27 43
-0.134461 0.0212529 0.213927 63 59 55
-0.131816 0.0210099 0.211481 63 61 60
-0.128523 0.0206587 0.207946 64 61 59
-0.125976 0.0204223 0.205567 62 58 56
-0.130034 0.0212619 0.214018 63 59 57
-0.130249 0.0214822 0.216236 61 58 57
-0.123458 0.0205409 0.20676 62 59 56
-0.120866 0.0202876 0.20421 66 62 60
-0.125421 0.0212401 0.213799 63 59 59
-0.121766 0.0208069 0.209438 64 61 61
-0.118341 0.0204055 0.205398 62 61 61
-0.120104 0.0208993 0.210368 63 63 61
-0.118299 0.020776 0.209127 66 63 59
-0.117722 0.0208678 0.210051 64 60 57
-0.115405 0.0206501 0.207859 65 60 60
-0.113184 0.0204457 0.205802 63 59 57
-0.112868 0.0205845 0.207199 64 60 58
-0.111711 0.0205713 0.207066 62 57 55
-0.109204 0.0203068 0.204403 65 59 55
-0.106401 0.0199815 0.201129 68 61 59
-0.110012 0.0208662 0.210034 68 55 56
-0.105012 0.0201191 0.202515 64 52 54
-0.105911 0.0204984 0.206332 62 54 54
-0.10571 0.0206704 0.208064 62 55 53
-0.10156 0.0200658 0.201978 61 54 53
-0.102266 0.020418 0.205523 58 51 50
-0.0995119 0.0200794 0.202115 61 55 53
-0.0997771 0.0203494 0.204833 62 58 56
-0.0978862 0.0201807 0.203135 63 61 58
-0.0986198 0.0205554 0.206906 64 64 62
-0.0957496 0.0201789 0.203117 65 66 61
-0.0953246 0.0203151 0.204487 64 64 60
-0.0947293 0.0204176 0.20552 64 57 57
-0.0925621 0.0201798 0.203126 64 59 56
-0.092267 0.0203494 0.204833 67 64 61
-0.0908887 0.0202812 0.204147 66 64 62
-0.0912111 0.0205955 0.20731 66 61 61
-0.0880984 0.0201323 0.202648 62 58 57
-0.087015 0.0201272 0.202596 67 71 64
-0.0864229 0.0202371 0.203702 64 69 59
-0.0834551 0.0197864 0.199166 67 65 59
-0.083243 0.0199859 0.201174 63 60 58
-0.0832454 0.0202427 0.203759 65 62 62
-0.0834661 0.02056 0.206952 68 68 66
-0.0818146 0.0204184 0.205527 73 73 72
-0.08181 0.0206894 0.208255 70 72 72
-0.0791252 0.0202809 0.204143 70 79 76
-0.0796076 0.020684 0.208201 66 79 74
-0.0759765 0.0200148 0.201464 67 80 75
-0.0749473 0.0200217 0.201534 69 82 75
-0.0746228 0.0202198 0.203528 68 85 81
-0.0740282 0.0203494 0.204833 69 84 84
-0.0691747 0.0192949 0.194218 69 83 81
-0.0704074 0.0199318 0.20063 72 87 86
-0.0703609 0.0202205 0.203535 69 90 88
-0.0677195 0.0197608 0.198908 76 96 89
-0.0675523 0.02002 0.201517 77 95 87
-0.0661679 0.019921 0.20052 78 97 97
-0.0646886 0.0197897 0.199199 74 104 102
-0.063852 0.019854 0.199846 78 113 109
-0.0651059 0.0205813 0.207167 87 128 123
-0.0616234 0.0198106 0.199409 88 130 123
-0.0601692 0.0196766 0.19806 84 130 120
-0.059481 0.0197928 0.19923 89 138 124
-0.0594577 0.0201383 0.202708 89 142 125
-0.0570135 0.0196616 0.197909 104 158 145
-0.0569571 0.0200059 0.201375 111 164 149
-0.055469 0.0198508 0.199814 111 163 143
-0.0547256 0.0199614 0.200927 114 164 143
-0.0522857 0.0194454 0.195733 133 183 165
-0.0529236 0.0200763 0.202084 123 186 169
-0.05165 0.019993 0.201245 136 196 179
-0.0503094 0.0198798 0.200105 149 206 181
-0.0486061 0.0196154 0.197444 171 215 195
-0.0466516 0.0192359 0.193624 165 212 188
-0.0474691 0.0200079 0.201396 153 206 176
-0.0460904 0.0198683 0.19999 168 214 187
-0.0444855 0.0196225 0.197516 157 210 181
-0.0441613 0.0199433 0.200745 161 209 188
-0.042475 0.0196496 0.197788 156 206 183
-0.0415223 0.0196891 0.198186 149 201 175
-0.0393741 0.0191491 0.192751 159 207 183
-0.0397939 0.0198626 0.199933 167 210 191
-0.0389662 0.0199752 0.201066 137 199 174
-0.0375735 0.0197962 0.199265 156 212 191
-0.0350563 0.0189977 0.191227 174 228 207
-0.0346172 0.0193115 0.194385 168 225 204
-0.033998 0.0195409 0.196694 177 219 197
-0.0317014 0.0187902 0.189138 168 211 188
-0.0313089 0.0191562 0.192822 159 210 182
-0.03059 0.0193402 0.194675 179 224 203
-0.0294899 0.0192877 0.194146 172 220 197
-0.0276791 0.0187498 0.188732 141 206 176
-0.0268742 0.0188788 0.19003 174 219 200
-0.0258381 0.0188491 0.189732 169 217 197
-0.0251775 0.0191019 0.192276 151 208 182
-0.0243164 0.0192172 0.193437 156 212 184
-0.0230211 0.0189846 0.191095 162 211 185
-0.0220095 0.0189754 0.191002 157 207 184
-0.0206325 0.0186353 0.187579 155 206 183
-0.019922 0.0188932 0.190175 172 214 193
-0.0191835 0.0191504 0.192764 161 211 188
-0.0177671 0.0187218 0.188449 142 200 176
-0.0169017 0.0188576 0.189817 135 179 155
-0.015604 0.0184978 0.186195 97 130 115
-0.0146658 0.0185446 0.186666 68 90 92
-0.0137831 0.0186734 0.187962 60 75 79
-0.0129105 0.0188366 0.189606 61 66 71
-0.0116221 0.0183699 0.184907 64 61 68
-0.0106222 0.0183157 0.184362 62 56 66
-0.00965141 0.018306 0.184265 63 56 68
-0.00885852 0.018669 0.187919 60 53 65
-0.0078514 0.0186149 0.187374 60 54 65
-0.00679232 0.0184045 0.185256 59 52 65
-0.00581315 0.0183765 0.184974 59 52 65
-0.00482938 0.01832 0.184405 58 51 65
-0.00379581 0.017999 0.181174 58 51 66
-0.00296318 0.0187344 0.188577 58 50 66
-0.00192634 0.0182686 0.183888 60 54 67
-0.000989266 0.0187636 0.188871 57 48 64
0 0.0184434 0.185647 57 49 65
0.000939153 0.0178131 0.179303 58 50 65
0.00190341 0.0180511 0.181699 59 50 66
0.00280788 0.0177526 0.178694 59 49 66
0.00389134 0.018452 0.185734 59 48 65
0.00472555 0.0179261 0.18044 60 50 66
0.00565215 0.0178676 0.179851 59 48 65
0.00663744 0.0179848 0.181032 59 47 65
0.00760075 0.0180206 0.181392 58 47 64
0.00825427 0.0173956 0.175101 58 46 64
0.00950951 0.0180369 0.181556 58 46 64
0.0103327 0.0178165 0.179337 58 47 64
0.0111131 0.0175654 0.17681 56 42 62
0.0122173 0.0178252 0.179425 57 44 63
0.0129217 0.0175063 0.176215 55 41 61
0.0138919 0.0175661 0.176817 55 40 61
0.0148478 0.0176013 0.177171 58 43 62
0.015947 0.0177923 0.179094 56 40 60
0.0166361 0.01753 0.176453 55 38 59
0.0174533 0.0174232 0.175378 55 39 60
0.0188056 0.0178345 0.179518 55 38 59
0.019801 0.0178843 0.18002 55 38 59
0.0206133 0.0177717 0.178886 55 38 59
0.0217172 0.0179093 0.180272 54 37 59
0.0222873 0.0176137 0.177296 54 37 58
0.0230539 0.0174907 0.176058 54 37 58
0.0244574 0.0178419 0.179593 54 37 58
0.0245639 0.0172559 0.173694 54 36 57
0.0253117 0.0171461 0.172589 54 37 57
0.0263196 0.0172141 0.173274 52 35 56
0.0275901 0.0174436 0.175583 53 35 57
0.0281938 0.0172503 0.173638 53 35 57
0.0291692 0.0172894 0.174031 52 34 55
0.0303411 0.017439 0.175537 54 35 56
0.0303932 0.0169552 0.170667 53 34 56
0.031897 0.0172856 0.173994 53 34 55
0.0319065 0.0168105 0.169211 53 34 56
0.0326539 0.0167393 0.168494 54 37 57
0.0345679 0.0172541 0.173676 51 34 55
0.0347285 0.0168898 0.170009 53 36 56
0.0364537 0.0172856 0.173994 52 35 55
0.0365869 0.0169256 0.17037 53 35 55
0.0379457 0.0171363 0.17249 54 37 56
0.0390536 0.0172265 0.173398 54 36 56
0.0385235 0.0166064 0.167157 48 30 52
0.0401935 0.0169413 0.170528 51 33 54
0.0406381 0.0167563 0.168666 54 36 55
0.0431034 0.0173947 0.175092 52 33 53
0.0427373 0.0168877 0.169988 50 29 51
0.0439395 0.0170084 0.171203 50 29 51
0.0436482 0.0165577 0.166666 51 30 51
0.0441101 0.0164048 0.165127 52 30 51
0.0452009 0.0164872 0.165957 50 28 49
0.0472138 0.0168965 0.170077 51 30 51
0.0462862 0.0162578 0.163647 50 28 49
0.0484348 0.0167031 0.16813 50 28 50
0.0498446 0.0168824 0.169934 51 29 51
0.0498376 0.0165839 0.16693 51 29 49
0.0525646 0.0171897 0.173028 51 28 49
0.0527169 0.0169473 0.170588 47 21 44
0.0543941 0.0171951 0.173082 51 27 48
0.0536983 0.0166968 0.168067 48 23 44
0.0541501 0.0165658 0.166747 53 29 48
0.0564961 0.0170091 0.17121 48 20 40
0.0571682 0.0169425 0.17054 43 17 35
0.0580673 0.0169442 0.170557 47 20 38
0.0583385 0.0167655 0.168757 46 18 36
0.0596029 0.0168732 0.169842 47 18 36
0.0607078 0.0169332 0.170446 43 17 31
0.0614138 0.0168819 0.169929 45 17 32
0.0640947 0.0173671 0.174814 42 14 28
0.0625029 0.0166973 0.168071 42 15 29
0.0651119 0.0171527 0.172655 41 16 31
0.0676325 0.0175726 0.176882 46 18 36
0.0681543 0.0174689 0.175838 45 18 36
0.0702013 0.0177536 0.178704 46 19 37
0.0706513 0.0176324 0.177484 50 25 42
0.0721066 0.0177618 0.178787 53 32 46
0.071834 0.0174678 0.175828 54 34 48
0.0719989 0.0172863 0.174 55 35 49
0.071973 0.0170641 0.171763 55 36 51
0.0768465 0.0179946 0.18113 55 37 53
0.0764586 0.0176854 0.178018 54 37 52
0.0792897 0.0181193 0.182385 54 37 52
0.0790441 0.0178482 0.179656 53 34 50
0.0814449 0.0181739 0.182935 54 38 53
0.0815183 0.0179788 0.180971 55 39 54
0.0880484 0.0191958 0.193221 55 39 54
0.0964089 0.0207796 0.209163 53 36 52
0.111731 0.0238115 0.239681 53 37 53
0.134302 0.0283038 0.2849 54 37 52
0.160888 0.033534 0.337546 53 35 51
0.206992 0.0426746 0.429553 53 35 52
0.221445 0.0451633 0.454604 53 35 52
0.308048 0.0621577 0.625666 51 33 50
0.318064 0.0635031 0.639209 50 33 50
0.35441 0.0700226 0.704833 52 35 51
0.418052 0.0817451 0.822829 54 36 52
0.553941 0.107211 1.07917 52 31 48
0.4717 0.090372 0.909666 51 30 47
0.468711 0.0889014 0.894863 50 29 48
0.584637 0.109791 1.10514 51 31 49
0.582517 0.108321 1.09033 48 26 45
0.596214 0.109791 1.10514 49 27 45
0.629686 0.11484 1.15596 51 29 47
0.619081 0.111831 1.12567 51 29 47
0.782655 0.140045 1.40967 51 29 45
0.696205 0.123412 1.24224 53 30 46
0.797422 0.140045 1.40967 51 28 45
0.739437 0.12867 1.29517 53 31 47
0.93664 0.161504 1.62567 54 32 48
0.872093 0.14902 1.5 54 32 48
0.87995 0.14902 1.5 53 29 47
0.713105 0.119696 1.20483 54 31 48
0.719416 0.119696 1.20483 54 32 48
0.979214 0.161504 1.62567 53 31 46
0.835024 0.136535 1.37433 54 32 46
0.863874 0.140045 1.40967 52 27 44
0.61806 0.0993464 1 50 27 44
0.856619 0.136535 1.37433 48 27 43
-0.13136 0.0218555 0.208994 66 63 58
-0.136009 0.0228192 0.218208 63 61 60
-0.129732 0.0219506 0.209902 62 59 58
-0.125526 0.0214204 0.204833 61 57 55
-0.128441 0.0221067 0.211396 60 57 55
-0.128706 0.022345 0.213674 64 60 60
-0.123043 0.0215492 0.206064 65 62 60
-0.124395 0.0219788 0.210172 64 60 57
-0.122195 0.0217829 0.208299 62 57 56
-0.117792 0.0211872 0.202603 63 59 58
-0.117387 0.0213062 0.203741 63 61 60
-0.117557 0.0215329 0.205908 62 60 59
-0.11822 0.0218548 0.208987 62 58 58
-0.118446 0.0221013 0.211344 60 56 55
-0.114262 0.0215217 0.205802 64 60 59
-0.11136 0.0211748 0.202484 63 58 57
-0.109137 0.0209516 0.20035 60 54 54
-0.111906 0.0216918 0.207428 63 57 57
-0.109211 0.021377 0.204417 64 57 55
-0.107304 0.0212117 0.202837 65 57 56
-0.108928 0.021748 0.207965 65 52 53
-0.106019 0.0213811 0.204457 63 52 52
-0.103079 0.0210003 0.200815 60 51 51
-0.104427 0.0214942 0.205539 60 52 51
-0.103854 0.0215989 0.20654 58 49 47
-0.102598 0.0215622 0.206189 58 50 49
-0.101993 0.0216633 0.207155 60 51 51
-0.10074 0.0216272 0.20681 63 56 55
-0.100327 0.0217727 0.208201 61 56 54
-0.0994096 0.0218106 0.208564 61 57 56
-0.0963983 0.0213849 0.204493 63 63 59
-0.094055 0.0210995 0.201764 65 61 59
-0.0942561 0.0213849 0.204493 65 57 58
-0.0922487 0.02117 0.202438 66 59 58
-0.0902508 0.0209524 0.200357 64 59 58
-0.0911941 0.0214204 0.204833 63 58 58
-0.091686 0.0217923 0.208389 61 52 54
-0.0896781 0.0215719 0.206281 65 57 57
-0.0871737 0.0212252 0.202966 63 62 58
-0.084484 0.0208242 0.199132 60 58 52
-0.0886608 0.022127 0.211589 60 54 51
-0.0852134 0.0215358 0.205936 61 55 55
-0.0823668 0.0210832 0.201608 63 57 58
-0.0853167 0.022122 0.211541 66 60 60
-0.0837759 0.0220083 0.210454 67 62 62
-0.0800529 0.0213106 0.203783 65 62 67
-0.0792594 0.0213845 0.204489 61 68 69
-0.0772915 0.0211392 0.202144 63 74 71
-0.07661 0.0212438 0.203144 66 76 72
-0.0746912 0.0210035 0.200846 68 76 70
-0.0741305 0.0211436 0.202186 68 73 73
-0.072378 0.0209429 0.200267 68 75 77
-0.0693565 0.0203638 0.194729 70 78 78
-0.0708497 0.0211127 0.20189 71 77 77
-0.0702438 0.0212493 0.203196 71 75 76
-0.0674907 0.0207306 0.198236 76 81 82
-0.0694423 0.0216633 0.207155 75 83 84
-0.0650333 0.0206099 0.197082 74 83 87
-0.0653293 0.0210376 0.201172 73 84 87
-0.0625564 0.0204749 0.195791 73 85 88
-0.0639425 0.0212774 0.203465 76 85 88
-0.0640524 0.0216752 0.207269 83 87 86
-0.0609486 0.0209805 0.200626 84 90 89
-0.059414 0.0208111 0.199006 85 103 101
-0.0605207 0.0215773 0.206332 78 113 115
-0.0586723 0.0212986 0.203668 86 127 128
-0.056914 0.0210429 0.201222 89 131 124
-0.0551684 0.0207823 0.198731 95 134 122
-0.0551216 0.021164 0.202381 101 138 127
-0.0537398 0.0210381 0.201176 120 158 149
-0.051828 0.0206954 0.1979 107 164 152
-0.051217 0.0208688 0.199558 107 168 154
-0.0500541 0.0208199 0.19909 127 181 164
-0.0500262 0.021251 0.203213 139 186 170
-0.0473302 0.0205428 0.196441 141 195 177
-0.047256 0.0209664 0.200491 147 201 180
-0.0456772 0.0207265 0.198197 144 200 176
-0.0449257 0.0208596 0.19947 150 204 180
-0.0443873 0.0211004 0.201772 159 206 190
-0.0418569 0.0203828 0.19491 166 209 194
-0.0416121 0.0207701 0.198614 159 205 186
-0.0398658 0.0204087 0.195158 160 204 186
-0.039926 0.0209774 0.200596 155 202 184
-0.0376079 0.0202935 0.194057 145 202 181
-0.0373403 0.0207088 0.198028 155 211 191
-0.0364636 0.0208004 0.198904 155 221 197
-0.0346782 0.0203638 0.194729 135 214 186
-0.033513 0.0202759 0.193888 159 212 184
-0.0334644 0.0208792 0.199657 150 208 179
-0.0324321 0.0208878 0.19974 155 211 182
-0.0307074 0.0204363 0.195422 154 212 182
-0.0294506 0.0202757 0.193886 142 206 173
-0.0282156 0.0201192 0.19239 143 207 176
-0.0272169 0.0201259 0.192454 147 209 182
-0.0258788 0.0198725 0.19003 171 219 199
-0.0247456 0.0197623 0.188977 165 214 193
-0.0243237 0.0202347 0.193495 158 213 187
-0.0223527 0.0194036 0.185547 151 212 184
-0.0218631 0.0198412 0.189732 145 204 174
-0.0208781 0.0198496 0.189812 135 199 171
-0.0197848 0.0197507 0.188866 143 204 177
-0.0184006 0.0193356 0.184897 146 201 173
-0.0176681 0.0195974 0.1874 130 183 158
-0.0170467 0.0200204 0.191445 117 152 129
-0.015457 0.019288 0.184441 83 102 97
-0.0147014 0.0195681 0.18712 59 77 81
-0.0138775 0.0197907 0.189249 61 76 81
-0.012597 0.0193465 0.185001 63 67 73
-0.0118612 0.0197346 0.188712 65 61 68
-0.0106177 0.0192716 0.184285 64 59 69
-0.00974266 0.0194517 0.186007 61 55 67
-0.00882608 0.0195797 0.187231 59 52 65
-0.00792282 0.0197729 0.189078 59 51 65
-0.0069455 0.0198101 0.189434 60 53 66
-0.00570536 0.018985 0.181544 61 54 67
-0.00474291 0.0189389 0.181103 59 52 66
-0.00386561 0.0192947 0.184505 58 50 65
-0.00296397 0.0197257 0.188627 59 51 66
-0.00196983 0.0196643 0.18804 57 48 65
-0.000975033 0.019467 0.186153 56 48 65
0 0.0194353 0.18585 59 50 66
0.000978606 0.0195383 0.186835 60 52 67
0.00194473 0.0194138 0.185644 60 51 67
0.00289477 0.0192652 0.184223 59 48 65
0.00388743 0.0194036 0.185547 57 46 63
0.00475237 0.0189767 0.181465 57 45 64
0.00567667 0.0188896 0.180632 55 43 62
0.0067615 0.0192852 0.184415 58 46 64
0.00736694 0.0183856 0.175812 58 46 64
0.00852342 0.0189083 0.18081 56 43 63
0.00950721 0.0189816 0.181512 57 45 64
0.0103578 0.0187998 0.179773 59 46 65
0.0112555 0.0187268 0.179075 57 44 63
0.0119579 0.018365 0.175615 56 42 62
0.0130093 0.0185526 0.177409 56 42 62
0.014078 0.0187383 0.179185 57 43 63
