ply
format ascii 1.0
element vertex 1271
property float x
property float y
property float z
property uchar red
property uchar green
property uchar blue
end_header
-0.257921 -0.314693 0.781624 181 221 204
-0.269699 -0.334371 0.830499 187 224 205
-0.242109 -0.305086 0.757762 189 227 200
-0.274775 -0.352019 0.874334 191 227 200
-0.25169 -0.32791 0.814453 193 228 202
-0.230202 -0.305086 0.757762 194 228 202
-0.226233 -0.305086 0.757762 191 228 200
-0.206739 -0.283776 0.704833 190 228 199
-0.234627 -0.32791 0.814453 192 229 199
-0.266517 -0.379377 0.942284 192 229 199
-0.238958 -0.346567 0.860791 192 229 199
-0.24373 -0.360285 0.894863 194 230 201
-0.225467 -0.339823 0.844042 190 228 197
-0.184589 -0.283776 0.704833 194 229 201
-0.211181 -0.331283 0.822829 192 229 199
-0.199916 -0.320146 0.795167 192 229 200
-0.182721 -0.298836 0.742238 193 229 201
-0.178834 -0.298836 0.742238 191 228 199
-0.16613 -0.283776 0.704833 193 229 201
-0.189632 -0.331283 0.822829 193 229 200
-0.201546 -0.360285 0.894863 191 229 199
-0.163283 -0.298836 0.742238 192 229 200
-0.170762 -0.320146 0.795167 191 229 199
-0.176837 -0.339823 0.844042 192 229 200
-0.172416 -0.339823 0.844042 191 229 199
-0.150822 -0.305086 0.757762 189 228 198
-0.121253 -0.251902 0.625666 191 229 199
-0.159153 -0.339823 0.844042 191 229 199
-0.183323 -0.402614 1 190 229 200
-0.178085 -0.402614 1 189 229 199
-0.172847 -0.402614 1 187 228 198
-0.167609 -0.402614 1 187 228 198
-0.210298 -0.521453 1.29517 187 228 199
-0.224631 -0.575559 1.42955 183 227 196
-0.239869 -0.635795 1.57917 190 229 202
-0.233236 -0.640291 1.59033 180 225 197
-0.206841 -0.588862 1.46259 164 219 190
-0.204274 -0.603922 1.5 158 214 183
-0.206784 -0.635795 1.57917 144 208 170
-0.193263 -0.618981 1.53741 171 219 191
-0.180704 -0.603922 1.5 167 218 190
-0.189485 -0.662053 1.64438 146 212 177
-0.178813 -0.654516 1.62567 185 228 205
-0.142009 -0.54579 1.35562 175 224 202
-0.138814 -0.561592 1.39486 163 215 189
-0.148884 -0.635795 1.57917 163 216 190
-0.12979 -0.586859 1.45762 173 221 195
-0.122156 -0.586859 1.45762 158 215 186
-0.114521 -0.586859 1.45762 180 225 202
-0.109994 -0.603922 1.5 169 220 193
-0.0988091 -0.584244 1.45113 159 215 186
-0.0942803 -0.603922 1.5 175 220 197
-0.0888653 -0.620984 1.54238 160 208 176
-0.0785669 -0.603922 1.5 153 203 167
-0.072708 -0.620984 1.54238 190 227 208
-0.0608056 -0.584244 1.45113 145 208 181
-0.0509198 -0.559151 1.3888 149 205 174
-0.0459646 -0.588862 1.46259 173 215 188
-0.03653 -0.561592 1.39486 144 198 164
-0.0305389 -0.586859 1.45762 124 179 152
-0.0229042 -0.586859 1.45762 115 150 127
-0.0147671 -0.567552 1.40967 100 119 103
-0.00785669 -0.603922 1.5 87 97 89
0 -0.54579 1.35562 83 82 79
0.00785669 -0.603922 1.5 84 78 77
0.0166597 -0.640291 1.59033 77 70 71
0.0226632 -0.580684 1.44228 76 67 69
0.0340596 -0.654516 1.62567 73 64 66
0.0392835 -0.603922 1.5 71 61 65
0.0443012 -0.567552 1.40967 72 61 65
0.0532049 -0.584244 1.45113 68 55 61
0.0610778 -0.586859 1.45762 67 52 59
0.0730142 -0.623599 1.54887 65 50 56
0.0755439 -0.580684 1.44228 68 53 60
0.0864236 -0.603922 1.5 65 51 59
0.0973523 -0.623599 1.54887 65 50 57
0.105465 -0.623599 1.54887 64 48 56
0.120581 -0.662053 1.64438 61 41 52
0.12118 -0.620984 1.54238 60 39 51
0.129803 -0.623599 1.54887 59 36 50
0.129212 -0.584244 1.45113 61 40 52
0.14142 -0.603922 1.5 61 39 51
0.149277 -0.603922 1.5 60 36 49
0.157134 -0.603922 1.5 60 35 49
0.160329 -0.586859 1.45762 60 35 49
0.168537 -0.588862 1.46259 60 37 51
0.185809 -0.620984 1.54238 60 37 52
0.194705 -0.623599 1.54887 59 34 50
0.190868 -0.586859 1.45762 60 34 50
0.21093 -0.623599 1.54887 59 36 51
0.212131 -0.603922 1.5 61 39 53
0.219987 -0.603922 1.5 64 46 58
0.241566 -0.640291 1.59033 61 42 56
0.249895 -0.640291 1.59033 63 44 57
0.236676 -0.586859 1.45762 67 50 61
0.258517 -0.620984 1.54238 68 53 64
0.259271 -0.603922 1.5 68 55 66
0.283215 -0.640291 1.59033 70 58 67
0.258424 -0.567552 1.40967 67 54 64
0.290832 -0.620984 1.54238 69 57 67
0.308204 -0.640291 1.59033 68 57 67
0.291109 -0.588862 1.46259 70 58 69
0.297754 -0.586859 1.45762 70 60 70
0.323147 -0.620984 1.54238 68 59 69
0.322124 -0.603922 1.5 69 61 71
0.340733 -0.623599 1.54887 68 61 71
0.347383 -0.620984 1.54238 69 62 72
0.356958 -0.623599 1.54887 70 63 73
0.36354 -0.620984 1.54238 69 62 72
0.361408 -0.603922 1.5 70 64 73
0.369265 -0.603922 1.5 70 65 74
0.399833 -0.640291 1.59033 71 66 75
0.397522 -0.623599 1.54887 70 66 74
0.430648 -0.662053 1.64438 70 66 75
0.43426 -0.654516 1.62567 72 68 76
0.433152 -0.640291 1.59033 72 68 76
0.45129 -0.654516 1.62567 72 68 77
0.449812 -0.640291 1.59033 74 71 79
0.458142 -0.640291 1.59033 73 71 79
0.511027 -0.70145 1.74224 74 71 79
0.474801 -0.640291 1.59033 76 73 81
0.442814 -0.586859 1.45762 75 74 81
0.491461 -0.640291 1.59033 75 74 81
0.471402 -0.603922 1.5 75 75 82
0.497699 -0.627159 1.55772 76 78 84
0.521258 -0.646251 1.60514 77 79 85
0.529665 -0.646251 1.60514 78 80 86
0.479213 -0.575559 1.42955 77 78 85
0.568393 -0.672165 1.6695 78 80 86
0.518542 -0.603922 1.5 78 82 88
0.598281 -0.68639 1.70483 80 84 89
0.594626 -0.672165 1.6695 82 87 91
0.542112 -0.603922 1.5 83 86 94
0.588517 -0.646251 1.60514 87 88 96
0.604558 -0.654516 1.62567 87 87 95
0.605331 -0.646251 1.60514 88 90 98
0.595607 -0.627159 1.55772 89 95 98
0.603766 -0.627159 1.55772 85 93 92
0.638618 -0.654516 1.62567 86 96 97
0.625152 -0.632284 1.57045 89 100 101
0.667865 -0.666713 1.65596 92 106 107
0.561482 -0.553327 1.37433 95 109 110
0.620679 -0.603922 1.5 92 106 107
0.681192 -0.654516 1.62567 95 109 110
0.674718 -0.640291 1.59033 96 112 111
0.644249 -0.603922 1.5 104 120 121
0.691377 -0.640291 1.59033 102 120 121
0.72858 -0.666713 1.65596 106 125 120
0.667819 -0.603922 1.5 109 126 122
0.634984 -0.567552 1.40967 111 126 125
0.612464 -0.541131 1.34404 114 133 129
0.733027 -0.640291 1.59033 114 140 131
0.640665 -0.553327 1.37433 118 145 130
0.883564 -0.754634 1.87433 117 144 128
0.671902 -0.567552 1.40967 125 146 131
0.86505 -0.72276 1.79517 148 156 139
0.563085 -0.465405 1.15596 163 169 152
0.738529 -0.603922 1.5 161 171 153
0.644463 -0.521453 1.29517 149 162 138
0.857238 -0.68639 1.70483 131 147 116
0.866168 -0.68639 1.70483 133 148 119
0.513304 -0.402614 1 136 146 124
0.324434 -0.251902 0.625666 118 125 113
0.892957 -0.68639 1.70483 106 121 110
0.611522 -0.465405 1.15596 102 127 116
0.69195 -0.521453 1.29517 105 131 120
0.269746 -0.201307 0.5 108 132 122
0.544731 -0.402614 1 112 136 125
0.387636 -0.283776 0.704833 114 143 135
0.441482 -0.320146 0.795167 112 144 137
0.395019 -0.283776 0.704833 116 150 137
0.166971 -0.118839 0.295167 124 156 139
0.168517 -0.118839 0.295167 130 158 144
0.156484 -0.10935 0.271599 127 159 143
0.147504 -0.102146 0.253707 134 165 150
0.154803 -0.106243 0.263883 135 169 156
0.121235 -0.0824686 0.204833 137 173 160
0.12011 -0.0809871 0.201153 138 176 159
0.126523 -0.0845695 0.210051 143 181 164
0.129751 -0.0859795 0.213553 146 183 167
0.132082 -0.086776 0.215531 153 184 168
0.129637 -0.0844478 0.209749 165 194 176
0.124631 -0.0805046 0.199955 170 199 178
-0.388433 -0.245583 0.617996 65 59 69
-0.364948 -0.232674 0.585512 63 59 68
-0.355109 -0.228319 0.574554 65 61 69
-0.387363 -0.251186 0.632096 63 60 67
-0.358678 -0.23459 0.590334 65 61 69
-0.34139 -0.225225 0.566767 66 62 70
-0.361333 -0.240473 0.605137 67 62 71
-0.378329 -0.254012 0.639209 69 62 72
-0.340937 -0.230951 0.581175 69 63 72
-0.359904 -0.245995 0.619035 70 63 73
-0.345519 -0.23831 0.599696 71 66 73
-0.342378 -0.23831 0.599696 69 65 71
-0.353928 -0.248631 0.625666 68 65 71
-0.358241 -0.254012 0.639209 68 65 73
-0.343692 -0.245995 0.619035 68 67 74
-0.329814 -0.23831 0.599696 71 70 78
-0.352504 -0.257155 0.647117 75 75 82
-0.358125 -0.263791 0.663817 74 71 78
-0.348283 -0.259057 0.651903 74 72 79
-0.33439 -0.251186 0.632096 75 76 84
-0.363428 -0.275729 0.693858 76 78 84
-0.342357 -0.262366 0.660231 78 80 85
-0.307826 -0.23831 0.599696 75 83 87
-0.346555 -0.271059 0.682106 79 87 89
-0.331983 -0.262366 0.660231 84 83 90
-0.333138 -0.26605 0.669501 87 89 98
-0.314716 -0.254012 0.639209 83 85 91
-0.343335 -0.28009 0.704833 87 94 94
-0.311831 -0.257155 0.647117 86 94 99
-0.347184 -0.289456 0.7284 89 100 104
-0.321546 -0.271059 0.682106 88 100 104
-0.334274 -0.284955 0.717074 94 103 107
-0.34058 -0.29363 0.738905 98 106 108
-0.321184 -0.28009 0.704833 99 108 107
-0.323006 -0.284955 0.717074 99 111 110
-0.302691 -0.270175 0.67988 99 113 111
-0.30011 -0.271059 0.682106 105 126 120
-0.295569 -0.270175 0.67988 105 134 120
-0.313879 -0.290411 0.730803 107 135 125
-0.280646 -0.262868 0.661494 114 134 128
-0.306224 -0.290411 0.730803 114 134 127
-0.329029 -0.315988 0.795167 114 132 126
-0.293491 -0.285472 0.718376 121 146 142
-0.278296 -0.274208 0.69003 121 159 152
-0.304081 -0.303556 0.763883 123 164 153
-0.289696 -0.293053 0.737451 126 160 151
-0.296079 -0.303556 0.763883 131 165 155
-0.287279 -0.298568 0.751332 142 179 165
-0.265807 -0.28009 0.704833 142 182 166
-0.29571 -0.315988 0.795167 149 186 173
-0.28745 -0.31155 0.784 158 190 182
-0.268251 -0.294955 0.742238 155 191 177
-0.283215 -0.315988 0.795167 147 190 176
-0.253385 -0.286926 0.722035 144 190 178
-0.261954 -0.301124 0.757762 151 195 183
-0.245822 -0.286926 0.722035 161 203 185
-0.244174 -0.289456 0.7284 155 204 182
-0.256714 -0.309152 0.777965 172 212 196
-0.236543 -0.289456 0.7284 172 213 196
-0.232728 -0.289456 0.7284 186 222 203
-0.23814 -0.301124 0.757762 186 223 203
-0.217814 -0.28009 0.704833 186 224 202
-0.241566 -0.315988 0.795167 189 225 200
-0.226233 -0.301124 0.757762 189 226 200
-0.215221 -0.291582 0.73375 191 228 199
-0.234627 -0.323652 0.814453 190 228 199
-0.230361 -0.323652 0.814453 191 228 199
-0.203691 -0.291582 0.73375 191 228 198
-0.191972 -0.28009 0.704833 192 229 199
-0.24598 -0.365926 0.920833 188 226 196
-0.202074 -0.306623 0.771599 193 229 200
-0.180897 -0.28009 0.704833 193 229 200
-0.177205 -0.28009 0.704833 192 229 200
-0.195751 -0.315988 0.795167 193 229 200
-0.198251 -0.32698 0.822829 191 228 199
-0.16613 -0.28009 0.704833 192 229 200
-0.201502 -0.347448 0.874334 191 229 199
-0.201546 -0.355606 0.894863 191 228 198
-0.181012 -0.32698 0.822829 191 229 199
-0.187763 -0.347448 0.874334 191 229 199
-0.123682 -0.23459 0.590334 191 229 199
-0.182797 -0.355606 0.894863 191 229 200
-0.167995 -0.33541 0.844042 190 229 199
-0.154102 -0.315988 0.795167 189 228 198
-0.227184 -0.478783 1.20483 189 228 198
-0.183323 -0.397386 1 188 228 198
-0.155706 -0.347448 0.874334 188 229 199
-0.172847 -0.397386 1 189 229 199
-0.201941 -0.478783 1.20483 189 229 199
-0.232119 -0.568084 1.42955 188 228 198
-0.24477 -0.619014 1.55772 185 228 197
-0.221407 -0.579238 1.45762 153 213 174
-0.236296 -0.640268 1.6112 185 227 202
-0.222093 -0.624073 1.57045 195 233 212
-0.209368 -0.610943 1.53741 156 214 180
-0.191519 -0.581214 1.46259 193 229 207
-0.193263 -0.610943 1.53741 181 224 198
-0.190241 -0.627538 1.57917 171 220 193
-0.180965 -0.624073 1.57045 172 223 198
-0.145503 -0.525673 1.32283 179 226 202
-0.157134 -0.596078 1.5 181 226 203
-0.149277 -0.596078 1.5 160 213 187
-0.131508 -0.554299 1.39486 168 218 192
-0.138703 -0.619014 1.55772 169 219 193
-0.119073 -0.564619 1.42083 168 219 192
-0.110753 -0.560181 1.40967 175 223 198
-0.109994 -0.596078 1.5 184 228 206
-0.104684 -0.610943 1.53741 162 218 189
-0.0893044 -0.564619 1.42083 169 219 192
-0.0892396 -0.6155 1.54887 171 213 184
-0.0763472 -0.579238 1.45762 150 202 163
-0.0707102 -0.596078 1.5 200 231 215
-0.0628536 -0.596078 1.5 157 213 187
-0.0536254 -0.581214 1.46259 141 202 167
-0.048954 -0.619014 1.55772 168 213 185
-0.0392835 -0.596078 1.5 180 215 193
-0.0314268 -0.596078 1.5 171 209 190
-0.0241578 -0.610943 1.53741 130 178 150
-0.0152694 -0.579238 1.45762 117 145 119
-0.00811269 -0.6155 1.54887 94 115 92
0 -0.596078 1.5 89 96 83
0.00710044 -0.538702 1.35562 83 82 79
0.0142009 -0.538702 1.35562 79 76 74
0.0235701 -0.596078 1.5 75 69 69
0.0330854 -0.627538 1.57917 77 68 69
0.0403933 -0.612919 1.54238 74 64 68
0.048472 -0.612919 1.54238 68 56 60
0.0549969 -0.596078 1.5 70 57 63
0.0610778 -0.579238 1.45762 69 55 61
0.0664519 -0.560181 1.40967 66 51 58
0.0785669 -0.596078 1.5 67 52 59
0.0781048 -0.538702 1.35562 65 48 56
0.0906527 -0.573143 1.44228 61 43 53
0.095986 -0.560181 1.40967 64 48 57
0.109994 -0.596078 1.5 64 45 55
0.114521 -0.579238 1.45762 61 41 52
0.129803 -0.6155 1.54887 60 38 51
0.12552 -0.560181 1.40967 61 38 52
0.145416 -0.612919 1.54238 61 39 51
0.149277 -0.596078 1.5 60 38 51
0.157134 -0.596078 1.5 59 34 48
0.164991 -0.596078 1.5 60 36 50
0.167964 -0.579238 1.45762 60 38 51
0.174816 -0.576656 1.45113 60 36 51
0.193888 -0.612919 1.54238 60 36 50
0.190017 -0.576656 1.45113 62 38 53
0.212134 -0.619014 1.55772 65 45 57
0.194359 -0.546141 1.37433 62 40 54
0.219987 -0.596078 1.5 63 45 57
0.241566 -0.631976 1.59033 63 45 58
0.258389 -0.653455 1.64438 61 43 56
0.251493 -0.6155 1.54887 65 50 62
0.266555 -0.631976 1.59033 64 50 62
0.269247 -0.619014 1.55772 67 55 66
0.273789 -0.610943 1.53741 69 57 67
0.289497 -0.627538 1.57917 67 55 66
0.282841 -0.596078 1.5 69 57 67
0.266344 -0.546141 1.37433 68 57 67
0.288827 -0.576656 1.45113 69 58 68
0.306411 -0.596078 1.5 68 59 69
0.314268 -0.596078 1.5 67 59 68
0.33262 -0.6155 1.54887 69 61 72
0.329981 -0.596078 1.5 70 62 73
0.337838 -0.596078 1.5 70 63 73
0.345695 -0.596078 1.5 69 61 71
0.365071 -0.6155 1.54887 70 63 74
0.380482 -0.627538 1.57917 70 64 74
0.41288 -0.666484 1.67717 69 63 73
0.377121 -0.596078 1.5 69 64 74
0.397522 -0.6155 1.54887 69 64 73
0.430648 -0.653455 1.64438 70 65 73
0.442352 -0.658054 1.65596 71 66 75
0.433152 -0.631976 1.59033 72 67 76
0.441482 -0.631976 1.59033 72 68 76
0.438085 -0.6155 1.54887 72 69 77
0.458142 -0.631976 1.59033 72 69 78
0.454311 -0.6155 1.54887 72 69 78
0.500727 -0.666484 1.67717 73 70 78
0.470536 -0.6155 1.54887 74 72 79
0.478649 -0.6155 1.54887 74 72 79
0.510894 -0.646016 1.62567 75 74 81
0.479258 -0.596078 1.5 74 74 81
0.553633 -0.677476 1.70483 76 76 83
0.521095 -0.627538 1.57917 77 77 85
0.502828 -0.596078 1.5 80 80 86
0.54648 -0.637858 1.60514 79 80 87
0.589351 -0.677476 1.70483 78 79 86
0.54355 -0.6155 1.54887 78 81 87
0.534255 -0.596078 1.5 79 81 88
0.559775 -0.6155 1.54887 80 82 90
0.596043 -0.646016 1.62567 82 83 91
0.623712 -0.666484 1.67717 86 86 93
0.592249 -0.624073 1.57045 85 86 94
0.595607 -0.619014 1.55772 84 86 92
0.681303 -0.698509 1.75776 87 90 94
0.589252 -0.596078 1.5 87 93 97
0.678647 -0.677476 1.70483 86 91 96
0.604965 -0.596078 1.5 88 93 99
0.589242 -0.573143 1.44228 86 96 101
0.685212 -0.658054 1.65596 88 100 104
0.628536 -0.596078 1.5 91 104 107
0.689707 -0.646016 1.62567 92 104 106
0.732224 -0.677476 1.70483 97 108 109
0.62148 -0.568084 1.42955 100 111 113
0.628968 -0.568084 1.42955 101 114 113
0.723767 -0.646016 1.62567 102 114 113
0.767943 -0.677476 1.70483 105 117 117
0.683532 -0.596078 1.5 110 124 123
0.733027 -0.631976 1.59033 114 131 124
0.699246 -0.596078 1.5 115 133 121
0.707102 -0.596078 1.5 116 138 122
0.671902 -0.560181 1.40967 116 134 116
0.66226 -0.546141 1.37433 144 158 141
0.669459 -0.546141 1.37433 145 156 140
0.637679 -0.514681 1.29517 139 148 136
0.599513 -0.478783 1.20483 125 133 119
0.651247 -0.514681 1.29517 109 115 105
0.587303 -0.459361 1.15596 108 113 105
0.664814 -0.514681 1.29517 110 114 109
0.624756 -0.478783 1.20483 100 109 106
0.52378 -0.397386 1 92 108 107
0.529017 -0.397386 1 95 111 111
0.376561 -0.28009 0.704833 101 118 117
0.741444 -0.546141 1.37433 102 121 117
0.340819 -0.248631 0.625666 108 128 121
0.437317 -0.315988 0.795167 110 136 128
0.347374 -0.248631 0.625666 110 138 130
0.209793 -0.148755 0.374334 109 137 128
0.250192 -0.175757 0.442284 115 144 130
0.105933 -0.0737338 0.185547 119 144 131
0.111096 -0.0766249 0.192822 120 145 132
0.103006 -0.0704052 0.177171 123 152 138
0.135397 -0.0917177 0.230803 126 154 143
0.13835 -0.0928889 0.23375 134 161 149
0.130394 -0.0867794 0.218376 134 163 150
0.114797 -0.0757347 0.190582 133 165 149
0.129349 -0.0845997 0.212891 136 168 152
0.131694 -0.085397 0.214897 146 172 158
0.125158 -0.0804709 0.202501 144 180 160
0.13264 -0.0845654 0.212804 139 182 156
-0.337778 -0.210747 0.537405 64 58 67
-0.343752 -0.216277 0.551505 64 58 66
-0.350296 -0.222261 0.566767 63 59 67
-0.367507 -0.235175 0.599696 64 59 66
-0.324131 -0.209206 0.533475 65 60 69
-0.320331 -0.208551 0.531804 65 61 69
-0.326319 -0.214313 0.546499 67 61 70
-0.322181 -0.213468 0.544343 66 59 69
-0.330539 -0.220961 0.563451 67 60 69
-0.327588 -0.220961 0.563451 68 61 70
-0.345519 -0.235175 0.599696 69 62 70
-0.339575 -0.23325 0.594786 68 63 70
-0.331213 -0.229612 0.585512 67 62 69
-0.336096 -0.235175 0.599696 68 63 70
-0.311164 -0.219784 0.560448 67 64 71
-0.322013 -0.229612 0.585512 70 67 74
-0.340819 -0.245359 0.625666 68 65 73
-0.330742 -0.240416 0.613061 69 66 73
-0.322014 -0.236366 0.602735 72 68 76
-0.344868 -0.255648 0.651903 74 71 78
-0.318276 -0.238295 0.607653 68 65 73
-0.317898 -0.240416 0.613061 71 70 77
-0.310619 -0.237309 0.605137 72 73 78
-0.32739 -0.2527 0.644385 75 75 80
-0.311268 -0.242759 0.619035 78 76 82
-0.314525 -0.247881 0.632096 78 77 83
-0.331102 -0.263722 0.67249 77 79 81
-0.333171 -0.268223 0.683967 82 85 85
-0.34459 -0.280431 0.7151 88 80 93
-0.301282 -0.247881 0.632096 85 73 87
-0.317013 -0.263722 0.67249 81 85 91
-0.318841 -0.268223 0.683967 81 88 91
-0.304318 -0.258914 0.660231 90 96 98
-0.294884 -0.253771 0.647117 88 96 95
-0.328108 -0.285647 0.7284 89 103 98
-0.3138 -0.276405 0.704833 88 103 97
-0.310109 -0.276405 0.704833 90 110 105
-0.311739 -0.281205 0.717074 97 115 111
-0.313879 -0.286589 0.730803 100 113 113
-0.276102 -0.255209 0.650783 101 116 116
-0.289785 -0.271205 0.691572 101 116 116
-0.297254 -0.281716 0.718376 102 115 114
-0.30324 -0.291074 0.742238 104 117 119
-0.29474 -0.286589 0.730803 97 123 122
-0.269563 -0.265557 0.677171 105 134 131
-0.288242 -0.287745 0.73375 115 145 138
-0.289261 -0.292664 0.746293 120 155 147
-0.280556 -0.287745 0.73375 123 160 154
-0.299874 -0.31183 0.795167 134 171 165
-0.267751 -0.282348 0.719988 141 178 170
-0.264731 -0.283151 0.722035 143 180 171
-0.283344 -0.307451 0.784 145 182 165
-0.287493 -0.31654 0.807177 151 187 171
-0.283265 -0.31654 0.807177 144 186 172
-0.256588 -0.291074 0.742238 144 187 173
-0.2527 -0.291074 0.742238 149 190 174
-0.262015 -0.306519 0.781624 149 188 173
-0.250047 -0.297162 0.757762 154 192 181
-0.243125 -0.293595 0.748668 153 197 185
-0.25406 -0.31183 0.795167 162 208 193
-0.255956 -0.319393 0.814453 167 212 197
-0.240415 -0.305084 0.777965 177 218 199
-0.23634 -0.305084 0.777965 183 221 201
-0.223518 -0.293595 0.748668 190 226 204
-0.183518 -0.245359 0.625666 190 227 200
-0.218295 -0.297162 0.757762 189 227 198
-0.206022 -0.285647 0.7284 191 228 199
-0.185856 -0.26255 0.669501 192 229 199
-0.191972 -0.276405 0.704833 192 228 198
-0.225467 -0.330997 0.844042 191 228 199
-0.202074 -0.302588 0.771599 191 228 199
-0.190497 -0.291074 0.742238 192 229 200
-0.190512 -0.297162 0.757762 192 229 199
-0.202561 -0.322678 0.822829 192 229 200
-0.178834 -0.291074 0.742238 192 229 199
-0.193941 -0.322678 0.822829 190 228 199
-0.162438 -0.276405 0.704833 192 229 200
-0.0967463 -0.168452 0.429553 191 229 199
-0.166698 -0.297162 0.757762 191 229 199
-0.151363 -0.276405 0.704833 190 228 198
-0.187484 -0.350927 0.894863 189 228 198
-0.154791 -0.297162 0.757762 190 229 198
-0.174024 -0.342876 0.874334 190 229 199
-0.169445 -0.342876 0.874334 189 228 198
-0.168736 -0.350927 0.894863 188 228 197
-0.211914 -0.453317 1.15596 187 228 197
-0.0890425 -0.196078 0.5 187 228 198
-0.194568 -0.441438 1.12567 185 227 196
-0.230351 -0.538954 1.37433 185 227 195
-0.218234 -0.527075 1.34404 182 226 193
-0.228021 -0.569069 1.45113 197 232 206
-0.227844 -0.588235 1.5 171 223 194
-0.233236 -0.623661 1.59033 164 221 191
-0.212131 -0.588235 1.5 193 233 211
-0.191972 -0.55281 1.40967 162 219 187
-0.220263 -0.659649 1.68211 160 212 181
-0.188561 -0.588235 1.5 190 227 204
-0.180704 -0.588235 1.5 143 209 173
-0.177731 -0.604854 1.54238 162 219 189
-0.169105 -0.602904 1.53741 172 223 197
-0.14397 -0.538954 1.37433 168 219 191
-0.149277 -0.588235 1.5 168 217 189
-0.14142 -0.588235 1.5 170 219 192
-0.12979 -0.571616 1.45762 182 225 202
-0.121611 -0.569069 1.45113 162 216 188
-0.110753 -0.55281 1.40967 177 222 197
-0.104188 -0.557189 1.42083 181 226 202
-0.102137 -0.588235 1.5 164 220 190
-0.0912084 -0.569069 1.45113 164 217 187
-0.0888653 -0.604854 1.54238 174 217 189
-0.0763472 -0.571616 1.45762 146 204 164
-0.0687125 -0.571616 1.45762 177 221 194
-0.0628536 -0.588235 1.5 179 221 198
-0.0511421 -0.547005 1.39486 164 214 186
-0.0471402 -0.588235 1.5 140 202 164
-0.0403933 -0.604854 1.54238 163 210 179
-0.0322105 -0.602904 1.53741 191 222 203
-0.0221506 -0.55281 1.40967 164 204 177
-0.0148841 -0.557189 1.42083 138 185 154
-0.00811269 -0.607402 1.54887 124 155 122
0 -0.588235 1.5 108 130 104
0.00807866 -0.604854 1.54238 87 96 89
0.0157134 -0.588235 1.5 80 87 78
0.0235701 -0.588235 1.5 77 82 72
0.0295342 -0.55281 1.40967 79 73 73
0.0380035 -0.569069 1.45113 74 65 69
0.0443012 -0.55281 1.40967 73 62 66
0.0520942 -0.557189 1.42083 70 57 63
0.0608056 -0.569069 1.45113 68 54 60
0.0627199 -0.521764 1.3305 69 56 60
0.076007 -0.569069 1.45113 67 54 59
0.0818624 -0.557189 1.42083 65 48 57
0.0942803 -0.588235 1.5 62 45 54
0.109296 -0.629465 1.60514 62 44 54
0.109994 -0.588235 1.5 62 42 53
0.11163 -0.557189 1.42083 63 43 54
0.119073 -0.557189 1.42083 61 40 53
0.12979 -0.571616 1.45762 62 40 54
0.145416 -0.604854 1.54238 62 40 53
0.157156 -0.619281 1.57917 62 39 52
0.152694 -0.571616 1.45762 62 39 52
0.160329 -0.571616 1.45762 59 35 49
0.158367 -0.538954 1.37433 59 35 49
0.165565 -0.538954 1.37433 59 34 50
0.183233 -0.571616 1.45762 61 39 53
0.202817 -0.607402 1.54887 62 41 54
0.197618 -0.569069 1.45113 63 43 56
0.237186 -0.657714 1.67717 63 44 58
0.201557 -0.538954 1.37433 62 43 57
0.227844 -0.588235 1.5 65 50 62
0.267887 -0.668562 1.70483 65 49 61
0.243558 -0.588235 1.5 67 52 64
0.238145 -0.557189 1.42083 67 54 65
0.274885 -0.623661 1.59033 66 54 65
0.259581 -0.571616 1.45762 68 56 67
0.267215 -0.571616 1.45762 66 54 66
0.312249 -0.649395 1.65596 68 57 67
0.290698 -0.588235 1.5 67 56 66
0.298554 -0.588235 1.5 67 56 66
0.306411 -0.588235 1.5 68 58 69
0.304028 -0.569069 1.45113 67 59 69
0.322124 -0.588235 1.5 67 58 69
0.306852 -0.547005 1.39486 66 58 69
0.348846 -0.607402 1.54887 68 60 71
0.37897 -0.644857 1.64438 68 61 71
0.36354 -0.604854 1.54238 69 62 72
0.361408 -0.588235 1.5 67 61 71
0.407658 -0.649395 1.65596 67 61 71
0.377121 -0.588235 1.5 68 63 73
0.395855 -0.604854 1.54238 68 63 72
0.392835 -0.588235 1.5 69 64 73
0.400691 -0.588235 1.5 69 64 73
0.442775 -0.637516 1.62567 71 65 75
0.428169 -0.604854 1.54238 71 66 76
0.424261 -0.588235 1.5 71 67 76
0.432118 -0.588235 1.5 71 67 76
0.454311 -0.607402 1.54887 71 67 76
0.474801 -0.623661 1.59033 72 68 77
0.493865 -0.637516 1.62567 71 68 77
0.476641 -0.604854 1.54238 72 70 78
0.496281 -0.619281 1.57917 70 68 76
0.51285 -0.629465 1.60514 74 73 80
0.54465 -0.657714 1.67717 72 70 79
0.542616 -0.644857 1.64438 74 72 81
0.519212 -0.607402 1.54887 74 73 80
0.54648 -0.629465 1.60514 74 75 82
0.518542 -0.588235 1.5 76 77 85
0.526398 -0.588235 1.5 76 77 83
0.516848 -0.569069 1.45113 75 76 84
0.562971 -0.610869 1.55772 77 78 86
0.549969 -0.588235 1.5 80 80 88
0.576001 -0.607402 1.54887 79 79 87
0.565682 -0.588235 1.5 81 82 89
0.595607 -0.610869 1.55772 80 81 88
0.581395 -0.588235 1.5 82 84 89
0.589252 -0.588235 1.5 83 88 93
0.625152 -0.615861 1.57045 86 91 96
0.628243 -0.610869 1.55772 85 91 96
0.529138 -0.507909 1.29517 85 92 98
0.672678 -0.637516 1.62567 83 91 96
0.65272 -0.610869 1.55772 85 97 101
0.598067 -0.55281 1.40967 87 97 100
0.644249 -0.588235 1.5 88 97 99
0.691377 -0.623661 1.59033 93 102 104
0.690957 -0.615861 1.57045 94 105 106
0.667819 -0.588235 1.5 99 105 107
0.583409 -0.507909 1.29517 103 108 110
0.715634 -0.615861 1.57045 104 114 114
0.649752 -0.55281 1.40967 106 117 113
0.626544 -0.527075 1.34404 114 119 113
0.647863 -0.538954 1.37433 110 119 112
0.671902 -0.55281 1.40967 113 129 115
0.766346 -0.623661 1.59033 116 132 117
0.730673 -0.588235 1.5 126 139 125
0.637679 -0.507909 1.29517 117 127 116
0.746386 -0.588235 1.5 106 113 103
0.754243 -0.588235 1.5 97 103 95
0.658031 -0.507909 1.29517 95 96 95
0.664814 -0.507909 1.29517 94 99 99
0.671598 -0.507909 1.29517 92 102 104
0.52378 -0.392157 1 90 104 106
0.727047 -0.538954 1.37433 91 105 108
0.801383 -0.588235 1.5 90 105 108
0.455355 -0.330997 0.844042 94 110 108
0.383944 -0.276405 0.704833 100 117 111
0.274984 -0.196078 0.5 103 121 114
0.277603 -0.196078 0.5 103 122 114
0.280222 -0.196078 0.5 103 126 115
0.211754 -0.146798 0.374334 105 129 116
0.155061 -0.10651 0.271599 109 130 117
0.0955872 -0.0650606 0.165905 114 135 122
0.109351 -0.0737582 0.188083 112 137 125
0.120162 -0.0803266 0.204833 115 141 129
0.118772 -0.0786949 0.200672 118 145 132
0.127712 -0.0838759 0.213884 122 150 137
0.127202 -0.0828147 0.211178 120 150 136
0.131716 -0.0850144 0.216787 127 157 143
0.120478 -0.0770965 0.196596 128 159 144
0.129419 -0.0821162 0.209396 130 169 152
0.129054 -0.0811964 0.207051 130 179 156
-0.314268 -0.193464 0.5 64 58 66
-0.311649 -0.193464 0.5 64 58 66
-0.30903 -0.193464 0.5 63 58 66
-0.306411 -0.193464 0.5 63 58 65
-0.321362 -0.204653 0.528917 64 58 65
-0.309693 -0.198937 0.514145 65 59 67
-0.314384 -0.203722 0.52651 66 59 68
-0.303951 -0.198704 0.513543 68 61 69
-0.285019 -0.187991 0.485855 68 61 70
-0.290698 -0.193464 0.5 67 60 67
-0.303353 -0.203722 0.52651 69 62 68
-0.308628 -0.209166 0.54058 67 61 67
-0.27484 -0.187991 0.485855 68 61 69
-0.29508 -0.203722 0.52651 69 62 70
-0.292961 -0.204167 0.527662 68 63 70
-0.282433 -0.198704 0.513543 68 62 69
-0.31074 -0.220722 0.570447 67 63 69
-0.300884 -0.215796 0.557716 68 63 70
-0.297963 -0.215796 0.557716 68 62 70
-0.286928 -0.209862 0.542379 70 65 73
-0.309205 -0.228417 0.590334 69 65 72
-0.308422 -0.230139 0.594786 70 67 73
-0.309386 -0.233215 0.602735 72 72 77
-0.312206 -0.237767 0.614498 74 74 79
-0.29026 -0.223356 0.577255 75 72 77
-0.32064 -0.249331 0.644385 76 70 74
-0.295262 -0.232039 0.599696 77 68 72
-0.328809 -0.261182 0.675013 77 69 73
-0.33035 -0.265257 0.685547 81 69 81
-0.292209 -0.237211 0.613061 86 77 83
-0.297971 -0.244576 0.632096 82 86 84
-0.285787 -0.237211 0.613061 83 87 89
-0.294628 -0.247328 0.639209 82 87 87
-0.285109 -0.242088 0.625666 85 92 90
-0.287932 -0.247328 0.639209 85 98 93
-0.275602 -0.239522 0.619035 87 102 97
-0.30528 -0.268473 0.693858 88 103 98
-0.296537 -0.263926 0.682106 90 103 102
-0.298011 -0.268473 0.693858 93 103 105
-0.288447 -0.263065 0.67988 95 107 107
-0.290309 -0.268073 0.692823 92 105 104
-0.27703 -0.259049 0.669501 93 106 103
-0.272054 -0.257657 0.665905 94 106 107
-0.284266 -0.27272 0.704833 98 111 115
-0.259059 -0.251806 0.650783 103 120 120
-0.282836 -0.278583 0.719988 106 129 125
-0.267454 -0.266992 0.69003 113 143 138
-0.280556 -0.283909 0.73375 117 147 143
-0.276713 -0.283909 0.73375 130 152 148
-0.262116 -0.27272 0.704833 129 159 152
-0.284253 -0.299977 0.775279 136 168 159
-0.295593 -0.316466 0.817894 143 177 161
-0.262658 -0.285341 0.737451 148 180 165
-0.260475 -0.287193 0.742238 147 180 167
-0.219957 -0.246193 0.636275 148 181 168
-0.262696 -0.298554 0.771599 153 182 169
-0.262015 -0.302432 0.781624 149 177 164
-0.300172 -0.351975 0.909666 146 175 166
-0.235348 -0.280415 0.724721 147 184 175
-0.212093 -0.25685 0.663817 142 189 177
-0.228913 -0.281839 0.7284 148 196 185
-0.260834 -0.326583 0.844042 152 204 188
-0.247424 -0.315135 0.814453 170 213 196
-0.226233 -0.293199 0.757762 173 216 197
-0.233236 -0.307673 0.795167 180 222 196
-0.185634 -0.249331 0.644385 184 224 196
-0.224906 -0.307673 0.795167 187 225 197
-0.220741 -0.307673 0.795167 189 227 199
-0.184438 -0.262017 0.677171 190 228 201
-0.236542 -0.342625 0.885502 191 229 200
-0.221046 -0.326583 0.844042 191 228 198
-0.204081 -0.307673 0.795167 191 228 199
-0.162007 -0.249331 0.644385 190 228 198
-0.207783 -0.326583 0.844042 191 228 199
-0.158046 -0.253809 0.655958 191 229 199
-0.21092 -0.346248 0.894863 191 228 199
-0.162438 -0.27272 0.704833 190 229 199
-0.158746 -0.27272 0.704833 192 229 200
-0.185679 -0.326583 0.844042 191 229 199
-0.162729 -0.293199 0.757762 190 228 198
-0.126783 -0.234144 0.605137 190 228 198
-0.182797 -0.346248 0.894863 190 228 198
-0.174024 -0.338304 0.874334 189 228 198
-0.193798 -0.386928 1 188 228 198
-0.188561 -0.386928 1 187 227 197
-0.154732 -0.326583 0.844042 187 228 197
-0.12552 -0.27272 0.704833 188 228 199
-0.172847 -0.386928 1 188 229 199
-0.208211 -0.480657 1.24224 188 229 201
-0.220114 -0.524526 1.35562 158 216 180
-0.229042 -0.563995 1.45762 145 209 168
-0.233526 -0.594865 1.53741 188 229 207
-0.219987 -0.580392 1.5 161 219 187
-0.218124 -0.59679 1.54238 176 224 197
-0.210045 -0.59679 1.54238 180 225 203
-0.202817 -0.599303 1.54887 149 208 176
-0.188561 -0.580392 1.5 178 222 196
-0.180704 -0.580392 1.5 159 215 185
-0.172847 -0.580392 1.5 158 216 184
-0.164991 -0.580392 1.5 169 222 192
-0.153215 -0.565919 1.46259 184 226 201
-0.14506 -0.563995 1.45762 159 211 182
-0.14142 -0.580392 1.5 163 215 184
-0.129212 -0.561481 1.45113 191 229 207
-0.122156 -0.563995 1.45762 159 216 183
-0.11785 -0.580392 1.5 158 214 181
-0.10337 -0.545439 1.40967 160 216 184
-0.0992514 -0.563995 1.45762 173 222 194
-0.0912084 -0.561481 1.45113 164 216 186
-0.089749 -0.602724 1.55772 168 218 189
-0.0763472 -0.563995 1.45762 168 215 185
-0.0684063 -0.561481 1.45113 177 220 192
-0.0590683 -0.545439 1.40967 172 219 190
-0.0534431 -0.563995 1.45762 155 212 179
-0.0456042 -0.561481 1.45113 162 215 185
-0.0355022 -0.524526 1.35562 165 217 188
-0.0333194 -0.615345 1.59033 162 215 186
-0.0228021 -0.561481 1.45113 181 221 200
-0.0147671 -0.545439 1.40967 155 204 175
-0.00763472 -0.563995 1.45762 146 183 150
0 -0.615345 1.59033 117 161 130
0.0076007 -0.561481 1.45113 92 121 110
0.0157134 -0.580392 1.5 82 108 94
0.0228021 -0.561481 1.45113 73 87 74
0.0306431 -0.565919 1.46259 78 80 79
0.0359924 -0.531768 1.37433 79 71 75
0.0446522 -0.54976 1.42083 74 64 67
0.0516848 -0.545439 1.40967 72 60 65
0.0563185 -0.520047 1.34404 69 56 62
0.0684063 -0.561481 1.45113 70 56 61
0.0811269 -0.599303 1.54887 66 51 57
0.0803661 -0.539712 1.39486 65 50 58
0.0852052 -0.524526 1.35562 63 46 55
0.0973402 -0.553134 1.42955 63 45 55
0.100779 -0.531768 1.37433 62 42 53
0.11785 -0.580392 1.5 61 42 54
0.116896 -0.539712 1.39486 63 43 55
0.129212 -0.561481 1.45113 62 41 54
0.149937 -0.615345 1.59033 62 40 53
0.144413 -0.561481 1.45113 62 40 53
0.145485 -0.537366 1.3888 61 38 51
0.159615 -0.561481 1.45113 60 39 52
0.18197 -0.611024 1.57917 60 39 53
0.195843 -0.629016 1.62567 60 40 54
0.183233 -0.563995 1.45762 61 41 54
0.202817 -0.599303 1.54887 62 42 55
0.198503 -0.563995 1.45762 65 47 59
0.218124 -0.59679 1.54238 64 47 59
0.204568 -0.539712 1.39486 65 49 61
0.221407 -0.563995 1.45762 67 51 63
0.249895 -0.615345 1.59033 65 50 62
0.256412 -0.611024 1.57917 67 53 64
0.236273 -0.545439 1.40967 67 54 65
0.251946 -0.563995 1.45762 67 55 66
0.259581 -0.563995 1.45762 67 55 67
0.303575 -0.640737 1.65596 68 56 67
0.289894 -0.594865 1.53741 67 56 67
0.300169 -0.599303 1.54887 68 56 67
0.308282 -0.599303 1.54887 67 56 67
0.306411 -0.580392 1.5 67 57 68
0.329027 -0.60765 1.57045 66 58 68
0.322124 -0.580392 1.5 68 59 70
0.306852 -0.539712 1.39486 67 59 70
0.32683 -0.561481 1.45113 66 59 70
0.345695 -0.580392 1.5 67 60 71
0.362368 -0.594865 1.53741 67 60 70
0.361408 -0.580392 1.5 67 60 71
0.343382 -0.539712 1.39486 67 60 71
0.377121 -0.580392 1.5 68 62 73
0.405296 -0.611024 1.57917 69 63 73
0.413568 -0.611024 1.57917 68 62 72
0.412012 -0.59679 1.54238 69 63 73
0.433152 -0.615345 1.59033 69 64 73
0.416405 -0.580392 1.5 70 65 75
0.453998 -0.621073 1.60514 71 67 76
0.454924 -0.611024 1.57917 71 66 75
0.476835 -0.629016 1.62567 70 65 74
0.48535 -0.629016 1.62567 71 66 75
0.431638 -0.54976 1.42083 70 67 75
0.478649 -0.599303 1.54887 70 67 75
0.496281 -0.611024 1.57917 71 68 77
0.479258 -0.580392 1.5 72 70 78
0.487115 -0.580392 1.5 73 70 79
0.572105 -0.670837 1.73375 73 70 79
0.522176 -0.602724 1.55772 73 71 79
0.527325 -0.599303 1.54887 75 74 83
0.518542 -0.580392 1.5 74 73 82
0.54355 -0.599303 1.54887 76 76 83
0.607211 -0.659648 1.70483 75 75 83
0.542112 -0.580392 1.5 74 74 82
0.612116 -0.645977 1.6695 77 77 85
0.611519 -0.636259 1.64438 77 76 84
0.518291 -0.531768 1.37433 77 77 85
0.55147 -0.55806 1.44228 78 79 86
0.55409 -0.553134 1.42955 79 81 86
0.589252 -0.580392 1.5 79 84 90
0.620084 -0.602724 1.55772 82 86 92
0.624677 -0.599303 1.54887 84 89 95
0.589242 -0.55806 1.44228 82 87 93
0.690816 -0.645977 1.6695 82 88 93
0.628536 -0.580392 1.5 84 94 98
0.689707 -0.629016 1.62567 82 91 95
0.644249 -0.580392 1.5 84 92 97
0.584305 -0.520047 1.34404 86 94 100
0.620217 -0.545439 1.40967 86 97 99
0.667819 -0.580392 1.5 91 99 102
0.707408 -0.60765 1.57045 92 99 103
0.651431 -0.553134 1.42955 97 106 109
0.691389 -0.580392 1.5 98 108 108
0.666406 -0.553134 1.42955 98 108 105
0.56796 -0.466184 1.20483 102 113 109
0.617328 -0.501137 1.29517 102 115 108
0.55703 -0.447273 1.15596 102 114 105
0.586892 -0.466184 1.20483 107 114 106
0.676657 -0.531768 1.37433 104 109 100
0.644463 -0.501137 1.29517 86 91 84
0.651247 -0.501137 1.29517 88 90 91
0.508066 -0.386928 1 89 90 91
0.513304 -0.386928 1 86 90 92
0.624756 -0.466184 1.20483 84 93 95
0.52378 -0.386928 1 84 96 97
0.637377 -0.466184 1.20483 90 102 105
0.467118 -0.338304 0.874334 88 101 104
0.455355 -0.326583 0.844042 91 106 105
0.544731 -0.386928 1 95 109 108
0.437317 -0.307673 0.795167 96 112 108
0.441482 -0.307673 0.795167 99 115 107
0.165425 -0.114208 0.295167 104 120 110
0.0594741 -0.0406804 0.105137 104 121 109
0.203028 -0.137598 0.355615 103 122 109
0.12445 -0.0835766 0.216 108 126 113
0.138053 -0.0918766 0.237451 109 127 115
0.116857 -0.0770757 0.199199 107 126 115
0.118923 -0.0777444 0.200927 114 132 122
0.113861 -0.0737825 0.190688 112 138 126
0.125823 -0.0808245 0.208888 115 142 129
0.122757 -0.0781752 0.202041 119 144 131
0.124794 -0.0787934 0.203638 123 150 137
0.127924 -0.0800849 0.206976 122 158 143
0.128372 -0.07969 0.205956 120 162 143
-0.305755 -0.18568 0.486457 63 56 64
-0.295785 -0.181135 0.474549 64 57 64
-0.2601 -0.160632 0.420833 63 56 63
-0.25518 -0.15894 0.416402 64 58 64
-0.267409 -0.167993 0.440119 63 57 63
-0.25874 -0.16396 0.429553 64 57 64
-0.279242 -0.178504 0.467657 66 59 66
-0.26408 -0.170306 0.446178 65 57 64
-0.256094 -0.16663 0.436549 64 57 64
-0.242094 -0.15894 0.416402 66 57 65
-0.236032 -0.156369 0.409665 68 59 66
-0.253659 -0.169589 0.444299 66 58 64
-0.244403 -0.164913 0.43205 67 60 68
-0.245354 -0.167102 0.437785 66 60 67
-0.238491 -0.16396 0.429553 66 61 68
-0.268619 -0.186432 0.488426 68 61 69
-0.265567 -0.186086 0.487519 67 61 68
-0.27648 -0.195614 0.512481 68 61 68
-0.281291 -0.200969 0.52651 70 63 70
-0.295041 -0.21288 0.557716 69 62 69
-0.26189 -0.19085 0.5 69 63 69
-0.280313 -0.206339 0.54058 68 63 69
-0.277482 -0.206339 0.54058 69 65 70
-0.275564 -0.207026 0.542379 71 66 72
-0.298742 -0.226777 0.594124 71 66 71
-0.27086 -0.207776 0.544343 76 67 73
-0.286831 -0.222367 0.582571 75 62 70
-0.285586 -0.223783 0.58628 74 61 69
-0.284469 -0.22533 0.590334 72 63 72
-0.292894 -0.234554 0.614498 82 76 78
-0.278285 -0.22533 0.590334 73 70 69
-0.280973 -0.230063 0.602735 78 79 80
-0.288386 -0.238816 0.625666 83 85 86
-0.285109 -0.238816 0.625666 81 84 83
-0.267922 -0.22703 0.594786 80 87 85
-0.286888 -0.245961 0.644385 81 89 89
-0.269732 -0.234005 0.613061 85 94 95
-0.269117 -0.236285 0.619035 84 92 95
-0.288834 -0.256689 0.67249 86 94 94
-0.273388 -0.245961 0.644385 87 95 90
-0.265271 -0.241642 0.633068 86 93 89
-0.252906 -0.233295 0.6112 85 93 89
-0.262035 -0.244815 0.641382 82 94 92
-0.278918 -0.263972 0.691572 85 100 100
-0.261119 -0.250379 0.655958 90 108 104
-0.26708 -0.25951 0.67988 97 113 109
-0.262469 -0.258476 0.677171 108 123 121
-0.248833 -0.248403 0.650783 116 130 128
-0.265807 -0.269034 0.704833 126 138 133
-0.242015 -0.248403 0.650783 128 149 142
-0.26398 -0.274819 0.719988 125 157 148
-0.248679 -0.262641 0.688083 130 164 153
-0.257167 -0.2756 0.722035 138 169 160
-0.241471 -0.262641 0.688083 138 171 163
-0.270203 -0.298345 0.781624 141 174 161
-0.2527 -0.283312 0.742238 142 174 160
-0.229808 -0.261673 0.685547 145 173 161
-0.232582 -0.269034 0.704833 147 174 163
-0.243125 -0.285766 0.748668 146 174 163
-0.239204 -0.285766 0.748668 136 176 164
-0.208616 -0.253379 0.663817 139 185 173
-0.197535 -0.243986 0.639209 144 195 178
-0.23634 -0.296949 0.777965 151 202 183
-0.210431 -0.269034 0.704833 161 208 188
-0.222264 -0.289237 0.757762 173 215 194
-0.209837 -0.27803 0.7284 172 215 191
-0.214326 -0.289237 0.757762 183 222 198
-0.214198 -0.294519 0.771599 190 226 203
-0.216576 -0.303515 0.795167 190 226 205
-0.206116 -0.294519 0.771599 187 226 198
-0.208246 -0.303515 0.795167 189 227 197
-0.190497 -0.283312 0.742238 191 228 199
-0.186609 -0.283312 0.742238 189 228 198
-0.182721 -0.283312 0.742238 190 228 198
-0.178834 -0.283312 0.742238 190 228 200
-0.16613 -0.269034 0.704833 193 230 201
-0.154295 -0.255548 0.669501 190 228 199
-0.0967463 -0.16396 0.429553 191 229 199
-0.155054 -0.269034 0.704833 192 229 199
-0.151363 -0.269034 0.704833 190 228 198
-0.166597 -0.303515 0.795167 189 228 198
-0.102137 -0.19085 0.5 189 228 198
-0.140287 -0.269034 0.704833 188 228 197
-0.169445 -0.333733 0.874334 189 228 198
-0.149937 -0.303515 0.795167 188 228 197
-0.164049 -0.341569 0.894863 188 228 199
-0.155706 -0.333733 0.874334 188 229 199
-0.199804 -0.441229 1.15596 187 228 198
-0.208211 -0.474161 1.24224 192 231 204
-0.235622 -0.553894 1.45113 196 233 210
-0.215954 -0.524582 1.37433 173 220 191
-0.227844 -0.572549 1.5 178 221 194
-0.226203 -0.588725 1.54238 174 222 193
-0.218124 -0.588725 1.54238 170 220 189
-0.198503 -0.556373 1.45762 173 220 196
-0.196417 -0.572549 1.5 162 215 189
-0.183233 -0.556373 1.45762 193 231 212
-0.180704 -0.572549 1.5 166 221 195
-0.167964 -0.556373 1.45762 182 228 206
-0.169652 -0.588725 1.54238 175 225 197
-0.14669 -0.534495 1.4003 170 218 188
-0.133757 -0.51302 1.34404 159 211 180
-0.129573 -0.524582 1.37433 148 207 169
-0.137916 -0.591204 1.54887 178 223 197
-0.118137 -0.538068 1.40967 181 226 201
-0.11401 -0.553894 1.45113 175 224 197
-0.0970019 -0.504923 1.32283 171 221 192
-0.0935803 -0.524582 1.37433 169 220 192
-0.0916167 -0.556373 1.45762 166 217 188
-0.0812189 -0.538068 1.40967 155 211 180
-0.0738354 -0.538068 1.40967 174 219 192
-0.0664519 -0.538068 1.40967 164 214 184
-0.0590683 -0.538068 1.40967 173 220 192
-0.0549969 -0.572549 1.5 165 216 187
-0.0443012 -0.538068 1.40967 197 231 213
-0.0383039 -0.558271 1.46259 180 225 203
-0.0304028 -0.553894 1.45113 157 213 182
-0.0228021 -0.553894 1.45113 159 212 182
-0.0162254 -0.591204 1.54887 173 217 192
-0.00785669 -0.572549 1.5 164 205 178
0 -0.532418 1.39486 129 180 150
0.00738354 -0.538068 1.40967 101 150 133
0.0130132 -0.474161 1.24224 80 117 100
0.0209066 -0.50785 1.3305 77 98 82
0.0297681 -0.542331 1.42083 75 78 78
0.0348444 -0.50785 1.3305 79 72 75
0.0486761 -0.591204 1.54887 76 67 71
0.0549969 -0.572549 1.5 75 63 67
0.0568035 -0.517438 1.35562 72 59 65
0.0664519 -0.538068 1.40967 69 55 62
0.0719848 -0.524582 1.37433 66 51 59
0.0830983 -0.550519 1.44228 64 48 57
0.0916167 -0.556373 1.45762 63 47 56
0.102137 -0.572549 1.5 63 44 55
0.0985574 -0.51302 1.34404 62 42 54
0.11401 -0.553894 1.45113 61 42 53
0.115176 -0.524582 1.37433 62 41 54
0.133564 -0.572549 1.5 62 41 54
0.129573 -0.524582 1.37433 62 42 54
0.14506 -0.556373 1.45762 63 42 54
0.132647 -0.483327 1.26625 61 39 52
0.145503 -0.504923 1.32283 61 41 53
0.172847 -0.572549 1.5 61 41 55
0.175599 -0.556373 1.45762 62 43 56
0.188561 -0.572549 1.5 63 45 57
0.196417 -0.572549 1.5 64 48 59
0.191972 -0.538068 1.40967 65 48 60
0.223327 -0.602767 1.57917 64 48 60
0.219987 -0.572549 1.5 65 50 62
0.227844 -0.572549 1.5 66 51 63
0.235701 -0.572549 1.5 66 51 63
0.237484 -0.558271 1.46259 67 53 64
0.257684 -0.586827 1.53741 66 53 64
0.243657 -0.538068 1.40967 65 53 64
0.267128 -0.572549 1.5 66 54 66
0.274984 -0.572549 1.5 67 56 67
0.297769 -0.602767 1.57917 66 55 66
0.282485 -0.556373 1.45762 66 55 66
0.280575 -0.538068 1.40967 67 56 67
0.306411 -0.572549 1.5 66 56 68
0.323147 -0.588725 1.54238 67 58 68
0.313024 -0.556373 1.45762 67 57 69
0.329981 -0.572549 1.5 67 59 70
0.337838 -0.572549 1.5 67 59 69
0.345695 -0.572549 1.5 67 60 70
0.40183 -0.650734 1.70483 66 59 69
0.383173 -0.60703 1.59033 67 60 70
0.391503 -0.60703 1.59033 67 61 71
0.377121 -0.572549 1.5 68 61 72
0.384978 -0.572549 1.5 67 60 70
0.392835 -0.572549 1.5 69 62 72
0.389371 -0.556373 1.45762 69 63 73
0.442775 -0.620516 1.62567 71 65 74
0.429972 -0.591204 1.54887 69 64 73
0.449812 -0.60703 1.59033 69 64 73
0.473712 -0.627661 1.64438 67 62 71
0.452405 -0.588725 1.54238 69 65 74
0.494394 -0.632078 1.65596 70 65 74
0.48947 -0.614994 1.6112 70 65 74
0.48801 -0.602767 1.57917 70 65 74
0.528632 -0.642059 1.68211 71 68 77
0.508121 -0.60703 1.59033 71 69 77
0.527924 -0.620516 1.62567 70 67 75
0.511099 -0.591204 1.54887 70 67 76
0.517035 -0.588725 1.54238 71 68 77
0.494045 -0.553894 1.45113 73 71 80
0.538494 -0.594579 1.55772 74 71 80
0.526398 -0.572549 1.5 74 72 80
0.551663 -0.591204 1.54887 74 73 81
0.504115 -0.532418 1.39486 74 73 81
0.57113 -0.594579 1.55772 73 71 79
0.557825 -0.572549 1.5 74 72 81
0.565682 -0.572549 1.5 75 74 82
0.608079 -0.60703 1.59033 75 75 82
0.581395 -0.572549 1.5 78 79 84
0.589252 -0.572549 1.5 76 78 85
0.597109 -0.572549 1.5 77 79 86
0.628243 -0.594579 1.55772 78 82 88
0.664163 -0.620516 1.62567 81 85 92
0.5833 -0.538068 1.40967 80 85 91
0.681192 -0.620516 1.62567 79 87 93
0.564479 -0.50785 1.3305 81 88 93
0.674506 -0.599438 1.57045 85 91 97
0.652106 -0.572549 1.5 84 92 98
0.628968 -0.54566 1.42955 86 94 98
0.667819 -0.572549 1.5 85 93 96
0.675676 -0.572549 1.5 86 93 99
0.642368 -0.538068 1.40967 89 95 102
0.633466 -0.524582 1.37433 88 98 103
0.561649 -0.459884 1.20483 89 100 104
0.471402 -0.381699 1 92 104 105
0.655062 -0.524582 1.37433 86 96 98
0.722816 -0.572549 1.5 90 97 98
0.586892 -0.459884 1.20483 89 90 91
0.593203 -0.459884 1.20483 85 86 86
0.497591 -0.381699 1 81 81 84
0.691054 -0.524582 1.37433 83 82 87
0.658031 -0.494364 1.29517 85 84 87
0.664814 -0.494364 1.29517 83 85 88
0.437671 -0.32217 0.844042 84 86 90
0.442092 -0.32217 0.844042 85 90 93
0.330988 -0.238816 0.625666 84 89 92
0.376561 -0.269034 0.704833 88 97 99
0.539493 -0.381699 1 89 102 102
0.459775 -0.32217 0.844042 90 103 102
0.0857721 -0.0595292 0.155958 93 108 105
0.277603 -0.19085 0.5 95 111 105
0.367628 -0.250379 0.655958 97 113 106
0.129202 -0.0871803 0.2284 97 114 106
0.126764 -0.0847504 0.222035 101 118 108
0.12445 -0.0824472 0.216 101 119 107
0.123895 -0.0813402 0.2131 103 120 109
0.126713 -0.0824472 0.216 106 119 108
0.114547 -0.0738714 0.193533 110 123 112
0.117328 -0.0750013 0.196493 107 128 117
0.12338 -0.0781845 0.204833 110 134 123
0.128704 -0.0808547 0.211828 117 140 127
0.124097 -0.0772944 0.202501 115 142 127
0.123178 -0.0760716 0.199297 114 145 130
0.131762 -0.0806896 0.211396 122 153 146
-0.251605 -0.150703 0.400304 63 57 64
-0.228331 -0.137911 0.366327 63 56 63
-0.224293 -0.136621 0.362899 64 57 63
-0.2341 -0.143813 0.382004 64 57 63
-0.212889 -0.13191 0.350387 64 56 63
-0.227529 -0.142207 0.377738 63 55 62
-0.20543 -0.129522 0.344042 66 58 64
-0.206028 -0.131048 0.348097 65 56 63
-0.194736 -0.124971 0.331955 65 56 64
-0.213635 -0.138335 0.367452 65 56 63
-0.201878 -0.13191 0.350387 65 56 63
-0.213715 -0.140926 0.374334 67 59 65
-0.217625 -0.144833 0.384713 65 57 64
-0.217901 -0.146372 0.3888 65 57 64
-0.222819 -0.151087 0.401326 66 59 66
-0.232751 -0.159326 0.423209 65 57 64
-0.2449 -0.169254 0.44958 66 59 65
-0.237642 -0.165832 0.440491 67 59 66
-0.229491 -0.161714 0.429553 66 59 65
-0.2529 -0.179974 0.478056 66 59 66
-0.23893 -0.171733 0.456165 67 60 67
-0.23654 -0.171733 0.456165 69 61 67
-0.262593 -0.192592 0.511574 66 59 64
-0.254033 -0.188235 0.5 68 61 66
-0.251414 -0.188235 0.5 68 60 66
-0.254554 -0.192592 0.511574 72 64 70
-0.25778 -0.197108 0.523568 75 63 71
-0.231636 -0.179022 0.475527 72 61 69
-0.252732 -0.197449 0.524473 71 63 69
-0.261615 -0.206635 0.548874 67 59 62
-0.248198 -0.198216 0.52651 76 70 71
-0.233082 -0.188235 0.5 75 73 75
-0.257066 -0.209964 0.557716 75 74 77
-0.254145 -0.209964 0.557716 76 77 76
-0.258421 -0.215979 0.573695 75 79 78
-0.255416 -0.215979 0.573695 76 79 80
-0.246583 -0.210992 0.560448 74 76 81
-0.272 -0.235545 0.625666 74 76 81
-0.25546 -0.22392 0.594786 75 78 80
-0.256736 -0.227816 0.605137 78 81 77
-0.251287 -0.225768 0.599696 81 81 78
-0.256148 -0.233048 0.619035 75 71 76
-0.261148 -0.240643 0.639209 79 79 84
-0.246503 -0.230099 0.6112 82 87 87
-0.261119 -0.246949 0.655958 88 92 91
-0.26708 -0.255955 0.67988 90 99 96
-0.239533 -0.232657 0.617996 99 113 111
-0.248833 -0.245 0.650783 104 118 116
-0.241879 -0.241461 0.641382 106 119 113
-0.257184 -0.260356 0.691572 106 127 117
-0.248282 -0.254935 0.677171 111 134 125
-0.232886 -0.242592 0.644385 115 141 131
-0.239988 -0.253667 0.673803 114 143 133
-0.230197 -0.246949 0.655958 117 150 139
-0.23293 -0.253667 0.673803 129 160 150
-0.25107 -0.277629 0.737451 130 161 152
-0.217492 -0.244256 0.648805 129 161 149
-0.244925 -0.279431 0.742238 129 158 145
-0.22889 -0.265349 0.704833 130 159 146
-0.237149 -0.279431 0.742238 132 164 151
-0.221506 -0.265349 0.704833 128 166 153
-0.197535 -0.240643 0.639209 131 177 162
-0.220164 -0.272836 0.724721 140 188 170
-0.210431 -0.265349 0.704833 147 193 175
-0.22819 -0.292881 0.777965 162 203 181
-0.203047 -0.265349 0.704833 170 207 186
-0.206022 -0.274221 0.7284 171 211 189
-0.173687 -0.235545 0.625666 169 213 188
-0.221829 -0.306618 0.814453 178 218 195
-0.196005 -0.276235 0.73375 185 221 197
-0.192162 -0.276235 0.73375 188 223 197
-0.198033 -0.290484 0.771599 187 227 199
-0.168322 -0.252048 0.669501 186 227 198
-0.207783 -0.317757 0.844042 185 227 199
-0.169821 -0.265349 0.704833 184 227 198
-0.16613 -0.265349 0.704833 185 226 196
-0.139462 -0.227816 0.605137 185 227 197
-0.158746 -0.265349 0.704833 189 228 198
-0.155054 -0.265349 0.704833 189 228 198
-0.151363 -0.265349 0.704833 187 227 196
-0.15876 -0.285275 0.757762 189 228 198
-0.116527 -0.214756 0.570447 186 227 196
-0.130559 -0.246949 0.655958 186 227 197
-0.110552 -0.214756 0.570447 186 227 197
-0.132904 -0.265349 0.704833 185 227 195
-0.120252 -0.246949 0.655958 186 228 197
-0.141607 -0.299357 0.795167 187 227 200
-0.172847 -0.376471 1 188 229 200
-0.230351 -0.517396 1.37433 181 226 195
-0.236676 -0.548752 1.45762 175 222 194
-0.223261 -0.534902 1.42083 155 213 182
-0.215819 -0.534902 1.42083 154 212 179
-0.225473 -0.578788 1.53741 180 225 199
-0.217421 -0.578788 1.53741 171 221 191
-0.204274 -0.564706 1.5 168 219 192
-0.181856 -0.522842 1.3888 166 218 192
-0.192769 -0.577308 1.53348 193 232 213
-0.163934 -0.512298 1.36079 135 209 177
-0.172847 -0.564706 1.5 168 222 197
-0.164991 -0.564706 1.5 172 223 195
-0.147671 -0.530698 1.40967 177 224 196
-0.131645 -0.498006 1.32283 174 220 192
-0.133957 -0.534902 1.42083 171 220 191
-0.12552 -0.530698 1.40967 170 220 192
-0.125707 -0.564706 1.5 151 214 179
-0.106507 -0.510349 1.35562 185 228 204
-0.107251 -0.550624 1.46259 178 224 197
-0.0923057 -0.510349 1.35562 167 219 190
-0.0886025 -0.530698 1.40967 165 218 185
-0.0864236 -0.564706 1.5 189 228 204
-0.0719848 -0.517396 1.37433 173 219 191
-0.0687125 -0.548752 1.45762 170 217 188
-0.0628536 -0.564706 1.5 166 217 188
-0.0534431 -0.548752 1.45762 168 219 191
-0.0471402 -0.564706 1.5 161 214 186
-0.0369177 -0.530698 1.40967 159 214 185
-0.0295342 -0.530698 1.40967 194 228 207
-0.0229042 -0.548752 1.45762 164 216 186
-0.0140796 -0.505992 1.34404 166 217 192
-0.00738354 -0.530698 1.40967 177 218 199
0 -0.548752 1.45762 147 203 180
0.00710044 -0.510349 1.35562 139 188 171
0.0147671 -0.530698 1.40967 106 150 131
0.0215954 -0.517396 1.37433 94 118 102
0.0281593 -0.505992 1.34404 85 90 89
0.0359924 -0.517396 1.37433 84 77 79
0.0471402 -0.564706 1.5 80 70 74
0.048501 -0.498006 1.32283 79 67 72
