ply
format ascii 1.0
element vertex 1263
property float x
property float y
property float z
property uchar red
property uchar green
property uchar blue
end_header
0.0177052 0.0316283 0.177909 54 44 63
0.0192241 0.0326245 0.183513 55 45 64
0.0198599 0.0320987 0.180555 52 43 61
0.0204157 0.0314971 0.177171 54 45 62
0.0214854 0.0317062 0.178347 54 44 61
0.0224488 0.0317476 0.17858 54 44 61
0.0241823 0.0328311 0.184675 53 44 61
0.0247718 0.032338 0.181901 54 44 61
0.0250382 0.0314752 0.177048 54 45 62
0.0259301 0.0314322 0.176806 55 46 63
0.0266198 0.0311556 0.17525 55 45 62
0.0282862 0.0320024 0.180014 54 43 60
0.02839 0.0310837 0.174846 52 41 58
0.0293684 0.0311501 0.175219 51 39 56
0.0302894 0.0311534 0.175238 52 41 57
0.0312105 0.0311566 0.175256 51 40 57
0.0319379 0.0309719 0.174217 51 39 57
0.032948 0.0310639 0.174734 51 39 57
0.0334283 0.0306649 0.17249 51 38 55
0.0350662 0.0313209 0.17618 51 36 53
0.0360324 0.0313586 0.176392 49 34 51
0.0364203 0.0309038 0.173834 51 36 51
0.0370141 0.0306417 0.172359 49 31 49
0.0390493 0.0315568 0.177507 49 32 49
0.0388297 0.0306495 0.172404 50 34 50
0.040208 0.0310162 0.174466 50 32 48
0.040958 0.0308926 0.173771 49 30 46
0.0427706 0.0315585 0.177517 49 28 45
0.0423849 0.0306085 0.172173 47 24 41
0.0433665 0.0306649 0.17249 44 18 35
0.0441403 0.0305751 0.171985 45 19 34
0.0456612 0.030996 0.174353 43 17 32
0.0461552 0.030717 0.172783 43 17 34
0.0467133 0.0304906 0.17151 46 19 36
0.0471233 0.0301779 0.169751 47 22 38
0.0488749 0.03072 0.1728 46 21 39
0.0495998 0.0306088 0.172174 48 24 41
0.0502814 0.0304753 0.171424 50 28 43
0.0528109 0.0314469 0.176889 54 35 49
0.0529473 0.0309845 0.174288 56 38 50
0.0555679 0.0319669 0.179814 56 40 51
0.0542263 0.0306752 0.172548 54 38 50
0.0576554 0.0320803 0.180452 56 41 52
0.0569935 0.0312006 0.175503 55 39 50
0.0588141 0.0316862 0.178235 54 38 51
0.0598623 0.031747 0.178577 54 39 51
0.061557 0.0321435 0.180807 53 39 50
0.062634 0.0322103 0.181183 53 38 50
0.0650347 0.0329458 0.18532 54 39 52
0.0636385 0.0317644 0.178674 53 38 50
0.0644712 0.0317136 0.178389 53 37 50
0.0670659 0.0325187 0.182918 53 38 50
0.0673733 0.0322076 0.181168 51 35 48
0.0708622 0.033405 0.187903 53 37 49
0.0685302 0.0318631 0.17923 52 37 48
0.0713852 0.032742 0.184174 52 36 47
0.073662 0.0333358 0.187514 50 34 47
0.0742863 0.033176 0.186615 50 34 47
0.0766412 0.0337832 0.19003 52 36 48
0.0801652 0.0348835 0.19622 52 37 48
0.0810353 0.0348158 0.195839 52 36 48
0.0897278 0.0380685 0.214136 51 34 48
0.109019 0.045682 0.256961 52 37 49
0.120744 0.049978 0.281126 52 36 49
0.162737 0.0665483 0.374334 52 36 49
0.182364 0.0736868 0.414488 53 37 50
0.232376 0.09279 0.521944 52 36 49
0.249067 0.0982985 0.552929 53 37 50
0.331924 0.129493 0.7284 53 37 49
0.375403 0.144792 0.814453 53 37 49
0.387148 0.147644 0.830499 52 35 48
0.434082 0.163704 0.920833 55 39 51
0.476639 0.177778 1 53 38 50
0.481877 0.177778 1 52 37 49
0.612675 0.223602 1.25776 53 37 49
0.593203 0.214192 1.20483 55 40 51
0.644463 0.230252 1.29517 53 39 49
0.675822 0.238941 1.34404 53 37 48
0.675981 0.236533 1.3305 52 37 48
0.769956 0.266667 1.5 53 39 50
0.71265 0.244326 1.37433 52 38 49
0.785669 0.266667 1.5 52 38 49
0.793526 0.266667 1.5 50 38 49
0.770548 0.256406 1.44228 53 41 52
0.847245 0.27919 1.57045 55 42 53
0.817096 0.266667 1.5 54 42 52
0.863696 0.27919 1.57045 54 41 52
0.946534 0.303081 1.70483 53 40 51
0.840666 0.266667 1.5 54 43 53
0.7603 0.238941 1.34404 57 44 54
0.896599 0.27919 1.57045 56 42 52
0.916283 0.282726 1.59033 56 43 53
0.753004 0.230252 1.29517 55 42 52
0.80623 0.244326 1.37433 56 43 53
0.795499 0.238941 1.34404 56 44 53
0.895663 0.266667 1.5 56 43 53
0.90352 0.266667 1.5 56 45 54
0.911376 0.266667 1.5 56 45 56
0.842222 0.244326 1.37433 56 45 56
0.92709 0.266667 1.5 56 46 56
0.934947 0.266667 1.5 58 52 60
-0.149891 0.0436428 0.238476 173 213 182
-0.143678 0.0421852 0.230512 168 214 180
-0.137014 0.0405697 0.221684 167 214 180
-0.134899 0.0402848 0.220128 167 214 179
-0.139018 0.0418726 0.228804 167 213 178
-0.127021 0.0385918 0.210876 168 213 179
-0.128576 0.0394069 0.215331 165 212 179
-0.129583 0.0400672 0.218938 162 209 174
-0.128106 0.0399642 0.218376 170 212 181
-0.122372 0.0385193 0.210481 166 212 180
-0.126008 0.0400242 0.218704 160 210 177
-0.12699 0.0407063 0.222431 163 206 172
-0.11905 0.0385145 0.210454 161 205 169
-0.117815 0.038471 0.210216 141 195 155
-0.117368 0.0386868 0.211396 118 176 124
-0.115408 0.0384031 0.209845 162 201 163
-0.113207 0.0380327 0.207822 147 191 150
-0.111442 0.0378032 0.206567 130 175 140
-0.111542 0.0382081 0.20878 104 146 107
-0.112623 0.0389604 0.212891 117 157 129
-0.110556 0.0386279 0.211074 118 158 123
-0.113572 0.0400826 0.219023 95 123 84
-0.106148 0.0378448 0.206795 97 110 76
-0.10602 0.0381886 0.208674 87 97 66
-0.10487 0.038168 0.208561 89 102 75
-0.103778 0.038168 0.208561 83 98 71
-0.103966 0.0386441 0.211163 82 90 67
-0.101493 0.0381303 0.208355 82 88 69
-0.101824 0.0386705 0.211307 76 84 63
-0.099039 0.0380262 0.207786 76 83 64
-0.0965585 0.0374857 0.204833 76 80 62
-0.0968267 0.0380122 0.20771 77 77 64
-0.0961133 0.0381609 0.208522 72 72 59
-0.095416 0.0383195 0.209389 70 67 58
-0.0953839 0.038752 0.211752 72 68 61
-0.0917569 0.037717 0.206097 71 68 60
-0.0910219 0.0378603 0.20688 73 69 61
-0.0901115 0.0379333 0.207278 70 62 55
-0.0900084 0.0383519 0.209566 65 54 52
-0.0864083 0.0372725 0.203668 64 53 52
-0.0876114 0.0382638 0.209085 67 58 57
-0.0864745 0.0382454 0.208984 68 58 57
-0.0856835 0.0383814 0.209727 65 54 53
-0.0826112 0.0374857 0.204833 64 54 54
-0.0843007 0.0387557 0.211772 61 51 51
-0.0829101 0.0386246 0.211056 65 55 56
-0.0800916 0.0378158 0.206636 62 51 53
-0.0769674 0.0368385 0.201296 63 53 55
-0.0782986 0.0379962 0.207622 63 54 55
-0.0773557 0.0380673 0.208011 61 52 55
-0.0768985 0.0383829 0.209735 61 52 54
-0.0739013 0.0374215 0.204482 60 51 56
-0.0739542 0.037999 0.207637 62 54 59
-0.0721315 0.0376156 0.205542 63 55 58
-0.0718065 0.0380135 0.207717 61 52 57
-0.0707185 0.0380135 0.207717 62 52 58
-0.0697657 0.0380873 0.20812 62 54 58
-0.0683272 0.037894 0.207064 64 55 61
-0.0655301 0.036929 0.20179 61 51 57
-0.0644614 0.0369222 0.201754 62 53 59
-0.062007 0.0361083 0.197306 57 49 56
-0.0627924 0.0371855 0.203192 60 52 59
-0.0621004 0.0374097 0.204417 59 51 58
-0.0613952 0.0376338 0.205642 58 49 57
-0.0599629 0.0374121 0.204431 59 50 58
-0.0571718 0.0363193 0.198459 57 48 56
-0.0573706 0.0371205 0.202837 54 45 53
-0.05586 0.036825 0.201222 56 47 55
-0.0546988 0.036753 0.200829 56 46 55
-0.0542997 0.0372002 0.203272 56 45 55
-0.0518071 0.0362024 0.19782 56 44 54
-0.0519686 0.0370564 0.202487 58 45 55
-0.0510143 0.0371338 0.202909 57 44 54
-0.0492825 0.0366364 0.200192 54 41 52
-0.0477917 0.0363005 0.198356 55 42 52
-0.0480111 0.0372776 0.203695 55 39 50
-0.0467736 0.0371421 0.202955 57 40 52
-0.045713 0.0371441 0.202966 54 39 50
-0.0433538 0.0360658 0.197074 53 37 49
-0.0426373 0.0363349 0.198544 52 36 47
-0.0423692 0.0370091 0.202228 53 37 47
-0.0406912 0.0364547 0.199199 52 36 45
-0.0397939 0.036589 0.199933 54 37 47
-0.0388182 0.0366565 0.200302 52 34 45
-0.0378526 0.0367376 0.200745 52 34 45
-0.0361445 0.0360821 0.197163 53 36 47
-0.034609 0.0355655 0.19434 52 34 46
-0.0339941 0.0359922 0.196671 56 39 50
-0.032512 0.0354986 0.193975 51 33 47
-0.0328201 0.036991 0.202129 56 42 54
-0.0295681 0.0344365 0.188171 57 43 55
-0.0290411 0.0349891 0.191191 59 48 59
-0.0284893 0.0355502 0.194256 61 50 62
-0.0278941 0.0360967 0.197243 61 51 63
-0.0267917 0.0360036 0.196734 60 50 63
-0.0252571 0.0352989 0.192883 61 51 65
-0.0242544 0.03531 0.192944 59 50 63
-0.0232073 0.0352545 0.192641 58 49 63
-0.0215476 0.0342212 0.186994 59 51 65
-0.021256 0.0353655 0.193247 58 49 64
-0.0197072 0.0344281 0.188125 58 51 65
-0.0189187 0.0347901 0.190103 57 51 65
-0.0181739 0.0352771 0.192764 57 49 64
-0.0165299 0.0339735 0.185641 56 49 64
-0.0158278 0.0345637 0.188866 57 50 65
-0.0147076 0.0342584 0.187198 57 49 64
-0.0137158 0.0342302 0.187044 57 49 65
-0.0130022 0.0349455 0.190952 57 48 65
-0.0120496 0.0350839 0.191708 56 49 65
-0.0112046 0.0355896 0.194472 58 50 66
-0.00995722 0.0347901 0.190103 58 50 66
-0.00872469 0.0338708 0.18508 57 50 66
-0.0077236 0.0337325 0.184324 58 50 66
-0.00691409 0.0345108 0.188577 57 49 65
-0.00592384 0.0344961 0.188497 59 52 67
-0.00489247 0.0341882 0.186814 58 50 66
-0.00397024 0.0346796 0.189499 59 51 67
-0.00288951 0.0336528 0.183888 58 51 67
-0.00190352 0.0332542 0.18171 57 50 66
-0.000964392 0.0336955 0.184122 60 52 67
0 0.0338043 0.184716 60 51 67
0.000964739 0.0337076 0.184188 59 49 65
0.00188644 0.0329558 0.18008 58 47 65
0.00286706 0.0333913 0.18246 58 49 66
0.00379947 0.033188 0.181349 57 48 65
0.00475476 0.0332259 0.181556 56 47 64
0.00575615 0.0335196 0.183161 58 48 65
0.00674089 0.0336463 0.183853 55 45 63
0.00772504 0.0337387 0.184358 55 45 62
0.00878278 0.0340963 0.186312 55 45 62
0.00943174 0.0329541 0.180071 52 42 61
0.0105584 0.033537 0.183256 55 45 64
0.0114772 0.0334173 0.182602 55 45 63
0.0126628 0.0340332 0.185967 54 44 62
0.0133573 0.0333357 0.182156 54 44 64
0.0140829 0.0328033 0.179247 55 44 64
0.0150235 0.0328072 0.179268 54 44 63
0.0161347 0.0331613 0.181203 55 45 64
0.0167846 0.0325804 0.178029 54 44 63
0.0176564 0.0324688 0.177419 54 44 62
0.0186002 0.0324941 0.177557 54 44 62
0.0196864 0.0327541 0.178978 55 46 63
0.0208669 0.0331401 0.181087 54 45 62
0.0217016 0.0329672 0.180142 55 46 63
0.0225583 0.0328408 0.179451 56 46 63
0.0233629 0.0326516 0.178418 53 44 61
0.0241776 0.0324905 0.177538 54 45 61
0.0253808 0.0328443 0.179471 55 46 62
0.0258783 0.0322921 0.176453 55 45 61
0.0259982 0.031323 0.171158 55 45 62
0.0276365 0.0321869 0.175879 53 42 59
0.0281623 0.0317413 0.173443 52 41 58
0.0295032 0.0322134 0.176023 51 40 57
0.0298915 0.0316484 0.172936 52 41 58
0.0313701 0.032237 0.176152 51 40 58
0.03293 0.0328731 0.179628 51 39 57
0.0328479 0.0318804 0.174203 51 38 55
0.0342078 0.0323029 0.176512 50 36 54
0.0344069 0.0316359 0.172867 52 37 54
0.0354094 0.0317228 0.173343 50 35 52
0.0361475 0.0315745 0.172532 51 36 52
0.0373839 0.031858 0.174081 50 32 49
0.0391979 0.0326085 0.178182 48 30 47
0.0387218 0.0314633 0.171925 48 33 49
0.0397628 0.0315749 0.172534 52 35 50
0.0411797 0.0319734 0.174712 48 27 44
0.0417524 0.0317133 0.173291 50 28 44
0.0425402 0.0316242 0.172804 46 20 38
0.0439849 0.032017 0.17495 43 18 34
0.0452576 0.0322711 0.176338 43 18 33
0.0455536 0.0318325 0.173942 45 19 35
0.0454299 0.0311236 0.170068 47 20 37
0.0472396 0.031741 0.173442 44 19 35
0.0471008 0.0310506 0.169669 47 21 37
0.0475084 0.0307393 0.167969 50 27 41
0.0504944 0.0320774 0.17528 53 33 45
0.0516836 0.0322465 0.176204 51 31 44
0.0512203 0.0313968 0.171561 54 35 49
0.053387 0.0321607 0.175735 54 37 50
0.0557404 0.0330093 0.180372 57 43 53
0.056331 0.032803 0.179245 55 40 52
0.0565114 0.0323686 0.176871 56 39 52
0.0577333 0.0325351 0.177781 56 40 51
0.0567185 0.0314559 0.171884 54 39 51
0.0590249 0.0322235 0.176079 54 39 51
0.0610219 0.0328013 0.179235 55 40 51
0.0631356 0.0334232 0.182634 53 38 51
0.0620011 0.0323327 0.176675 53 38 51
0.0654555 0.0336322 0.183776 52 37 49
0.0644777 0.0326496 0.178407 53 38 50
0.0684072 0.0341446 0.186576 52 37 50
0.0684009 0.0336606 0.183931 52 36 49
0.0661251 0.0320887 0.175342 52 36 49
0.0707154 0.0338461 0.184945 51 35 47
0.0746989 0.0352696 0.192723 52 37 48
0.0736466 0.0343091 0.187475 50 34 47
0.0740183 0.0340285 0.185942 50 35 48
0.0761936 0.0345737 0.188921 52 36 49
0.0811992 0.0363727 0.198751 53 37 49
0.0881778 0.0389987 0.2131 52 35 48
0.096974 0.0423529 0.231428 52 34 48
0.123101 0.0531002 0.290155 52 37 49
0.166989 0.071153 0.3888 51 35 48
0.224463 0.0944899 0.51632 50 35 48
0.23996 0.099811 0.545396 52 37 50
0.288856 0.118736 0.648805 53 36 49
0.326451 0.132629 0.724721 52 36 48
0.371137 0.14905 0.814453 54 38 50
0.403003 0.160009 0.874334 52 35 47
0.436585 0.171395 0.936549 53 36 48
0.610544 0.237024 1.29517 55 40 51
0.561086 0.21543 1.17717 51 35 47
0.580581 0.220492 1.20483 52 37 49
0.612675 0.230179 1.25776 51 35 47
0.579583 0.21543 1.17717 52 37 48
0.662044 0.24349 1.3305 51 36 46
0.701377 0.255269 1.39486 52 36 47
0.762099 0.27451 1.5 52 36 47
0.695843 0.248086 1.35562 52 36 47
0.803156 0.283454 1.54887 51 35 46
0.832985 0.291042 1.59033 52 37 48
0.793526 0.27451 1.5 51 39 50
0.770548 0.263947 1.44228 51 38 50
0.86596 0.293751 1.60514 53 40 52
0.817096 0.27451 1.5 53 40 51
0.824953 0.27451 1.5 53 39 50
0.864854 0.285072 1.55772 53 40 51
0.880148 0.287402 1.57045 54 41 52
0.936746 0.303051 1.65596 55 41 52
0.85638 0.27451 1.5 55 41 51
0.916283 0.291042 1.59033 53 39 50
1.02195 0.321682 1.75776 54 41 51
0.87995 0.27451 1.5 55 43 52
1.00904 0.311996 1.70483 55 43 52
1.01797 0.311996 1.70483 55 43 53
0.780139 0.237024 1.29517 54 42 51
0.856491 0.257978 1.40967 54 43 53
0.919233 0.27451 1.5 55 44 54
0.92709 0.27451 1.5 55 44 54
0.807275 0.237024 1.29517 56 48 57
-0.138922 0.0416047 0.221025 170 214 182
-0.137807 0.0416175 0.221093 169 215 181
-0.143404 0.0436748 0.232022 169 215 182
-0.132795 0.0407894 0.216694 167 214 179
-0.126735 0.0392637 0.208589 168 214 179
-0.130294 0.0407172 0.21631 167 213 178
-0.12633 0.0398248 0.211569 167 214 181
-0.126501 0.0402316 0.21373 165 211 178
-0.130984 0.0420292 0.22328 165 211 180
-0.121695 0.0394006 0.209316 162 211 179
-0.123428 0.0403249 0.214226 158 209 175
-0.125503 0.0413789 0.219825 168 208 173
-0.116235 0.0386782 0.205478 154 202 161
-0.119019 0.0399748 0.212366 134 191 152
-0.11576 0.0392468 0.208498 131 185 148
-0.113614 0.0388863 0.206583 144 195 163
-0.11553 0.039922 0.212086 137 193 161
-0.111662 0.0389602 0.206976 129 187 153
-0.113025 0.0398222 0.211556 118 169 130
-0.112078 0.0398798 0.211861 125 174 138
-0.109346 0.0392965 0.208762 127 175 138
-0.10866 0.0394444 0.209548 125 173 132
-0.107283 0.0393423 0.209006 127 169 124
-0.106775 0.0395595 0.21016 116 144 103
-0.104564 0.0391438 0.207951 124 140 103
-0.102792 0.0388855 0.206579 92 108 78
-0.0999983 0.0382311 0.203103 98 109 79
-0.102463 0.0395946 0.210346 90 101 71
-0.0993054 0.0387916 0.20608 84 92 69
-0.0976314 0.0385568 0.204833 81 91 67
-0.0986386 0.0393874 0.209245 81 91 67
-0.0945494 0.0381787 0.202825 82 88 67
-0.0969996 0.0396132 0.210445 82 84 69
-0.0954026 0.0394088 0.209359 78 81 68
-0.0935799 0.0391054 0.207747 75 79 64
-0.09268 0.039185 0.20817 71 81 64
-0.0888652 0.0380194 0.201978 73 77 67
-0.0929994 0.0402675 0.213921 75 71 63
-0.0906726 0.0397388 0.211112 74 68 62
-0.0898562 0.0398672 0.211794 73 67 62
-0.0880822 0.0395686 0.210208 68 61 59
-0.0847569 0.0385568 0.204833 70 62 60
-0.0843004 0.0388407 0.206341 68 59 57
-0.0860827 0.040177 0.21344 70 62 60
-0.0837292 0.0395928 0.210337 63 54 52
-0.0817494 0.039172 0.208101 63 53 55
-0.0807788 0.03923 0.208409 64 56 57
-0.0823762 0.0405538 0.215442 63 54 55
-0.0780418 0.0389536 0.206941 59 50 52
-0.0775916 0.0392743 0.208645 60 51 53
-0.0756146 0.0388204 0.206233 62 54 55
-0.0754134 0.0392782 0.208666 61 53 58
-0.0738327 0.0390205 0.207296 61 53 57
-0.0720061 0.0386231 0.205185 63 55 58
-0.0704363 0.0383535 0.203753 63 54 59
-0.068997 0.0381478 0.20266 60 51 57
-0.0695328 0.0390447 0.207425 58 50 55
-0.0674676 0.0384864 0.204459 62 53 59
-0.0652875 0.0378435 0.201043 60 52 58
-0.0645775 0.0380456 0.202117 60 53 59
-0.0659968 0.0395298 0.210002 59 51 58
-0.062916 0.0383232 0.203592 60 52 59
-0.0628649 0.0389522 0.206934 59 51 58
-0.0621501 0.039185 0.20817 59 51 59
-0.0598377 0.0384007 0.204004 57 49 57
-0.0584145 0.0381689 0.202772 58 49 57
-0.0575864 0.0383247 0.2036 58 48 56
-0.0561816 0.0380953 0.202381 56 47 55
-0.0549081 0.0379477 0.201597 57 47 56
-0.0542838 0.0382518 0.203213 56 46 55
-0.0531242 0.0381834 0.20285 56 45 54
-0.0519722 0.0381178 0.202501 57 45 54
-0.0500113 0.0374438 0.19892 54 41 51
-0.0490806 0.0375288 0.199372 56 44 53
-0.0495399 0.0387034 0.205612 56 42 51
-0.0483698 0.0386291 0.205217 55 39 49
-0.0453538 0.0370436 0.196794 54 38 48
-0.0444895 0.0371827 0.197533 53 37 48
-0.0436359 0.0373377 0.198356 51 35 47
-0.0428499 0.0375593 0.199534 52 37 48
-0.041706 0.0374707 0.199063 53 38 48
-0.0408351 0.0376289 0.199904 52 36 46
-0.0403106 0.0381231 0.202529 52 36 46
-0.0385406 0.0374342 0.198869 49 32 43
-0.036372 0.0363092 0.192893 53 35 46
-0.0365003 0.0374784 0.199104 53 37 47
-0.0354908 0.0375136 0.199291 56 40 50
-0.0343479 0.0374058 0.198718 53 35 47
-0.0326648 0.0366845 0.194886 54 39 51
-0.0318795 0.0369574 0.196336 55 42 53
-0.0310436 0.037188 0.197561 58 47 58
-0.029099 0.0360606 0.191572 58 47 60
-0.0285354 0.0366251 0.194571 58 48 61
-0.0279051 0.0371427 0.19732 61 50 64
-0.0261435 0.0361362 0.191974 59 49 63
-0.0249029 0.0357983 0.190178 59 50 63
-0.0243967 0.0365319 0.194076 60 51 64
-0.0226432 0.0353803 0.187958 58 50 64
-0.021889 0.0357566 0.189957 59 51 65
-0.0209821 0.0359073 0.190757 59 51 65
-0.019793 0.0355659 0.188944 58 50 64
-0.0186694 0.0353125 0.187598 56 48 63
-0.0177023 0.0353436 0.187763 57 49 64
-0.0168192 0.0355558 0.18889 56 48 63
-0.0156299 0.0351067 0.186504 56 48 63
-0.0146916 0.0351989 0.186994 58 50 65
-0.0136354 0.0350021 0.185948 57 48 65
-0.0129603 0.0358281 0.190337 57 48 65
-0.0120154 0.035984 0.191165 56 49 65
-0.0108462 0.0354355 0.188251 57 49 65
-0.00966922 0.0347491 0.184605 58 51 67
-0.00885852 0.0353729 0.187919 57 50 66
-0.00776285 0.0348725 0.18526 58 51 66
-0.00679232 0.0348716 0.185256 58 50 66
-0.0058839 0.0352425 0.187226 59 52 67
-0.00496073 0.0356556 0.18942 58 50 66
-0.00391879 0.0352082 0.187044 58 50 66
-0.00295878 0.0354441 0.188297 57 50 65
-0.00194771 0.0349984 0.185929 59 51 67
-0.000948352 0.0340818 0.181059 57 48 65
0 0.0347216 0.184458 57 48 65
0.000953834 0.0342788 0.182106 58 48 65
0.00196831 0.0353684 0.187895 59 49 66
0.00294663 0.0352986 0.187524 58 49 66
0.00382688 0.0343825 0.182657 57 48 65
0.00476786 0.0342693 0.182056 57 48 65
0.00566778 0.033948 0.180349 56 47 64
0.0066033 0.0339012 0.1801 57 47 64
0.00769333 0.0345603 0.183601 55 45 62
0.00862233 0.0344298 0.182908 55 45 63
0.0096133 0.0345481 0.183537 54 44 63
0.0105783 0.0345603 0.183601 55 45 64
0.0114554 0.0343069 0.182255 54 45 62
0.012508 0.0345777 0.183694 54 45 63
0.012911 0.0331424 0.176069 54 44 63
0.0141805 0.0339746 0.18049 54 44 62
0.0151141 0.033948 0.180349 54 44 63
0.0164462 0.0347671 0.1847 54 45 63
0.0172355 0.0344115 0.182811 54 45 63
0.0178677 0.0337962 0.179542 54 45 62
0.0189655 0.0340791 0.181045 54 44 61
0.0197728 0.0338378 0.179763 55 45 62
0.0201616 0.0329349 0.174966 55 45 62
0.0215901 0.0337349 0.179217 54 45 61
0.0226614 0.0339335 0.180272 55 45 62
0.0237603 0.0341558 0.181453 54 44 61
0.0243742 0.0336907 0.178982 53 44 61
0.0251064 0.0334175 0.17753 53 43 59
0.0260536 0.0334396 0.177648 53 43 60
0.0267678 0.0331717 0.176225 52 41 58
0.0276365 0.0331066 0.175879 53 42 59
0.0284648 0.0329988 0.175306 51 41 57
0.0285817 0.0320989 0.170526 50 39 57
0.0295099 0.0321371 0.170728 52 41 58
0.0306389 0.0323852 0.172046 51 39 57
0.0314963 0.0323403 0.171808 51 38 56
0.0329203 0.0328635 0.174588 50 37 55
0.0332286 0.0322748 0.17146 52 39 56
0.0342744 0.0324144 0.172202 52 39 56
0.034652 0.0319313 0.169635 52 37 53
0.0356264 0.0320084 0.170045 52 36 52
0.0371335 0.0325488 0.172915 52 36 52
0.0380414 0.0325507 0.172926 52 35 51
0.0396022 0.0330981 0.175834 50 32 48
0.0407272 0.0332647 0.176719 50 32 47
0.0409878 0.0327337 0.173898 47 24 42
0.0422758 0.0330283 0.175463 47 25 41
0.0425955 0.03257 0.173028 46 19 36
0.0430103 0.0322021 0.171074 44 18 35
0.046118 0.0338241 0.179691 44 19 35
0.0460772 0.0331183 0.175941 43 19 34
0.0464084 0.0327024 0.173731 46 21 37
0.0475851 0.0328867 0.174711 48 24 39
0.0476135 0.0322855 0.171516 49 26 41
0.0474161 0.0315562 0.167642 48 24 40
0.0505358 0.0330209 0.175424 52 32 45
0.0490984 0.0315088 0.16739 53 34 46
0.0521463 0.0328776 0.174663 53 35 48
0.0511006 0.0316629 0.168209 55 38 51
0.0552445 0.0336503 0.178767 55 41 52
0.054154 0.0324364 0.172318 56 41 52
0.0572781 0.0337452 0.179271 55 39 50
0.0571377 0.0331195 0.175947 54 39 50
0.0573373 0.0327076 0.173759 54 39 51
0.0592867 0.0332912 0.17686 55 40 52
0.0618227 0.0341812 0.181588 55 40 51
0.0619277 0.0337205 0.17914 53 38 51
0.0621162 0.0333183 0.177003 53 38 51
0.0613881 0.0324435 0.172356 53 38 50
0.0655765 0.0341548 0.181447 53 37 49
0.0670227 0.0344094 0.1828 50 35 47
0.068794 0.0348213 0.184988 51 36 48
0.0685467 0.0342142 0.181763 51 35 48
0.0700092 0.0344655 0.183098 51 34 47
0.0704672 0.0342222 0.181805 51 35 47
0.0715376 0.0342788 0.182106 50 34 47
0.0762916 0.0360758 0.191653 51 35 48
0.0793196 0.0370205 0.196671 51 36 48
0.0814322 0.0375193 0.199321 51 34 47
0.100728 0.0458221 0.24343 52 34 47
0.132081 0.0593339 0.315212 51 33 46
0.156655 0.0695042 0.369241 51 34 47
0.22256 0.0975405 0.518184 51 35 48
0.247994 0.107378 0.570447 51 35 48
0.275277 0.117772 0.625666 52 36 49
0.3138 0.132674 0.704833 52 36 48
0.366871 0.153309 0.814453 53 36 48
0.362348 0.149679 0.795167 50 33 47
0.460926 0.188235 1 51 35 48
0.552659 0.223162 1.18555 50 34 46
0.56796 0.226792 1.20483 52 35 48
0.634168 0.250447 1.3305 51 35 48
0.624112 0.243796 1.29517 50 34 47
0.612675 0.236755 1.25776 52 36 48
0.676657 0.258698 1.37433 50 35 47
0.630074 0.238353 1.26625 52 36 48
0.691054 0.258698 1.37433 52 35 47
0.639026 0.236755 1.25776 51 35 47
0.799582 0.293217 1.55772 51 35 46
0.777813 0.282353 1.5 52 36 47
0.8159 0.293217 1.55772 51 36 48
0.727047 0.258698 1.37433 51 38 49
0.832218 0.293217 1.55772 51 38 49
0.80924 0.282353 1.5 52 39 51
0.817096 0.282353 1.5 51 37 50
0.894065 0.306008 1.62567 52 39 51
0.83281 0.282353 1.5 51 38 50
0.801185 0.269092 1.42955 53 40 52
1.03114 0.343121 1.82283 54 40 51
0.928125 0.306008 1.62567 55 41 52
0.791833 0.258698 1.37433 55 41 51
0.872093 0.282353 1.5 54 40 51
0.95367 0.306008 1.62567 55 42 52
0.813428 0.258698 1.37433 55 42 52
0.895663 0.282353 1.5 54 41 51
0.725727 0.226792 1.20483 54 42 52
0.987729 0.306008 1.62567 56 44 54
0.842222 0.258698 1.37433 52 40 51
1.00476 0.306008 1.62567 56 44 54
0.807275 0.243796 1.29517 52 41 52
-0.135029 0.0415621 0.214831 170 216 177
-0.136659 0.0424174 0.219252 167 215 179
-0.137231 0.0429557 0.222035 169 215 181
-0.13667 0.0431458 0.223017 169 215 181
-0.128657 0.0409665 0.211752 169 214 179
-0.129325 0.0415371 0.214702 167 214 179
-0.127911 0.0414433 0.214217 167 214 181
-0.123888 0.0404951 0.209316 167 214 181
-0.129454 0.0426923 0.220673 165 212 181
-0.120294 0.040029 0.206906 164 212 180
-0.119547 0.040142 0.207491 165 212 181
-0.119862 0.040617 0.209946 153 203 163
-0.117924 0.0403302 0.208464 124 187 138
-0.110499 0.038144 0.197163 151 202 170
-0.115955 0.0404052 0.208851 137 193 161
-0.116572 0.0410068 0.211961 162 205 182
-0.11331 0.0402426 0.208011 163 206 179
-0.113232 0.0406052 0.209885 137 192 159
-0.112831 0.0408584 0.211194 148 190 159
-0.111131 0.0406411 0.21007 150 191 161
-0.106315 0.0392687 0.202977 125 181 144
-0.107617 0.0401511 0.207538 128 187 150
-0.105141 0.0396278 0.204833 155 202 171
-0.10298 0.0392131 0.202689 122 174 130
-0.1049 0.0403604 0.20862 140 171 129
-0.106091 0.0412482 0.213209 119 149 103
-0.101884 0.0400342 0.206934 118 143 101
-0.100787 0.040029 0.206906 116 142 100
-0.0988975 0.0397054 0.205234 113 138 97
-0.0978226 0.0397054 0.205234 103 120 86
-0.0965585 0.0396278 0.204833 92 105 71
-0.0965767 0.0400806 0.207173 87 100 68
-0.092042 0.0386327 0.199689 81 88 63
-0.0931589 0.0395509 0.204436 81 87 66
-0.0928217 0.039866 0.206064 77 84 64
-0.092869 0.0403556 0.208595 76 86 66
-0.095351 0.0419274 0.216719 77 83 69
-0.0901047 0.0400979 0.207263 78 78 67
-0.0889932 0.0400862 0.207202 77 75 65
-0.0880562 0.0401538 0.207552 76 74 66
-0.0869622 0.0401506 0.207535 76 73 67
-0.0872928 0.0408134 0.210961 71 66 61
-0.0863491 0.0408898 0.211356 69 64 60
-0.0862187 0.0413583 0.213778 71 67 63
-0.084451 0.0410434 0.21215 71 66 62
-0.0831759 0.0409626 0.211733 67 59 61
-0.0813464 0.040603 0.209874 68 60 61
-0.0807592 0.0408621 0.211213 66 58 58
-0.0796396 0.0408553 0.211178 65 57 58
-0.0768297 0.0399689 0.206596 65 56 58
-0.0769185 0.0405868 0.20979 63 55 56
-0.0744136 0.0398341 0.205899 61 54 57
-0.074472 0.0404516 0.209091 61 54 58
-0.0723767 0.0399003 0.206241 61 53 56
-0.0706847 0.0395579 0.204472 60 52 57
-0.0708494 0.0402601 0.208101 62 54 59
-0.0677907 0.0391239 0.202228 62 54 59
-0.0663625 0.0389075 0.20111 62 55 59
-0.0665181 0.0396278 0.204833 60 52 58
-0.0649467 0.0393259 0.203272 61 54 59
-0.0641152 0.0394695 0.204014 59 52 57
-0.0636927 0.0398739 0.206105 60 52 58
-0.0613186 0.0390496 0.201844 58 50 57
-0.0621909 0.0402999 0.208307 58 49 57
-0.0603325 0.0397938 0.205691 59 50 58
-0.0591305 0.03971 0.205258 59 50 57
-0.0584127 0.0399545 0.206521 58 49 56
-0.0556919 0.0388121 0.200617 56 46 54
-0.0553306 0.0393019 0.203149 57 47 55
-0.05328 0.0385874 0.199455 57 48 56
-0.0525817 0.0388433 0.200778 58 46 54
-0.0516383 0.0389249 0.2012 57 45 53
-0.0503996 0.0387826 0.200464 57 45 53
-0.0494393 0.0388532 0.200829 56 44 52
-0.0486815 0.0390893 0.202049 54 39 48
-0.0477123 0.0391624 0.202427 54 39 48
-0.0472966 0.0397035 0.205224 54 39 49
-0.0458678 0.0393996 0.203653 54 38 48
-0.0436672 0.0384023 0.198498 52 37 47
-0.0425361 0.03832 0.198073 51 37 47
-0.0416041 0.0384174 0.198576 54 40 48
-0.0391331 0.0370623 0.191572 53 38 47
-0.0389395 0.0378494 0.19564 52 36 46
-0.0386814 0.0386147 0.199596 53 36 47
-0.0376032 0.0385811 0.199423 52 36 46
-0.0359876 0.0379784 0.196307 53 37 48
-0.0352387 0.0382818 0.197875 52 35 47
-0.0339608 0.0380116 0.196479 55 39 51
-0.0324876 0.0374989 0.193829 57 42 54
-0.0312071 0.0371829 0.192195 58 46 58
-0.0307803 0.0378968 0.195886 57 45 59
-0.0289114 0.0368233 0.190337 58 48 61
-0.0273411 0.036067 0.186427 60 49 62
-0.0270542 0.0370103 0.191303 60 49 63
-0.0266294 0.0378304 0.195542 58 49 63
-0.0253422 0.0374417 0.193533 59 50 64
-0.024284 0.0373732 0.193179 58 50 64
-0.0227177 0.0364828 0.188577 59 50 64
-0.0219652 0.0368777 0.190618 58 50 64
-0.0211708 0.0372366 0.192473 58 50 64
-0.019793 0.0365539 0.188944 58 50 64
-0.0184283 0.0358247 0.185175 57 50 64
-0.0180764 0.0370929 0.19173 55 48 63
-0.0165872 0.0360392 0.186284 55 48 63
-0.0157453 0.0363482 0.187881 54 47 63
-0.0146231 0.0360082 0.186123 57 49 65
-0.0138737 0.0366029 0.189197 57 49 65
-0.0127142 0.0361241 0.186722 57 49 65
-0.0119253 0.0367062 0.189732 56 48 65
-0.0110718 0.0371771 0.192165 57 50 66
-0.00978279 0.0361339 0.186773 57 50 66
-0.00868431 0.0356406 0.184223 59 51 66
-0.00766904 0.0354081 0.183022 59 51 66
-0.00696738 0.036764 0.19003 57 50 65
-0.00574545 0.0353691 0.18282 58 50 66
-0.0048384 0.0357424 0.18475 58 50 66
-0.003819 0.0352648 0.182281 57 49 66
-0.0028143 0.0346499 0.179102 57 49 65
-0.00191343 0.0353373 0.182656 57 48 65
-0.000968506 0.0357729 0.184907 57 48 65
0 0.0362075 0.187153 57 48 65
0.000967704 0.0357433 0.184754 59 49 66
0.00192272 0.035509 0.183543 59 48 66
0.00293847 0.0361786 0.187004 59 48 65
0.00382368 0.035308 0.182504 59 49 66
0.00477565 0.0352789 0.182354 57 48 65
0.00578079 0.0355867 0.183945 55 46 64
0.00674759 0.0356043 0.184036 56 46 63
0.00775725 0.0358154 0.185127 54 45 62
0.00869067 0.0356666 0.184358 54 45 62
0.00944462 0.0348848 0.180317 56 46 64
0.0103467 0.0347425 0.179581 55 45 63
0.0114928 0.035375 0.182851 54 45 62
0.0126744 0.0360111 0.186139 54 44 62
0.0133316 0.0351728 0.181805 55 45 63
0.0143233 0.0352698 0.182307 55 45 63
0.0148375 0.0342524 0.177048 54 45 62
0.0162242 0.0352505 0.182207 54 45 63
0.0172559 0.0354092 0.183027 55 45 63
0.0178587 0.0347174 0.179451 56 47 64
0.0192768 0.0356005 0.184016 55 46 63
0.0201636 0.035465 0.183316 54 44 62
0.0205624 0.0345226 0.178444 55 46 63
0.0215261 0.0345691 0.178685 55 46 63
0.0228228 0.0351245 0.181556 53 44 61
0.0230568 0.0340652 0.17608 53 44 61
0.0238686 0.0339083 0.175269 53 44 61
0.0255601 0.0349663 0.180738 53 43 60
0.0252361 0.0332902 0.172074 53 43 60
0.0269116 0.0342762 0.177171 53 43 60
0.0268684 0.0330805 0.17099 52 41 58
0.0277244 0.0330333 0.170747 51 41 58
0.0293132 0.0338349 0.17489 50 41 58
0.0297313 0.0332776 0.172009 51 41 58
0.0309349 0.0336064 0.173709 52 40 58
0.0313554 0.03309 0.171039 52 40 57
0.0321717 0.0330083 0.170617 51 38 56
0.0337579 0.0336996 0.174191 50 36 54
0.0342513 0.0332924 0.172086 49 37 54
0.0340659 0.0322632 0.166766 52 38 54
0.0356945 0.0329604 0.17037 53 37 53
0.0363423 0.0327401 0.169231 52 35 51
0.0383226 0.0337021 0.174203 51 33 48
0.03911 0.0335947 0.173648 49 31 46
0.0398529 0.0334549 0.172926 47 27 43
0.0405739 0.0333032 0.172142 48 26 41
0.0410708 0.0329782 0.170462 42 19 34
0.0417997 0.0328493 0.169796 44 19 34
0.0432081 0.0332488 0.17186 44 19 34
0.043757 0.032984 0.170491 47 22 37
0.0446981 0.0330195 0.170675 44 19 34
0.0448701 0.0324967 0.167973 47 22 38
0.0469803 0.0333706 0.17249 47 24 39
0.0469611 0.0327276 0.169166 52 32 45
0.0493505 0.0337559 0.174482 51 31 44
0.0507639 0.0340913 0.176215 53 35 47
0.0503709 0.0332233 0.171729 54 37 48
0.0510669 0.0330915 0.171047 51 34 46
0.0527754 0.033609 0.173722 54 38 50
0.0535331 0.0335137 0.17323 55 40 51
0.0548422 0.033761 0.174508 55 40 51
0.0572698 0.0346775 0.179245 56 40 51
0.0579278 0.0345102 0.17838 55 40 51
0.0571952 0.0335329 0.173329 54 39 51
0.0583496 0.0336751 0.174064 54 40 51
0.0609716 0.034647 0.179088 53 39 51
0.0605718 0.0338983 0.175218 54 39 51
0.0636417 0.0350848 0.18135 53 38 50
0.0653151 0.0354778 0.183382 52 37 49
0.0642952 0.0344176 0.177902 52 37 49
0.066448 0.0350619 0.181232 51 35 47
0.06863 0.0357032 0.184547 51 35 47
0.0671401 0.034443 0.178033 52 35 48
0.0698868 0.0353609 0.182778 52 35 48
0.0721986 0.036037 0.186272 50 33 46
0.0740394 0.0364631 0.188475 51 35 48
0.0793283 0.0385537 0.199281 50 35 48
0.0858071 0.0411608 0.212757 52 35 48
0.100441 0.0475628 0.245848 52 34 47
0.115865 0.0541723 0.280012 53 35 48
0.161055 0.0743596 0.384359 52 34 47
0.212131 0.096732 0.5 51 34 47
0.253548 0.114208 0.590334 51 34 48
0.298033 0.132629 0.685547 52 34 48
0.393717 0.173124 0.894863 52 34 48
0.389265 0.169152 0.874334 53 36 48
0.507057 0.217776 1.12567 51 33 46
0.526757 0.223636 1.15596 51 34 47
0.525091 0.220396 1.13921 51 35 48
0.579086 0.240328 1.24224 50 33 46
0.56796 0.233092 1.20483 51 35 47
0.687449 0.27903 1.44228 48 31 45
0.695004 0.27903 1.44228 53 37 50
0.616809 0.244974 1.26625 52 37 49
0.738529 0.290196 1.5 50 35 47
0.791335 0.307673 1.59033 51 35 47
0.701377 0.269856 1.39486 50 33 45
0.658031 0.250568 1.29517 50 34 45
0.799582 0.301362 1.55772 51 34 46
0.730971 0.27272 1.40967 50 34 46
0.755439 0.27903 1.44228 51 36 48
0.901886 0.329824 1.70483 51 36 49
0.770548 0.27903 1.44228 50 36 48
0.847245 0.303825 1.57045 52 38 51
0.817096 0.290196 1.5 51 36 49
0.874634 0.307673 1.59033 53 39 51
0.919399 0.320368 1.65596 53 40 52
0.891294 0.307673 1.59033 51 38 50
0.797422 0.27272 1.40967 52 38 50
0.85638 0.290196 1.5 53 39 51
0.916283 0.307673 1.59033 54 40 51
0.945155 0.314508 1.62567 55 41 51
0.95367 0.314508 1.62567 54 40 50
0.735245 0.240328 1.24224 52 38 49
0.970699 0.314508 1.62567 54 41 51
0.979214 0.314508 1.62567 56 42 53
0.987729 0.314508 1.62567 55 42 53
0.793707 0.250568 1.29517 54 42 52
1.00476 0.314508 1.62567 52 40 51
0.623298 0.193464 1 52 43 53
-0.136317 0.0430927 0.216881 171 216 178
-0.131215 0.0418282 0.210517 167 215 178
-0.133792 0.0430113 0.216471 169 215 180
-0.133276 0.0432115 0.217479 166 214 178
-0.133198 0.0435587 0.219226 168 214 179
-0.133991 0.0441989 0.222448 167 214 179
-0.129658 0.0431449 0.217144 166 214 180
-0.127044 0.042649 0.214648 166 213 180
-0.124909 0.0423067 0.212925 165 212 181
-0.125058 0.0427388 0.2151 167 213 182
-0.120212 0.0414562 0.208645 166 213 182
-0.120049 0.0417799 0.210274 128 194 155
-0.119144 0.0418487 0.21062 147 204 171
-0.11828 0.0419334 0.211046 147 205 174
-0.11617 0.0415742 0.209238 130 190 157
-0.11641 0.0420566 0.211667 152 202 175
-0.113788 0.0415045 0.208888 176 216 196
-0.110769 0.0407956 0.20532 151 205 179
-0.112992 0.0420223 0.211494 148 205 181
-0.109812 0.041244 0.207577 142 201 172
-0.108228 0.0410556 0.206629 130 189 155
-0.105317 0.0403551 0.203103 131 191 157
-0.105786 0.0409483 0.206088 145 199 169
-0.105742 0.0413533 0.208127 136 191 157
-0.104225 0.0411847 0.207278 136 186 146
-0.101513 0.0405352 0.204009 124 181 129
-0.101051 0.04078 0.205242 127 185 137
-0.101563 0.0414272 0.208498 118 171 124
-0.100872 0.0415924 0.20933 140 172 129
-0.0997214 0.04157 0.209218 121 151 105
-0.0992042 0.0418139 0.210445 113 140 99
-0.0949323 0.040463 0.203646 109 130 97
-0.0981036 0.0422898 0.21284 99 118 89
-0.0935238 0.040779 0.205236 98 107 83
-0.0935713 0.0412741 0.207728 87 95 72
-0.0948989 0.0423522 0.213154 84 95 71
-0.0937824 0.0423522 0.213154 81 90 69
-0.0902831 0.0412631 0.207673 80 85 67
-0.0886599 0.0410154 0.206426 77 82 65
-0.0893805 0.0418592 0.210673 73 87 65
-0.087309 0.0414002 0.208363 72 87 66
-0.086045 0.0413173 0.207946 73 79 65
-0.0861878 0.0419165 0.210961 71 76 65
-0.0838223 0.0412955 0.207836 73 76 65
-0.083475 0.0416655 0.209698 72 72 65
-0.0817567 0.0413519 0.20812 72 70 67
-0.0806451 0.0413409 0.208064 72 69 67
-0.0784551 0.0407692 0.205187 70 67 65
-0.0783282 0.0412686 0.2077 70 65 64
-0.0773689 0.0413373 0.208046 69 64 64
-0.075492 0.0409107 0.205899 66 59 60
-0.0753208 0.0414094 0.208409 64 57 60
-0.0747508 0.0417004 0.209874 62 56 58
-0.0737598 0.0417617 0.210182 61 54 57
-0.0715633 0.041132 0.207013 62 55 60
-0.0702327 0.0409883 0.20629 62 55 60
-0.0695278 0.0412109 0.20741 60 53 58
-0.0673418 0.0405487 0.204078 61 54 58
-0.0656308 0.0401559 0.202101 60 52 57
-0.0639062 0.0397418 0.200016 62 54 59
-0.0647669 0.0409483 0.206088 60 53 58
-0.0641124 0.0412215 0.207463 60 52 58
-0.061414 0.0401673 0.202158 58 50 56
-0.0627667 0.0417723 0.210235 57 49 57
-0.0611211 0.0414035 0.208379 58 50 57
-0.059008 0.0406988 0.204833 58 50 56
-0.0566933 0.0398265 0.200442 58 49 55
-0.0559031 0.0400123 0.201378 60 50 57
-0.0559068 0.0407844 0.205264 58 48 55
-0.0525437 0.0390826 0.196699 59 48 56
-0.0531005 0.0402868 0.202759 57 46 53
-0.0533139 0.0412741 0.207728 55 43 51
-0.051088 0.0403749 0.203202 54 43 50
-0.050425 0.0406988 0.204833 56 44 52
-0.0472914 0.0389994 0.19628 51 36 46
-0.0474229 0.0399769 0.2012 55 41 50
-0.0451454 0.0389219 0.19589 53 39 48
-0.0449379 0.039644 0.199524 52 36 46
-0.0437184 0.0394865 0.198731 52 37 47
-0.0432125 0.0399815 0.201222 51 36 46
-0.0415878 0.0394402 0.198498 51 37 46
-0.0417619 0.0406209 0.204441 51 36 45
-0.0400149 0.0399459 0.201043 53 38 47
-0.0390496 0.0400358 0.201496 54 39 48
-0.0375432 0.0395605 0.199104 52 36 46
-0.0368385 0.0399271 0.200949 53 37 48
-0.034688 0.0387021 0.194784 54 39 50
-0.0343535 0.0394903 0.198751 56 41 52
-0.0330396 0.0391668 0.197123 55 41 52
-0.0313798 0.0383992 0.193259 59 47 59
-0.0307454 0.038877 0.195664 58 47 60
-0.029864 0.0390646 0.196608 58 48 61
-0.0285736 0.0387115 0.194831 59 49 63
-0.027303 0.0383601 0.193063 59 49 63
-0.0266894 0.0389403 0.195983 58 48 62
-0.0255899 0.0388296 0.195425 59 50 64
-0.0234087 0.0369998 0.186216 57 48 63
-0.0228928 0.0377577 0.19003 57 49 63
-0.0217812 0.0375572 0.189021 58 50 64
-0.0216457 0.0391008 0.19679 58 49 64
-0.0200114 0.037956 0.191029 58 50 65
-0.0189326 0.0377998 0.190242 57 50 65
-0.0176234 0.0371408 0.186926 56 49 64
-0.0165784 0.0369936 0.186185 56 49 64
-0.0159851 0.0378991 0.190742 54 47 63
-0.0148614 0.0375839 0.189156 56 49 65
-0.0139292 0.0377427 0.189955 58 50 66
-0.0128881 0.037608 0.189277 56 48 64
-0.0117846 0.0372534 0.187492 55 48 65
-0.0107015 0.0369052 0.18574 56 49 65
-0.0100032 0.0379467 0.190982 56 48 65
-0.00862247 0.0363432 0.182911 58 49 65
-0.00801725 0.0380162 0.191332 58 49 65
-0.00690732 0.0374322 0.188392 57 48 65
-0.00578323 0.0365639 0.184022 58 49 65
-0.00488273 0.0370447 0.186442 58 50 66
-0.00390168 0.037002 0.186227 57 48 65
-0.00281986 0.0356566 0.179456 56 48 64
-0.00191742 0.0363682 0.183037 57 47 63
-0.000953834 0.0361832 0.182106 57 47 64
0 0.0364956 0.183679 57 48 65
0.000976422 0.03704 0.186419 57 47 64
0.00190082 0.0360533 0.181453 57 47 64
0.00287169 0.036312 0.182754 58 48 65
0.00385194 0.0365302 0.183853 57 46 64
0.00480015 0.0364182 0.183289 55 45 63
0.0057261 0.0362027 0.182204 55 46 64
0.00665346 0.0360565 0.181468 55 46 63
0.00765951 0.0363199 0.182794 55 45 63
0.008668 0.0365351 0.183877 53 45 62
0.00961666 0.0364803 0.183601 56 46 64
0.0106856 0.0368502 0.185463 55 45 63
0.0115516 0.036517 0.183786 53 44 61
0.0126628 0.0369504 0.185967 54 45 63
0.0133058 0.0360533 0.181453 54 45 63
0.0144574 0.0365622 0.184014 54 45 63
0.0154365 0.0365984 0.184196 53 45 62
0.0161793 0.0361032 0.181703 56 47 65
0.0169015 0.0356193 0.179268 56 47 65
0.0180199 0.0359777 0.181072 55 46 63
0.0185058 0.0351003 0.176656 56 47 64
0.0196823 0.0355541 0.17894 55 45 63
0.0207638 0.0358029 0.180192 54 45 62
0.0210757 0.0347606 0.174946 54 45 62
0.0225274 0.0356068 0.179205 53 44 62
0.0233086 0.035368 0.178003 55 46 64
0.024063 0.0351083 0.176697 54 45 61
0.0250725 0.0352264 0.177291 54 45 61
0.0253171 0.0342996 0.172626 53 43 60
0.0267863 0.0350388 0.176346 53 43 59
0.0269834 0.0341199 0.171722 51 40 57
0.028022 0.0342903 0.17258 52 42 59
0.0286657 0.0339818 0.171027 50 41 58
0.0299432 0.0344206 0.173235 52 42 59
0.0303737 0.0338885 0.170557 53 42 59
0.0320587 0.0347465 0.174876 51 39 57
0.0320129 0.0337331 0.169775 48 35 53
0.0329544 0.0337866 0.170045 51 38 56
0.0338298 0.0337714 0.169968 52 38 56
0.0351526 0.0341922 0.172086 50 35 52
0.0363094 0.0344344 0.173305 49 34 50
0.0371214 0.0343458 0.172859 52 36 52
0.0363633 0.0328434 0.165297 49 30 47
0.0392288 0.0346075 0.174176 49 30 45
0.0399327 0.0344278 0.173272 47 25 41
0.0402184 0.0339036 0.170633 46 23 39
0.041135 0.0339225 0.170728 42 19 34
0.0430591 0.0347537 0.174912 45 19 35
0.0443698 0.0350654 0.176481 46 20 35
0.0444257 0.0343932 0.173097 42 18 32
0.0443297 0.0336324 0.169268 45 19 34
0.0464647 0.034561 0.173942 43 19 34
0.0468578 0.0341832 0.17204 51 29 43
0.0465468 0.0333156 0.167674 51 29 43
0.0481876 0.0338513 0.17037 54 35 47
0.0497065 0.0342834 0.172545 52 35 47
0.0508985 0.0344787 0.173528 55 39 49
0.0520344 0.0346297 0.174288 55 39 50
0.0534279 0.0349441 0.17587 55 40 51
0.0547062 0.0351737 0.177026 56 42 52
0.0548832 0.0346994 0.174638 55 39 50
0.0570394 0.0354714 0.178524 56 41 52
0.0575351 0.0352026 0.177171 56 41 51
0.058312 0.0351116 0.176713 53 39 50
0.057822 0.0342725 0.17249 53 39 50
0.0589587 0.0344087 0.173175 54 41 52
0.0598928 0.0344242 0.173253 54 39 51
0.0621751 0.0352026 0.177171 53 39 51
0.0627923 0.0350292 0.176298 53 38 50
0.0645615 0.0354942 0.178639 54 38 50
0.0676277 0.0366488 0.18445 53 37 49
0.0676589 0.0361493 0.181936 52 36 48
0.0676486 0.0356418 0.179382 50 33 46
0.0698995 0.0363233 0.182811 50 34 47
0.0742526 0.0380639 0.191572 52 36 49
0.0754308 0.0381523 0.192017 50 34 47
0.0751123 0.0374914 0.18869 50 34 47
0.089945 0.0443119 0.223017 51 35 48
0.109206 0.0531114 0.267304 50 32 46
0.170961 0.0820926 0.413163 50 32 45
0.202304 0.0959285 0.482798 52 33 47
0.242018 0.113344 0.570447 52 34 48
0.318791 0.147477 0.742238 50 32 46
0.362612 0.165729 0.834095 49 30 45
0.393717 0.177803 0.894863 50 32 46
0.473462 0.2113 1.06345 50 32 47
0.507057 0.223662 1.12567 50 33 46
0.48779 0.21269 1.07045 49 32 45
0.609726 0.262837 1.32283 50 32 45
0.62023 0.264361 1.3305 51 33 47
0.657541 0.277149 1.39486 51 34 47
0.664847 0.277149 1.39486 49 32 46
0.699264 0.288328 1.45113 51 34 47
0.702558 0.286571 1.44228 52 35 48
0.790294 0.318929 1.60514 51 35 48
0.770705 0.30775 1.54887 52 35 48
0.754243 0.298039 1.5 50 33 45
0.791423 0.309507 1.55772 50 33 46
0.705451 0.27307 1.37433 50 34 46
0.777813 0.298039 1.5 50 34 46
0.748771 0.284042 1.42955 51 36 48
0.876031 0.329027 1.65596 51 36 48
0.839019 0.312036 1.57045 50 35 47
0.771234 0.284042 1.42955 51 36 49
0.855471 0.312036 1.57045 52 37 50
0.863696 0.312036 1.57045 52 38 50
0.882964 0.315988 1.59033 52 39 51
0.75326 0.267051 1.34404 52 38 50
0.848523 0.298039 1.5 52 38 50
0.85638 0.298039 1.5 53 40 51
0.93664 0.323008 1.62567 53 39 50
0.872093 0.298039 1.5 54 41 51
0.97144 0.329027 1.65596 53 39 50
0.713105 0.239392 1.20483 55 41 52
1.19422 0.397386 2 53 40 50
0.90352 0.298039 1.5 53 39 50
0.987729 0.323008 1.62567 54 40 51
0.738348 0.239392 1.20483 53 41 51
0.800491 0.25734 1.29517 52 40 51
0.623298 0.198693 1 53 44 54
-0.13713 0.0444902 0.218173 172 217 177
-0.132611 0.0433858 0.212757 167 215 178
-0.131302 0.0433214 0.212441 168 215 179
-0.128944 0.0429071 0.21041 167 215 178
-0.132682 0.0445315 0.218376 167 214 177
-0.131259 0.044437 0.217912 167 214 179
-0.126395 0.0431657 0.211678 166 214 180
-0.124756 0.0429831 0.210782 165 213 179
-0.123972 0.0430945 0.211329 166 213 180
-0.124883 0.0438021 0.214799 163 211 178
-0.122596 0.0433909 0.212782 160 213 181
-0.121314 0.0433309 0.212488 152 211 182
-0.117485 0.042352 0.207688 174 218 196
-0.115405 0.041991 0.205917 142 201 171
-0.120129 0.0441222 0.216368 135 195 165
-0.11237 0.0416654 0.204321 135 196 166
-0.115808 0.0433529 0.212596 167 213 193
-0.106399 0.0402175 0.19722 148 205 181
-0.109185 0.0416753 0.204369 137 202 175
-0.110475 0.0425851 0.208831 143 203 174
-0.111172 0.0432824 0.21225 147 202 170
-0.106214 0.0417698 0.204833 150 205 175
-0.107916 0.0428721 0.210238 142 201 174
-0.106155 0.0426074 0.20894 143 202 176
-0.106862 0.0433378 0.212522 140 200 167
-0.103155 0.0422749 0.20731 162 209 181
-0.10085 0.0417698 0.204833 157 205 174
-0.100176 0.0419369 0.205652 141 194 156
-0.0992938 0.0420193 0.206056 149 196 163
-0.0995641 0.0425967 0.208888 135 183 143
-0.0973144 0.0420968 0.206436 128 181 140
-0.095858 0.0419327 0.205632 156 195 166
-0.0962817 0.0425967 0.208888 137 167 130
-0.093525 0.0418527 0.205239 129 155 114
-0.0943193 0.0426989 0.209389 131 150 108
-0.0910056 0.0416834 0.204409 121 142 104
-0.0928762 0.0430467 0.211094 112 133 99
-0.0918832 0.0430996 0.211354 94 114 80
-0.0888327 0.0421768 0.206828 97 118 84
-0.0897212 0.0431246 0.211476 85 109 74
-0.0886481 0.0431414 0.211559 86 105 73
-0.0849198 0.0418501 0.205226 81 91 67
-0.08671 0.0432802 0.21224 78 87 66
-0.0850978 0.0430271 0.210998 77 85 65
-0.0850472 0.0435673 0.213648 77 81 70
-0.0838075 0.0435047 0.21334 78 78 73
-0.080674 0.042444 0.208139 76 77 72
-0.0797106 0.0425116 0.208471 69 72 66
-0.0780643 0.0422119 0.207001 69 72 66
-0.0764439 0.0419178 0.205559 68 71 65
-0.0757737 0.0421439 0.206667 67 66 63
-0.0742951 0.0419204 0.205571 67 66 67
-0.0738786 0.0422985 0.207425 67 64 66
-0.0706058 0.041028 0.201195 65 60 61
-0.0701753 0.0413957 0.202998 66 60 63
-0.0694811 0.0416167 0.204082 66 60 64
-0.0684076 0.041614 0.204069 63 56 61
-0.0683633 0.0422471 0.207173 60 53 57
-0.0647942 0.0406873 0.199524 59 51 56
-0.0657139 0.0419413 0.205674 60 53 57
-0.063825 0.0414146 0.203091 63 56 60
-0.0637207 0.0420478 0.206196 60 53 58
-0.0619475 0.0415825 0.203914 59 51 57
-0.0617177 0.042155 0.206722 59 51 57
-0.0604865 0.0420518 0.206216 59 51 57
-0.0602014 0.0426146 0.208976 58 49 55
-0.0571678 0.0412166 0.20212 57 48 54
-0.0562378 0.0413111 0.202583 55 46 52
-0.0557894 0.0417698 0.204833 55 46 52
-0.0542448 0.0414097 0.203067 56 46 53
-0.0525094 0.0408867 0.200502 56 45 53
-0.0509314 0.0404673 0.198445 57 46 53
-0.0504308 0.0409044 0.200589 56 44 52
-0.050425 0.0417698 0.204833 56 44 52
-0.0478234 0.040476 0.198488 59 46 55
-0.0477807 0.0413385 0.202718 55 41 49
-0.0460295 0.0407285 0.199726 54 39 47
-0.0462286 0.041856 0.205255 51 36 45
-0.0455168 0.0421927 0.206906 50 35 45
-0.0424893 0.040347 0.197855 52 39 48
-0.0424077 0.0412762 0.202412 53 40 48
-0.0409496 0.040879 0.200464 53 37 46
-0.0392608 0.0402244 0.197254 52 37 46
-0.037532 0.0394925 0.193665 52 37 47
-0.0371936 0.0402235 0.19725 55 40 50
-0.0361837 0.0402494 0.197377 57 42 53
-0.0357973 0.0409908 0.201012 59 45 55
-0.034279 0.0404416 0.198319 58 44 56
-0.0334917 0.0407476 0.19982 60 48 59
-0.0317987 0.0399357 0.195839 58 48 60
-0.0307947 0.0399641 0.195978 60 48 61
-0.0295151 0.0396242 0.194311 57 47 60
-0.028324 0.0393832 0.193129 59 48 63
-0.0276536 0.0398752 0.195542 58 48 63
-0.0260301 0.0389777 0.191141 57 48 62
-0.0250258 0.0389729 0.191117 56 47 62
-0.0240902 0.039079 0.191637 57 49 64
-0.0229282 0.0388111 0.190324 56 49 64
-0.0225983 0.0399916 0.196112 57 49 64
-0.0208144 0.0385886 0.189232 57 49 64
-0.0197873 0.0385187 0.18889 56 48 64
-0.019212 0.0393672 0.19305 54 47 63
-0.0181053 0.0391604 0.192037 55 49 64
-0.0168345 0.0385538 0.189062 56 49 65
-0.0155883 0.0379308 0.186007 56 49 65
-0.0148159 0.0384549 0.188577 55 48 64
-0.0139567 0.0388124 0.19033 56 48 64
-0.0129086 0.038659 0.189578 56 48 65
-0.0118456 0.0384318 0.188463 56 48 65
-0.0107686 0.0381139 0.186905 55 47 65
-0.00985585 0.0383715 0.188168 57 49 65
-0.00873251 0.0377756 0.185246 58 50 66
-0.00793316 0.0386074 0.189325 58 49 65
-0.00689764 0.0383634 0.188128 56 48 65
-0.00585977 0.0380228 0.186458 57 48 65
-0.00481511 0.037493 0.18386 55 46 63
-0.0038995 0.0379546 0.186123 56 47 64
-0.00287447 0.0373037 0.182932 54 46 63
-0.0019026 0.0370366 0.181622 56 48 64
-0.00095687 0.0372535 0.182686 54 45 62
0 0.0370824 0.181846 56 47 64
0.000980982 0.0381923 0.187289 56 47 64
0.00188581 0.0367099 0.18002 56 46 63
0.00291692 0.0378545 0.185633 57 47 64
0.003964 0.0385823 0.189202 55 45 63
0.00483091 0.0376161 0.184463 54 45 63
0.00569658 0.0369638 0.181265 55 46 64
0.00654397 0.0363964 0.178482 51 41 60
0.00769722 0.0374592 0.183694 53 43 62
0.00860078 0.0372057 0.182451 54 45 62
0.00969243 0.0377352 0.185048 53 44 62
0.0106467 0.0376823 0.184788 54 45 63
0.0116466 0.0377861 0.185297 55 46 63
0.012427 0.0372166 0.182504 54 46 63
0.0132691 0.0369003 0.180953 54 46 63
0.0140065 0.0363542 0.178275 54 46 63
0.0152738 0.0371658 0.182255 54 46 63
0.0160435 0.0367423 0.180179 54 46 63
0.0166923 0.0361041 0.177049 54 46 63
0.0176567 0.0361801 0.177422 55 47 65
0.0190273 0.0370392 0.181634 54 46 63
0.019 0.0352248 0.172737 55 46 63
0.0206038 0.0364619 0.178804 54 45 62
0.0215344 0.0364518 0.178754 54 45 62
0.0225249 0.0365397 0.179185 55 46 64
0.0231381 0.0360332 0.176701 53 44 61
0.0240956 0.036081 0.176936 53 44 60
0.0246256 0.035509 0.174131 54 44 61
0.025609 0.0356081 0.174617 52 42 59
0.0263165 0.0353301 0.173253 51 41 58
0.0273154 0.0354487 0.173835 51 41 58
0.0275814 0.0346393 0.169866 51 42 58
0.029351 0.0357099 0.175116 50 39 57
0.0298448 0.0352103 0.172666 51 40 58
0.0302982 0.0346938 0.170133 52 42 60
0.0315825 0.0351313 0.172278 56 45 62
0.0329506 0.0356349 0.174748 50 38 56
0.0328363 0.0345515 0.169435 51 37 55
0.0338697 0.0347011 0.170169 49 34 52
0.0347899 0.0347299 0.17031 52 36 53
0.0368308 0.0358481 0.175794 54 39 55
0.0366615 0.0348129 0.170717 51 33 49
0.0377137 0.0349595 0.171436 45 24 42
0.039013 0.0353228 0.173218 46 25 41
0.0401474 0.0355238 0.174203 43 20 37
0.0405112 0.0350491 0.171875 43 19 35
0.0414962 0.0351209 0.172227 43 19 35
0.0428881 0.0355266 0.174217 41 16 31
0.0429171 0.03481 0.170703 44 18 33
0.045133 0.0358602 0.175853 45 20 36
0.045223 0.035213 0.172679 46 21 38
0.0454691 0.0347105 0.170215 44 20 37
0.0461216 0.0345315 0.169337 49 31 44
0.0480541 0.0352996 0.173104 49 30 43
0.0484942 0.0349631 0.171454 50 32 44
0.049878 0.035307 0.17314 53 36 48
0.0514243 0.0357515 0.17532 54 38 48
0.0526372 0.0359528 0.176307 55 39 50
0.0530632 0.0356188 0.174669 55 40 52
0.0542485 0.0357973 0.175544 56 41 52
0.0559601 0.0363113 0.178065 54 39 51
0.0560743 0.0357889 0.175503 54 38 50
0.0585267 0.0367516 0.180224 55 40 51
0.0587199 0.0362877 0.177949 56 43 53
0.0598123 0.0363852 0.178428 53 39 50
0.0611424 0.0366221 0.179589 54 41 51
0.0612471 0.036129 0.177171 52 37 48
0.0630718 0.0366501 0.179726 52 38 49
0.0619569 0.0354728 0.173953 52 38 49
0.0660976 0.037295 0.182889 53 39 49
0.0656889 0.0365349 0.179162 51 36 48
0.0668407 0.0366519 0.179735 50 34 46
0.0683138 0.0369395 0.181145 52 35 48
0.0694265 0.0370268 0.181574 50 34 47
0.0760126 0.0399916 0.196112 52 35 48
0.0755326 0.0392092 0.192276 49 33 46
0.0843856 0.0432284 0.211985 50 33 47
0.0988912 0.0500013 0.245199 49 32 45
0.147867 0.0738061 0.361934 49 32 45
0.179266 0.0883456 0.433233 51 33 47
0.23701 0.115343 0.565624 50 31 45
0.247162 0.118799 0.582571 50 31 45
