ply
format ascii 1.0
element vertex 1200
property float x
property float y
property float z
property uchar red
property uchar green
property uchar blue
end_header
0.0745014 -0.027136 0.192214 70 67 76
0.0734066 -0.0263808 0.186864 70 66 75
0.0745861 -0.026452 0.187368 72 69 77
0.0731572 -0.0256083 0.181392 73 70 79
0.0770224 -0.0266156 0.188527 70 67 77
0.0750472 -0.0256048 0.181367 73 70 79
0.0769832 -0.025937 0.18372 75 72 79
0.0791746 -0.026346 0.186618 74 72 79
0.079408 -0.0261014 0.184885 72 72 78
0.0805228 -0.0261489 0.185222 75 74 81
0.0803765 -0.0257907 0.182684 72 72 78
0.0816574 -0.0258935 0.183412 73 73 81
0.0823572 -0.0258117 0.182833 73 74 81
0.0829836 -0.0257091 0.182106 75 75 82
0.0828126 -0.0253646 0.179666 74 74 80
0.08248 -0.0249789 0.176934 76 78 82
0.0845919 -0.0253338 0.179448 78 77 81
0.0883589 -0.0261711 0.185379 78 79 82
0.0871283 -0.0255262 0.18081 74 79 82
0.087989 -0.0255011 0.180633 75 81 84
0.0892251 -0.0255843 0.181222 79 85 89
0.0892815 -0.025331 0.179428 73 77 83
0.0896655 -0.0251749 0.178322 76 81 83
0.0916578 -0.025469 0.180405 82 87 87
0.0928366 -0.0255333 0.180861 83 85 85
0.0933062 -0.0254032 0.17994 83 89 87
0.0928689 -0.0250313 0.177305 81 92 86
0.0932953 -0.0248973 0.176356 79 89 85
0.0951648 -0.0251472 0.178126 84 93 91
0.0938499 -0.024559 0.173959 84 94 91
0.095128 -0.0246541 0.174633 84 96 92
0.099178 -0.0254589 0.180334 87 101 91
0.099653 -0.0253395 0.179488 90 103 93
0.0988043 -0.0248889 0.176296 92 103 96
0.102126 -0.0254873 0.180535 97 106 103
0.0968851 -0.0239577 0.1697 98 107 103
0.104121 -0.0255128 0.180716 98 108 99
0.102045 -0.024779 0.175518 104 112 103
0.106186 -0.0255542 0.181009 100 111 100
0.109325 -0.0260768 0.184711 107 123 113
0.108433 -0.0256372 0.181597 104 124 113
0.10805 -0.0253245 0.179382 105 126 115
0.107303 -0.0249325 0.176605 107 129 119
0.108086 -0.0248998 0.176374 105 130 125
0.105753 -0.0241559 0.171104 112 137 137
0.107301 -0.0243035 0.17215 113 138 138
-0.448984 -0.097112 0.714334 66 60 67
-0.439321 -0.0958204 0.704833 67 57 69
-0.417198 -0.0917665 0.675013 64 60 71
-0.444125 -0.0985241 0.724721 65 60 69
-0.434018 -0.097112 0.714334 66 58 68
-0.424554 -0.0958204 0.704833 64 58 65
-0.450045 -0.102465 0.753707 64 59 65
-0.433082 -0.0994751 0.731716 65 60 67
-0.4243 -0.0983283 0.72328 65 61 68
-0.420512 -0.0983283 0.72328 65 60 67
-0.406095 -0.0958204 0.704833 65 60 67
-0.418912 -0.0997517 0.73375 67 61 68
-0.398711 -0.0958204 0.704833 68 61 69
-0.412552 -0.100073 0.736117 67 58 66
-0.391328 -0.0958204 0.704833 73 68 71
-0.392861 -0.097112 0.714334 69 63 69
-0.374178 -0.0933831 0.686904 74 68 74
-0.350026 -0.0882036 0.648805 76 71 77
-0.366982 -0.0933831 0.686904 75 74 79
-0.354178 -0.0910172 0.669501 71 70 74
-0.354688 -0.0920599 0.677171 72 69 73
-0.34351 -0.0900591 0.662454 71 67 71
-0.324074 -0.0858306 0.63135 71 64 65
-0.325459 -0.0870859 0.640584 70 63 66
-0.322104 -0.0870859 0.640584 70 67 71
-0.308729 -0.0843485 0.620448 70 68 70
-0.292519 -0.0807698 0.594124 65 71 72
-0.276424 -0.0771465 0.567472 67 76 76
-0.263621 -0.0743731 0.547071 73 84 83
-0.249152 -0.0710635 0.522727 80 92 88
-0.251481 -0.0725248 0.533475 79 96 89
-0.227876 -0.0664556 0.488832 87 106 99
-0.21093 -0.0622126 0.457621 90 106 101
-0.177697 -0.0530133 0.389953 92 108 109
-0.155952 -0.0470671 0.346215 93 108 109
-0.122198 -0.0373138 0.274471 96 110 110
-0.112854 -0.0348708 0.256501 93 107 108
-0.110296 -0.0344909 0.253707 92 110 109
-0.105438 -0.033374 0.245491 95 118 115
-0.0926484 -0.0296877 0.218376 91 123 115
-0.0898866 -0.0291627 0.214514 100 125 119
-0.0868985 -0.0285502 0.210008 98 123 119
-0.0814484 -0.0271026 0.199361 109 141 130
-0.0845083 -0.028486 0.209537 114 152 141
-0.0834478 -0.0284987 0.20963 127 162 154
-0.0844053 -0.02921 0.214862 129 164 158
-0.0781463 -0.0274094 0.201618 136 171 166
-0.0760831 -0.0270513 0.198983 136 175 167
-0.0760558 -0.0274172 0.201674 139 179 168
-0.0718289 -0.0262582 0.193149 140 186 175
-0.0732893 -0.0271748 0.199891 137 185 175
-0.0723302 -0.0272078 0.200135 137 185 176
-0.0697008 -0.0266043 0.195695 137 188 177
-0.0707045 -0.0273902 0.201476 143 195 179
-0.0666577 -0.0262138 0.192822 149 200 184
-0.067366 -0.0268999 0.197869 148 201 184
-0.0642185 -0.0260437 0.191572 151 203 184
-0.0667559 -0.0275025 0.202302 143 201 178
-0.0633305 -0.0265121 0.195017 147 201 179
-0.063594 -0.0270589 0.199039 174 212 197
-0.0606194 -0.0262231 0.192891 157 204 184
-0.0608348 -0.0267623 0.196857 155 204 180
-0.0591218 -0.0264571 0.194613 158 207 181
-0.0597329 -0.0271996 0.200074 166 216 191
-0.0597531 -0.0276946 0.203715 133 203 167
-0.0560806 -0.0264651 0.194671 155 211 184
-0.057018 -0.0274057 0.20159 168 217 195
-0.0542781 -0.026581 0.195524 166 217 194
-0.0522987 -0.0261042 0.192017 161 215 191
-0.0520772 -0.0265034 0.194953 169 217 195
-0.0514882 -0.0267277 0.196603 165 217 192
-0.0509405 -0.026983 0.198481 180 224 201
-0.0486416 -0.0263021 0.193472 164 216 188
-0.047437 -0.0261965 0.192695 166 217 191
-0.0458221 -0.0258548 0.190182 167 218 192
-0.0453638 -0.026165 0.192464 156 210 181
-0.0447319 -0.0263869 0.194096 158 210 180
-0.0433648 -0.0261753 0.19254 192 226 206
-0.0407588 -0.0251881 0.185278 163 213 185
-0.0412186 -0.0260935 0.191938 188 225 205
-0.0399541 -0.0259253 0.190701 170 220 195
-0.0384513 -0.02559 0.188234 174 221 195
-0.0384324 -0.0262505 0.193093 170 217 189
-0.0371557 -0.0260644 0.191723 151 208 176
-0.0348871 -0.0251527 0.185018 170 216 192
-0.0342564 -0.0254037 0.186864 192 227 206
-0.0333292 -0.0254431 0.187153 180 222 197
-0.0326183 -0.0256549 0.188712 173 220 193
-0.0316123 -0.0256407 0.188607 154 209 177
-0.0311978 -0.0261208 0.192138 160 211 182
-0.0294161 -0.02545 0.187204 191 228 209
-0.0282958 -0.0253249 0.186284 158 213 184
-0.027333 -0.0253369 0.186372 147 207 174
-0.0264174 -0.0253951 0.186801 183 223 204
-0.0253756 -0.0253318 0.186335 158 210 181
-0.0244089 -0.0253414 0.186406 157 210 175
-0.0235404 -0.0254581 0.187264 173 223 197
-0.0224041 -0.0252827 0.185973 166 221 194
-0.0215553 -0.0254305 0.187061 156 218 188
-0.0196869 -0.0243322 0.178982 164 216 192
-0.0193577 -0.0251216 0.184788 170 216 192
-0.0180433 -0.0246482 0.181306 160 212 187
-0.0176308 -0.0254228 0.187004 176 220 201
-0.0166744 -0.0254581 0.187264 145 204 177
-0.0157749 -0.02559 0.188234 169 212 191
-0.014336 -0.0248062 0.182469 141 194 162
-0.0135286 -0.0250811 0.184491 133 181 149
-0.0127419 -0.0254398 0.187129 95 127 115
-0.011446 -0.0247569 0.182106 72 98 95
-0.0107211 -0.0252971 0.18608 74 85 83
-0.00978324 -0.0253925 0.186782 69 73 75
-0.00872213 -0.0251538 0.185026 71 65 74
-0.00788745 -0.02559 0.188234 68 64 73
-0.00662415 -0.0245615 0.180669 71 66 75
-0.00582032 -0.0251779 0.185203 70 64 74
-0.00477443 -0.0247842 0.182307 70 63 73
-0.00385194 -0.0249944 0.183853 71 65 74
-0.00287861 -0.0249049 0.183195 66 59 70
-0.0019025 -0.0246898 0.181613 66 60 71
-0.000959712 -0.0249095 0.183228 65 60 70
0 -0.0248227 0.18259 66 60 71
0.000962424 -0.0249799 0.183746 65 58 70
0.00190319 -0.0246988 0.181679 66 60 71
0.00283147 -0.0244971 0.180195 64 59 70
0.00382634 -0.0248283 0.182631 65 59 71
0.00474301 -0.0246211 0.181107 66 60 71
0.00550658 -0.0238207 0.175219 66 60 71
0.00665959 -0.024693 0.181636 65 58 70
0.00759707 -0.0246479 0.181304 65 58 70
0.0087542 -0.0252463 0.185706 65 58 70
0.00929174 -0.0241168 0.177398 65 58 70
0.010713 -0.025278 0.185939 65 58 70
0.011368 -0.0245881 0.180864 66 59 71
0.0125123 -0.0249813 0.183757 64 57 69
0.013424 -0.0248873 0.183066 64 58 70
0.014286 -0.0247197 0.181832 63 57 70
0.0152149 -0.0246816 0.181552 64 58 71
0.0162357 -0.0247883 0.182337 64 57 70
0.0169903 -0.0244991 0.18021 64 57 70
0.0179039 -0.0244578 0.179906 62 56 69
0.0192536 -0.0249865 0.183795 63 57 71
0.0197029 -0.024352 0.179127 64 58 71
0.0206976 -0.0244186 0.179617 65 59 72
0.0221358 -0.0249799 0.183746 64 57 70
0.0231176 -0.0250009 0.183901 63 56 70
0.0241245 -0.0250462 0.184234 65 60 72
0.025412 -0.0253682 0.186603 64 57 71
0.0258145 -0.0248155 0.182537 63 56 70
0.0268547 -0.0248935 0.183111 64 59 72
0.0280002 -0.0250603 0.184338 64 60 72
0.0288727 -0.0249799 0.183746 64 59 72
0.0295925 -0.0247767 0.182252 63 58 71
0.0306445 -0.0248557 0.182833 61 56 70
0.0313837 -0.0246839 0.181569 63 57 71
0.0330726 -0.0252472 0.185713 62 57 70
0.0344734 -0.0255646 0.188047 62 56 70
0.0345903 -0.0249388 0.183444 63 56 70
0.0357629 -0.0250874 0.184537 63 57 71
0.0369479 -0.0252365 0.185634 64 59 72
0.0373953 -0.0248872 0.183064 64 58 71
0.0382294 -0.0248062 0.182469 61 55 68
0.0389829 -0.0246782 0.181527 66 60 72
0.0399786 -0.024706 0.181731 66 60 71
0.0411865 -0.0248605 0.182868 62 55 67
0.0428483 -0.0252758 0.185923 61 54 67
0.0424708 -0.0244964 0.180189 63 57 69
0.0443563 -0.0250277 0.184098 62 54 67
0.045512 -0.0251334 0.184876 65 59 70
0.0467726 -0.0252914 0.186038 64 58 69
0.0485219 -0.0257019 0.189057 63 56 69
0.0484378 -0.0251442 0.184955 66 58 71
0.0493002 -0.0250901 0.184557 64 57 69
0.0512983 -0.0256049 0.188344 64 59 70
0.052067 -0.0254982 0.187559 61 52 64
0.0534842 -0.0257072 0.189096 62 54 65
0.0529349 -0.0249806 0.183752 63 55 66
0.0553989 -0.0256765 0.188871 64 55 66
0.05809 -0.0264515 0.194571 63 54 65
0.0577064 -0.0258237 0.189953 62 51 64
0.0574965 -0.0252937 0.186055 59 45 60
0.0581518 -0.0251557 0.185039 63 47 61
0.0615466 -0.0261877 0.192631 60 41 57
0.0612798 -0.0256536 0.188702 57 38 55
0.062064 -0.0255695 0.188083 60 42 58
0.064138 -0.0260111 0.191332 60 41 59
0.0641354 -0.0256099 0.18838 61 43 61
0.0652351 -0.0256543 0.188707 64 49 64
0.0665093 -0.0257651 0.189522 64 49 63
0.067426 -0.0257361 0.189309 66 52 64
0.0656573 -0.0246978 0.181671 68 54 65
0.0703651 -0.0260905 0.191916 68 59 69
0.0681348 -0.0249077 0.183216 69 65 74
0.0692955 -0.0249802 0.183749 68 65 74
0.0737062 -0.0262062 0.192767 69 66 74
0.0721536 -0.0253075 0.186156 67 64 73
0.0738275 -0.0255494 0.187935 69 65 75
0.0757772 -0.025879 0.19036 72 69 78
0.075856 -0.0255695 0.188083 73 70 79
0.07782 -0.0258952 0.190479 71 68 78
0.0755532 -0.0248227 0.18259 75 72 81
0.077096 -0.025013 0.18399 71 68 77
0.0778915 -0.0249591 0.183593 72 70 78
0.0781525 -0.0247373 0.181962 73 71 79
0.079892 -0.0249832 0.183771 72 69 78
0.0786137 -0.0242908 0.178678 76 74 83
0.081895 -0.025007 0.183946 74 74 82
0.0789276 -0.0238207 0.175219 72 73 80
0.0840007 -0.0250603 0.184338 77 76 83
0.0855235 -0.0252247 0.185547 75 75 82
0.0850039 -0.0247898 0.182348 77 77 83
0.0850217 -0.0245195 0.180359 78 76 81
0.085469 -0.0243776 0.179316 75 74 79
0.0871789 -0.024595 0.180915 71 73 77
0.0882467 -0.0246286 0.181162 77 80 83
0.0872307 -0.024086 0.177171 74 78 85
0.0876046 -0.0239346 0.176058 76 80 86
0.0909191 -0.0245814 0.180815 74 78 81
0.089437 -0.0239315 0.176034 80 82 83
0.0882805 -0.0233809 0.171985 79 82 81
0.0915976 -0.0240144 0.176645 82 90 85
0.0927299 -0.0240682 0.17704 82 92 87
0.0931588 -0.0239401 0.176098 79 88 84
0.0929965 -0.0236641 0.174068 81 87 86
0.0969109 -0.0244207 0.179633 81 88 86
0.0948645 -0.0236752 0.174149 86 94 90
0.0964324 -0.0238373 0.175342 87 95 89
0.101302 -0.0248048 0.182458 89 99 94
0.100533 -0.0243865 0.179382 85 96 91
0.100138 -0.0240657 0.177022 92 101 100
0.102461 -0.024398 0.179466 91 100 98
0.105892 -0.0249857 0.183789 95 103 98
0.102354 -0.0239335 0.176049 93 103 96
0.105 -0.0243328 0.178987 97 110 102
0.104663 -0.0240401 0.176833 99 116 105
0.107455 -0.024465 0.179959 95 114 103
0.108793 -0.0245543 0.180616 96 115 106
0.110408 -0.024704 0.181717 102 124 114
0.107617 -0.0238737 0.175609 97 125 115
0.10874 -0.0239182 0.175937 101 128 124
0.111383 -0.0242937 0.178699 101 131 123
-0.456571 -0.0949549 0.726405 66 50 54
-0.464481 -0.0974116 0.745199 64 52 65
-0.462722 -0.0978651 0.748668 61 55 66
-0.469575 -0.100163 0.76625 63 56 65
-0.445815 -0.095915 0.73375 62 52 62
-0.435665 -0.0945465 0.72328 64 56 64
-0.426535 -0.093377 0.714334 66 57 64
-0.41717 -0.092135 0.704833 65 55 64
-0.413478 -0.092135 0.704833 64 58 66
-0.419787 -0.0943836 0.722035 64 57 65
-0.417553 -0.0947347 0.724721 66 59 66
-0.418912 -0.095915 0.73375 62 55 62
-0.415069 -0.095915 0.73375 62 53 60
-0.406165 -0.0947347 0.724721 64 53 61
-0.402369 -0.0947347 0.724721 68 61 66
-0.392498 -0.0932907 0.713674 68 61 67
-0.398588 -0.0956492 0.731716 68 61 67
-0.390205 -0.0945465 0.72328 71 65 71
-0.361782 -0.0885191 0.677171 69 65 71
-0.377895 -0.093377 0.714334 63 59 63
-0.359787 -0.0897914 0.686904 65 60 65
-0.370412 -0.093377 0.714334 67 61 66
-0.361794 -0.092135 0.704833 70 61 65
-0.362594 -0.0932907 0.713674 69 59 65
-0.336644 -0.0875165 0.669501 62 54 61
-0.329631 -0.0865953 0.662454 66 62 64
-0.33878 -0.0899456 0.688083 65 65 67
-0.291413 -0.0782016 0.598242 70 73 76
-0.29898 -0.0811043 0.620448 71 75 78
-0.283183 -0.0776632 0.594124 71 82 80
-0.265029 -0.0734921 0.562215 75 86 82
-0.239395 -0.0671298 0.513543 79 88 88
-0.242194 -0.0686864 0.525451 81 88 93
-0.227844 -0.0653595 0.5 84 92 97
-0.209599 -0.0608248 0.46531 82 92 96
-0.197807 -0.0580783 0.444299 85 94 97
-0.192965 -0.0573311 0.438583 85 96 99
-0.174471 -0.0524609 0.401326 84 99 99
-0.131488 -0.0400186 0.306142 86 106 102
-0.101105 -0.0311514 0.238308 82 105 99
-0.113807 -0.0355032 0.271599 87 105 102
-0.102895 -0.0325056 0.248668 93 111 111
-0.0930461 -0.029771 0.227748 104 129 129
-0.0931416 -0.0301886 0.230943 103 139 135
-0.0858331 -0.0281859 0.215622 110 148 142
-0.0811377 -0.0269992 0.206544 123 157 155
-0.0785504 -0.0264915 0.20266 125 159 158
-0.078786 -0.0269349 0.206052 126 161 159
-0.0762164 -0.0264184 0.202101 139 174 163
-0.0752598 -0.0264542 0.202375 138 178 166
-0.0715571 -0.025512 0.195167 135 178 166
-0.0719782 -0.026034 0.19916 140 182 170
-0.069829 -0.0256281 0.196055 134 185 171
-0.0698928 -0.0260344 0.199163 140 192 177
-0.0692803 -0.0261973 0.200409 143 194 180
-0.0678774 -0.0260617 0.199372 138 192 176
-0.0663273 -0.0258644 0.197863 146 201 181
-0.0646432 -0.0256078 0.1959 149 202 183
-0.0627367 -0.0252534 0.193189 150 200 182
-0.0623729 -0.0255185 0.195217 153 200 188
-0.0613685 -0.0255261 0.195275 156 203 186
-0.062826 -0.0265752 0.203301 148 198 178
-0.0602824 -0.0259389 0.198433 155 205 178
-0.0585502 -0.0256356 0.196112 174 221 197
-0.057751 -0.0257372 0.19689 179 222 201
-0.0564521 -0.0256158 0.195961 175 220 200
-0.0569967 -0.0263418 0.201515 160 213 191
-0.0558524 -0.0263 0.201195 188 226 209
-0.0533335 -0.0255969 0.195816 161 214 191
-0.0517095 -0.025304 0.193576 155 210 185
-0.0512955 -0.0256035 0.195867 149 208 179
-0.0504068 -0.0256734 0.196401 182 223 200
-0.0494852 -0.0257291 0.196828 153 210 180
-0.0476238 -0.0252881 0.193454 161 215 187
-0.0464731 -0.0252135 0.192883 166 217 191
-0.0460509 -0.0255397 0.195379 159 211 182
-0.0438277 -0.0248591 0.190172 167 214 186
-0.0427841 -0.0248315 0.189961 179 220 195
-0.042746 -0.0254001 0.194311 149 207 173
-0.0407657 -0.0248143 0.189829 190 225 204
-0.0398554 -0.0248667 0.19023 158 211 181
-0.0385053 -0.0246403 0.188498 160 213 183
-0.038076 -0.0250068 0.191302 182 222 201
-0.0369451 -0.0249198 0.190636 165 214 189
-0.0360487 -0.0249906 0.191178 146 205 172
-0.0342079 -0.024392 0.186599 179 221 195
-0.0339633 -0.02493 0.190714 158 213 181
-0.0320557 -0.0242427 0.185457 177 221 198
-0.0318864 -0.0248683 0.190242 148 207 176
-0.0306167 -0.0246482 0.188559 146 205 172
-0.0286919 -0.0238686 0.182595 159 216 189
-0.0284734 -0.0245037 0.187453 161 217 189
-0.0272251 -0.0242662 0.185637 153 212 181
-0.0262276 -0.0242429 0.185458 171 220 196
-0.0253513 -0.0243342 0.186156 158 210 181
-0.0246237 -0.0245812 0.188046 157 209 176
-0.0236574 -0.0246006 0.188195 149 209 177
-0.0222707 -0.0241655 0.184866 162 219 193
-0.02183 -0.024764 0.189445 173 224 200
-0.0205302 -0.0243985 0.186649 153 211 183
-0.0199 -0.024832 0.189965 189 225 207
-0.0184906 -0.0242878 0.185801 172 218 197
-0.0175821 -0.0243774 0.186487 154 211 186
-0.0163458 -0.0239964 0.183573 133 196 168
-0.0156584 -0.0244241 0.186844 146 194 173
-0.0144354 -0.0240175 0.183734 130 182 162
-0.0137026 -0.0244266 0.186864 100 139 117
-0.0127782 -0.024531 0.187662 86 110 99
-0.0117953 -0.024531 0.187662 79 89 86
-0.0105072 -0.0238387 0.182366 74 83 81
-0.00960346 -0.0239672 0.183349 69 73 76
-0.00849956 -0.0235692 0.180304 71 66 75
-0.00769775 -0.024014 0.183707 69 65 74
-0.00674595 -0.0240511 0.183991 72 67 77
-0.00574517 -0.0238969 0.182811 69 62 72
-0.00487717 -0.0243438 0.18623 69 62 72
-0.00375499 -0.0234282 0.179226 68 63 72
-0.00282526 -0.0235032 0.179799 68 62 73
-0.0019133 -0.023875 0.182644 66 61 71
-0.00099336 -0.0247911 0.189652 65 60 70
0 -0.0242011 0.185139 65 58 70
0.000954083 -0.0238109 0.182154 66 59 71
0.00191606 -0.0239094 0.182907 64 59 70
0.00285411 -0.0237432 0.181636 65 60 72
0.00387568 -0.0241812 0.184986 65 59 71
0.00472894 -0.0236039 0.18057 66 60 71
0.00557857 -0.0232039 0.17751 66 59 71
0.00687578 -0.024514 0.187532 66 58 70
0.00743796 -0.0232035 0.177507 66 58 70
0.00868732 -0.0240898 0.184287 65 58 70
0.00962805 -0.0240286 0.183819 64 56 70
0.0105809 -0.024006 0.183646 65 57 70
0.011368 -0.0236424 0.180864 64 56 68
0.0122004 -0.0234218 0.179176 63 56 69
0.0133101 -0.023727 0.181512 62 55 69
0.0141014 -0.0234618 0.179483 62 56 69
0.0150706 -0.0235072 0.17983 64 58 71
0.0160843 -0.0236126 0.180636 64 57 70
0.0171473 -0.0237746 0.181876 63 55 69
0.0180907 -0.0237624 0.181783 63 56 70
0.0190374 -0.0237557 0.181731 64 59 71
0.0199315 -0.0236871 0.181206 63 56 69
0.0210115 -0.0238356 0.182342 65 59 71
0.0224597 -0.0243706 0.186435 65 59 72
0.0226944 -0.0235992 0.180534 65 59 72
0.0240441 -0.0240026 0.18362 63 57 70
0.0252792 -0.0242649 0.185627 64 58 71
0.0261948 -0.0242126 0.185226 63 56 70
0.0269898 -0.0240565 0.184032 64 59 72
0.0278325 -0.0239521 0.183234 65 60 72
0.0282939 -0.0235376 0.180063 64 58 71
0.0297468 -0.023948 0.183202 64 60 72
0.030395 -0.0237051 0.181344 63 59 71
0.0316246 -0.0239167 0.182963 63 57 71
0.0328683 -0.0241262 0.184565 62 56 70
0.034584 -0.0246603 0.188651 61 55 69
0.0349404 -0.0242223 0.185301 62 56 70
0.0350666 -0.0236528 0.180944 62 56 69
0.0363336 -0.0238625 0.182548 63 57 70
0.0376224 -0.0240753 0.184176 64 57 69
0.0387106 -0.0241524 0.184766 62 55 68
0.0389633 -0.0237171 0.181436 67 61 72
0.0408377 -0.0242662 0.185637 61 54 67
0.040283 -0.0233799 0.178857 62 56 68
0.0419562 -0.0237976 0.182052 63 56 69
0.042136 -0.0233685 0.178769 63 57 69
0.0447737 -0.0242915 0.18583 62 54 67
0.0454415 -0.0241293 0.184589 63 55 67
0.0472764 -0.0245806 0.188042 61 54 67
0.0468257 -0.0238495 0.182448 62 56 68
0.0475144 -0.0237162 0.181429 62 54 67
0.0492546 -0.0241028 0.184386 65 58 69
0.0520668 -0.0249889 0.191165 63 57 68
0.0515085 -0.0242545 0.185547 64 55 66
0.0534671 -0.0247106 0.189036 63 54 65
0.0537695 -0.0243985 0.186649 63 54 66
0.0543664 -0.0242288 0.18535 63 53 65
0.0565095 -0.0247421 0.189277 62 53 64
0.0562792 -0.0242164 0.185256 62 50 62
0.0574012 -0.0242806 0.185746 57 43 58
0.0590275 -0.0245523 0.187825 56 37 53
0.0606182 -0.0248006 0.189725 59 41 57
0.061513 -0.0247608 0.18942 57 38 55
0.0630809 -0.0249889 0.191165 58 39 56
0.062494 -0.0243696 0.186427 59 40 56
0.0646467 -0.0248212 0.189882 61 43 59
0.0652351 -0.0246676 0.188707 61 44 60
0.0667133 -0.0248501 0.190103 64 49 63
0.0658548 -0.0241695 0.184897 67 53 65
0.0670251 -0.0242425 0.185455 68 54 65
0.0684339 -0.0243985 0.186649 68 58 68
0.0682338 -0.0239845 0.183482 69 65 74
0.0708863 -0.0245708 0.187967 68 64 73
0.0714176 -0.0244159 0.186782 70 66 75
0.0737855 -0.0248845 0.190367 70 66 76
0.0719518 -0.0239426 0.183161 66 62 72
0.0731499 -0.024021 0.18376 69 66 74
0.0734255 -0.0237983 0.182057 71 67 77
0.0750956 -0.0240276 0.183811 70 65 76
0.0753927 -0.0238173 0.182202 70 66 75
0.0765883 -0.0238925 0.182778 72 69 78
0.0795125 -0.0244985 0.187414 70 67 75
0.079107 -0.0240764 0.184184 69 65 75
0.0809073 -0.0243276 0.186106 71 68 79
0.0788115 -0.0234153 0.179127 70 68 77
0.0809091 -0.0237557 0.181731 71 70 79
0.0826044 -0.0239715 0.183382 72 71 79
0.0820399 -0.023534 0.180035 72 71 79
0.0841124 -0.0238543 0.182486 70 68 75
0.084285 -0.0236347 0.180806 72 70 76
0.0847834 -0.0235103 0.179854 77 75 80
0.0854589 -0.0234372 0.179295 71 68 74
0.0869264 -0.0235805 0.180391 74 75 80
0.0904646 -0.0242765 0.185715 76 76 81
0.088187 -0.0234135 0.179113 73 75 83
0.0886442 -0.0232872 0.178147 73 76 84
0.0916957 -0.0238379 0.18236 74 77 80
0.0914198 -0.0235211 0.179937 75 77 79
0.0902913 -0.0229937 0.175902 78 81 79
0.0928075 -0.0233958 0.178978 76 84 80
0.0914958 -0.0228345 0.174684 78 87 83
0.0925345 -0.0228651 0.174918 80 90 85
0.0936442 -0.0229124 0.17528 79 85 82
0.09573 -0.0231954 0.177444 81 87 85
0.0977146 -0.0234486 0.179382 82 86 86
0.0996769 -0.0236916 0.181241 84 90 88
0.0986813 -0.0232337 0.177738 86 93 91
0.100277 -0.0233888 0.178924 85 91 91
0.101831 -0.0235314 0.180015 90 95 97
0.10185 -0.0233197 0.178396 92 97 100
0.101988 -0.0231391 0.177014 90 96 98
0.10504 -0.0236169 0.180669 91 100 100
0.104712 -0.0233329 0.178497 93 105 106
0.107079 -0.0236493 0.180917 97 111 110
0.106002 -0.0232059 0.177525 92 108 107
0.109508 -0.0237649 0.181802 91 107 106
0.109292 -0.0235137 0.17988 98 108 103
0.109176 -0.023288 0.178153 99 113 110
0.109755 -0.023213 0.177579 96 114 111
0.112333 -0.0235587 0.180224 111 119 112
-0.443012 -0.0884496 0.704833 71 56 58
-0.464481 -0.0935152 0.745199 64 52 63
-0.442531 -0.089851 0.716 66 58 67
-0.456674 -0.0935152 0.745199 60 50 59
-0.440329 -0.0909453 0.724721 61 49 59
-0.435665 -0.0907646 0.72328 61 49 59
-0.426535 -0.0896419 0.714334 60 47 57
-0.423247 -0.089738 0.7151 62 48 59
-0.413478 -0.0884496 0.704833 63 51 60
-0.438202 -0.0945829 0.753707 63 49 59
-0.406095 -0.0884496 0.704833 62 49 59
-0.407827 -0.0896419 0.714334 64 58 63
-0.419871 -0.0931436 0.742238 63 55 61
-0.405358 -0.0907646 0.72328 63 52 59
-0.416532 -0.0941463 0.750228 65 57 63
-0.40354 -0.0920784 0.73375 64 56 63
-0.400985 -0.0923754 0.736117 65 56 63
-0.404743 -0.0941463 0.750228 68 60 66
-0.402672 -0.0945829 0.753707 66 56 63
-0.382628 -0.0907646 0.72328 66 58 62
-0.384323 -0.0920784 0.73375 64 55 61
-0.355485 -0.0860294 0.685547 64 53 61
-0.346487 -0.0847075 0.675013 62 48 57
-0.33327 -0.0823163 0.655958 64 52 60
-0.350025 -0.0873553 0.696112 63 54 61
-0.32813 -0.0827529 0.659437 65 59 61
-0.337531 -0.0860294 0.685547 71 62 68
-0.328809 -0.0847075 0.675013 72 60 68
-0.309495 -0.0805985 0.64227 72 62 67
-0.300926 -0.0792282 0.63135 72 72 73
-0.302767 -0.0805985 0.64227 70 72 74
-0.291663 -0.0785149 0.625666 72 75 80
-0.262934 -0.0715855 0.570447 74 77 83
-0.265471 -0.073107 0.582571 72 84 84
-0.250099 -0.0696746 0.555219 69 81 81
-0.251428 -0.070869 0.564737 73 81 81
-0.219987 -0.0627451 0.5 73 79 79
-0.185575 -0.0535677 0.426867 79 85 85
-0.189031 -0.0552306 0.440119 75 86 84
-0.169834 -0.0502342 0.400304 76 88 84
-0.137709 -0.0412414 0.328643 78 92 89
-0.127106 -0.0385478 0.307178 80 100 96
-0.118458 -0.0363858 0.289949 89 108 114
-0.106991 -0.0332902 0.265281 95 116 121
-0.0998145 -0.031466 0.250745 89 125 125
-0.0874105 -0.0279231 0.222512 103 135 136
-0.0864695 -0.0279958 0.223091 121 149 150
-0.0756194 -0.0248183 0.197771 115 153 150
-0.0769478 -0.025605 0.20404 129 168 157
-0.0756838 -0.0255391 0.203515 131 171 161
-0.0732371 -0.0250665 0.199749 130 166 159
-0.0720084 -0.0250032 0.199244 134 174 162
-0.0721061 -0.0254053 0.202448 129 180 166
-0.0701183 -0.0250737 0.199806 130 184 170
-0.0715711 -0.0259809 0.207036 134 187 174
-0.0657857 -0.0242482 0.193228 138 192 176
-0.0696604 -0.0260776 0.207806 134 193 177
-0.0666177 -0.0253344 0.201884 141 196 180
-0.0647718 -0.0250297 0.199455 149 196 185
-0.0642619 -0.0252397 0.201129 140 190 183
-0.0612985 -0.0244771 0.195052 151 198 185
-0.061941 -0.0251529 0.200437 148 197 181
-0.0595774 -0.0246102 0.196112 154 205 186
-0.0584867 -0.0245835 0.1959 150 206 185
-0.0574922 -0.024597 0.196007 156 209 194
-0.0562872 -0.0245193 0.195388 163 213 196
-0.0568821 -0.0252373 0.20111 145 203 178
-0.0546958 -0.0247252 0.197029 180 221 204
-0.0534829 -0.0246418 0.196365 189 226 210
-0.0519098 -0.024386 0.194326 175 219 199
-0.0521263 -0.0249774 0.199039 142 205 173
-0.0480665 -0.0235021 0.187283 188 226 204
-0.0497391 -0.0248266 0.197837 164 215 188
-0.0479909 -0.0244637 0.194945 171 219 194
-0.0464286 -0.0241818 0.192699 179 221 202
-0.0460398 -0.0245122 0.195332 157 210 181
-0.0434964 -0.0236844 0.188735 158 210 180
-0.0429717 -0.0239428 0.190794 149 206 172
-0.0422239 -0.0240863 0.191938 137 201 165
-0.0417001 -0.0243677 0.19418 179 221 197
-0.0395781 -0.0237059 0.188906 171 217 190
-0.0389682 -0.0239391 0.190765 144 206 170
-0.0376765 -0.0237546 0.189294 155 211 181
-0.0366195 -0.0237122 0.188957 182 224 203
-0.0356162 -0.0237031 0.188884 151 210 179
-0.0344171 -0.0235596 0.187741 176 220 195
-0.0326518 -0.0230085 0.183349 156 212 182
-0.0324425 -0.0235539 0.187695 154 211 183
-0.0324794 -0.0243175 0.19378 171 217 195
-0.0310496 -0.0239969 0.191225 186 224 204
-0.0292991 -0.0233988 0.186459 168 222 196
-0.0290658 -0.024013 0.191353 184 228 206
-0.0275553 -0.0235781 0.187888 154 214 184
-0.0269599 -0.023923 0.190636 169 219 193
-0.025588 -0.0235789 0.187895 172 219 193
-0.0245349 -0.0235129 0.187368 181 223 200
-0.0238964 -0.0238552 0.190096 158 212 184
-0.0221706 -0.0230947 0.184036 161 216 189
-0.0215463 -0.0234645 0.186983 152 213 184
-0.0209525 -0.0239044 0.190488 175 220 198
-0.0189039 -0.0226455 0.180456 170 217 196
-0.0184397 -0.0232521 0.18529 172 218 200
-0.0176798 -0.0235324 0.187524 153 210 187
-0.0166604 -0.0234799 0.187106 141 200 176
-0.015535 -0.0232623 0.185371 122 174 151
-0.0145165 -0.0231863 0.184766 102 147 131
-0.013452 -0.0230208 0.183447 94 117 109
-0.0124801 -0.0230005 0.183285 81 94 88
-0.0119652 -0.0238891 0.190367 77 87 85
-0.0106447 -0.0231848 0.184754 69 81 79
-0.00949767 -0.0227551 0.181329 70 73 77
-0.0085479 -0.0227551 0.181329 72 67 76
-0.0076026 -0.0227684 0.181436 70 65 75
-0.00690152 -0.0236215 0.188234 70 65 74
-0.00575007 -0.0229606 0.182967 69 62 72
-0.00474551 -0.0227391 0.181203 70 63 74
-0.00381534 -0.0228525 0.182106 67 61 72
-0.00289992 -0.0231594 0.184551 66 61 71
-0.00189046 -0.0226464 0.180463 66 60 71
-0.00095308 -0.0228344 0.181962 65 60 71
0 -0.0228884 0.182392 66 60 71
0.000952601 -0.022823 0.181871 65 59 71
0.00188328 -0.0225604 0.179778 64 58 70
0.0028571 -0.0228174 0.181826 64 59 70
0.00374516 -0.0224322 0.178756 63 56 69
0.00482015 -0.0230968 0.184053 64 57 70
0.0056594 -0.0225985 0.180082 65 58 70
0.00663132 -0.0226967 0.180864 65 57 69
0.00768413 -0.0230126 0.183382 65 58 70
0.00840967 -0.0223871 0.178397 65 58 71
0.00965258 -0.0231262 0.184287 65 57 71
0.0102589 -0.0223444 0.178057 64 57 70
0.0112477 -0.0224567 0.178952 64 56 68
0.0121473 -0.0223871 0.178397 62 55 69
0.0134472 -0.0230126 0.183382 62 55 69
0.0140678 -0.0224697 0.179055 63 57 70
0.015216 -0.0227846 0.181564 64 57 70
0.0166377 -0.023448 0.186851 64 58 71
0.017088 -0.0227446 0.181246 65 58 70
0.0180864 -0.0228066 0.18174 65 58 71
0.0192407 -0.023049 0.183672 65 59 71
0.0205041 -0.0233928 0.186411 63 57 70
0.02106 -0.0229349 0.182762 63 57 70
0.0220282 -0.0229463 0.182853 64 55 69
0.0233146 -0.0232744 0.185468 64 56 70
0.023541 -0.0225604 0.179778 63 58 70
0.0245905 -0.0226598 0.18057 64 57 71
0.0260168 -0.0230861 0.183967 64 57 71
0.0267883 -0.0229218 0.182658 64 59 71
0.027899 -0.023049 0.183672 64 58 71
0.0288109 -0.023009 0.183353 64 58 71
0.029752 -0.0229941 0.183234 64 59 71
0.0305149 -0.0228467 0.182059 64 59 71
0.0315173 -0.0228821 0.182342 63 56 70
0.0329724 -0.0232345 0.18515 62 54 69
0.0331578 -0.0226975 0.180871 63 56 70
0.0349717 -0.0232743 0.185467 62 54 69
0.0351521 -0.022762 0.181385 62 55 69
0.0364691 -0.0229934 0.183228 60 52 67
0.0373008 -0.0229147 0.182602 63 56 69
0.0379556 -0.022734 0.181162 61 53 67
0.0403429 -0.0235746 0.18786 62 54 67
0.0386512 -0.0220483 0.175697 62 54 67
0.0407242 -0.0226905 0.180815 62 54 68
0.0427007 -0.0232511 0.185282 62 54 68
0.0436909 -0.0232616 0.185366 62 54 67
0.04406 -0.0229481 0.182868 62 54 68
0.0452454 -0.0230642 0.183793 62 55 68
0.045659 -0.0227901 0.181609 64 57 70
0.0473326 -0.0231433 0.184423 64 57 69
0.049108 -0.0235312 0.187514 64 57 68
0.0490808 -0.023057 0.183735 65 57 69
0.0500994 -0.0230829 0.183942 62 53 65
0.0494116 -0.0223365 0.177994 60 51 63
0.0536014 -0.0237818 0.189511 61 51 63
0.053564 -0.023333 0.185935 62 53 64
0.0543958 -0.0232723 0.185451 59 46 60
0.0543685 -0.0228525 0.182106 61 49 61
0.0566585 -0.0234044 0.186504 62 48 61
0.0567473 -0.0230438 0.18363 59 43 58
0.0586748 -0.0234294 0.186703 59 41 56
0.0575323 -0.0225966 0.180067 58 39 55
0.0599113 -0.0231515 0.184488 58 39 56
0.0618009 -0.0235026 0.187286 57 37 54
0.0616169 -0.0230665 0.183811 61 43 59
0.0644196 -0.0237447 0.189215 60 43 59
0.0643067 -0.0233439 0.186022 62 45 61
0.0647201 -0.0231433 0.184423 62 45 60
0.0660864 -0.0232843 0.185547 66 53 65
0.0654618 -0.0227301 0.18113 67 55 65
0.067864 -0.0232275 0.185094 68 58 68
0.0690692 -0.023307 0.185728 68 63 72
0.0696048 -0.0231616 0.184569 69 64 73
0.0705419 -0.0231518 0.184491 65 61 71
0.0720851 -0.0233386 0.18598 68 62 73
0.0736245 -0.0235192 0.187419 69 64 74
0.0727878 -0.022946 0.182851 70 65 74
0.0750327 -0.0233464 0.186042 67 63 72
0.0745968 -0.0229133 0.18259 72 68 77
0.0769125 -0.0233255 0.185875 70 66 75
0.0757326 -0.0226806 0.180736 71 67 76
0.0766226 -0.0226638 0.180602 72 69 77
0.0784963 -0.0229349 0.182762 72 68 78
0.0791271 -0.0228406 0.182011 71 67 78
0.0775502 -0.022119 0.17626 72 69 79
0.0812635 -0.0229054 0.182527 70 68 77
0.0806239 -0.0224609 0.178985 76 75 83
0.0820865 -0.0226055 0.180137 74 73 81
0.0836314 -0.0227692 0.181442 72 70 77
0.0828067 -0.0222914 0.177634 75 73 79
0.0848818 -0.0225961 0.180063 76 74 79
0.0887093 -0.0233555 0.186114 74 72 78
0.0841933 -0.0219256 0.174719 72 71 77
0.0891338 -0.0229626 0.182983 76 75 80
0.0900459 -0.0229508 0.182889 70 70 78
0.0880986 -0.0222181 0.17705 72 73 81
0.0917957 -0.0229093 0.182559 72 75 79
0.09108 -0.0224964 0.179268 74 77 80
0.0900427 -0.0220132 0.175418 78 81 80
0.0938007 -0.0227003 0.180893 75 79 75
0.0925927 -0.0221839 0.176778 72 77 76
0.0915511 -0.0217172 0.173059 75 80 78
0.0931553 -0.0218811 0.174365 82 87 84
0.0939708 -0.0218583 0.174184 79 84 85
0.0980878 -0.0225966 0.180067 82 83 84
0.0948942 -0.0216527 0.172545 79 85 85
0.0986067 -0.0222875 0.177604 79 86 85
0.0992945 -0.0222332 0.177171 84 90 90
0.100978 -0.0224009 0.178507 85 85 88
0.100106 -0.0220037 0.175342 86 90 93
0.104959 -0.0228606 0.18217 89 94 97
0.107153 -0.0231283 0.184304 90 98 100
0.105986 -0.0226722 0.180669 91 100 102
0.104762 -0.0222119 0.177001 86 99 102
0.106002 -0.0222776 0.177525 91 103 109
0.106831 -0.0222566 0.177357 93 105 109
0.107761 -0.022257 0.17736 95 107 105
0.111351 -0.0228017 0.181701 90 100 99
0.107456 -0.0218178 0.173861 94 103 101
0.11151 -0.0224506 0.178903 98 106 106
-0.436114 -0.0834443 0.693858 65 51 53
-0.464481 -0.0896187 0.745199 62 51 62
-0.441975 -0.0859989 0.7151 61 51 60
-0.43776 -0.0859068 0.714334 63 54 61
-0.445815 -0.0882418 0.73375 61 49 58
-0.466329 -0.0931049 0.774187 64 54 62
-0.420862 -0.0847642 0.704833 62 49 59
-0.423247 -0.0859989 0.7151 63 50 60
-0.430442 -0.0882418 0.73375 62 48 58
-0.442844 -0.0916022 0.761692 63 50 59
-0.422756 -0.0882418 0.73375 61 50 57
-0.434865 -0.0916022 0.761692 63 56 61
-0.421546 -0.0896187 0.745199 63 54 60
-0.411226 -0.0882418 0.73375 62 51 59
-0.422896 -0.0916022 0.761692 65 58 64
-0.418907 -0.0916022 0.761692 67 58 64
-0.37844 -0.083549 0.694728 65 55 61
-0.40662 -0.0906419 0.753707 66 56 62
-0.381637 -0.0859068 0.714334 66 55 62
-0.406919 -0.0925048 0.769197 64 53 59
-0.379594 -0.0871559 0.724721 62 50 57
-0.365485 -0.0847642 0.704833 61 44 54
-0.36667 -0.0859068 0.714334 61 43 53
-0.363318 -0.0859989 0.7151 63 48 56
-0.359187 -0.0859068 0.714334 62 52 58
-0.34606 -0.0836384 0.695471 63 53 59
-0.328336 -0.0801988 0.666871 66 55 63
-0.343335 -0.0847642 0.704833 68 55 64
-0.33035 -0.0824449 0.685547 70 59 63
-0.326759 -0.0824449 0.685547 71 61 65
-0.318202 -0.081178 0.675013 68 64 69
-0.283266 -0.0730772 0.607653 65 63 68
-0.272101 -0.0709945 0.590334 69 69 72
-0.269008 -0.0709945 0.590334 69 76 76
-0.273718 -0.0730772 0.607653 65 71 71
-0.236093 -0.0637737 0.530292 67 70 71
-0.232158 -0.0634574 0.527662 71 75 74
-0.22994 -0.0636084 0.528917 74 74 75
-0.208674 -0.0584296 0.485855 70 69 71
-0.200883 -0.0569425 0.473489 73 78 79
-0.214544 -0.0615751 0.51201 72 85 83
-0.175432 -0.0509871 0.423969 73 92 89
-0.163543 -0.0481412 0.400304 78 92 100
-0.139747 -0.0416705 0.3465 91 103 112
-0.136954 -0.041375 0.344042 91 110 115
-0.104146 -0.0318829 0.265113 97 122 124
-0.0925988 -0.028731 0.238905 99 127 125
-0.0831551 -0.0261544 0.217479 107 144 141
-0.0819769 -0.0261419 0.217375 104 145 142
-0.0821126 -0.026554 0.220802 116 156 152
-0.0760859 -0.0249565 0.207519 118 152 153
-0.0768813 -0.0255829 0.212727 119 154 157
-0.0714306 -0.0241187 0.200552 129 167 160
-0.0701446 -0.0240379 0.199881 132 171 162
-0.0694056 -0.0241451 0.200771 137 176 166
-0.0661679 -0.0233729 0.19435 135 184 169
-0.0680461 -0.0244119 0.20299 129 187 171
-0.065042 -0.0237045 0.197108 136 188 177
-0.0653484 -0.0242003 0.201231 141 188 179
-0.0621717 -0.0234013 0.194587 146 190 184
-0.0642356 -0.0245812 0.204398 147 193 185
-0.0623696 -0.0242716 0.201824 148 194 186
-0.061477 -0.0243367 0.202365 152 200 191
-0.060914 -0.0245369 0.20403 154 200 191
-0.0577756 -0.0236883 0.196974 153 200 188
-0.0565569 -0.0236103 0.196324 152 202 187
-0.0563322 -0.023952 0.199166 150 200 183
-0.0556191 -0.024095 0.200355 157 205 187
-0.0545839 -0.0241012 0.200407 175 217 198
-0.0531419 -0.0239246 0.198938 163 213 191
-0.0517383 -0.0237585 0.197557 155 209 183
-0.0498172 -0.0233433 0.194104 154 208 181
-0.0500037 -0.0239188 0.19889 152 208 177
-0.0484265 -0.0236572 0.196715 159 211 183
-0.0458595 -0.0228902 0.190337 181 220 200
-0.0449819 -0.0229511 0.190843 158 210 181
-0.0440761 -0.023 0.19125 177 219 195
-0.0426106 -0.0227524 0.189191 160 210 181
-0.0412309 -0.0225399 0.187424 160 210 184
-0.0414563 -0.0232159 0.193045 157 210 182
-0.0402501 -0.0231039 0.192114 175 218 193
-0.038475 -0.0226512 0.18835 142 204 165
-0.0373979 -0.0225965 0.187895 145 205 167
-0.0365536 -0.0226833 0.188617 181 224 201
-0.0358957 -0.0228938 0.190367 150 210 180
-0.0339333 -0.0222605 0.185101 184 224 204
-0.0335848 -0.0226799 0.188588 185 225 204
-0.0329896 -0.0229531 0.19086 155 210 182
-0.0311614 -0.0223586 0.185917 143 203 170
-0.0307193 -0.0227524 0.189191 155 210 181
-0.0300036 -0.0229631 0.190943 172 221 196
-0.0288649 -0.0228533 0.19003 159 217 189
-0.0274513 -0.0225103 0.187178 143 208 177
-0.0266318 -0.0226472 0.188316 169 217 189
-0.0254228 -0.0224506 0.186681 178 220 194
-0.024658 -0.0226462 0.188308 171 216 190
-0.0235105 -0.022492 0.187026 146 203 174
-0.0226404 -0.0226014 0.187935 164 213 188
-0.021517 -0.0224562 0.186728 150 207 178
-0.0203902 -0.0222936 0.185376 157 211 185
-0.0193485 -0.0222123 0.1847 172 219 199
-0.0186804 -0.022574 0.187708 156 210 191
-0.0171738 -0.0219065 0.182157 138 197 177
-0.0166004 -0.0224205 0.186432 135 180 162
-0.0157655 -0.0226238 0.188122 114 155 134
-0.0144961 -0.022189 0.184507 91 121 106
-0.0138953 -0.0227886 0.189492 86 100 98
-0.0125685 -0.0221983 0.184584 80 86 91
-0.0117834 -0.022546 0.187475 75 84 84
-0.010751 -0.0224407 0.186599 71 80 80
-0.00958982 -0.0220185 0.183089 69 71 75
-0.00860639 -0.0219562 0.18257 73 68 76
-0.0076909 -0.0220732 0.183543 73 68 77
-0.00661483 -0.0216969 0.180415 68 62 71
-0.005747 -0.0219921 0.182869 68 61 72
-0.00478103 -0.0219548 0.182559 67 61 71
-0.00385053 -0.0221024 0.183786 67 61 72
-0.00288829 -0.0221054 0.183811 67 61 71
-0.00196015 -0.0225028 0.187116 66 60 71
-0.000934134 -0.021448 0.178345 65 59 70
0 -0.0220792 0.183593 66 60 71
0.00094718 -0.0217476 0.180836 65 59 70
0.00191644 -0.022001 0.182943 65 59 70
0.00284464 -0.0217713 0.181033 64 58 70
0.00376656 -0.0216203 0.179778 64 56 69
0.00467514 -0.0214685 0.178516 65 57 70
0.00570432 -0.0218288 0.181512 65 58 70
0.00652838 -0.0214134 0.178057 65 58 70
0.00768413 -0.0220538 0.183382 65 57 70
0.00834661 -0.0212934 0.177059 64 56 70
0.00953114 -0.0218838 0.181968 65 58 71
0.0104338 -0.0217785 0.181093 65 58 71
0.0115893 -0.0221745 0.184386 65 57 70
0.0124556 -0.0219987 0.182924 64 56 70
0.0132033 -0.0216537 0.180055 62 55 69
0.0143897 -0.0220262 0.183153 62 55 69
0.0152842 -0.0219332 0.182379 65 59 72
0.0160815 -0.0217198 0.180604 65 60 72
0.017088 -0.0217969 0.181246 65 57 70
0.0181005 -0.0218733 0.181881 65 58 70
0.0191863 -0.0220262 0.183153 64 57 70
0.0201676 -0.0220503 0.183353 64 59 72
0.0211214 -0.0220434 0.183295 64 58 71
0.0215201 -0.0214829 0.178635 62 54 68
0.0228514 -0.0218614 0.181783 63 55 69
0.0239787 -0.0220223 0.183121 63 55 70
0.0252365 -0.0222861 0.185314 63 57 70
0.0256319 -0.0217969 0.181246 64 58 71
0.0267474 -0.0219332 0.182379 65 59 72
0.0277987 -0.0220092 0.183011 64 59 71
0.0292648 -0.0223976 0.186241 64 58 70
0.029383 -0.0217626 0.180961 63 57 70
0.0300903 -0.0215901 0.179526 63 56 70
0.0319367 -0.0222205 0.184768 63 55 69
0.0329446 -0.0222476 0.184994 63 56 70
0.0328541 -0.0215526 0.179214 62 54 69
0.034124 -0.0217638 0.180971 61 53 68
0.0353473 -0.0219347 0.182392 62 53 69
0.0366728 -0.0221584 0.184252 64 56 70
0.0382536 -0.0225209 0.187266 62 52 67
0.0392076 -0.0225055 0.187138 61 53 67
0.0393946 -0.0220613 0.183444 61 53 67
0.040425 -0.0220993 0.18376 62 53 67
0.0408878 -0.0218325 0.181542 61 52 67
0.0418736 -0.0218507 0.181693 62 53 68
0.0426627 -0.0217678 0.181004 61 53 67
0.0443651 -0.0221443 0.184135 63 56 69
0.045456 -0.0222061 0.184648 64 57 69
0.0461218 -0.0220619 0.183449 62 55 68
0.0462896 -0.0216903 0.180359 64 56 69
0.0481069 -0.022091 0.183691 64 55 68
0.049887 -0.0224593 0.186754 61 51 65
0.0503067 -0.0222127 0.184703 61 50 64
0.051352 -0.0222464 0.184984 59 48 62
0.0530128 -0.0225405 0.18743 60 49 62
0.0532051 -0.022211 0.184689 60 49 62
0.0554656 -0.0227412 0.189098 61 49 61
0.0552277 -0.0222464 0.184984 56 41 56
0.0577738 -0.0228708 0.190175 57 41 56
0.0571655 -0.0222464 0.184984 55 37 53
0.057807 -0.0221211 0.183942 58 40 56
0.059976 -0.0225749 0.187715 56 37 53
0.0612391 -0.0226785 0.188577 54 35 52
0.0641406 -0.023376 0.194377 55 36 52
0.0627432 -0.0225094 0.187171 59 41 57
0.0635333 -0.0224422 0.186612 56 40 56
0.0648921 -0.0225749 0.187715 62 47 61
0.0648826 -0.0222347 0.184886 64 51 63
0.0682435 -0.0230425 0.191604 65 53 64
0.0690393 -0.0229734 0.191029 67 56 67
0.0665504 -0.0218288 0.181512 67 57 68
0.0695379 -0.0224875 0.186988 67 61 70
0.0685163 -0.0218494 0.181682 67 62 71
0.0710127 -0.0223353 0.185723 67 62 71
0.0704831 -0.0218691 0.181846 71 65 75
0.0725218 -0.0222017 0.184612 68 63 72
0.0727272 -0.0219716 0.182698 70 65 74
0.0731472 -0.0218115 0.181367 67 62 71
0.0742386 -0.0218531 0.181713 72 68 77
0.0780326 -0.0226792 0.188582 72 68 77
0.0757892 -0.0217518 0.180871 70 66 75
0.0764374 -0.021667 0.180166 66 62 71
0.0782947 -0.0219228 0.182293 68 62 73
0.0803524 -0.0222279 0.18483 69 63 74
0.0791086 -0.0216233 0.179803 68 64 74
0.0812635 -0.021951 0.182527 69 66 75
0.0808308 -0.0215802 0.179444 69 67 75
0.0836854 -0.0220855 0.183646 68 66 74
0.0835226 -0.0217921 0.181206 70 68 75
0.0847166 -0.0218553 0.181731 73 70 77
0.0830854 -0.0211963 0.176252 71 69 75
0.0862274 -0.0217561 0.180907 70 68 74
0.0847579 -0.0211529 0.175891 73 71 77
0.087221 -0.0215336 0.179056 70 68 75
0.0863566 -0.0210933 0.175396 72 72 79
0.089346 -0.0215938 0.179557 73 74 80
0.089026 -0.0212923 0.17705 71 75 78
0.0876364 -0.0207439 0.17249 73 77 78
0.087618 -0.0205279 0.170694 75 78 78
0.0926556 -0.0214889 0.178685 71 74 75
0.0934799 -0.0214633 0.178472 73 77 77
0.0929687 -0.0211346 0.175738 74 78 77
0.0926767 -0.0208616 0.173469 78 82 80
0.09595 -0.0213888 0.177852 75 78 81
0.095842 -0.0211593 0.175944 78 80 83
0.0959576 -0.020983 0.174478 75 80 81
0.096697 -0.0209452 0.174164 78 84 83
0.101825 -0.0218499 0.181687 81 86 85
0.0993695 -0.0211255 0.175663 85 82 91
0.100975 -0.0212699 0.176864 84 84 92
0.102261 -0.0213449 0.177488 84 89 92
0.102058 -0.0211107 0.17554 87 92 91
0.10335 -0.0211871 0.176176 86 92 92
0.105791 -0.0214955 0.17874 83 90 93
0.106539 -0.0214577 0.178425 82 88 96
0.10616 -0.0211954 0.176245 86 89 96
0.109531 -0.02168 0.180274 91 100 101
0.111294 -0.0218405 0.181609 88 99 101
0.110398 -0.0214811 0.17862 87 103 104
0.109748 -0.0211751 0.176076 88 109 105
-0.457826 -0.0837899 0.7284 63 51 53
-0.44572 -0.0822599 0.7151 58 46 57
-0.422733 -0.0786786 0.683967 59 48 58
-0.474439 -0.0890568 0.774187 60 50 58
-0.450972 -0.0853816 0.742238 59 47 55
-0.412937 -0.0788603 0.685547 60 49 56
-0.466715 -0.0899123 0.781624 60 46 56
-0.428941 -0.0833666 0.724721 64 51 60
-0.419052 -0.0821717 0.714334 62 50 58
-0.41531 -0.0821717 0.714334 59 44 53
-0.438855 -0.0876194 0.761692 60 47 56
-0.423758 -0.0853816 0.742238 60 50 58
-0.409147 -0.0832009 0.72328 61 49 57
-0.411226 -0.0844052 0.73375 61 49 57
-0.422896 -0.0876194 0.761692 62 53 60
-0.398574 -0.0833666 0.724721 64 54 61
-0.383944 -0.0810788 0.704833 63 51 57
-0.380252 -0.0810788 0.704833 61 47 55
-0.402672 -0.086701 0.753707 62 48 55
-0.406919 -0.0884828 0.769197 62 46 53
-0.384323 -0.0844052 0.73375 58 41 49
-0.370412 -0.0821717 0.714334 61 44 53
-0.382514 -0.0857222 0.745199 62 43 52
-0.362929 -0.0821717 0.714334 59 41 49
-0.36441 -0.0833666 0.724721 65 55 60
-0.34569 -0.0799165 0.694728 63 53 59
-0.347026 -0.0810788 0.704833 63 51 59
-0.343335 -0.0810788 0.704833 68 53 62
-0.329588 -0.0786786 0.683967 68 54 62
-0.340845 -0.0822599 0.7151 67 57 62
-0.307308 -0.0749902 0.651903 66 60 63
-0.313491 -0.0773583 0.67249 69 65 68
-0.311131 -0.0776486 0.675013 67 58 62
-0.302494 -0.0763607 0.663817 70 62 65
-0.267922 -0.0684199 0.594786 67 61 64
-0.272943 -0.0705221 0.613061 68 63 64
-0.253978 -0.0664032 0.577255 67 62 62
-0.254544 -0.067353 0.585512 71 67 71
-0.234721 -0.0628652 0.546499 71 69 72
-0.225624 -0.0611749 0.531804 68 71 73
-0.221103 -0.0606983 0.527662 67 79 77
-0.212746 -0.0591434 0.514145 69 80 80
-0.198967 -0.056022 0.48701 74 86 90
-0.186569 -0.0532135 0.462595 77 90 100
-0.154771 -0.0447247 0.3888 82 98 106
-0.14218 -0.0416342 0.361934 85 109 111
-0.124077 -0.0368243 0.32012 85 113 111
-0.108394 -0.0326103 0.283487 94 127 128
-0.0861347 -0.0262735 0.2284 97 130 133
-0.0869278 -0.0268889 0.23375 101 138 136
-0.086013 -0.026986 0.234594 102 138 141
-0.0770161 -0.0245135 0.2131 115 147 151
-0.0747987 -0.0241578 0.210008 121 154 150
-0.07217 -0.0236567 0.205652 121 157 153
-0.0717381 -0.0238715 0.207519 125 162 159
-0.0675353 -0.0228187 0.198367 125 175 164
-0.0677557 -0.0232508 0.202124 123 177 167
-0.066406 -0.0231494 0.201242 132 181 172
-0.0655241 -0.0232104 0.201772 132 180 170
-0.0640446 -0.0230582 0.200449 135 181 173
-0.0634884 -0.0232389 0.20202 135 186 179
-0.0619042 -0.0230431 0.200318 141 189 182
-0.0606543 -0.0229671 0.199657 144 191 184
-0.0585838 -0.0225723 0.196225 148 195 185
-0.0580857 -0.02278 0.198031 153 198 188
-0.0574443 -0.0229381 0.199405 152 199 188
-0.0563226 -0.0229067 0.199132 157 202 189
-0.0540407 -0.0223933 0.194669 161 204 189
-0.0536761 -0.0226699 0.197074 163 208 191
-0.0523465 -0.0225419 0.195961 159 206 188
-0.0501411 -0.022024 0.191459 160 208 186
-0.0498326 -0.0223352 0.194164 162 210 187
-0.0488305 -0.022342 0.194223 178 217 199
-0.0474051 -0.0221513 0.192565 162 210 185
-0.0474369 -0.0226481 0.196884 166 212 186
-0.0454911 -0.0222017 0.193003 164 212 185
-0.04349 -0.0217075 0.188707 169 214 189
-0.0443482 -0.0226506 0.196906 160 210 185
-0.0422943 -0.0221159 0.192258 161 209 188
-0.040691 -0.0217965 0.189481 167 213 190
-0.0394138 -0.0216402 0.188122 181 222 199
-0.0385946 -0.0217337 0.188935 162 214 183
-0.0366451 -0.021179 0.184113 161 213 181
-0.0363323 -0.0215657 0.187475 168 215 187
-0.0361694 -0.0220654 0.191818 154 208 179
-0.0350008 -0.0219626 0.190925 175 220 198
-0.033544 -0.0216675 0.188359 182 224 201
-0.0324683 -0.0216082 0.187844 159 212 181
-0.0314571 -0.0215894 0.187681 151 207 172
-0.0315711 -0.0223667 0.194437 146 202 167
-0.0296365 -0.021696 0.188607 173 220 194
-0.0284609 -0.0215538 0.187371 167 220 193
-0.0269338 -0.0211257 0.18365 174 221 197
-0.0270965 -0.0220405 0.191602 141 203 165
-0.0258327 -0.0218208 0.189692 183 220 196
-0.0241238 -0.0211923 0.184229 168 214 187
-0.0230967 -0.0211354 0.183734 152 207 177
-0.0225283 -0.0215116 0.187004 163 212 187
-0.0217761 -0.0217386 0.188977 185 222 205
-0.0202683 -0.0211968 0.184267 170 218 199
-0.0194281 -0.0213341 0.185461 161 214 195
-0.0186758 -0.0215873 0.187662 128 195 173
-0.0177326 -0.0216357 0.188083 125 177 163
-0.0167749 -0.0216713 0.188392 107 147 131
-0.0156168 -0.021436 0.186347 91 121 107
-0.0147379 -0.0215782 0.187584 83 102 91
-0.0136514 -0.0214151 0.186165 81 88 86
-0.0125622 -0.0212225 0.184491 74 81 85
-0.0116295 -0.021284 0.185026 74 83 82
-0.0105338 -0.0210313 0.182829 68 76 76
-0.00973706 -0.0213846 0.1859 72 73 77
-0.00858451 -0.0209481 0.182106 74 68 78
-0.00768008 -0.0210838 0.183285 74 68 77
-0.00675876 -0.0212052 0.18434 71 65 74
-0.005723 -0.0209481 0.182106 68 62 72
-0.00474551 -0.0208442 0.181203 66 60 71
-0.00385 -0.0211384 0.18376 67 61 71
-0.0028362 -0.0207629 0.180496 68 61 72
-0.00190868 -0.0209592 0.182202 66 60 71
-0.000957839 -0.0210361 0.182871 65 59 71
0 -0.0207283 0.180195 65 58 71
0.000970177 -0.0213071 0.185226 64 58 70
0.00190767 -0.0209481 0.182106 65 58 70
0.0028498 -0.0208625 0.181362 65 58 70
0.00379612 -0.0208426 0.181189 63 56 69
0.00477396 -0.0209692 0.182289 65 57 70
0.00577032 -0.0211213 0.183611 64 57 70
0.00659799 -0.0207008 0.179955 63 55 68
0.00755419 -0.0207382 0.180281 64 55 69
0.00853053 -0.0208164 0.180961 65 57 71
0.00950933 -0.0208844 0.181552 64 56 70
0.010564 -0.0210916 0.183353 64 56 70
0.0113943 -0.0208536 0.181284 63 54 69
0.0126078 -0.0212995 0.18516 65 57 71
0.0133839 -0.0209955 0.182518 64 56 70
0.0143469 -0.0210058 0.182607 64 57 71
0.0152082 -0.0208752 0.181472 62 56 69
0.0162315 -0.0209692 0.182289 63 57 70
0.0172758 -0.0210785 0.183239 65 57 71
0.0179926 -0.0207976 0.180797 64 58 70
0.0191985 -0.0210819 0.183269 63 56 69
0.0198546 -0.0207642 0.180507 60 53 67
0.0213096 -0.0212729 0.184929 63 57 70
0.0218232 -0.0208384 0.181152 63 56 70
0.0229488 -0.0210001 0.182558 62 55 69
0.02381 -0.0209167 0.181832 63 56 70
0.0248369 -0.0209796 0.182379 62 55 69
0.0261855 -0.0212995 0.18516 64 58 71
0.0264684 -0.0207607 0.180476 64 58 70
0.0274964 -0.0208234 0.181021 62 55 68
0.0293971 -0.0215207 0.187083 62 55 69
0.0295026 -0.0209012 0.181698 62 54 68
0.0304164 -0.0208752 0.181472 62 54 69
0.0318965 -0.0212276 0.184536 61 52 67
0.0325126 -0.0210013 0.182568 62 55 69
0.0341021 -0.0213986 0.186022 62 53 68
0.0351377 -0.021436 0.186347 63 54 69
0.0364911 -0.02166 0.188294 60 51 68
0.0363687 -0.0210192 0.182724 62 53 68
0.0371122 -0.020899 0.181679 62 53 68
0.0388743 -0.021344 0.185547 60 51 66
0.0398817 -0.021363 0.185713 62 54 69
0.0397601 -0.0207908 0.180738 64 54 69
0.0403662 -0.0206168 0.179226 61 51 67
0.0418283 -0.0208781 0.181497 62 53 68
0.0421442 -0.0205683 0.178804 62 53 67
0.0441041 -0.0210569 0.183051 62 53 67
0.0452825 -0.0211595 0.183943 62 52 67
0.0463754 -0.0212187 0.184458 62 54 67
0.0463788 -0.0207872 0.180707 61 52 66
0.0472252 -0.0207432 0.180325 63 54 67
0.0485454 -0.020905 0.181731 61 51 65
0.0498242 -0.0210431 0.182932 60 49 63
0.0509649 -0.0211188 0.183589 62 51 65
0.0523209 -0.0212792 0.184984 56 43 58
0.0520469 -0.0207828 0.180669 60 49 62
0.054287 -0.0212902 0.18508 60 48 61
0.0555625 -0.0214082 0.186105 55 38 53
0.0561113 -0.0212469 0.184703 54 36 52
0.0559882 -0.0208409 0.181174 55 37 54
0.0582822 -0.0213333 0.185454 56 38 54
0.0600411 -0.0216168 0.187919 54 35 53
0.0601934 -0.0213221 0.185357 58 40 56
0.0627305 -0.0218681 0.190103 58 42 57
0.062909 -0.0215876 0.187665 58 41 57
0.0645463 -0.0218087 0.189587 59 44 59
0.0647438 -0.021544 0.187286 60 46 60
0.0656141 -0.0215077 0.186971 64 52 64
0.0660197 -0.0213224 0.18536 65 55 65
0.0670251 -0.0213334 0.185455 65 55 65
0.0688298 -0.0215949 0.187728 65 54 65
0.0696697 -0.0215505 0.187343 67 60 70
0.0692691 -0.021129 0.183679 66 59 69
0.0708443 -0.0213135 0.185282 67 61 70
