ply
format ascii 1.0
element vertex 1148
property float x
property float y
property float z
property uchar red
property uchar green
property uchar blue
end_header
0.101449 -0.00681651 0.186237 147 177 169
0.102242 -0.00680438 0.185905 148 177 167
0.102472 -0.00675532 0.184565 154 181 170
0.105195 -0.00687002 0.187699 154 187 174
0.106006 -0.00685892 0.187395 155 195 179
0.11028 -0.00706995 0.193161 158 195 179
0.107151 -0.00680694 0.185975 166 199 183
0.111733 -0.00703404 0.19218 165 202 178
0.108485 -0.00676864 0.184929 166 202 179
0.110009 -0.00680295 0.185866 177 205 188
0.111092 -0.00680964 0.186049 179 207 192
0.112289 -0.00682316 0.186419 181 210 193
0.116132 -0.00699589 0.191138 182 211 195
0.114404 -0.00683289 0.186684 185 213 198
0.115629 -0.00684748 0.187083 187 215 197
0.11767 -0.00690985 0.188787 191 226 206
-0.451525 -0.0225373 0.718376 122 176 161
-0.469211 -0.0236169 0.752789 131 178 164
-0.471301 -0.0239231 0.762549 140 183 167
-0.472853 -0.024207 0.771599 146 187 171
-0.493308 -0.0254719 0.811916 148 188 169
-0.487882 -0.0254108 0.80997 145 191 166
-0.470432 -0.0247169 0.78785 150 195 168
-0.484938 -0.0257045 0.819331 151 196 175
-0.452646 -0.024207 0.771599 152 198 176
-0.476355 -0.0257045 0.819331 154 202 177
-0.472064 -0.0257045 0.819331 158 203 180
-0.453977 -0.0249464 0.795167 159 204 182
-0.45415 -0.025187 0.802837 164 206 182
-0.427366 -0.0239231 0.762549 162 205 179
-0.441482 -0.0249464 0.795167 161 207 180
-0.441535 -0.025187 0.802837 161 210 179
-0.43733 -0.025187 0.802837 164 211 181
-0.428987 -0.0249464 0.795167 161 210 185
-0.402181 -0.0236169 0.752789 168 214 189
-0.403401 -0.0239231 0.762549 168 214 181
-0.408555 -0.024471 0.780012 170 214 184
-0.390352 -0.0236169 0.752789 173 216 189
-0.400384 -0.024471 0.780012 167 215 184
-0.392024 -0.024207 0.771599 165 215 186
-0.371542 -0.0231813 0.738905 168 217 189
-0.369331 -0.0232859 0.742238 178 219 193
-0.391503 -0.0249464 0.795167 173 216 189
-0.354815 -0.0228518 0.7284 174 219 187
-0.345542 -0.0224964 0.717074 173 218 187
-0.347184 -0.0228518 0.7284 171 217 190
-0.332259 -0.0221124 0.704833 176 220 189
-0.355473 -0.0239231 0.762549 179 220 187
-0.312126 -0.0212446 0.677171 178 219 186
-0.309813 -0.0213296 0.67988 177 219 186
-0.341334 -0.0237729 0.757762 183 222 192
-0.307896 -0.0216964 0.691572 174 217 187
-0.286328 -0.0204167 0.650783 177 220 191
-0.301196 -0.0217356 0.692823 181 222 192
-0.308542 -0.0225373 0.718376 178 219 187
-0.25336 -0.018735 0.59718 177 218 188
-0.255057 -0.0190963 0.608693 172 217 187
-0.244272 -0.0185203 0.590334 175 219 189
-0.251899 -0.0193434 0.616572 162 209 172
-0.24867 -0.0193434 0.616572 175 214 187
-0.227079 -0.0178964 0.570447 175 217 195
-0.215617 -0.0172196 0.548874 175 218 197
-0.211394 -0.0171105 0.545396 160 212 185
-0.208537 -0.0171105 0.545396 164 208 180
-0.196836 -0.0163747 0.521944 154 203 165
-0.194706 -0.0164257 0.523568 159 208 175
-0.175277 -0.0149978 0.478056 194 227 210
-0.172773 -0.0149978 0.478056 146 205 174
-0.16902 -0.0148878 0.474549 162 210 181
-0.152437 -0.0136275 0.434376 171 214 187
-0.158197 -0.0143567 0.457621 151 205 173
-0.133223 -0.0122763 0.391307 149 206 171
-0.147021 -0.0137595 0.438583 164 215 183
-0.131397 -0.0124924 0.398196 177 221 198
-0.136663 -0.0132026 0.420833 173 218 193
-0.10228 -0.010043 0.32012 174 216 190
-0.096536 -0.00963694 0.307178 170 214 186
-0.120151 -0.0121977 0.3888 160 210 179
-0.0930036 -0.00960447 0.306142 183 222 198
-0.0821858 -0.00863621 0.275279 177 218 191
-0.0977123 -0.0104511 0.333129 159 209 175
-0.0824844 -0.00898277 0.286326 153 203 172
-0.0703335 -0.00780135 0.248668 193 226 207
-0.0777323 -0.0087847 0.280012 165 213 188
-0.0687402 -0.00791788 0.252382 150 204 176
-0.0730848 -0.00858338 0.273595 191 225 206
-0.0697281 -0.00835294 0.26625 167 215 187
-0.0695141 -0.00849724 0.27085 173 218 191
-0.0615994 -0.00768664 0.245012 166 214 183
-0.0571102 -0.00727809 0.231989 165 210 180
-0.0516997 -0.0067318 0.214576 181 217 193
-0.0506184 -0.00673747 0.214757 157 205 172
-0.0453081 -0.00616772 0.196596 160 208 178
-0.0456896 -0.00636429 0.202862 151 202 168
-0.0443533 -0.00632526 0.201618 149 205 174
-0.0456895 -0.00667473 0.212757 174 220 196
-0.0437492 -0.00655106 0.208815 170 218 192
-0.0422555 -0.00648963 0.206857 173 217 192
-0.0408625 -0.00644084 0.205302 176 217 193
-0.0393443 -0.00636914 0.203016 184 222 199
-0.0377146 -0.00627493 0.200013 163 212 180
-0.0378622 -0.00647946 0.206533 164 211 178
-0.0364777 -0.00642613 0.204833 184 222 196
-0.035682 -0.00647643 0.206436 164 214 184
-0.033874 -0.00634041 0.202101 166 214 184
-0.0325233 -0.00628398 0.200302 160 210 178
-0.0316618 -0.00632144 0.201496 176 219 192
-0.030382 -0.00627509 0.200018 160 210 179
-0.0292332 -0.00625346 0.199329 179 218 192
-0.0299848 -0.00665179 0.212026 169 212 185
-0.0272576 -0.00627936 0.200154 174 213 188
-0.0259807 -0.00622462 0.19841 156 204 173
-0.0253481 -0.0063261 0.201644 144 199 160
-0.024257 -0.00631699 0.201354 144 195 150
-0.0233243 -0.00635019 0.202412 168 207 176
-0.0220326 -0.00628417 0.200308 164 205 178
-0.0206234 -0.00617635 0.196871 154 195 171
-0.0196336 -0.00618939 0.197287 132 178 153
-0.0186003 -0.00618939 0.197287 137 182 156
-0.017403 -0.00613163 0.195446 149 188 165
-0.0165232 -0.00618551 0.197163 135 168 145
-0.0153211 -0.00611787 0.195007 125 150 126
-0.0140959 -0.00603068 0.192228 127 152 129
-0.0134941 -0.00621729 0.198176 122 149 120
-0.012253 -0.00611592 0.194945 115 140 108
-0.0111425 -0.00606725 0.193394 104 122 99
-0.0104184 -0.00624024 0.198908 99 112 98
-0.00908089 -0.00604348 0.192636 89 101 88
-0.00814436 -0.00609773 0.194365 79 92 78
-0.0072835 -0.00623223 0.198652 84 86 79
-0.00602689 -0.00601649 0.191776 81 78 73
-0.00503044 -0.00602612 0.192082 79 73 72
-0.00405026 -0.00606491 0.193319 73 63 64
-0.00298602 -0.00596173 0.19003 73 61 65
-0.00202251 -0.00605707 0.193069 73 60 66
-0.00102105 -0.0061157 0.194938 72 59 65
0 -0.00608448 0.193943 68 54 61
0.000994146 -0.00595459 0.189802 69 56 63
0.0019788 -0.00592616 0.188896 68 55 60
0.00302893 -0.0060474 0.192761 65 50 59
0.00393147 -0.00588702 0.187649 62 47 57
0.00494633 -0.00592536 0.188871 63 48 58
0.00600398 -0.00599362 0.191047 66 53 64
0.00698443 -0.00597633 0.190495 63 48 60
0.0078977 -0.00591305 0.188479 62 47 59
0.00928499 -0.00617931 0.196966 64 50 61
0.0101613 -0.00608625 0.193999 61 45 57
0.010966 -0.00597114 0.19033 62 46 58
0.0118426 -0.00591108 0.188416 61 48 59
0.0129542 -0.00596853 0.190247 63 48 60
0.0139191 -0.00595503 0.189817 63 46 59
0.0146576 -0.00585291 0.186562 58 43 56
0.0156743 -0.00586774 0.187034 57 42 55
0.0167261 -0.00589315 0.187844 63 47 61
0.0182819 -0.00608345 0.19391 55 39 53
0.0187452 -0.00590931 0.188359 57 41 56
0.0197898 -0.00592668 0.188913 57 41 55
0.0206453 -0.00588847 0.187695 56 39 53
0.0217313 -0.0059165 0.188588 53 37 51
0.022785 -0.00593365 0.189135 55 38 53
0.0232234 -0.00579582 0.184742 56 37 54
0.024603 -0.00589452 0.187888 56 38 54
0.0255128 -0.00587742 0.187343 56 38 53
0.0266983 -0.00592273 0.188787 56 38 54
0.0274754 -0.00587742 0.187343 56 39 54
0.0294423 -0.006081 0.193832 54 37 53
0.029806 -0.0059509 0.189685 56 39 56
0.0302295 -0.00584078 0.186175 55 40 57
0.0317811 -0.00594868 0.189614 61 47 64
0.0325839 -0.00591413 0.188513 63 48 65
0.0336691 -0.00593135 0.189062 64 50 67
0.035664 -0.00610327 0.194542 67 53 71
0.0357307 -0.00594485 0.189492 67 51 71
0.0374312 -0.00605945 0.193145 67 52 72
0.0383251 -0.00604088 0.192553 70 61 78
0.0388724 -0.00597005 0.190295 68 62 78
0.0403306 -0.00603915 0.192498 67 64 79
0.0409366 -0.00598039 0.190625 68 67 80
0.0419797 -0.00598675 0.190828 71 70 82
0.0421181 -0.0058668 0.187004 73 73 86
0.0441298 -0.00600731 0.191483 75 76 88
0.0445586 -0.0059309 0.189047 70 71 83
0.0463689 -0.00603768 0.192451 69 69 83
0.0466678 -0.00594731 0.18957 70 69 84
0.0487877 -0.00608794 0.194053 68 70 84
0.0490763 -0.00599897 0.191217 70 73 86
0.0495459 -0.00593524 0.189186 72 74 87
0.0515222 -0.00605098 0.192875 76 77 89
0.0525182 -0.00604933 0.192822 75 74 89
0.0519287 -0.00586858 0.187061 73 72 88
0.0540042 -0.00599012 0.190935 73 76 89
0.056199 -0.00612023 0.195082 75 77 90
0.0568337 -0.00607881 0.193762 73 77 88
0.0559775 -0.0058822 0.187495 69 80 89
0.0584183 -0.00603285 0.192297 75 85 94
0.0573396 -0.00582109 0.185547 74 83 94
0.0613917 -0.00612858 0.195348 75 81 96
0.0612547 -0.00601465 0.191717 78 85 98
0.0625833 -0.006046 0.192716 74 84 92
0.0639289 -0.00607796 0.193735 74 89 97
0.0653518 -0.00611616 0.194953 77 89 102
0.0666351 -0.00614031 0.195723 80 90 101
0.0665481 -0.00603939 0.192505 80 92 99
0.0684947 -0.00612327 0.195179 83 93 101
0.0693888 -0.00611198 0.194819 85 93 103
0.0696876 -0.00604933 0.192822 91 102 108
0.0719183 -0.00615379 0.196152 87 100 107
0.072886 -0.00614875 0.195991 88 99 110
0.0753669 -0.00626974 0.199848 96 102 116
0.0741422 -0.00608336 0.193907 93 103 116
0.0750997 -0.00607866 0.193757 98 109 121
0.0762996 -0.00609343 0.194228 100 106 122
0.0763534 -0.0060175 0.191808 94 107 122
0.0786086 -0.00611478 0.194909 96 110 123
0.0788209 -0.00605269 0.192929 104 114 125
0.0806504 -0.00611478 0.194909 104 120 125
0.0821758 -0.00615255 0.196112 114 130 133
0.080456 -0.00594942 0.189638 107 122 125
0.0811957 -0.0059309 0.189047 110 124 131
0.0847908 -0.00611888 0.195039 114 128 134
0.0862846 -0.00615255 0.196112 116 131 131
0.0839866 -0.00591824 0.188644 118 135 134
0.0847391 -0.00590183 0.188121 117 138 135
0.0878914 -0.00605102 0.192876 120 141 138
0.088052 -0.00599319 0.191033 128 148 141
0.0870623 -0.00585924 0.186763 139 158 146
0.0896436 -0.00596593 0.190164 148 159 145
0.0905759 -0.00596173 0.19003 133 144 134
0.0914082 -0.00595112 0.189692 117 135 124
0.0908203 -0.00584927 0.186445 118 135 131
0.0928753 -0.00591798 0.188636 122 139 134
0.091025 -0.00573903 0.182932 118 134 129
0.0947815 -0.00591362 0.188497 110 126 125
0.0951089 -0.00587288 0.187198 113 127 130
0.0951411 -0.00581492 0.18535 112 130 133
0.0961615 -0.00581791 0.185446 116 138 137
0.0962711 -0.0057663 0.183801 120 143 141
0.0983815 -0.00583436 0.18597 123 146 145
0.0996427 -0.00585122 0.186508 133 151 150
0.103725 -0.00603183 0.192265 133 154 151
0.0999404 -0.00575584 0.183467 132 160 156
0.103497 -0.00590393 0.188188 142 170 161
0.102605 -0.00579779 0.184804 145 173 162
0.104278 -0.0058373 0.186064 141 173 159
0.106752 -0.00592043 0.188714 148 178 162
0.104251 -0.00572868 0.182602 151 182 168
0.104094 -0.00566805 0.180669 154 189 179
0.108401 -0.00584941 0.18645 156 191 178
0.108848 -0.00582109 0.185547 161 195 178
0.109043 -0.00577989 0.184234 163 197 180
0.114947 -0.00603939 0.192505 169 201 185
0.112829 -0.00587657 0.187316 173 204 187
0.116319 -0.00600612 0.191445 169 203 187
0.117877 -0.00603456 0.192352 177 208 194
0.112268 -0.00569871 0.181646 180 210 192
0.120579 -0.00606914 0.193454 184 215 201
-0.482894 -0.0200859 0.768284 111 157 151
-0.512867 -0.0215119 0.822829 127 167 154
-0.506396 -0.0214204 0.819331 128 168 157
-0.48223 -0.0205725 0.7869 135 176 166
-0.478108 -0.0205725 0.7869 134 175 163
-0.469838 -0.0203925 0.780012 140 181 163
-0.460729 -0.0201725 0.771599 140 185 165
-0.460455 -0.020339 0.777965 138 187 168
-0.427304 -0.0190431 0.7284 147 192 177
-0.467376 -0.0210167 0.803887 145 192 175
-0.467792 -0.0212266 0.811916 147 193 177
-0.421855 -0.0193178 0.738905 150 195 178
-0.423508 -0.019573 0.748668 157 199 183
-0.427366 -0.0199359 0.762549 157 200 183
-0.44574 -0.0209892 0.802837 160 204 187
-0.446529 -0.0212266 0.811916 158 205 186
-0.437902 -0.0210167 0.803887 149 200 183
-0.39189 -0.018991 0.726405 156 203 186
-0.424822 -0.0207887 0.795167 155 203 184
-0.41264 -0.0203925 0.780012 158 207 186
-0.425265 -0.0212266 0.811916 165 211 187
-0.404469 -0.0203925 0.780012 163 211 185
-0.386409 -0.0196807 0.752789 165 212 185
-0.375413 -0.0193178 0.738905 165 213 186
-0.391183 -0.020339 0.777965 167 216 190
-0.362445 -0.0190431 0.7284 169 215 189
-0.363802 -0.0193178 0.738905 169 211 186
-0.375858 -0.0201725 0.771599 173 216 188
-0.357668 -0.0194049 0.742238 169 217 188
-0.35378 -0.0194049 0.742238 169 217 190
-0.33803 -0.018747 0.717074 169 217 189
-0.362659 -0.020339 0.777965 172 218 191
-0.318763 -0.0180803 0.691572 169 215 185
-0.315141 -0.0180803 0.691572 175 218 189
-0.305032 -0.0177038 0.677171 176 218 192
-0.296469 -0.0174093 0.665905 175 217 190
-0.29913 -0.0177746 0.67988 175 217 189
-0.294391 -0.0177038 0.677171 175 217 187
-0.309234 -0.0188232 0.719988 174 217 184
-0.269146 -0.0165853 0.634386 182 220 192
-0.258358 -0.0161195 0.616572 176 216 188
-0.244272 -0.0154336 0.590334 160 210 177
-0.24118 -0.0154336 0.590334 144 202 167
-0.245492 -0.0159136 0.608693 155 205 181
-0.227079 -0.0149136 0.570447 155 206 183
-0.231904 -0.0154336 0.590334 179 216 200
-0.228812 -0.0154336 0.590334 150 202 178
-0.199029 -0.0136086 0.520529 166 211 185
-0.217233 -0.0150596 0.576031 158 210 176
-0.185942 -0.0130719 0.5 152 210 179
-0.166679 -0.0118851 0.454604 174 221 199
-0.171506 -0.0124065 0.474549 151 208 179
-0.162991 -0.011964 0.457621 163 210 183
-0.158314 -0.0117941 0.451125 166 214 192
-0.148494 -0.0112302 0.429553 162 213 190
-0.147886 -0.0113562 0.434376 167 216 193
-0.117064 -0.00912987 0.349217 154 210 182
-0.120646 -0.00955853 0.365614 173 219 195
-0.134968 -0.0108658 0.415615 163 215 187
-0.114581 -0.00937564 0.358618 165 214 185
-0.096929 -0.00806348 0.308428 164 211 181
-0.120151 -0.0101647 0.3888 149 204 169
-0.0933181 -0.00803079 0.307178 178 218 197
-0.0949086 -0.00831095 0.317894 154 206 181
-0.0932436 -0.00831095 0.317894 148 203 174
-0.0850314 -0.00771679 0.295167 147 201 172
-0.0865896 -0.00800372 0.306142 182 222 202
-0.0819394 -0.00771679 0.295167 158 211 187
-0.0852764 -0.0081855 0.313095 156 210 181
-0.0764855 -0.00748564 0.286326 164 212 183
-0.0926143 -0.00924545 0.353638 155 208 177
-0.0948896 -0.00966591 0.369721 187 222 203
-0.0871149 -0.00905882 0.3465 181 218 197
-0.0638255 -0.00677823 0.259267 185 219 200
-0.0587905 -0.00637925 0.244006 186 220 202
-0.0510072 -0.00565768 0.216406 184 221 201
-0.0515204 -0.00584448 0.223551 166 213 184
-0.0488049 -0.0056652 0.216694 165 210 181
-0.0461136 -0.00548024 0.209619 159 210 181
-0.0461675 -0.00562047 0.214983 173 220 195
-0.0442283 -0.005519 0.211102 160 214 184
-0.0426703 -0.00546111 0.208888 161 212 181
-0.0410526 -0.00539234 0.206257 157 208 176
-0.0396077 -0.00534316 0.204376 199 230 212
-0.0379629 -0.00526353 0.20133 175 219 193
-0.0364627 -0.00519997 0.198899 161 207 173
-0.0364777 -0.0053551 0.204833 191 222 199
-0.035611 -0.00538629 0.206026 169 217 189
-0.0329682 -0.00514239 0.196696 172 217 190
-0.032355 -0.00520954 0.199265 166 214 184
-0.0308555 -0.00513372 0.196365 172 217 188
-0.0306151 -0.00526936 0.201553 161 211 179
-0.029025 -0.0051741 0.197909 159 208 177
-0.0286603 -0.0052983 0.20266 161 211 185
-0.0273089 -0.00524265 0.200531 185 222 204
-0.0257561 -0.00514233 0.196694 177 218 194
-0.0249549 -0.00518996 0.198516 168 212 177
-0.0245058 -0.00531816 0.20342 169 209 171
-0.0234011 -0.00530925 0.203079 167 208 172
-0.0222215 -0.0052817 0.202025 156 203 171
-0.0209182 -0.00522052 0.199685 166 208 186
-0.0198331 -0.00521022 0.199291 155 197 173
-0.0186629 -0.00517518 0.197951 148 192 167
-0.0176493 -0.00518202 0.198212 157 194 167
-0.0167275 -0.00521831 0.1996 172 201 179
-0.0157317 -0.00523484 0.200232 146 184 157
-0.0144267 -0.00514351 0.196739 143 179 150
-0.0134134 -0.0051501 0.196991 129 168 133
-0.0123897 -0.00515348 0.197121 119 160 123
-0.0113363 -0.00514399 0.196758 106 139 108
-0.0103832 -0.00518264 0.198236 109 130 102
-0.00921686 -0.00511164 0.19552 106 125 101
-0.0081968 -0.00511416 0.195617 92 111 87
-0.00723181 -0.00515667 0.197243 97 107 91
-0.00605193 -0.00503457 0.192572 87 89 82
-0.00502872 -0.00502004 0.192017 80 77 74
-0.00410597 -0.0051236 0.195978 79 72 72
-0.00305156 -0.00507716 0.194201 74 63 66
-0.00201731 -0.00503457 0.192572 75 63 67
-0.0010142 -0.00506223 0.19363 71 59 64
0 -0.00516598 0.197599 71 59 66
0.00104216 -0.00520179 0.198968 68 57 63
0.00202188 -0.00504597 0.193008 70 58 62
0.00301132 -0.00501021 0.19164 63 49 58
0.00403986 -0.00504111 0.192822 66 52 62
0.00501341 -0.00500476 0.191432 68 54 63
0.00602597 -0.00501298 0.191746 68 54 63
0.00699585 -0.00498841 0.190807 65 50 61
0.00794664 -0.00495808 0.189647 63 48 59
0.00912502 -0.00506071 0.193572 60 47 58
0.0103209 -0.00515152 0.197046 60 45 57
0.0109444 -0.00496615 0.189955 61 47 58
0.0119162 -0.00495653 0.189587 62 48 59
0.0130488 -0.00501012 0.191637 64 48 60
0.014243 -0.00507801 0.194234 63 47 59
0.0148447 -0.00493971 0.188944 58 44 56
0.0162863 -0.00508069 0.194337 59 45 58
0.0167871 -0.00492885 0.188529 61 45 57
0.0180917 -0.0050168 0.191893 59 42 55
0.0188131 -0.00494227 0.189042 54 38 52
0.0197898 -0.0049389 0.188913 56 40 54
0.0212405 -0.00504853 0.193106 57 40 54
0.0220965 -0.00501327 0.191757 56 39 53
0.0226155 -0.00490793 0.187728 55 37 52
0.0238795 -0.00496631 0.189961 56 38 53
0.0252196 -0.00503522 0.192597 55 37 52
0.0255278 -0.00490073 0.187453 55 37 52
0.0267762 -0.00495 0.189338 56 38 54
0.0270382 -0.00481992 0.184362 56 39 54
0.0288223 -0.00496078 0.18975 57 41 57
0.0298821 -0.00497175 0.190169 57 40 57
0.0303037 -0.00487926 0.186632 59 44 61
0.0320148 -0.00499368 0.191008 62 48 65
0.0335033 -0.0050675 0.193832 63 49 65
0.0338786 -0.00497354 0.190238 64 50 66
0.0347736 -0.00495909 0.189685 67 53 70
0.0356024 -0.00493625 0.188811 66 49 69
0.0363838 -0.00490825 0.187741 69 54 73
0.0385201 -0.00505969 0.193533 69 59 77
0.0389811 -0.00498896 0.190828 68 61 78
0.0390947 -0.0048784 0.186599 72 67 82
0.0405054 -0.00493115 0.188617 67 64 78
0.042084 -0.00500136 0.191302 69 66 79
0.0424379 -0.00492612 0.188424 71 69 82
0.0436127 -0.00494744 0.189239 69 69 82
0.0444635 -0.00493186 0.188644 71 71 84
0.0464067 -0.0050355 0.192608 71 71 85
0.0477051 -0.00506626 0.193784 71 69 85
0.0489235 -0.0050874 0.194593 70 69 85
0.0484832 -0.00493873 0.188906 69 70 84
0.049076 -0.00489913 0.187392 70 71 84
0.0501537 -0.00490855 0.187752 70 71 84
0.0528456 -0.00507254 0.194025 69 70 86
0.0522329 -0.00491913 0.188157 68 69 85
0.0545822 -0.00504519 0.192979 72 74 89
0.0550963 -0.00500011 0.191254 72 75 89
0.0564966 -0.00503563 0.192613 73 77 89
0.0566776 -0.00496314 0.18984 72 79 90
0.059117 -0.0050875 0.194597 69 77 88
0.0595879 -0.00504111 0.192822 75 81 93
0.0602505 -0.00501221 0.191717 76 80 95
0.0609853 -0.00499017 0.190874 78 84 97
0.0623322 -0.00501812 0.191943 78 86 96
0.0627064 -0.00496811 0.19003 74 87 96
0.0643054 -0.00501519 0.191831 77 89 101
0.0650936 -0.00499856 0.191195 76 86 100
0.0681117 -0.00515108 0.197029 78 87 101
0.0687277 -0.00512008 0.195843 79 88 100
0.0678909 -0.00498336 0.190614 82 90 101
0.0705548 -0.00510384 0.195222 84 94 103
0.0709768 -0.00506102 0.193584 86 97 106
0.0720551 -0.00506555 0.193757 87 93 105
0.0727588 -0.00504397 0.192932 88 93 107
0.0741232 -0.00506817 0.193858 88 95 108
0.074947 -0.00505525 0.193363 94 102 112
0.0762308 -0.00507329 0.194053 91 96 107
0.076715 -0.00503833 0.192716 91 103 117
0.0777459 -0.00503973 0.19277 93 107 120
0.0797576 -0.00510384 0.195222 93 102 115
0.0797005 -0.00503563 0.192613 91 108 119
0.080334 -0.00501221 0.191717 99 116 124
0.0825026 -0.00508396 0.194462 100 114 122
0.0822301 -0.00500538 0.191456 101 117 125
0.084961 -0.0051093 0.195431 106 122 128
0.0838925 -0.00498498 0.190676 109 120 124
0.0837371 -0.00491721 0.188083 112 125 129
0.0859516 -0.00498856 0.190813 111 132 134
0.0862657 -0.00494924 0.189309 114 135 134
0.0880806 -0.00499594 0.191095 117 137 130
0.0865358 -0.00485317 0.185634 128 147 132
0.0888583 -0.00492805 0.188498 129 144 127
0.090511 -0.00496455 0.189894 117 132 120
0.0900149 -0.00488367 0.186801 105 124 112
0.0913508 -0.00490286 0.187534 107 125 120
0.0934589 -0.00496264 0.189821 109 125 121
0.095197 -0.00500172 0.191316 105 121 116
0.0954429 -0.00496241 0.189812 100 116 114
0.0947646 -0.00487634 0.18652 106 121 119
0.0969907 -0.00493996 0.188954 108 123 123
0.0980543 -0.00494369 0.189096 110 133 134
0.0991998 -0.00495143 0.189392 108 132 129
0.0998404 -0.00493407 0.188728 113 139 135
0.1013 -0.0049571 0.189609 123 144 143
0.102473 -0.00496585 0.189944 126 142 142
0.102538 -0.0049212 0.188236 127 150 148
0.10344 -0.00491721 0.188083 129 159 156
0.0997795 -0.00469846 0.179716 129 162 157
0.105091 -0.00490233 0.187514 128 161 155
0.10879 -0.00502788 0.192317 133 161 152
0.111047 -0.0050851 0.194505 143 169 160
0.109941 -0.00498868 0.190817 145 174 166
0.111317 -0.00500561 0.191465 150 178 168
0.11375 -0.00506935 0.193902 150 180 168
0.110509 -0.00488134 0.186711 151 183 166
0.117239 -0.0051332 0.196345 164 193 178
0.115684 -0.00502106 0.192056 163 191 179
0.116472 -0.00501166 0.191696 159 188 177
0.115849 -0.00494227 0.189042 166 194 182
0.116452 -0.0049259 0.188416 170 200 182
0.117876 -0.00494423 0.189117 169 202 194
-0.456571 -0.0151928 0.726405 114 152 146
-0.495626 -0.0166309 0.795167 123 159 147
-0.450195 -0.0152345 0.7284 127 164 155
-0.487296 -0.0166309 0.795167 124 164 159
-0.428245 -0.0147416 0.704833 126 169 162
-0.474559 -0.0164779 0.78785 132 174 164
-0.469865 -0.016458 0.7869 128 174 162
-0.443115 -0.0156584 0.748668 132 177 167
-0.471587 -0.0168133 0.803887 135 179 169
-0.462306 -0.0166309 0.795167 138 181 171
-0.482558 -0.0175173 0.837546 133 180 168
-0.453977 -0.0166309 0.795167 139 187 175
-0.43648 -0.016138 0.771599 136 185 174
-0.401278 -0.0149752 0.716 139 187 175
-0.410245 -0.0154542 0.738905 145 192 175
-0.437317 -0.0166309 0.795167 143 193 174
-0.420314 -0.016138 0.771599 151 198 182
-0.419707 -0.0162712 0.777965 152 199 185
-0.437732 -0.0171363 0.819331 154 200 187
-0.400869 -0.0158486 0.757762 157 203 187
-0.399407 -0.0159487 0.762549 153 203 180
-0.384881 -0.0155239 0.742238 160 206 182
-0.379283 -0.0154542 0.738905 160 204 181
-0.399797 -0.016458 0.7869 155 205 184
-0.373218 -0.0155239 0.742238 158 208 188
-0.356809 -0.0149976 0.717074 158 205 186
-0.353053 -0.0149976 0.717074 160 206 186
-0.33118 -0.0142197 0.67988 166 211 187
-0.345542 -0.0149976 0.717074 165 214 188
-0.363461 -0.0159487 0.762549 165 214 190
-0.33803 -0.0149976 0.717074 165 214 191
-0.334274 -0.0149976 0.717074 168 216 190
-0.324876 -0.0147416 0.704833 168 216 187
-0.326762 -0.0149976 0.717074 177 220 193
-0.323006 -0.0149976 0.717074 170 214 193
-0.296469 -0.0139274 0.665905 164 213 185
-0.321535 -0.0152848 0.730803 169 216 187
-0.275791 -0.0132682 0.634386 172 217 188
-0.279511 -0.0136111 0.650783 171 216 185
-0.269146 -0.0132682 0.634386 173 214 185
-0.25217 -0.0125867 0.601804 170 212 184
-0.225677 -0.011407 0.545396 140 197 163
-0.255615 -0.0130858 0.625666 174 214 195
-0.252337 -0.0130858 0.625666 145 200 175
-0.215906 -0.0113439 0.542379 176 218 201
-0.226285 -0.0120477 0.576031 186 222 206
-0.193798 -0.0104575 0.5 150 204 178
-0.200191 -0.0109504 0.523568 154 207 178
-0.171441 -0.00950806 0.454604 178 219 195
-0.16906 -0.00950806 0.454604 198 230 213
-0.160805 -0.00917298 0.438583 186 224 206
-0.180704 -0.0104575 0.5 157 208 183
-0.160677 -0.0094353 0.451125 185 220 201
-0.159535 -0.00950806 0.454604 165 214 190
-0.132549 -0.00801941 0.383428 198 229 214
-0.141499 -0.0086926 0.415615 177 220 200
-0.117064 -0.00730389 0.349217 154 210 182
-0.110245 -0.00698762 0.334095 174 218 197
-0.124053 -0.00798962 0.382004 176 220 199
-0.119602 -0.00782921 0.374334 154 210 178
-0.12514 -0.00832829 0.398196 157 208 176
-0.123055 -0.00832829 0.398196 165 212 182
-0.10609 -0.00730389 0.349217 169 214 191
-0.0949086 -0.00664876 0.317894 157 208 184
-0.0901003 -0.00642463 0.307178 153 206 181
-0.078242 -0.00568051 0.271599 148 204 179
-0.0768195 -0.00568051 0.271599 196 227 210
-0.101861 -0.00767439 0.366932 162 213 188
-0.103762 -0.0079679 0.380965 171 218 194
-0.099995 -0.00782921 0.374334 158 207 177
-0.10855 -0.00866904 0.414488 152 205 172
-0.112812 -0.00919324 0.439552 152 203 169
-0.0954248 -0.00793835 0.379552 150 203 170
-0.0689325 -0.00585647 0.280012 156 206 176
-0.0625251 -0.00542758 0.259506 153 204 176
-0.0523337 -0.00464386 0.222035 192 225 207
-0.0545888 -0.00495405 0.236866 163 212 184
-0.0487641 -0.00452837 0.216513 161 209 178
-0.0461634 -0.00438892 0.209845 164 212 184
-0.0456642 -0.00444736 0.212639 178 221 197
-0.0432718 -0.00431972 0.206536 180 221 195
-0.0427687 -0.00437896 0.209369 146 204 165
-0.0406748 -0.00427417 0.204359 152 205 169
-0.0395208 -0.00426514 0.203927 167 216 188
-0.0379719 -0.00421182 0.201378 172 218 191
-0.0371628 -0.00423985 0.202718 168 211 181
-0.0355383 -0.00417376 0.199558 177 215 188
-0.0343891 -0.00416118 0.198956 162 213 184
-0.0329846 -0.00411595 0.196794 177 220 195
-0.032355 -0.00416763 0.199265 169 216 188
-0.0305802 -0.00407033 0.194613 171 216 187
-0.0302868 -0.00417028 0.199392 172 215 187
-0.0287688 -0.00410273 0.196162 161 210 181
-0.0285592 -0.0042237 0.201946 180 219 199
-0.0271101 -0.00416359 0.199072 154 208 180
-0.0262126 -0.00418679 0.200181 159 209 176
-0.0245853 -0.00409048 0.195576 175 217 186
-0.0243378 -0.00422536 0.202025 169 211 176
-0.0230789 -0.00418893 0.200283 182 217 187
-0.0221854 -0.00421849 0.201697 162 207 171
-0.020845 -0.0041618 0.198986 178 216 192
-0.0197329 -0.00414712 0.198284 151 199 167
-0.0186943 -0.00414712 0.198284 152 196 164
-0.0173391 -0.00407275 0.194729 156 194 162
-0.0163425 -0.00407858 0.195007 152 191 159
-0.0156505 -0.00416626 0.199199 140 191 157
-0.0145771 -0.0041577 0.19879 147 192 162
-0.0134134 -0.00412008 0.196991 141 188 156
-0.0123713 -0.00411665 0.196828 129 178 139
-0.0113046 -0.00410368 0.196207 132 175 136
-0.010166 -0.00405938 0.194089 122 162 129
-0.00904539 -0.00401324 0.191883 106 151 115
-0.00824012 -0.00411295 0.19665 99 133 98
-0.00729287 -0.00416016 0.198908 109 121 100
-0.00611806 -0.00407167 0.194677 104 110 95
-0.00506591 -0.00404573 0.193437 88 90 80
-0.00406451 -0.0040575 0.193999 84 78 73
-0.00303185 -0.00403549 0.192947 86 78 77
-0.00200755 -0.00400817 0.19164 80 72 72
-0.00102767 -0.0041036 0.196203 75 66 68
0 -0.00407167 0.194677 72 62 68
0.00103001 -0.00411295 0.19665 71 60 66
0.00199788 -0.00398886 0.190717 70 59 65
0.00306551 -0.0040803 0.195089 68 55 64
0.0040984 -0.00409133 0.195617 65 51 60
0.00509279 -0.0040672 0.194463 68 54 63
0.00612136 -0.00407387 0.194782 63 50 60
0.00704675 -0.00401977 0.192195 64 50 60
0.0080244 -0.00400528 0.191502 65 52 61
0.00908089 -0.00402899 0.192636 59 46 56
0.0100216 -0.00400171 0.191332 62 49 59
0.0108537 -0.00393998 0.18838 64 50 61
0.0121916 -0.00405684 0.193968 63 48 59
0.0132524 -0.00407064 0.194627 61 45 57
0.0140913 -0.00401914 0.192165 62 46 59
0.0147869 -0.00393636 0.188207 63 48 60
0.0160355 -0.00400195 0.191343 59 45 57
0.0166054 -0.00390042 0.186489 57 41 54
0.0175375 -0.0038905 0.186014 56 39 52
0.0188619 -0.00396407 0.189532 55 38 51
0.019505 -0.00389427 0.186195 55 37 51
0.020688 -0.00393377 0.188083 54 37 51
0.0219378 -0.00398181 0.19038 53 35 49
0.0233191 -0.0040485 0.193569 57 40 54
0.0240898 -0.00400804 0.191634 54 36 51
0.0247736 -0.00395694 0.189191 55 38 52
0.0259358 -0.00398323 0.190448 56 39 53
0.0271322 -0.00401265 0.191855 55 37 52
0.0281549 -0.0040152 0.191977 55 37 52
0.0288223 -0.00396862 0.18975 56 39 55
0.0297167 -0.00395539 0.189117 56 37 55
0.0303653 -0.00391134 0.187011 61 45 61
0.0320038 -0.00399358 0.190943 65 50 66
0.0327494 -0.00396277 0.18947 65 50 66
0.0338168 -0.00397158 0.189891 65 51 67
0.0347736 -0.00396727 0.189685 67 54 70
0.0359488 -0.00398742 0.190649 66 51 70
0.0372507 -0.00402015 0.192214 68 54 73
0.0382575 -0.00402015 0.192214 66 57 74
0.0396461 -0.00405925 0.194083 68 61 78
0.0399406 -0.00398717 0.190636 72 66 82
0.0415247 -0.0040442 0.193363 68 63 79
0.0424303 -0.00403401 0.192876 66 62 76
0.0428901 -0.00398289 0.190432 71 69 82
0.0437185 -0.00396755 0.189698 72 70 85
0.0464552 -0.00412223 0.197094 69 67 82
0.0459778 -0.00399117 0.190828 75 74 86
0.0469583 -0.00398955 0.190751 73 71 86
0.047973 -0.00399085 0.190813 67 65 81
0.0494747 -0.00403178 0.19277 69 69 83
0.0495815 -0.00395968 0.189322 67 67 81
0.0510735 -0.00399885 0.191195 71 73 86
0.0530014 -0.00407 0.194597 70 71 86
0.0537163 -0.00404707 0.1935 67 67 83
0.05504 -0.00407 0.194597 71 76 89
0.0562474 -0.00408366 0.19525 73 76 89
0.0551786 -0.00393453 0.18812 74 77 89
0.0560225 -0.00392462 0.187646 71 75 87
0.0585464 -0.00403072 0.192719 71 75 89
0.0590601 -0.00399717 0.191115 70 75 89
0.0607601 -0.00404369 0.193339 76 79 94
0.0610622 -0.00399717 0.191115 72 77 91
0.0627855 -0.00404369 0.193339 73 80 93
0.0640705 -0.00406095 0.194164 70 82 93
0.0649528 -0.00405254 0.193762 73 84 98
0.0650663 -0.00399717 0.191115 74 81 101
0.0672864 -0.00407093 0.194641 75 83 102
0.0667552 -0.00397851 0.190223 80 87 100
0.0675224 -0.00396505 0.189579 79 86 99
0.0712929 -0.00412579 0.197264 79 86 97
0.0717608 -0.00409354 0.195723 78 86 97
0.071667 -0.00403061 0.192714 80 87 100
0.0704393 -0.00390654 0.186782 84 89 104
0.0744562 -0.00407275 0.194729 81 87 101
0.0752822 -0.00406229 0.194228 87 93 105
0.0761058 -0.00405197 0.193735 90 95 106
0.076715 -0.00403067 0.192716 90 93 110
0.0763777 -0.00396083 0.189377 93 100 114
0.0786698 -0.00402739 0.192559 92 99 113
0.0804843 -0.00406812 0.194507 86 100 112
0.0803098 -0.00400856 0.191659 89 105 115
0.0827659 -0.00408015 0.195082 91 105 117
0.0822301 -0.0040043 0.191456 94 109 119
0.0855544 -0.00411599 0.196796 100 116 121
0.0838925 -0.00398799 0.190676 104 114 119
0.086872 -0.00408104 0.195125 107 118 123
0.085862 -0.00398669 0.190614 104 117 123
0.086385 -0.00396487 0.18957 109 126 132
0.087682 -0.00397867 0.19023 108 127 123
0.0869857 -0.00390272 0.186599 118 133 122
0.0885377 -0.00392822 0.187818 107 123 112
0.0880995 -0.00386582 0.184835 100 116 108
0.0908765 -0.00394433 0.188588 95 111 107
0.0901169 -0.00386931 0.185001 90 105 105
0.0951626 -0.00404248 0.193281 94 109 109
0.0915278 -0.00384715 0.183942 94 110 110
0.0921917 -0.00383469 0.183346 91 108 107
0.0959718 -0.00395077 0.188896 99 115 114
0.0939594 -0.00382846 0.183048 96 113 117
0.0985799 -0.00397616 0.19011 101 120 126
0.0980783 -0.00391636 0.187251 107 125 125
0.0990233 -0.00391495 0.187183 114 131 131
0.100328 -0.00392766 0.187791 103 132 134
0.103225 -0.00400183 0.191338 104 133 135
0.101709 -0.00390514 0.186715 119 146 146
0.105452 -0.00401029 0.191742 113 144 142
0.103373 -0.00389414 0.186189 112 148 143
0.104437 -0.00389745 0.186347 119 152 146
0.105747 -0.00390979 0.186937 135 158 154
0.104851 -0.00384109 0.183652 130 154 149
0.109879 -0.0039887 0.19071 146 158 155
0.111937 -0.00402682 0.192532 142 163 157
0.109227 -0.00389422 0.186192 145 166 158
0.112848 -0.00398774 0.190664 149 171 162
0.113861 -0.00398825 0.190688 154 178 168
0.114302 -0.00396885 0.189761 153 178 167
0.114704 -0.00394848 0.188787 160 183 173
0.119627 -0.00408274 0.195206 161 185 172
0.117631 -0.00398062 0.190324 162 191 176
0.120653 -0.00404857 0.193572 163 194 186
-0.514979 -0.0128523 0.819331 105 129 125
-0.460558 -0.0115907 0.738905 110 135 130
-0.476895 -0.0121035 0.771599 116 142 134
-0.48223 -0.0123435 0.7869 114 151 143
-0.463313 -0.0119615 0.762549 117 159 151
-0.489055 -0.0127359 0.811916 112 156 147
-0.460729 -0.0121035 0.771599 116 158 149
-0.454725 -0.0120515 0.768284 120 162 155
-0.45638 -0.0122034 0.777965 119 163 158
-0.467376 -0.01261 0.803887 123 164 161
-0.421058 -0.0114636 0.730803 120 167 158
-0.429782 -0.0118084 0.752789 124 172 163
-0.43136 -0.0119615 0.762549 126 174 168
-0.436006 -0.0122034 0.777965 126 178 170
-0.423372 -0.0119615 0.762549 125 179 164
-0.408208 -0.0116429 0.742238 133 184 164
-0.433152 -0.0124732 0.795167 136 187 169
-0.416273 -0.0121035 0.771599 135 188 173
-0.420405 -0.0123435 0.7869 140 188 175
-0.398238 -0.0118084 0.752789 145 190 177
-0.392137 -0.0117438 0.748668 144 190 178
-0.400107 -0.0121035 0.771599 155 198 182
-0.386409 -0.0118084 0.752789 149 194 178
-0.387425 -0.0119615 0.762549 146 194 182
-0.371542 -0.0115907 0.738905 153 199 182
-0.379437 -0.0119615 0.762549 152 201 183
-0.370638 -0.0118084 0.752789 155 204 186
-0.359932 -0.0115907 0.738905 161 208 189
-0.379189 -0.0123435 0.7869 161 208 183
-0.347184 -0.0114259 0.7284 158 206 185
-0.326598 -0.0108678 0.692823 156 206 187
-0.340674 -0.0114636 0.730803 159 208 186
-0.313374 -0.0106648 0.67988 162 210 184
-0.326762 -0.0112482 0.717074 167 212 188
-0.288911 -0.0100609 0.641382 168 211 189
-0.296469 -0.0104456 0.665905 166 210 185
-0.264779 -0.00944006 0.601804 165 212 186
-0.289493 -0.0104456 0.665905 168 213 187
-0.248752 -0.00908497 0.579167 164 211 184
-0.262192 -0.00969406 0.617996 173 214 191
-0.226163 -0.00846646 0.539737 149 202 172
-0.249018 -0.00944006 0.601804 142 197 169
-0.229366 -0.00880654 0.561417 167 210 191
-0.224933 -0.00874848 0.557716 150 204 180
-0.199036 -0.00784314 0.5 181 221 204
-0.196417 -0.00784314 0.5 171 215 196
-0.185841 -0.00752111 0.479471 143 203 175
-0.176877 -0.00725639 0.462595 144 202 171
-0.188561 -0.00784314 0.5 151 205 178
-0.163102 -0.00687973 0.438583 169 216 199
-0.152383 -0.00651945 0.415615 188 223 208
-0.180704 -0.00784314 0.5 145 202 175
-0.163932 -0.00721981 0.460263 154 205 178
-0.131366 -0.00587191 0.374334 146 201 170
-0.137654 -0.00624621 0.398196 166 214 191
-0.130056 -0.00599222 0.382004 178 221 200
-0.128055 -0.00599222 0.382004 163 213 186
-0.133402 -0.0063415 0.404271 169 215 193
-0.111725 -0.00539673 0.344042 169 213 190
-0.10228 -0.00502149 0.32012 172 218 193
-0.108121 -0.00539673 0.344042 172 217 191
-0.113393 -0.00575579 0.366932 166 213 184
-0.0936981 -0.00483809 0.308428 172 213 190
-0.0949086 -0.00498657 0.317894 160 210 186
-0.0996599 -0.00532971 0.339769 160 210 183
-0.0978803 -0.00532971 0.339769 151 206 177
-0.0998098 -0.00553542 0.352883 171 215 191
-0.0849861 -0.00480223 0.306142 170 215 190
-0.107547 -0.00619393 0.394863 162 209 183
-0.103859 -0.00609883 0.3888 178 215 194
-0.122178 -0.00731803 0.466525 179 217 195
-0.106379 -0.00650178 0.414488 165 212 182
-0.104015 -0.00648973 0.41372 169 215 185
-0.0671984 -0.00428186 0.272969 175 218 190
-0.0638186 -0.0041549 0.264875 151 208 171
-0.0556529 -0.00370379 0.236117 177 220 197
-0.0497801 -0.00338824 0.216 175 218 196
-0.0495841 -0.00345338 0.220153 165 212 187
-0.0458749 -0.00327112 0.208534 179 221 201
-0.0467131 -0.00341213 0.217523 157 212 186
-0.0422238 -0.00316132 0.201534 174 219 190
-0.0420462 -0.00322874 0.205832 164 214 181
-0.0412402 -0.00325019 0.207199 168 213 181
-0.0402205 -0.0032555 0.207538 177 220 192
-0.0393619 -0.00327449 0.208749 170 216 187
-0.0365517 -0.0031276 0.199385 168 213 183
-0.0369076 -0.00325094 0.207247 174 216 189
-0.0354048 -0.00321306 0.204833 157 210 178
-0.0333764 -0.00312364 0.199132 172 218 191
-0.0328361 -0.00317221 0.202228 167 216 188
-0.0314252 -0.0031371 0.19999 172 216 191
-0.0301798 -0.00311666 0.198687 156 209 177
-0.0299875 -0.0032074 0.204472 144 202 169
-0.029269 -0.0032465 0.206964 191 225 206
-0.0274157 -0.00315789 0.201316 165 213 185
-0.0267756 -0.00320752 0.20448 165 212 180
-0.024946 -0.00311287 0.198445 182 221 193
-0.0248038 -0.0032297 0.205893 187 224 200
-0.0229611 -0.00312566 0.199261 164 210 175
-0.0221477 -0.00315849 0.201354 164 211 172
-0.020845 -0.00312135 0.198986 195 226 201
-0.0196627 -0.00309928 0.197579 170 212 178
-0.0183643 -0.00305543 0.194784 163 205 166
-0.0172272 -0.00303485 0.193472 169 207 170
-0.0163836 -0.00306662 0.195497 157 201 159
-0.0154004 -0.00307476 0.196016 161 204 170
-0.0144234 -0.0030854 0.196694 160 203 171
-0.0135336 -0.00311775 0.198756 142 194 159
-0.012473 -0.00311287 0.198445 157 203 173
-0.0113263 -0.00308366 0.196583 133 189 155
-0.0104675 -0.00313484 0.199846 127 171 141
-0.00927211 -0.00308537 0.196692 118 163 130
-0.00800135 -0.00299533 0.190952 122 163 132
-0.00716247 -0.00306433 0.195351 117 145 115
-0.00620989 -0.00309959 0.197599 114 133 105
-0.00517491 -0.00309959 0.197599 108 119 105
-0.0040831 -0.00305704 0.194886 104 106 99
-0.00308019 -0.00307487 0.196023 95 91 84
-0.00201218 -0.00301306 0.192082 91 85 82
-0.000992559 -0.00297254 0.189499 80 71 72
0 -0.00308966 0.196966 74 63 68
0.00102022 -0.00305537 0.19478 74 63 69
0.00201035 -0.00301033 0.191908 69 57 64
0.00305068 -0.00304542 0.194146 67 54 62
0.00399763 -0.00299305 0.190807 68 53 61
0.00509421 -0.00305125 0.194517 65 51 60
0.00609781 -0.00304364 0.194032 66 52 62
0.00728945 -0.00311866 0.198814 63 50 59
0.00806655 -0.00301974 0.192508 58 45 53
0.00927211 -0.00308537 0.196692 61 48 57
0.0102649 -0.00307416 0.195978 64 51 61
0.0110884 -0.00301888 0.192454 58 43 54
0.0120431 -0.00300557 0.191605 57 42 54
0.0130761 -0.00301236 0.192038 64 49 61
0.0139292 -0.00297969 0.189955 63 48 60
0.0147145 -0.00293782 0.187286 62 47 58
0.0161594 -0.00302467 0.192822 61 46 57
0.0170696 -0.00300709 0.191702 60 44 56
0.018119 -0.00301462 0.192182 59 42 54
0.018596 -0.00293115 0.186861 56 39 52
0.0199143 -0.00298199 0.190102 56 39 52
0.0205012 -0.00292369 0.186385 55 37 51
0.0218401 -0.00297306 0.189532 54 36 50
0.0229359 -0.00298647 0.190388 55 37 50
0.0236637 -0.00295286 0.188245 56 38 52
0.0241877 -0.00289751 0.184716 54 37 51
0.0256192 -0.00295096 0.188123 57 39 54
0.026745 -0.00296654 0.189117 54 34 51
0.0277965 -0.00297306 0.189532 55 37 52
0.0288113 -0.00297534 0.189678 55 37 54
0.0301024 -0.00300505 0.191572 55 37 55
0.0314939 -0.00304254 0.193962 62 46 63
0.0318864 -0.00298419 0.190242 60 46 62
0.0336831 -0.00305682 0.194872 63 49 65
0.0333971 -0.00294171 0.187534 64 51 66
0.0348369 -0.00298087 0.19003 66 52 70
0.0365491 -0.0030405 0.193832 67 53 71
0.0370909 -0.00300218 0.191389 66 52 71
0.0388798 -0.00306417 0.195341 66 56 73
0.0385295 -0.00295869 0.188617 66 59 76
0.0400853 -0.00300121 0.191327 63 58 74
0.0414086 -0.00302467 0.192822 66 61 76
0.0425488 -0.00303396 0.193415 68 64 79
0.0423782 -0.00295152 0.188159 64 61 77
0.0435028 -0.00296099 0.188763 66 62 79
0.0444291 -0.00295683 0.188498 63 59 76
0.0454341 -0.00295798 0.188571 64 60 77
0.0469583 -0.00299217 0.190751 69 66 81
0.0477926 -0.00298188 0.190095 69 67 82
0.0489373 -0.00299099 0.190676 70 68 83
0.050072 -0.00299914 0.191195 67 67 80
0.0510677 -0.0029988 0.191173 72 72 85
0.051863 -0.00298693 0.190417 68 67 83
0.0531649 -0.00300414 0.191514 66 65 80
0.0544938 -0.00302221 0.192666 70 73 87
0.0557574 -0.00303607 0.193549 67 70 84
0.0563597 -0.00301406 0.192146 70 74 87
0.0560887 -0.00294694 0.187868 69 72 85
0.0588135 -0.00303683 0.193598 65 68 83
0.0598275 -0.00303683 0.193598 70 74 88
0.0599003 -0.00298985 0.190603 74 78 92
0.0611811 -0.00300371 0.191487 71 75 89
0.0621086 -0.00300007 0.191254 71 76 89
0.0636278 -0.00302467 0.192822 69 79 91
0.0630852 -0.00295202 0.188191 69 79 96
0.0658066 -0.00303199 0.193289 71 76 96
0.0666036 -0.00302221 0.192666 72 77 97
0.0669572 -0.00299291 0.190798 70 73 92
0.0670814 -0.00295437 0.188341 72 76 92
0.0710851 -0.00308532 0.196689 78 82 97
0.0729446 -0.0031208 0.198951 73 78 94
0.0726374 -0.00306389 0.195323 80 86 100
0.0733327 -0.00305026 0.194454 79 85 99
0.0742466 -0.00304596 0.19418 80 86 100
0.0750326 -0.00303661 0.193584 83 91 103
0.0757894 -0.00302634 0.192929 77 87 100
0.0756458 -0.00298087 0.19003 75 84 101
0.0781071 -0.00303788 0.193665 84 89 106
0.0791612 -0.00303941 0.193762 83 88 103
0.0781756 -0.00296357 0.188928 79 92 104
0.0812208 -0.00304052 0.193833 83 97 109
0.0827659 -0.00306011 0.195082 86 94 109
0.0815065 -0.0029768 0.189771 93 92 108
0.0848279 -0.00306078 0.195125 95 102 110
0.085522 -0.00304909 0.194379 96 103 109
0.0839666 -0.00295841 0.188599 93 100 107
0.0844914 -0.00294229 0.187571 93 107 114
0.087794 -0.00302215 0.192662 94 110 117
0.0876209 -0.00298192 0.190097 104 115 123
0.0867399 -0.00291877 0.186072 102 110 114
0.0884272 -0.00294249 0.187584 95 104 104
0.0908073 -0.00298848 0.190516 84 98 97
0.0894547 -0.00291197 0.185638 83 95 100
0.0902016 -0.00290471 0.185175 83 94 101
0.090375 -0.00287933 0.183557 86 98 101
0.0910365 -0.00286988 0.182955 84 96 101
0.0950634 -0.00296561 0.189057 82 99 104
0.0967415 -0.00298684 0.190411 91 108 112
0.0957587 -0.00292633 0.186554 91 108 115
0.0993754 -0.00300618 0.191644 93 112 120
0.10075 -0.00301728 0.192352 97 115 117
0.101162 -0.00299964 0.191227 107 124 124
0.100458 -0.00294956 0.188034 99 126 129
0.100922 -0.00293439 0.187068 100 127 130
0.101472 -0.00292204 0.18628 107 132 132
0.104564 -0.0029824 0.190128 109 134 130
0.106642 -0.00301295 0.192076 111 139 134
0.10269 -0.0028742 0.18323 112 141 137
0.107681 -0.00298598 0.190356 118 143 140
0.110345 -0.00303179 0.193277 124 148 145
0.110225 -0.00300096 0.191311 127 145 142
0.11312 -0.00305201 0.194566 124 149 147
0.110054 -0.00294279 0.187603 130 154 152
0.110509 -0.0029288 0.186711 141 163 155
0.113005 -0.00296869 0.189254 136 161 149
0.11608 -0.00302296 0.192714 144 167 155
0.114794 -0.00296369 0.188935 145 171 158
0.119156 -0.00305 0.194437 148 171 159
0.116452 -0.00295554 0.188416 157 174 164
0.123139 -0.003099 0.197561 163 173 169
-0.434677 -0.00723212 0.691572 99 127 126
-0.490473 -0.00822902 0.7869 106 129 126
-0.476895 -0.00806901 0.771599 110 131 127
-0.45486 -0.00776196 0.742238 113 138 132
-0.448947 -0.00772711 0.738905 108 137 134
-0.473986 -0.00822902 0.7869 103 139 136
-0.452466 -0.00792431 0.757762 101 137 136
-0.456687 -0.00806901 0.771599 119 152 150
-0.462179 -0.00823896 0.78785 112 154 149
-0.429596 -0.00772711 0.738905 115 156 153
-0.439348 -0.00797436 0.762549 120 162 153
-0.415858 -0.00761726 0.7284 124 165 156
-0.417985 -0.00772711 0.738905 123 164 159
-0.421896 -0.0078723 0.752789 123 166 159
-0.410245 -0.00772711 0.738905 123 169 157
-0.419378 -0.00797436 0.762549 121 169 158
-0.428649 -0.00822902 0.7869 133 179 168
-0.380252 -0.0073708 0.704833 126 177 165
-0.415632 -0.00813559 0.777965 132 180 170
-0.396058 -0.00782921 0.748668 135 181 172
-0.381521 -0.00761726 0.7284 133 183 173
-0.371276 -0.00748759 0.716 131 181 173
-0.35616 -0.00725603 0.693858 130 180 172
-0.369062 -0.00759639 0.726405 145 189 182
-0.360025 -0.00748759 0.716 144 190 180
-0.379437 -0.00797436 0.762549 138 191 178
-0.341623 -0.00725603 0.693858 147 197 184
-0.326124 -0.00700132 0.669501 150 195 182
-0.356061 -0.00772711 0.738905 152 195 183
-0.314692 -0.00690437 0.660231 158 201 185
-0.321546 -0.00713313 0.682106 158 201 184
-0.344451 -0.00772711 0.738905 160 203 183
-0.304318 -0.00690437 0.660231 162 205 186
-0.305084 -0.00700132 0.669501 155 202 181
-0.275315 -0.00639163 0.6112 158 205 183
-0.265226 -0.00622985 0.595729 163 207 188
-0.268913 -0.00639163 0.6112 155 203 182
-0.241033 -0.00579801 0.554434 160 203 181
-0.238129 -0.00579801 0.554434 163 205 184
-0.235225 -0.00579801 0.554434 159 206 189
-0.224317 -0.00559824 0.535331 148 200 180
-0.214011 -0.00540865 0.517202 150 200 178
-0.211703 -0.00541892 0.518184 153 201 179
-0.193877 -0.00502708 0.480714 146 201 177
-0.177367 -0.00465951 0.445566 154 205 184
-0.177218 -0.00471765 0.451125 154 205 184
-0.160654 -0.00433452 0.414488 145 201 178
-0.158483 -0.00433452 0.414488 159 205 181
-0.175236 -0.00485928 0.464669 187 222 205
-0.166788 -0.00469014 0.448495 151 208 184
-0.144775 -0.00412929 0.394863 165 213 192
-0.151367 -0.00437987 0.418825 157 209 184
-0.144325 -0.00423753 0.405214 148 202 182
-0.137687 -0.00410297 0.392347 139 196 175
-0.136502 -0.00412929 0.394863 164 212 193
-0.131736 -0.00404642 0.386939 152 209 179
-0.127442 -0.00397568 0.380174 170 209 182
-0.114865 -0.00364023 0.348097 166 210 185
-0.125656 -0.00404642 0.386939 166 210 185
-0.111219 -0.00364023 0.348097 173 218 194
-0.124848 -0.00415441 0.397265 170 216 190
-0.121247 -0.00410297 0.392347 164 212 185
-0.0987285 -0.00339856 0.324987 157 206 177
-0.0994572 -0.0034837 0.333129 159 209 183
-0.0926976 -0.00330492 0.316033 182 220 200
-0.0877282 -0.00318461 0.304529 180 221 199
-0.0993322 -0.00367262 0.351194 176 218 194
-0.0847443 -0.00319238 0.305271 169 212 184
-0.101956 -0.0039146 0.374334 155 203 171
-0.117416 -0.00459662 0.439552 181 217 196
-0.119846 -0.00478558 0.457621 183 219 199
-0.108008 -0.00440087 0.420833 164 212 181
-0.102996 -0.00428408 0.409665 153 208 172
-0.0694976 -0.00295224 0.282308 180 222 195
-0.0684265 -0.00296993 0.284 163 215 181
-0.0595825 -0.00264354 0.252789 162 210 179
-0.0526379 -0.0023885 0.2284 151 206 173
-0.0500078 -0.00232193 0.222035 154 207 178
-0.0456127 -0.00216829 0.207342 172 216 193
-0.0447904 -0.00218113 0.20857 164 213 184
-0.043947 -0.00219356 0.209759 167 216 186
-0.0415346 -0.0021263 0.203328 169 216 185
-0.0406748 -0.00213708 0.204359 172 216 187
-0.0393468 -0.00212318 0.203029 168 214 184
-0.0389461 -0.00215994 0.206544 174 216 190
-0.0383858 -0.00218969 0.209389 169 214 186
-0.0363356 -0.0021337 0.204035 176 217 192
-0.0343953 -0.00208097 0.198992 159 207 180
-0.0335008 -0.00209019 0.199874 168 213 188
-0.0330776 -0.00213036 0.203715 167 215 187
-0.0315512 -0.00209979 0.200792 176 219 194
-0.0295698 -0.00203577 0.194671 159 209 180
-0.0300404 -0.00214204 0.204833 147 202 168
-0.0285661 -0.00211235 0.201994 197 226 207
-0.0275123 -0.00211268 0.202025 167 212 184
-0.0267758 -0.00213837 0.204482 159 210 175
-0.0255713 -0.00212726 0.20342 167 213 182
-0.02425 -0.00210506 0.201296 172 216 188
-0.0233196 -0.00211631 0.202372 164 209 174
-0.021961 -0.00208792 0.199657 147 201 155
-0.0204104 -0.00203752 0.194838 183 221 191
-0.0194655 -0.00204546 0.195597 174 217 186
-0.0186079 -0.00206397 0.197367 170 214 181
-0.0171926 -0.00201917 0.193083 162 210 174
-0.0164951 -0.00205833 0.196828 169 213 181
-0.0154572 -0.0020574 0.196739 171 213 183
-0.0143489 -0.00204631 0.195678 159 207 177
-0.0138019 -0.0021197 0.202696 142 199 168
-0.0119492 -0.0019881 0.190112 180 215 195
-0.0111693 -0.00202727 0.193858 166 205 187
-0.0101194 -0.00202038 0.193199 139 188 163
-0.00920658 -0.00204238 0.195302 129 174 149
-0.0082027 -0.00204714 0.195757 142 180 156
-0.00722166 -0.00205977 0.196966 128 169 137
-0.00609851 -0.00202933 0.194055 129 163 130
-0.00512424 -0.00204616 0.195664 123 145 123
-0.00405679 -0.00202489 0.19363 113 124 110
-0.00306886 -0.00204238 0.195302 109 116 104
-0.00200966 -0.00200619 0.191842 104 102 94
-0.00101671 -0.00202991 0.19411 92 88 84
0 -0.0020055 0.191776 85 77 76
0.00099374 -0.00198405 0.189725 78 68 70
0.00202188 -0.00201839 0.193008 70 58 64
0.00311549 -0.00207341 0.19827 72 61 68
0.00397024 -0.00198169 0.189499 73 60 67
0.0051907 -0.0020727 0.198202 67 53 61
0.00595244 -0.00198072 0.189407 66 53 62
0.00714352 -0.00203748 0.194834 66 53 62
0.00812429 -0.00202757 0.193886 68 55 62
0.00912502 -0.00202428 0.193572 61 48 57
0.0103124 -0.00205891 0.196884 63 49 59
0.0113121 -0.00205319 0.196336 62 47 58
0.0122394 -0.00203638 0.194729 61 46 58
0.013305 -0.00204339 0.1954 61 47 58
0.0139513 -0.00198961 0.190256 62 47 59
0.0150301 -0.00200056 0.191303 58 43 54
0.0163064 -0.00203478 0.194576 59 44 55
0.0173436 -0.0020369 0.194778 58 42 54
0.0176899 -0.00196215 0.187631 59 42 55
0.0189699 -0.00199339 0.190618 55 37 51
0.0200065 -0.00199719 0.190982 56 38 52
0.0207106 -0.00196903 0.188289 56 39 52
0.0217812 -0.00197669 0.189021 54 37 51
0.0231096 -0.00200606 0.19183 53 35 49
0.0242686 -0.00201889 0.193056 56 38 52
0.0248928 -0.00198799 0.190102 54 35 50
0.0253824 -0.00194913 0.186385 56 37 53
0.0269247 -0.00199098 0.190388 54 35 51
0.0282875 -0.00201705 0.19288 54 36 52
0.0287892 -0.00198204 0.189532 55 37 54
0.0307046 -0.00204344 0.195404 55 37 55
0.0303829 -0.00195681 0.18712 58 44 60
0.0319339 -0.00199243 0.190526 63 50 67
0.0326269 -0.00197398 0.188761 63 50 67
0.0330759 -0.00194228 0.185731 65 52 68
0.0346458 -0.00197634 0.188988 66 53 71
0.0381178 -0.002114 0.202152 67 53 72
0.0371741 -0.00200594 0.191818 67 55 73
0.0379176 -0.00199222 0.190506 64 54 72
0.0401749 -0.00205669 0.196671 65 57 75
0.0409802 -0.00204548 0.195599 65 59 75
0.0413269 -0.00201247 0.192442 66 60 76
0.0420248 -0.00199773 0.191033 68 63 78
0.0423527 -0.00196649 0.188046 66 61 77
0.0430607 -0.00195393 0.186844 65 61 77
0.0464153 -0.00205934 0.196925 63 59 76
0.0462642 -0.00200802 0.192017 67 63 80
0.047182 -0.00200428 0.191659 66 63 78
0.048252 -0.00200703 0.191922 66 63 78
0.0490038 -0.00199671 0.190935 66 64 79
0.0503606 -0.00201095 0.192297 67 66 80
0.0510361 -0.00199796 0.191055 65 64 78
