ply
format ascii 1.0
element vertex 1196
property float x
property float y
property float z
property uchar red
property uchar green
property uchar blue
end_header
-0.113414 0.00595884 0.227926 71 83 94
-0.112226 0.00595917 0.227938 78 88 101
-0.112666 0.00604688 0.231293 75 88 101
-0.108506 0.00588691 0.225174 79 98 108
-0.107451 0.00589374 0.225436 75 101 105
-0.108064 0.00599322 0.229241 82 109 112
-0.103093 0.00578177 0.221153 80 108 110
-0.103347 0.00586186 0.224216 80 107 109
-0.101979 0.00585073 0.22379 88 112 113
-0.100594 0.00583839 0.223319 97 117 115
-0.0996104 0.00584933 0.223737 89 115 115
-0.100235 0.00595609 0.227821 90 117 119
-0.100058 0.00601719 0.230157 90 116 117
-0.0979304 0.00596106 0.228011 95 118 120
-0.092884 0.00572369 0.218931 96 121 120
-0.0946682 0.00590655 0.225926 98 126 122
-0.0931836 0.00588752 0.225198 91 124 120
-0.0908784 0.00581548 0.222442 94 126 123
-0.0921163 0.00597125 0.2284 100 128 126
-0.0890831 0.00585062 0.223786 104 131 128
-0.0865831 0.00576225 0.220406 106 135 132
-0.084516 0.00570069 0.218051 104 140 141
-0.084791 0.00579758 0.221757 106 144 144
-0.0819909 0.00568399 0.217413 105 146 145
-0.080763 0.00567772 0.217173 110 150 150
-0.0790955 0.00563993 0.215727 111 148 147
-0.0794137 0.00574468 0.219734 108 148 147
-0.0795945 0.00584244 0.223473 115 159 153
-0.0778686 0.00580106 0.221891 111 158 153
-0.0766092 0.00579372 0.22161 115 163 158
-0.0749375 0.00575448 0.220109 120 163 160
-0.0740654 0.00577637 0.220946 122 163 158
-0.074281 0.00588514 0.225107 126 169 164
-0.0709839 0.00571463 0.218585 129 170 166
-0.0706912 0.00578436 0.221252 139 175 169
-0.0683761 0.00568818 0.217573 141 180 168
-0.0674542 0.00570659 0.218277 146 182 172
-0.0639156 0.00550046 0.210393 144 180 173
-0.0643189 0.00563227 0.215434 134 178 171
-0.0653452 0.00582432 0.22278 137 180 172
-0.0626598 0.00568651 0.217509 132 173 164
-0.0604087 0.00558374 0.213578 126 168 158
-0.0599399 0.00564495 0.215919 129 168 160
-0.058358 0.00560166 0.214263 126 166 158
-0.0572929 0.00560726 0.214478 119 166 159
-0.0554699 0.00553742 0.211806 125 170 163
-0.0553443 0.00563763 0.215639 128 173 167
-0.0545374 0.00567117 0.216922 124 180 173
-0.0539536 0.00572984 0.219166 131 193 182
-0.0520205 0.00564465 0.215908 138 197 184
-0.0500584 0.00555245 0.212381 146 199 186
-0.0498404 0.00565391 0.216262 140 198 176
-0.0486487 0.00564707 0.216 142 199 178
-0.0473701 0.00562956 0.215331 144 200 178
-0.044496 0.00541698 0.207199 141 200 173
-0.0448619 0.00559806 0.214126 159 213 192
-0.0432606 0.00553666 0.211777 166 214 196
-0.0428491 0.00562832 0.215283 184 220 201
-0.0399549 0.00539 0.206167 168 212 188
-0.0387885 0.005378 0.205708 159 209 181
-0.0387137 0.00552098 0.211178 164 212 187
-0.0376773 0.00553122 0.211569 165 213 186
-0.0354048 0.0053551 0.204833 154 210 180
-0.0359835 0.00561273 0.214687 182 222 202
-0.0335146 0.00539625 0.206407 165 214 188
-0.0320689 0.00533559 0.204086 175 217 195
-0.0315749 0.00543455 0.207871 190 224 204
-0.0302617 0.00539454 0.206341 174 218 193
-0.0298041 0.00550974 0.210748 158 210 182
-0.0277443 0.00532623 0.203728 171 215 190
-0.0264866 0.00528819 0.202273 169 216 189
-0.0254308 0.00528895 0.202302 162 212 184
-0.0244612 0.00530848 0.20305 180 221 198
-0.0229504 0.005207 0.199168 170 216 190
-0.0225303 0.0053551 0.204833 171 215 190
-0.0209335 0.00522435 0.199831 181 219 198
-0.0195954 0.00514778 0.196902 162 209 182
-0.0186887 0.00518234 0.198224 171 214 188
-0.017647 0.00518134 0.198186 195 227 207
-0.0169451 0.00528621 0.202197 178 219 194
-0.0157126 0.0052285 0.19999 160 210 181
-0.0147811 0.00526985 0.201572 173 218 192
-0.0138259 0.00530848 0.20305 170 216 190
-0.0128962 0.00536417 0.205179 169 215 188
-0.0117818 0.00534612 0.204489 152 209 177
-0.0103549 0.0051685 0.197695 159 212 183
-0.00948054 0.00525788 0.201114 165 216 189
-0.00854084 0.00532881 0.203827 161 213 182
-0.00737519 0.0052589 0.201153 182 222 197
-0.00626946 0.00521554 0.199494 183 224 201
-0.00520839 0.0051994 0.198877 163 215 185
-0.00417284 0.00520705 0.19917 174 219 192
-0.00308803 0.00513784 0.196522 175 221 195
-0.00209666 0.0052326 0.200147 161 216 187
-0.00105177 0.00524977 0.200804 172 215 188
0 0.00529382 0.202489 163 211 183
0.00102744 0.00512832 0.196158 162 212 182
0.00207965 0.00519015 0.198523 192 227 207
0.00309746 0.00515353 0.197123 169 217 189
0.00408867 0.00510202 0.195152 168 212 183
0.00515618 0.00514729 0.196884 188 221 200
0.0061814 0.00514228 0.196692 152 204 174
0.00723607 0.00515971 0.197359 147 193 161
0.00804685 0.0050206 0.192038 154 194 163
0.00932342 0.00517074 0.197781 119 172 135
0.0102509 0.00511662 0.195711 131 173 142
0.0113552 0.00515256 0.197085 98 128 109
0.0123207 0.00512479 0.196023 71 95 90
0.0133844 0.00513897 0.196565 65 79 77
0.014283 0.00509229 0.19478 70 71 76
0.0153033 0.00509229 0.19478 68 57 67
0.0162719 0.00507619 0.194164 68 55 66
0.0173437 0.00509229 0.19478 66 53 66
0.0185268 0.00513744 0.196507 66 52 66
0.0198436 0.005213 0.199397 65 53 65
0.0207548 0.00517974 0.198125 65 53 66
0.021823 0.00518699 0.198402 65 52 65
0.022684 0.00514655 0.196855 63 53 66
0.0236831 0.00513961 0.19659 64 53 66
0.0249182 0.00518234 0.198224 64 53 66
0.0257824 0.00514759 0.196895 64 54 67
0.0264037 0.00506888 0.193885 64 53 67
0.027819 0.00514278 0.196711 64 54 68
0.0290946 0.00518651 0.198384 64 55 68
0.0297501 0.00512047 0.195858 63 54 68
0.030981 0.00515459 0.197163 64 54 69
0.0322699 0.00519584 0.198741 62 52 68
0.0329052 0.00513257 0.196321 61 52 67
0.0338904 0.00512604 0.196071 61 52 68
0.0351502 0.00516022 0.197379 62 53 68
0.0361967 0.00516203 0.197448 62 54 68
0.0361171 0.00500761 0.191541 63 54 68
0.0384643 0.00518891 0.198476 60 52 67
0.0393808 0.00517274 0.197857 60 51 67
0.0405435 0.00518891 0.198476 61 52 68
0.0413233 0.0051565 0.197236 60 52 68
0.0424269 0.00516508 0.197564 62 54 69
0.0432524 0.00514021 0.196613 63 54 69
0.0438578 0.00509094 0.194729 61 53 68
0.0442808 0.00502322 0.192138 60 53 68
0.0475647 0.00527585 0.201801 62 55 70
0.0479557 0.00520359 0.199037 61 53 69
0.0475245 0.00504707 0.19305 61 53 69
0.0491609 0.00511209 0.195538 62 55 70
0.0501345 0.00510694 0.195341 62 56 70
0.0509485 0.00508606 0.194542 63 56 72
0.0516388 0.00505389 0.193311 65 58 74
0.0525627 0.00504539 0.192986 62 56 71
0.053106 0.00500136 0.191302 62 55 69
0.0554577 0.00512611 0.196074 62 54 69
0.0555019 0.00503692 0.192662 61 54 70
0.058583 0.0052216 0.199726 60 53 69
0.0586899 0.00513935 0.19658 59 52 67
0.0603407 0.0051928 0.198625 59 51 67
0.0606165 0.00512813 0.196151 62 54 70
0.0609997 0.00507454 0.194101 59 51 68
0.0628202 0.00514031 0.196617 60 51 69
0.0636862 0.00512712 0.196112 61 52 69
0.0635927 0.00503833 0.192716 61 52 69
0.0650822 0.00507578 0.194148 61 51 67
0.0684012 0.00525255 0.20091 61 52 68
0.068559 0.0051849 0.198322 61 52 68
0.0693947 0.00516977 0.197744 63 54 70
0.070199 0.00515278 0.197094 61 52 67
0.0710721 0.00514126 0.196653 65 55 71
0.0724785 0.00516811 0.19768 61 51 67
0.0726926 0.00511036 0.195471 61 52 68
0.0733479 0.00508481 0.194494 61 52 68
0.0755796 0.00516775 0.197667 60 51 67
0.0751589 0.00506954 0.19391 60 52 68
0.0762877 0.00507707 0.194198 61 52 67
0.0786449 0.00516508 0.197564 59 48 64
0.0789435 0.00511735 0.195739 60 50 66
0.0798504 0.00510978 0.195449 63 53 69
0.0803773 0.00507839 0.194249 64 55 70
0.0814947 0.00508463 0.194487 60 51 65
0.0830627 0.00511848 0.195782 61 50 64
0.085064 0.00517788 0.198054 59 47 60
0.0851468 0.00512047 0.195858 61 49 62
0.0855661 0.00508443 0.19448 56 42 57
0.0853933 0.00501447 0.191803 55 43 57
0.0862784 0.00500753 0.191538 53 41 54
0.0907991 0.00520934 0.199257 54 41 54
0.0907678 0.00514836 0.196925 53 40 54
0.0890151 0.00499222 0.190952 57 44 56
0.089034 0.0049378 0.188871 58 46 57
0.0918462 0.00503779 0.192695 55 43 56
0.0929785 0.00504446 0.192951 60 49 61
0.0935455 0.00502065 0.19204 66 56 70
0.0961251 0.00510421 0.195236 67 61 73
0.0941806 0.00494832 0.189273 68 63 73
0.0967049 0.00502802 0.192322 66 62 73
0.0954801 0.00491316 0.187928 66 61 73
0.0998251 0.00508433 0.194476 68 64 75
0.100355 0.00505969 0.193533 69 66 75
0.102969 0.00513955 0.196588 71 68 78
0.104359 0.00515739 0.19727 69 66 76
0.104379 0.00510777 0.195372 72 69 79
0.105329 0.00510421 0.195236 71 69 79
0.105667 0.00507136 0.19398 70 67 78
0.105746 0.00502682 0.192276 72 71 80
0.108731 0.00511997 0.195839 72 71 81
0.109508 0.00510835 0.195394 72 71 80
0.110487 0.0051063 0.195316 78 78 84
0.111274 0.00509552 0.194904 73 73 81
0.112767 0.00511693 0.195723 73 73 82
0.113214 0.00509094 0.194729 73 74 80
0.118003 0.0052589 0.201153 73 74 81
0.118946 0.00525403 0.200967 73 73 81
0.113932 0.00498841 0.190807 75 75 82
0.119212 0.0051742 0.197913 75 74 82
0.120953 0.00520449 0.199072 72 74 82
0.121429 0.00518032 0.198147 71 78 83
0.130003 0.00549911 0.210341 72 79 84
0.128196 0.00537709 0.205674 75 77 83
-0.159297 0.0079511 0.253441 65 58 65
-0.156655 0.00788492 0.251332 61 61 66
-0.15232 0.00773171 0.246448 63 63 69
-0.149416 0.00764912 0.243816 65 62 69
-0.148074 0.0076458 0.24371 66 63 70
-0.138653 0.00722157 0.230187 66 65 71
-0.145441 0.00764158 0.243575 71 74 75
-0.140377 0.0074408 0.237175 67 71 72
-0.136855 0.00731886 0.233289 65 62 67
-0.12419 0.00670138 0.213606 65 62 68
-0.133035 0.00724396 0.230901 64 63 68
-0.130593 0.00717618 0.228741 65 66 69
-0.131999 0.00732065 0.233346 66 67 71
-0.127465 0.00713523 0.227435 68 68 74
-0.129042 0.00729167 0.232422 64 61 71
-0.126129 0.00719493 0.229339 71 70 77
-0.126532 0.00728734 0.232284 65 67 73
-0.125617 0.00730485 0.232842 71 73 79
-0.121876 0.00715678 0.228122 67 70 78
-0.120685 0.00715705 0.228131 70 70 83
-0.124783 0.00747409 0.238237 72 72 85
-0.11605 0.00702122 0.223801 72 74 85
-0.114942 0.00702512 0.223926 72 77 87
-0.116503 0.00719392 0.229306 66 72 84
-0.111645 0.00696579 0.222035 67 76 87
-0.111102 0.00700487 0.22328 69 77 88
-0.111635 0.00711334 0.226738 69 77 90
-0.112047 0.00721636 0.230021 69 76 96
-0.109582 0.00713431 0.227406 71 82 100
-0.106496 0.00700957 0.22343 71 88 103
-0.106502 0.00708786 0.225926 67 90 103
-0.106298 0.0071538 0.228027 68 91 101
-0.104591 0.0071189 0.226915 71 97 97
-0.10202 0.00702374 0.223882 81 107 104
-0.104593 0.00728462 0.232197 83 105 103
-0.0980431 0.00690875 0.220216 72 102 106
-0.101269 0.007221 0.230169 77 107 113
-0.0993706 0.00717102 0.228576 82 103 108
-0.0974145 0.00711559 0.226809 87 106 110
-0.0978793 0.00723781 0.230705 84 106 108
-0.0915891 0.00685733 0.218577 83 109 111
-0.0947216 0.00718163 0.228915 84 114 119
-0.090409 0.00694254 0.221293 88 117 120
-0.0906321 0.00705006 0.224721 92 116 120
-0.0862374 0.00679647 0.216637 94 118 119
-0.0886679 0.00708119 0.225713 94 119 119
-0.0853743 0.0069103 0.220266 97 122 124
-0.0876634 0.00719278 0.22927 97 119 121
-0.0828124 0.00688913 0.219591 103 122 124
-0.0827142 0.00697787 0.22242 95 128 128
-0.0802951 0.00687056 0.218999 102 137 136
-0.0797012 0.00691858 0.22053 104 141 136
-0.0785461 0.00691858 0.22053 98 136 131
-0.0762971 0.00682079 0.217413 99 137 131
-0.0776031 0.00704265 0.224485 99 141 135
-0.0745971 0.006874 0.219109 102 141 139
-0.0739538 0.00692121 0.220613 111 143 142
-0.0739548 0.00703116 0.224118 112 152 150
-0.0728558 0.0070384 0.224349 119 160 158
-0.0700571 0.00687897 0.219267 122 165 157
-0.0681359 0.00680183 0.216808 132 173 163
-0.0674847 0.00685101 0.218376 138 177 169
-0.066457 0.006863 0.218758 134 174 166
-0.065282 0.00685994 0.21866 136 178 169
-0.0631971 0.00675943 0.215457 143 182 172
-0.0619349 0.00674488 0.214993 137 175 163
-0.0618189 0.00685692 0.218564 131 172 158
-0.0604633 0.0068331 0.217805 129 167 158
-0.0565421 0.00651284 0.207597 121 161 153
-0.059617 0.00700167 0.223178 120 167 158
-0.0566792 0.00678977 0.216424 118 166 157
-0.054389 0.00664838 0.211917 115 163 157
-0.0547114 0.00682712 0.217615 121 169 165
-0.0529731 0.00675085 0.215183 128 179 170
-0.0510727 0.00665017 0.211974 129 182 171
-0.0511756 0.00681165 0.217121 133 187 176
-0.0493133 0.00671293 0.213975 134 188 177
-0.0482575 0.00672199 0.214263 136 191 179
-0.0484808 0.00691388 0.22038 147 199 183
-0.0455705 0.00665734 0.212203 150 204 183
-0.0448067 0.0067094 0.213862 149 204 184
-0.0435906 0.00669467 0.213393 147 201 182
-0.0415762 0.00655334 0.208888 164 211 190
-0.0402132 0.00650981 0.2075 163 211 186
-0.039116 0.00650809 0.207445 159 208 183
-0.0389547 0.00666642 0.212492 157 208 183
-0.0371432 0.00654338 0.20857 164 211 185
-0.0361723 0.00656544 0.209273 168 213 187
-0.034133 0.00638889 0.203646 179 219 197
-0.0340135 0.00657191 0.20948 174 217 194
-0.0324848 0.00648574 0.206733 152 206 177
-0.031964 0.00660183 0.210433 166 213 188
-0.0298746 0.00639065 0.203702 159 210 183
-0.0290209 0.00643796 0.20521 177 219 196
-0.0277936 0.00640285 0.204091 160 210 182
-0.0274933 0.006587 0.209961 169 215 190
-0.0258407 0.00644903 0.205563 157 209 180
-0.0244143 0.00635796 0.20266 188 225 205
-0.0240599 0.00655046 0.208796 177 219 197
-0.0226896 0.00647157 0.206281 152 208 182
-0.0208907 0.00625639 0.199423 163 212 188
-0.0202746 0.00639147 0.203728 149 205 174
-0.0189586 0.00630864 0.201088 159 211 181
-0.0182718 0.00643776 0.205204 167 213 189
-0.0170413 0.00637946 0.203345 194 227 210
-0.0158885 0.00634442 0.202228 164 211 186
-0.0144064 0.0061635 0.196461 180 221 196
-0.0138516 0.00638204 0.203427 173 217 191
-0.0127009 0.00633948 0.202071 164 213 185
-0.0116229 0.00632881 0.201731 161 211 182
-0.0105688 0.00633036 0.20178 187 223 202
-0.00948054 0.00630945 0.201114 152 205 174
-0.00840036 0.0062894 0.200475 158 207 175
-0.00746127 0.00638434 0.203501 154 207 172
-0.00611474 0.00610419 0.194571 192 228 205
-0.00532984 0.00638477 0.203515 159 212 177
-0.00407423 0.0061008 0.194463 164 213 180
-0.00313429 0.00625776 0.199466 167 217 189
-0.0020438 0.00612083 0.195101 174 220 197
-0.00107111 0.00641558 0.204496 164 212 186
0 0.00615255 0.196112 163 211 183
0.00104461 0.00625687 0.199438 141 201 161
0.00207555 0.0062159 0.198132 176 219 193
0.00317141 0.00633187 0.201828 184 223 202
0.00416066 0.00623022 0.198588 158 208 177
0.00515117 0.00617074 0.196692 173 217 192
0.00614078 0.00613018 0.1954 180 220 197
0.00715825 0.00612506 0.195236 165 210 188
0.00818771 0.00613018 0.1954 146 198 167
0.00919181 0.0061173 0.194989 138 190 160
0.010452 0.00626038 0.19955 163 199 176
0.0114195 0.00621809 0.198202 134 173 151
0.012583 0.00628065 0.200196 95 131 120
0.0135028 0.00622129 0.198304 72 92 94
0.0141664 0.00606082 0.193189 74 75 81
0.0154422 0.00616624 0.196549 70 60 69
0.0167648 0.00627596 0.200046 69 57 68
0.0180385 0.00635555 0.202583 63 50 62
0.0184689 0.00614569 0.195894 65 52 65
0.0197 0.00621032 0.197954 67 55 67
0.0201305 0.00602872 0.192165 64 52 65
0.0215808 0.0061553 0.1962 64 53 66
0.0229768 0.0062556 0.199397 63 52 65
0.024068 0.00626778 0.199785 63 52 67
0.0249988 0.00623892 0.198866 63 54 67
0.0258815 0.00620085 0.197652 63 54 67
0.0262831 0.00605486 0.192999 64 55 68
0.0271197 0.00601619 0.191766 64 54 68
0.0289873 0.00620085 0.197652 63 53 68
0.030557 0.00631123 0.201171 63 53 68
0.0310219 0.00619367 0.197423 64 54 69
0.0323619 0.00625279 0.199308 62 52 67
0.0327107 0.00612267 0.19516 63 53 68
0.0333386 0.0060511 0.192879 62 52 68
0.0353154 0.00622138 0.198307 61 51 66
0.0356285 0.0060972 0.194348 62 53 68
0.0373635 0.0062165 0.198151 62 53 68
0.0387027 0.00626529 0.199706 62 53 68
0.0399806 0.00630184 0.200871 61 51 67
0.0410289 0.00630124 0.200852 61 52 68
0.0411315 0.00615908 0.196321 61 53 68
0.0421771 0.00616161 0.196401 60 51 67
0.0426577 0.00608345 0.19391 61 52 68
0.0440853 0.00614083 0.195739 61 52 68
0.0463664 0.00631178 0.201188 59 51 67
0.046857 0.00623682 0.198799 60 53 68
0.0466892 0.00607939 0.19378 60 53 68
0.0475652 0.00606167 0.193216 60 52 67
0.0487321 0.006081 0.193832 59 51 66
0.050427 0.00616409 0.19648 60 52 67
0.0524017 0.00627736 0.200091 58 51 67
0.0522681 0.00613857 0.195667 59 52 68
0.052548 0.00605277 0.192932 63 57 71
0.0536783 0.0060663 0.193363 63 56 70
0.0548997 0.00608944 0.194101 60 52 69
0.0560843 0.00610773 0.194684 58 50 67
0.0576817 0.00616952 0.196653 62 54 70
0.0575999 0.00605269 0.192929 58 50 66
0.0593198 0.00612594 0.195264 62 54 69
0.0593565 0.00602584 0.192074 60 52 67
0.0613385 0.00612327 0.195179 58 51 67
0.0618835 0.0060764 0.193685 59 51 68
0.0633549 0.00612054 0.195092 60 51 67
0.0645847 0.00614031 0.195723 59 50 67
0.0643483 0.00602225 0.191959 60 51 67
0.0668079 0.00615625 0.19623 60 50 66
0.0678491 0.00615746 0.196269 60 51 68
0.0685602 0.00612913 0.195366 61 52 68
0.0690026 0.00607796 0.193735 65 56 71
0.0705237 0.00612191 0.195136 61 50 66
0.0723275 0.00618881 0.197268 61 50 66
0.074002 0.0062429 0.198992 62 53 68
0.0756629 0.00629436 0.200633 61 51 67
0.074859 0.00614218 0.195782 62 52 68
0.0751182 0.00608015 0.193805 63 54 69
0.0778406 0.0062165 0.198151 62 54 68
0.0784998 0.00618666 0.1972 63 52 67
0.0795474 0.0061878 0.197236 59 48 63
0.0796147 0.00611364 0.194872 62 51 66
0.080476 0.00610155 0.194487 60 48 64
0.0791814 0.00592835 0.188966 59 47 62
0.0835234 0.00617624 0.196868 62 49 63
0.0843021 0.0061578 0.19628 57 44 58
0.0827073 0.00596853 0.190247 60 46 60
0.0859822 0.00613099 0.195425 54 40 54
0.0875244 0.00616753 0.19659 53 38 53
0.0867752 0.00604364 0.192641 50 36 50
0.0887118 0.0061075 0.194677 57 43 56
0.0906218 0.0061681 0.196608 55 39 54
0.0915912 0.00616404 0.196479 54 39 53
0.0913439 0.00607909 0.193771 58 45 56
0.0915338 0.00602478 0.19204 59 46 59
0.0932991 0.00607423 0.193616 61 51 64
0.0956008 0.00615715 0.196259 63 56 68
0.0961882 0.00612908 0.195364 64 58 69
0.0978618 0.00617008 0.196671 66 60 70
0.0973939 0.00607661 0.193692 68 62 73
0.0989993 0.0061131 0.194855 67 61 73
0.0960136 0.00586824 0.18705 68 63 74
0.102451 0.00619842 0.197574 69 64 73
0.0998578 0.00598113 0.190649 67 62 73
0.102863 0.00610013 0.194442 66 63 73
0.105512 0.00619591 0.197495 68 65 75
0.106216 0.00617667 0.196881 69 66 76
0.103885 0.00598305 0.19071 72 70 78
0.104639 0.00596906 0.190264 71 69 78
0.111132 0.00627963 0.200163 71 68 78
0.109952 0.00615487 0.196186 73 70 78
0.108958 0.00604276 0.192613 70 69 76
0.110147 0.00605269 0.192929 71 70 78
0.111224 0.00605631 0.193045 70 70 78
0.119812 0.00646513 0.206076 73 73 79
0.11755 0.00628646 0.200381 72 72 79
0.120446 0.00638434 0.203501 71 70 78
0.116871 0.00614051 0.195729 74 74 81
0.12073 0.00628807 0.200432 74 74 81
0.125833 0.00649737 0.207104 72 72 80
0.121644 0.0062274 0.198498 71 76 81
0.12298 0.00624242 0.198977 72 77 82
0.121717 0.00612643 0.19528 76 78 83
-0.149247 0.00869103 0.237451 65 59 65
-0.153771 0.00902974 0.246705 64 62 67
-0.151901 0.00899553 0.245771 64 61 67
-0.148864 0.00889101 0.242915 61 58 65
-0.143354 0.00863575 0.235941 64 61 67
-0.144071 0.00875441 0.239183 65 63 68
-0.13944 0.00854734 0.233526 63 64 67
-0.137847 0.00852447 0.232901 66 67 69
-0.13458 0.00839674 0.229411 65 61 66
-0.133163 0.00838318 0.22904 66 63 68
-0.138451 0.00879535 0.240301 70 66 71
-0.133023 0.00852803 0.232998 65 63 66
-0.126698 0.00819772 0.223973 66 63 67
-0.128329 0.00838085 0.228977 64 61 67
-0.123845 0.0081643 0.22306 67 63 69
-0.125151 0.00832898 0.22756 66 64 69
-0.124562 0.00836954 0.228668 65 64 70
-0.122504 0.00831117 0.227073 71 70 76
-0.122564 0.00839674 0.229411 65 64 75
-0.122385 0.00846746 0.231343 72 70 82
-0.119509 0.00835122 0.228167 74 74 85
-0.117023 0.00826011 0.225678 73 73 84
-0.116797 0.00832822 0.227539 69 71 83
-0.114759 0.00826732 0.225875 68 71 83
-0.11628 0.00846411 0.231252 64 71 81
-0.111861 0.00822815 0.224805 63 71 83
-0.114086 0.00848112 0.231716 64 71 85
-0.111257 0.00835976 0.2284 65 71 86
-0.1081 0.00821078 0.22433 66 72 86
-0.10583 0.00812675 0.222035 67 72 89
-0.103483 0.00803477 0.219521 71 83 100
-0.107048 0.00840498 0.229636 68 83 96
-0.104795 0.00832162 0.227359 69 86 90
-0.10187 0.00818228 0.223551 72 87 93
-0.101193 0.00822244 0.224649 75 88 95
-0.097869 0.00804589 0.219825 75 95 102
-0.0996124 0.00828671 0.226405 77 95 104
-0.097111 0.00817595 0.223379 79 94 103
-0.0942799 0.00803439 0.219511 80 98 105
-0.0955157 0.0082402 0.225134 78 96 101
-0.0924881 0.00807875 0.220723 80 98 104
-0.0929307 0.00822016 0.224587 75 94 102
-0.0904765 0.00810568 0.221459 85 105 108
-0.0889054 0.00806837 0.220439 86 106 109
-0.0861641 0.00792248 0.216453 89 109 110
-0.088251 0.00822255 0.224652 88 108 109
-0.0857801 0.00810033 0.221313 92 113 116
-0.0843822 0.00807748 0.220688 92 111 112
-0.0841044 0.00816271 0.223017 96 114 112
-0.0824301 0.00811289 0.221656 91 116 113
-0.0793834 0.00792464 0.216513 96 122 120
-0.08202 0.00830651 0.226946 101 122 120
-0.0781607 0.00803207 0.219448 100 121 118
-0.0775823 0.00809162 0.221075 100 122 119
-0.0769401 0.00814623 0.222567 97 121 118
-0.0743475 0.00799284 0.218376 97 121 122
-0.0745593 0.00814085 0.22242 96 122 124
-0.0749616 0.0083147 0.227169 100 135 136
-0.0692223 0.00780194 0.21316 106 141 142
-0.0696791 0.00798217 0.218084 112 154 148
-0.0682057 0.0079436 0.217031 125 166 157
-0.0660508 0.00782301 0.213736 133 173 166
-0.0662274 0.00797917 0.218002 135 174 168
-0.0649208 0.00795897 0.21745 135 175 168
-0.0631334 0.00787806 0.21524 136 175 164
-0.0633135 0.00804417 0.219778 140 176 164
-0.0604951 0.00782842 0.213884 133 170 157
-0.0616046 0.00812242 0.221916 130 164 155
-0.0587889 0.00790024 0.215846 128 164 156
-0.056532 0.0077459 0.211629 120 163 154
-0.0567194 0.00792701 0.216577 111 160 153
-0.0562066 0.00801566 0.218999 111 159 154
-0.0548762 0.00798897 0.21827 114 163 157
-0.0535218 0.00795758 0.217413 125 173 163
-0.0525118 0.00797713 0.217947 128 180 169
-0.0499908 0.00776293 0.212094 131 184 175
-0.0490416 0.00778861 0.212796 130 186 176
-0.0488307 0.00793547 0.216808 134 189 178
-0.0454613 0.00756382 0.206654 141 192 179
-0.045437 0.00774415 0.211581 143 193 181
-0.0440468 0.00769489 0.210235 145 196 185
-0.0435662 0.00780608 0.213273 153 201 189
-0.041475 0.00762696 0.208379 159 206 191
-0.0414744 0.00783297 0.214008 156 206 188
-0.0391061 0.00759085 0.207393 161 209 189
-0.038634 0.00771346 0.210743 158 208 185
-0.0372091 0.00764747 0.20894 158 208 183
-0.0357476 0.00756974 0.206816 160 209 183
-0.0346602 0.00756884 0.206792 164 212 186
-0.033321 0.00751113 0.205215 181 220 198
-0.0321862 0.00749715 0.204833 170 215 190
-0.0309993 0.00746967 0.204082 167 214 188
-0.0305427 0.00762249 0.208257 155 209 179
-0.0291822 0.00755269 0.20635 171 217 191
-0.0279964 0.00752449 0.20558 170 217 191
-0.0270148 0.00755108 0.206306 170 216 190
-0.0260278 0.00757833 0.207051 150 206 173
-0.024543 0.00745672 0.203728 158 211 182
-0.0227961 0.0072408 0.197829 167 215 190
-0.0217992 0.00725387 0.198186 160 212 186
-0.0210317 0.00734839 0.200768 163 213 188
-0.0201239 0.00740126 0.202213 159 212 184
-0.0192405 0.00746951 0.204078 166 215 186
-0.0178025 0.0073178 0.199933 158 211 181
-0.0167529 0.00731674 0.199904 175 218 196
-0.0160348 0.00746999 0.204091 163 210 188
-0.0144354 0.00720523 0.196857 189 223 207
-0.0140917 0.00757473 0.206952 168 213 189
-0.0128964 0.0075099 0.205181 171 216 188
-0.0118211 0.00750956 0.205172 156 209 177
-0.0105143 0.0073473 0.200739 164 213 186
-0.0094796 0.0073603 0.201094 182 221 199
-0.00834443 0.00728878 0.19914 167 213 184
-0.0072407 0.00722821 0.197485 155 206 173
-0.00617606 0.00719297 0.196522 185 222 196
-0.00525142 0.0073393 0.20052 182 222 195
-0.0041586 0.007265 0.19849 175 217 189
-0.00314499 0.00732564 0.200147 168 211 182
-0.00205777 0.00718976 0.196435 186 221 199
-0.00105705 0.0073866 0.201812 170 215 190
0 0.00718976 0.196435 149 205 171
0.00104833 0.00732564 0.200147 135 199 156
0.00211427 0.00738718 0.201828 163 214 183
0.00311387 0.00725316 0.198167 166 215 187
0.00421598 0.00736523 0.201229 187 223 201
0.00516043 0.00721213 0.197046 157 208 177
0.00611162 0.00711791 0.194472 188 223 205
0.00722605 0.00721358 0.197085 157 206 178
0.00824012 0.00719766 0.19665 147 192 161
0.00920425 0.00714651 0.195253 148 195 165
0.0102217 0.00714283 0.195152 160 203 179
0.0115531 0.0073393 0.20052 163 199 179
0.0122982 0.00716156 0.195664 107 138 123
0.0134548 0.00723237 0.197599 86 111 110
0.014332 0.00715364 0.195448 83 85 90
0.0150173 0.006996 0.191141 70 67 74
0.0164497 0.00718432 0.196286 74 67 74
0.0174319 0.00716544 0.19577 69 58 69
0.0178815 0.00694191 0.189663 66 54 68
0.0193388 0.00711252 0.194324 65 54 67
0.0207224 0.00724033 0.197816 67 56 69
0.0216191 0.00719395 0.196549 66 56 69
0.0225537 0.0071638 0.195725 63 52 66
0.0242945 0.00738122 0.201666 65 55 70
0.0244602 0.00712191 0.194581 64 54 69
0.0261609 0.0073124 0.199785 63 53 67
0.0268657 0.00722059 0.197277 62 53 67
0.0277343 0.00717797 0.196112 63 54 68
0.0292222 0.00729296 0.199254 65 55 70
0.029519 0.00711297 0.194337 63 53 68
0.0310848 0.00724061 0.197824 63 52 68
0.0312714 0.0070491 0.192592 62 52 67
0.0326465 0.00712909 0.194777 62 52 68
0.0339474 0.00718854 0.196401 61 52 67
0.035299 0.00725489 0.198214 60 51 66
0.0366731 0.00732195 0.200046 62 52 68
0.0372721 0.00723486 0.197667 62 53 68
0.0384013 0.00725258 0.198151 63 54 69
0.0388925 0.00715205 0.195404 62 53 69
0.0409717 0.00734121 0.200572 60 51 67
0.0415015 0.00725023 0.198087 60 52 68
0.0428763 0.00730771 0.199657 61 52 69
0.0435766 0.00725023 0.198087 62 53 70
0.0436087 0.00708684 0.193623 62 54 70
0.0441357 0.00700947 0.191509 60 52 68
0.04721 0.00733111 0.200296 58 51 66
0.0472609 0.00717947 0.196153 60 52 68
0.0480439 0.00714312 0.19516 60 52 67
0.0494508 0.00719914 0.196691 62 53 69
0.0493584 0.00703904 0.192317 63 54 70
0.0505276 0.00706166 0.192935 61 53 69
0.0517915 0.00709638 0.193883 59 51 68
0.0532279 0.00715293 0.195428 61 54 69
0.0537254 0.00708356 0.193533 58 50 65
0.0544463 0.00704567 0.192498 58 50 66
0.0565069 0.00717938 0.196151 59 51 67
0.0580909 0.00724883 0.198048 59 50 67
0.0579779 0.00710781 0.194195 59 51 67
0.0577297 0.00695536 0.19003 60 52 67
0.0603294 0.00714538 0.195222 59 51 66
0.0620377 0.00722524 0.197404 57 49 65
0.0609503 0.00698223 0.190765 61 52 68
0.0638139 0.00719237 0.196506 61 52 67
0.0650948 0.00722027 0.197268 58 49 66
0.0664618 0.00725672 0.198264 60 50 67
0.065499 0.00704157 0.192386 61 52 67
0.0680011 0.00719979 0.196709 62 53 69
0.0687245 0.00716779 0.195834 59 50 66
0.0711202 0.00730856 0.19968 61 52 67
0.071193 0.00721002 0.196988 61 52 66
0.0741405 0.00740126 0.202213 59 48 63
0.0731603 0.00720054 0.196729 61 51 66
0.0744091 0.00722173 0.197308 64 54 69
0.0742142 0.00710415 0.194096 59 50 65
0.0765207 0.00722595 0.197423 61 51 66
0.0763422 0.00711297 0.194337 59 48 64
0.0790899 0.00727202 0.198682 60 49 64
0.0790091 0.00717025 0.195902 60 49 64
0.0794165 0.00711483 0.194387 60 49 63
0.0798111 0.00705967 0.19288 57 45 60
0.0823689 0.00719484 0.196573 57 45 59
0.0800186 0.00690326 0.188607 56 43 57
0.0827921 0.00705542 0.192764 58 45 58
0.0836977 0.00704666 0.192525 51 35 50
0.0827337 0.00688258 0.188042 54 37 53
0.0853051 0.00701301 0.191605 53 36 52
0.0878556 0.0071387 0.195039 51 35 50
0.089428 0.00718294 0.196248 55 40 53
0.0879815 0.00698645 0.19088 57 42 56
0.0896176 0.00703641 0.192245 56 41 55
0.0945971 0.00734485 0.200672 54 38 52
0.0922554 0.00708432 0.193554 56 43 56
0.0954243 0.00724802 0.198026 61 52 65
0.0945702 0.00710591 0.194144 64 55 67
0.0949713 0.00706013 0.192893 64 57 69
0.0954042 0.00701765 0.191732 66 60 70
0.0974083 0.00709044 0.193721 67 60 71
0.100524 0.00724176 0.197855 67 61 72
0.0986068 0.00703119 0.192102 67 61 72
0.103253 0.0072881 0.199121 67 61 71
0.102401 0.0071557 0.195504 66 60 71
0.102512 0.00709254 0.193778 68 65 75
0.104671 0.00717092 0.19592 67 62 73
0.105263 0.00714143 0.195114 69 65 74
0.106379 0.00714775 0.195287 71 68 76
0.107005 0.00712136 0.194566 68 65 75
0.110148 0.00726139 0.198392 67 63 74
0.112022 0.0073159 0.199881 69 66 75
0.113261 0.0073283 0.20022 71 69 77
0.116943 0.00749715 0.204833 71 69 77
0.116957 0.00742987 0.202995 71 69 77
0.115714 0.00728468 0.199028 70 69 76
0.113486 0.00708066 0.193454 71 70 77
0.119991 0.00742025 0.202732 72 71 79
0.119252 0.00730989 0.199717 74 73 80
0.124765 0.00758127 0.207131 75 73 80
0.123001 0.00740966 0.202442 71 70 77
0.122908 0.00734077 0.20056 68 70 76
0.123847 0.0073342 0.200381 71 74 80
0.131112 0.00769917 0.210352 74 76 82
-0.14522 0.00966466 0.231046 67 59 64
-0.147286 0.00988447 0.236301 63 60 64
-0.146589 0.00992106 0.237175 64 62 66
-0.144389 0.0098557 0.235613 62 58 63
-0.142293 0.00979637 0.234194 61 58 63
-0.137369 0.00953963 0.228057 61 59 64
-0.137376 0.00962376 0.230068 60 59 63
-0.138004 0.00975333 0.233166 62 62 65
-0.133807 0.00954115 0.228093 65 62 66
-0.133998 0.00964083 0.230476 67 62 67
-0.132607 0.0096275 0.230157 67 63 67
-0.131682 0.00964802 0.230648 65 60 64
-0.132416 0.00979167 0.234082 62 58 62
-0.132977 0.00992506 0.237271 64 60 66
-0.12865 0.0096927 0.231716 65 61 68
-0.12674 0.00963974 0.23045 65 62 69
-0.123607 0.00949186 0.226915 66 65 71
-0.122957 0.00953359 0.227912 67 67 71
-0.120379 0.00942517 0.22532 67 65 73
-0.121432 0.00960182 0.229543 70 66 76
-0.117704 0.00940008 0.224721 68 65 75
-0.116667 0.00941136 0.22499 60 59 72
-0.117552 0.00957952 0.22901 66 67 78
-0.117651 0.00968641 0.231566 65 66 77
-0.111082 0.00924082 0.220913 66 69 79
-0.113087 0.00950665 0.227268 64 68 79
-0.112993 0.00959982 0.229496 65 69 79
-0.109316 0.00938729 0.224415 65 68 81
-0.108538 0.00942178 0.225239 68 70 84
-0.106196 0.00931978 0.222801 66 70 84
-0.107264 0.00951814 0.227543 67 72 87
-0.102702 0.00921569 0.220313 69 74 87
-0.103676 0.00940883 0.22493 70 76 85
-0.102498 0.00940883 0.22493 67 77 84
-0.101783 0.00945182 0.225958 67 78 86
-0.0987479 0.00927789 0.221799 72 87 94
-0.100141 0.00952075 0.227606 67 82 92
-0.0956806 0.00920631 0.220088 68 83 93
-0.0945717 0.00921059 0.220191 65 85 93
-0.0959795 0.0094631 0.226227 70 87 97
-0.0921383 0.00919793 0.219888 75 88 98
-0.0890191 0.00899903 0.215133 78 84 93
-0.0906204 0.00927836 0.221811 78 86 85
-0.0881809 0.00914584 0.218643 82 98 95
-0.0873278 0.00917654 0.219377 82 102 101
-0.0882781 0.00940008 0.224721 81 97 97
-0.0851854 0.00919334 0.219778 83 98 99
-0.0836068 0.00914658 0.21866 87 102 102
-0.0845906 0.00938274 0.224306 89 106 105
-0.0827533 0.00930822 0.222525 81 102 103
-0.0796227 0.00908403 0.217165 84 104 106
-0.0803398 0.00929868 0.222297 84 105 105
-0.079513 0.00933832 0.223244 88 106 107
-0.0777785 0.00927097 0.221634 88 107 107
-0.0754913 0.00913467 0.218376 84 105 105
-0.0743128 0.0091304 0.218274 85 106 109
-0.0756967 0.00944576 0.225813 84 107 111
-0.0719953 0.00912649 0.21818 89 112 115
-0.0724657 0.00933428 0.223148 95 122 124
-0.0690385 0.00903861 0.216079 107 136 137
-0.0697025 0.00927763 0.221793 114 145 143
-0.0681762 0.00922828 0.220613 115 145 146
-0.0656656 0.0090417 0.216153 115 151 150
-0.0652515 0.00914231 0.218558 120 155 151
-0.0627001 0.00894171 0.213763 126 161 151
-0.0646014 0.00938035 0.224249 130 166 153
-0.0592761 0.00876649 0.209574 130 165 151
-0.059283 0.00893294 0.213553 124 158 150
-0.0580566 0.00891637 0.213157 123 159 152
-0.0570948 0.00894059 0.213736 119 158 154
-0.0568841 0.00908574 0.217206 112 156 153
-0.0557596 0.0090879 0.217258 115 158 155
-0.0534647 0.0088954 0.212656 120 164 158
-0.0549575 0.00933832 0.223244 122 169 158
-0.0519597 0.00902087 0.215655 129 176 166
-0.0505021 0.00896265 0.214263 127 180 170
-0.0492366 0.00893666 0.213642 129 183 174
-0.0476752 0.0088545 0.211678 130 184 174
-0.0459464 0.00873659 0.208859 134 185 176
-0.0449306 0.00875182 0.209223 135 185 176
-0.0444796 0.00888058 0.212301 141 191 181
-0.0426366 0.00873087 0.208722 140 193 182
-0.0420754 0.00884269 0.211396 147 198 187
-0.0399479 0.00862248 0.206131 149 199 186
-0.0390249 0.00865723 0.206962 146 198 183
-0.0388566 0.00886618 0.211957 159 206 187
-0.0367687 0.00863654 0.206467 160 207 188
-0.0362229 0.00876616 0.209566 149 202 179
-0.0350489 0.00874711 0.209111 163 209 189
-0.0341371 0.00879439 0.210241 167 213 191
-0.0326032 0.00867919 0.207487 162 211 185
-0.0315776 0.00869604 0.20789 171 216 191
-0.0294814 0.00840871 0.201021 162 212 185
-0.0290212 0.00858405 0.205212 159 212 182
-0.0281489 0.00864626 0.2067 180 222 200
-0.0270663 0.00864626 0.2067 175 221 197
-0.026122 0.00869231 0.207801 172 217 191
-0.0241836 0.00839717 0.200745 167 215 188
-0.023347 0.00847516 0.202609 167 215 187
-0.0226953 0.0086309 0.206332 163 213 186
-0.0213007 0.00850558 0.203337 167 215 191
-0.0206834 0.00869378 0.207836 171 217 193
-0.0188121 0.00834652 0.199534 168 216 189
-0.0175273 0.00823392 0.196842 170 217 190
-0.0170076 0.00848915 0.202944 163 213 186
-0.0160348 0.00853713 0.204091 164 212 187
-0.0151002 0.00861379 0.205923 168 213 190
-0.0138996 0.00853884 0.204132 165 210 184
-0.0123924 0.00824734 0.197163 182 220 197
-0.0112447 0.00816384 0.195167 181 221 198
-0.0106216 0.00848263 0.202788 160 211 183
-0.00938748 0.00833003 0.19914 164 214 187
-0.00844184 0.00842727 0.201464 171 218 194
-0.00742416 0.00847011 0.202489 159 207 180
-0.0062481 0.00831642 0.198814 162 210 183
-0.00518038 0.00827431 0.197808 194 226 208
-0.00415328 0.00829222 0.198236 183 221 198
-0.00312916 0.00833003 0.19914 163 209 177
-0.00217712 0.00869345 0.207828 154 205 171
-0.00103439 0.00826081 0.197485 154 206 174
0 0.00838683 0.200498 150 204 169
0.00103439 0.00826081 0.197485 162 210 178
0.00206582 0.00824901 0.197203 162 210 176
0.0031356 0.00834718 0.19955 151 206 168
0.00421559 0.00841663 0.20121 175 218 190
0.00511982 0.00817757 0.195495 179 220 196
0.00615202 0.00818854 0.195757 154 207 180
0.0070965 0.0080963 0.193552 144 196 164
0.00823835 0.00822413 0.196608 148 193 162
0.00917461 0.00814113 0.194624 157 202 176
0.0102243 0.00816535 0.195203 131 187 158
0.0113665 0.0082523 0.197282 163 201 179
0.0125059 0.00832286 0.198968 115 154 139
0.0138152 0.00848698 0.202892 99 127 119
0.0143935 0.00821065 0.196286 90 109 109
0.0154012 0.00819979 0.196026 63 85 86
0.0158103 0.0078915 0.188656 69 72 77
0.0170901 0.00802854 0.191932 72 64 73
0.0187519 0.00831979 0.198895 68 57 70
0.019384 0.00814759 0.194778 68 58 71
0.0207939 0.0083032 0.198498 66 56 69
0.0210972 0.00802315 0.191803 65 55 68
0.0227592 0.00826178 0.197508 64 53 67
0.0239536 0.00831732 0.198836 63 52 66
0.0246473 0.00820161 0.19607 62 52 67
0.0258373 0.00825366 0.197314 63 53 68
0.0272974 0.0083847 0.200447 62 53 67
0.0281278 0.00831979 0.198895 64 55 70
0.0285369 0.00813932 0.194581 62 53 68
0.0299092 0.00823659 0.196906 62 52 67
0.0311312 0.00828733 0.198119 63 53 69
0.0324227 0.0083527 0.199682 62 51 67
0.0333697 0.00832804 0.199092 62 51 68
0.0339116 0.00820681 0.196194 61 51 67
0.035048 0.00823236 0.196805 61 51 67
0.0362838 0.00827913 0.197923 60 50 66
0.0362609 0.00804408 0.192304 60 50 66
0.0388213 0.00837931 0.200318 62 52 68
0.0402253 0.00845388 0.202101 61 52 68
0.0402228 0.00823659 0.196906 61 52 68
0.0403746 0.00806099 0.192708 59 50 67
0.0409472 0.00797592 0.190674 62 52 69
0.043124 0.00819992 0.196029 61 51 68
0.0441508 0.00819992 0.196029 61 52 68
0.0443599 0.00805152 0.192482 61 52 68
0.0459426 0.00815348 0.194919 57 49 65
0.0469062 0.00814352 0.194681 59 51 67
0.0481367 0.00817935 0.195538 59 51 67
0.0488242 0.00812332 0.194198 59 50 66
0.0511044 0.00832917 0.199119 61 52 68
0.0516914 0.00825636 0.197379 59 50 67
0.0519158 0.0081296 0.194348 59 51 67
0.0541365 0.00831433 0.198764 60 53 68
0.0537537 0.00809976 0.193635 62 54 69
0.0538038 0.00795718 0.190226 60 51 67
0.0571408 0.00829705 0.198351 58 49 66
0.0584429 0.00833458 0.199249 57 49 65
0.0574407 0.00804794 0.192396 59 50 67
0.0592117 0.00815304 0.194909 59 51 66
0.0608448 0.00823591 0.19689 60 51 67
0.060869 0.00810186 0.193685 60 51 67
0.0614539 0.00804562 0.19234 60 50 66
0.0624943 0.00804986 0.192442 57 48 63
0.0633747 0.0080337 0.192056 61 50 66
0.064968 0.00810699 0.193808 60 50 66
0.0668759 0.00821668 0.19643 58 48 63
0.0671889 0.00813006 0.194359 59 48 64
0.0686808 0.00818654 0.195709 63 52 67
0.0686578 0.00806346 0.192767 62 51 66
0.071065 0.00822521 0.196634 58 46 62
0.0710864 0.00811015 0.193883 58 47 62
0.0738322 0.00830476 0.198536 58 48 63
0.0745909 0.00827357 0.19779 61 52 66
0.0763119 0.00834852 0.199582 63 53 67
0.0774835 0.00836214 0.199907 63 52 67
0.0765733 0.00815373 0.194925 61 49 66
0.0783368 0.00823175 0.19679 57 45 62
0.0790265 0.00819637 0.195945 57 45 60
0.0804299 0.00823499 0.196868 59 46 61
0.0819383 0.00828323 0.198021 60 47 62
0.0812647 0.00811244 0.193938 60 47 60
0.0835071 0.00823338 0.196829 62 48 61
0.0844702 0.00822678 0.196671 58 42 56
0.0828686 0.00797356 0.190618 54 37 52
0.0887066 0.00843367 0.201618 51 33 49
0.0884703 0.00831225 0.198715 53 35 52
0.086494 0.00803207 0.192017 55 40 54
0.0876943 0.00804992 0.192444 57 42 54
0.0910081 0.00825919 0.197446 54 37 53
0.090725 0.00814099 0.19462 54 40 54
0.0922903 0.00818943 0.195779 58 44 57
0.0923265 0.00810261 0.193703 58 45 60
0.0953294 0.0082752 0.197829 61 50 63
0.095149 0.00817074 0.195332 64 55 68
0.0934293 0.00793771 0.189761 64 56 68
0.0987512 0.00830154 0.198459 63 56 67
0.098046 0.0081564 0.194989 63 56 68
0.098935 0.00814551 0.194729 65 59 70
0.0993544 0.00809657 0.193559 66 59 71
0.103922 0.00838324 0.200412 65 59 70
0.101455 0.00810239 0.193698 67 60 71
0.104632 0.00827338 0.197786 67 62 73
0.102429 0.0080198 0.191723 68 63 74
0.106206 0.00823479 0.196863 69 64 74
0.108212 0.00830963 0.198652 68 63 73
0.107329 0.00816335 0.195155 66 62 72
0.108459 0.00817143 0.195348 66 62 72
0.112212 0.0083752 0.20022 68 65 74
0.112144 0.00829261 0.198245 69 67 75
0.115506 0.00846291 0.202316 71 68 76
0.116135 0.00843161 0.201568 71 69 76
0.114725 0.00825422 0.197327 70 67 75
0.116893 0.00833509 0.199261 70 67 75
0.119486 0.0084446 0.201879 71 69 77
0.119586 0.0083775 0.200275 72 70 77
0.117063 0.00812944 0.194344 72 69 76
0.124453 0.00856817 0.204833 70 67 74
0.120108 0.00819833 0.195991 69 68 75
0.12718 0.0086075 0.205773 69 68 74
0.1196 0.00802648 0.191883 70 72 78
-0.149073 0.0111612 0.237175 62 55 59
-0.141883 0.0107122 0.227633 60 57 61
-0.139566 0.0106265 0.225813 59 56 61
-0.143247 0.011 0.23375 60 56 61
-0.139176 0.0107795 0.229065 61 58 63
-0.141878 0.0110843 0.235542 59 56 61
-0.140021 0.0110352 0.234498 62 59 62
-0.13835 0.011 0.23375 63 60 63
-0.132469 0.0106265 0.225813 62 58 61
-0.136615 0.0110578 0.234978 61 56 61
-0.130481 0.0106573 0.226468 61 56 61
-0.133357 0.0109921 0.233583 65 60 64
-0.131414 0.0109323 0.232311 61 56 61
-0.129274 0.0108548 0.230664 63 58 63
-0.124766 0.0105751 0.224721 61 55 61
-0.124944 0.010691 0.227184 63 59 64
-0.125832 0.0108705 0.230998 62 60 66
-0.122202 0.0106594 0.226513 65 64 69
-0.119337 0.0105115 0.22337 65 62 68
-0.118734 0.010562 0.224442 60 55 65
-0.116297 0.0104487 0.222035 60 54 64
-0.119182 0.010816 0.22984 61 57 68
-0.11582 0.0106182 0.225637 59 57 67
-0.115182 0.0106685 0.226706 64 64 73
-0.112723 0.0105496 0.224178 64 63 73
-0.115266 0.0109011 0.231648 61 58 69
-0.111752 0.0106812 0.226975 63 59 70
-0.106472 0.010286 0.218577 63 58 68
-0.109215 0.0106657 0.226646 63 58 75
-0.10541 0.0104072 0.221153 65 68 81
-0.105701 0.0105519 0.224228 67 71 82
-0.102773 0.0103749 0.220466 65 69 81
-0.102505 0.0104654 0.22239 68 73 83
-0.100547 0.0103835 0.220649 66 74 81
-0.0995986 0.0104051 0.221109 65 72 80
-0.0998717 0.0105564 0.224324 69 74 83
-0.0977398 0.0104541 0.222149 66 73 84
-0.0956367 0.0103524 0.219987 66 74 84
-0.0958987 0.0105073 0.22328 66 73 83
-0.095257 0.0105659 0.224524 66 74 88
-0.0931294 0.010459 0.222253 70 78 89
-0.0915099 0.0104072 0.221153 68 73 80
-0.0914728 0.0105363 0.223897 75 80 81
-0.0879318 0.01026 0.218025 77 84 85
-0.088341 0.0104434 0.221922 73 86 88
-0.0866371 0.0103785 0.220543 72 84 89
-0.0868368 0.010543 0.224039 79 90 92
-0.0833552 0.0102589 0.218002 70 84 85
-0.0835546 0.0104263 0.221559 72 89 93
-0.0828884 0.0104888 0.222888 74 90 96
-0.0824732 0.0105854 0.22494 76 93 98
-0.0805298 0.0104858 0.222823 74 91 96
-0.0812193 0.0107311 0.228035 82 92 94
-0.0788077 0.0105678 0.224567 81 89 93
-0.077711 0.0105787 0.224797 74 90 97
-0.0758998 0.0104911 0.222935 78 93 102
-0.0746427 0.0104785 0.222668 77 89 98
-0.0741775 0.0105785 0.224793 77 92 96
-0.071263 0.0103268 0.219444 82 102 106
-0.0710979 0.0104718 0.222525 89 116 119
-0.068328 0.0102315 0.21742 96 121 124
-0.0672527 0.0102412 0.217625 103 128 133
-0.0659454 0.0102152 0.217074 100 130 136
-0.0632196 0.00996481 0.211752 106 134 141
-0.0636469 0.0102113 0.21699 108 137 139
-0.062247 0.0101683 0.216076 113 143 138
-0.0595264 0.00990394 0.210459 107 140 135
-0.0589885 0.00999963 0.212492 107 140 138
-0.060701 0.0104878 0.222866 105 140 139
-0.0574688 0.010124 0.215136 104 143 143
-0.0559013 0.0100449 0.213454 106 146 145
-0.0552854 0.0101369 0.21541 112 150 149
-0.0545874 0.0102175 0.217121 122 157 157
-0.05433 0.0103857 0.220695 121 162 158
-0.0522679 0.0102087 0.216934 124 171 160
-0.051068 0.010196 0.216664 126 172 161
-0.0495217 0.010112 0.214879 129 171 164
-0.047436 0.00991134 0.210616 128 173 169
-0.0463962 0.00992489 0.210904 134 181 176
-0.0450059 0.0098623 0.209574 134 183 176
-0.0444584 0.00998587 0.2122 134 184 174
-0.0434279 0.0100045 0.212596 138 186 176
-0.0417002 0.00985932 0.209511 140 186 176
-0.0406872 0.00987981 0.209946 147 191 182
-0.0397528 0.00992105 0.210822 146 193 184
-0.0374739 0.00961952 0.204415 152 197 188
-0.0375643 0.00992632 0.210934 152 196 185
-0.0349942 0.0095274 0.202457 153 200 183
-0.0343319 0.00963919 0.204833 152 204 185
-0.032701 0.00947745 0.201396 162 209 190
-0.0327275 0.00980132 0.208278 157 208 186
-0.0301913 0.00935354 0.198763 168 214 190
-0.0287691 0.00923125 0.196164 162 211 186
-0.0290745 0.00967477 0.205589 152 207 181
-0.0274349 0.00948031 0.201457 174 220 197
-0.0269196 0.00967435 0.20558 164 215 190
-0.025232 0.00944568 0.200721 157 210 181
-0.0248557 0.00970935 0.206324 174 218 193
-0.0233031 0.00951662 0.202228 178 220 196
-0.0226953 0.00970976 0.206332 162 212 186
-0.0214574 0.00963919 0.204833 168 216 192
-0.0200446 0.00947841 0.201416 167 216 192
-0.0190266 0.00949687 0.201808 151 209 178
-0.0179014 0.00946087 0.201043 156 211 181
-0.0169451 0.00951517 0.202197 157 211 181
-0.0161798 0.00969111 0.205936 175 218 195
-0.0147273 0.0094512 0.200838 178 219 197
-0.0138273 0.0095562 0.203069 169 212 188
-0.0128088 0.00959005 0.203789 174 215 193
-0.0113859 0.00929968 0.197618 176 220 197
-0.0106567 0.00957448 0.203458 172 219 195
-0.00938463 0.00936844 0.199079 173 219 193
-0.00828549 0.00930509 0.197733 179 222 199
-0.00731125 0.00938396 0.199409 156 206 178
-0.00643723 0.00963919 0.204833 151 205 174
-0.00523239 0.00940205 0.199794 176 218 194
-0.00417905 0.00938665 0.199466 178 218 195
-0.00318716 0.00954498 0.202831 172 215 189
-0.00205823 0.00924605 0.196479 176 217 193
-0.00104662 0.0094033 0.19982 167 213 185
0 0.0094033 0.19982 161 209 180
0.00104675 0.00940453 0.199846 176 215 191
0.00207035 0.00930051 0.197636 164 210 179
0.0030738 0.00920549 0.195617 157 209 172
0.00419484 0.0094221 0.20022 142 202 162
0.0051778 0.00930396 0.197709 174 217 190
0.00617158 0.0092414 0.19638 164 213 188
0.00718544 0.00922248 0.195978 156 205 178
0.00851369 0.00956137 0.203179 168 208 186
0.00939165 0.00937545 0.199228 168 208 189
0.0103102 0.00926316 0.196842 126 186 159
0.0116125 0.00948476 0.201551 161 196 174
0.0127933 0.00957842 0.203541 143 181 167
0.013558 0.00937011 0.199115 112 151 141
0.0143304 0.00919648 0.195425 93 113 111
0.0156051 0.00934692 0.198622 70 91 92
0.0161693 0.00907956 0.192941 64 74 77
0.0174469 0.00922063 0.195938 74 67 74
0.0186567 0.00931227 0.197886 70 61 72
0.0193141 0.00913298 0.194076 69 60 72
0.0206259 0.00926566 0.196895 68 57 71
0.0219076 0.00937277 0.199171 65 55 69
0.0225191 0.00919648 0.195425 62 52 66
0.0235427 0.00919648 0.195425 64 54 68
0.0251591 0.00941837 0.20014 63 52 68
0.0261309 0.00939088 0.199556 62 52 68
0.026759 0.00924674 0.196493 61 51 67
0.0281786 0.00937666 0.199254 64 54 69
0.029134 0.00934834 0.198652 63 53 68
0.0296811 0.0091955 0.195404 63 53 68
0.0316189 0.00946929 0.201222 63 52 68
0.0318364 0.00922688 0.196071 63 51 68
0.0330283 0.00927317 0.197055 60 49 65
0.0335346 0.00913003 0.194013 61 51 67
0.0348658 0.00921327 0.195782 61 51 67
0.0359443 0.00922688 0.196071 62 52 68
0.0370184 0.00923862 0.196321 60 51 67
0.0376254 0.00913633 0.194147 60 50 66
0.0389417 0.00920712 0.195651 58 48 65
0.0403964 0.00930617 0.197756 60 49 67
0.0407979 0.0091637 0.194729 60 50 67
0.042151 0.0092367 0.19628 58 48 65
0.0426229 0.00911772 0.193752 61 51 68
0.0446141 0.00932172 0.198087 60 49 66
0.0442527 0.00903608 0.192017 59 49 65
0.045435 0.00907132 0.192766 60 50 66
0.0470912 0.00919761 0.195449 59 50 65
0.0470592 0.00899579 0.19116 59 50 66
0.0474573 0.00888289 0.188761 61 52 68
0.0507053 0.00929715 0.197564 59 49 66
0.0501135 0.00900487 0.191353 62 53 69
0.0513299 0.00904259 0.192155 62 53 68
0.0528209 0.0091263 0.193934 58 50 65
0.0538644 0.009131 0.194034 62 53 69
0.0541253 0.00900531 0.191363 59 50 66
0.0550681 0.00899559 0.191156 57 48 65
0.0575689 0.00923618 0.196269 58 49 66
0.0569119 0.00897058 0.190625 59 51 67
0.0592939 0.0091849 0.195179 59 50 66
0.0604715 0.00920855 0.195682 57 47 64
0.0608473 0.00911134 0.193616 60 50 67
0.0612273 0.00901795 0.191632 59 48 65
0.0636991 0.00923069 0.196152 60 49 65
0.0631548 0.00900655 0.191389 59 48 65
0.0625909 0.00878666 0.186716 58 47 63
0.0661213 0.00913946 0.194214 60 49 65
0.0693712 0.00944338 0.200672 58 47 63
0.0687507 0.00921924 0.195909 58 46 63
0.069441 0.00917486 0.194966 59 47 63
0.0704622 0.00917486 0.194966 58 46 62
0.0710677 0.00912151 0.193832 57 45 60
0.0705913 0.00893275 0.189821 62 50 64
0.0751831 0.00938167 0.199361 56 44 61
0.0746082 0.0091824 0.195126 59 47 64
0.0770797 0.00935838 0.198866 64 50 66
0.0766523 0.0091824 0.195126 60 47 63
0.0776932 0.00918464 0.195174 58 44 61
0.0793676 0.00926072 0.19679 61 48 63
0.0801559 0.0092328 0.196197 60 46 61
0.0807988 0.00918905 0.195267 56 43 57
0.0816579 0.00917067 0.194877 58 44 57
0.0829504 0.0092008 0.195517 53 38 51
0.0819671 0.00898086 0.190843 52 35 50
0.0857992 0.00928747 0.197359 54 36 51
0.0845401 0.00904224 0.192148 55 38 53
0.0866016 0.00915375 0.194517 54 37 52
0.0891355 0.00931204 0.197881 53 36 50
0.0874894 0.00903501 0.191994 48 31 48
0.0914106 0.00933268 0.198319 51 33 50
0.0917742 0.00926452 0.196871 56 41 54
0.0921204 0.00919615 0.195418 60 47 60
0.0924002 0.00912271 0.193858 58 44 59
0.094527 0.00923125 0.196164 62 51 65
0.0950066 0.00917832 0.195039 63 54 66
0.0955313 0.00913083 0.19403 63 55 67
0.100092 0.00946602 0.201153 62 55 67
0.100684 0.00942281 0.200235 65 58 70
0.099248 0.00919268 0.195345 64 57 69
0.103787 0.00951505 0.202195 66 59 70
0.10218 0.00927307 0.197053 66 59 69
0.102348 0.00919539 0.195402 65 59 69
0.10577 0.00940874 0.199936 63 58 68
0.104333 0.00918996 0.195287 65 60 71
0.105724 0.0092221 0.19597 65 60 71
0.108927 0.00941011 0.199965 68 63 73
0.109252 0.00934834 0.198652 66 62 71
0.108014 0.00915516 0.194547 66 62 71
0.111035 0.00932324 0.198119 69 65 75
0.110839 0.00922063 0.195938 69 65 73
0.116943 0.00963919 0.204833 68 65 73
0.117232 0.00957518 0.203472 68 65 74
0.117021 0.00947182 0.201276 66 63 72
0.121448 0.00974238 0.207025 68 65 73
0.117134 0.00931317 0.197905 70 66 74
0.12476 0.00983247 0.20894 70 67 74
0.122352 0.00955887 0.203126 70 66 74
0.118401 0.00917046 0.194872 69 65 73
0.119615 0.00918531 0.195188 68 65 73
0.124752 0.00949854 0.201844 69 68 74
0.131693 0.00994281 0.211285 71 71 78
-0.148512 0.0123547 0.236283 65 58 62
-0.141922 0.0119056 0.227695 63 60 63
-0.145376 0.0122987 0.235213 62 58 62
-0.139569 0.0119084 0.227748 60 54 60
-0.14902 0.0128244 0.245267 62 57 62
-0.142143 0.012339 0.235983 62 57 62
-0.136556 0.0119579 0.228695 60 56 59
-0.135702 0.0119883 0.229276 59 55 58
-0.136925 0.0122044 0.233409 59 55 59
-0.135509 0.0121869 0.233075 60 55 60
-0.129604 0.0117618 0.224945 60 56 60
-0.131729 0.0120644 0.230731 60 55 58
-0.129482 0.0119684 0.228895 60 53 58
-0.12628 0.0117815 0.22532 61 55 60
-0.125761 0.0118438 0.226513 61 55 60
-0.127587 0.0121301 0.231989 63 58 63
-0.123122 0.0118183 0.226024 61 57 63
-0.119241 0.0115569 0.221025 58 54 60
-0.124808 0.012215 0.233611 63 59 65
-0.119666 0.0118276 0.226204 63 57 65
-0.12141 0.0121201 0.231797 63 57 66
