ply
format ascii 1.0
element vertex 1162
property float x
property float y
property float z
property uchar red
property uchar green
property uchar blue
end_header
-0.0985482 -0.0286417 0.238162 179 216 182
-0.0986285 -0.0290326 0.241412 178 217 189
-0.0957666 -0.0285562 0.237451 167 212 179
-0.0939036 -0.0283692 0.235896 174 209 171
-0.0910262 -0.0278665 0.231716 167 201 157
-0.0897463 -0.027846 0.231545 158 187 146
-0.0838931 -0.0263865 0.219409 155 181 144
-0.0825419 -0.0263221 0.218874 133 162 123
-0.082571 -0.0267022 0.222035 134 157 120
-0.0800666 -0.0262622 0.218376 116 133 101
-0.0825457 -0.0274678 0.2284 109 118 88
-0.0777789 -0.0262622 0.218376 97 98 74
-0.0767209 -0.0262916 0.21862 90 91 68
-0.0712047 -0.0247709 0.205976 82 80 63
-0.0762533 -0.0269354 0.223973 79 72 67
-0.0764133 -0.0274136 0.22795 79 71 67
-0.0667606 -0.0243309 0.202316 76 67 65
-0.0711869 -0.0263625 0.21921 72 59 58
-0.075867 -0.0285562 0.237451 71 57 58
-0.0712685 -0.0272725 0.226776 73 63 60
-0.0748588 -0.0291319 0.242238 71 63 60
-0.0712387 -0.0282011 0.234498 70 57 58
-0.0707556 -0.0285012 0.236994 73 61 60
-0.0707059 -0.0289898 0.241057 72 61 60
-0.0664894 -0.0277567 0.230803 73 61 62
-0.0757455 -0.0322063 0.267803 73 62 62
-0.0685297 -0.029688 0.246862 69 60 60
-0.0695703 -0.0307184 0.25543 72 62 64
-0.0661455 -0.0297789 0.247618 71 60 62
-0.0675053 -0.0309988 0.257762 70 60 62
-0.0694741 -0.032554 0.270694 69 59 61
-0.0687857 -0.0329029 0.273595 71 60 64
-0.071264 -0.0348137 0.289483 69 58 62
-0.0768486 -0.038358 0.318955 67 56 61
-0.0823108 -0.0419974 0.349217 68 58 63
-0.0944128 -0.049267 0.409665 66 57 62
-0.0898642 -0.0479839 0.398997 67 58 64
-0.10143 -0.0554492 0.461072 65 54 61
-0.101909 -0.0570699 0.474549 65 55 62
-0.104756 -0.0601307 0.5 63 52 60
-0.102137 -0.0601307 0.5 64 54 62
-0.0964282 -0.0582637 0.484476 64 54 62
-0.0968992 -0.0601307 0.5 61 50 58
-0.10687 -0.0681602 0.566767 62 52 59
-0.100621 -0.0660084 0.548874 61 52 60
-0.0890425 -0.0601307 0.5 63 52 61
-0.100455 -0.069893 0.581175 63 52 61
-0.0924375 -0.0663248 0.551505 61 50 60
-0.0891217 -0.0660084 0.548874 64 53 63
-0.0838271 -0.0641565 0.533475 60 49 59
-0.0830111 -0.0657228 0.546499 62 52 61
-0.0621786 -0.0509871 0.423969 62 51 61
-0.0622418 -0.0529293 0.440119 60 48 59
-0.0515636 -0.0455352 0.378635 61 50 61
-0.0475198 -0.0436428 0.362899 57 47 58
-0.0470565 -0.045018 0.374334 62 48 59
-0.0361352 -0.0360729 0.299954 62 48 59
-0.0345256 -0.0360326 0.299619 59 46 58
-0.0329097 -0.0359818 0.299196 62 48 60
-0.0297506 -0.0341542 0.284 62 47 59
-0.0272866 -0.0329742 0.274187 61 46 58
-0.0235916 -0.0300928 0.250228 63 48 58
-0.0230313 -0.0311062 0.258655 60 45 56
-0.0206951 -0.0296979 0.246945 62 46 59
-0.0198883 -0.0304427 0.253138 59 46 59
-0.0173786 -0.0285012 0.236994 58 47 59
-0.0165641 -0.0292552 0.243263 61 50 61
-0.0139272 -0.0266478 0.221582 62 52 59
-0.012076 -0.0252062 0.209595 65 57 65
-0.0110556 -0.0253841 0.211074 61 54 65
-0.00944098 -0.0240853 0.200275 65 59 69
-0.00858298 -0.0246335 0.204833 63 57 69
-0.00736392 -0.024154 0.200846 66 60 72
-0.00631932 -0.0241822 0.201081 65 59 71
-0.00545514 -0.0250503 0.208299 66 59 71
-0.00388743 -0.0223142 0.185547 68 62 73
-0.00320281 -0.0245125 0.203827 71 65 75
-0.00197682 -0.0226942 0.188707 72 66 79
-0.00101369 -0.0232746 0.193533 74 67 85
0 -0.0233681 0.194311 78 84 98
0.00102284 -0.0234846 0.19528 85 91 104
0.00197029 -0.0226192 0.188083 94 101 113
0.00298019 -0.0228087 0.189659 102 109 120
0.00409292 -0.0234937 0.195355 105 118 121
0.00500884 -0.0230009 0.191258 103 130 135
0.00597739 -0.0228738 0.1902 104 131 141
0.00691307 -0.0226752 0.188549 110 136 151
0.00814571 -0.0233785 0.194397 119 147 160
0.00904084 -0.0230645 0.191786 113 154 161
0.0099534 -0.0228533 0.19003 129 167 172
0.0107132 -0.0223616 0.185942 128 166 169
0.0123154 -0.0235638 0.195938 135 171 171
0.0125958 -0.0222464 0.184984 139 177 175
0.0138818 -0.0227665 0.189309 139 180 175
0.0146349 -0.0224014 0.186272 146 190 182
0.0158337 -0.0227216 0.188935 149 194 185
0.0166315 -0.0224626 0.186782 156 198 192
0.0173623 -0.0221468 0.184156 163 201 197
0.0187781 -0.0226921 0.18869 170 205 195
0.0189711 -0.0217791 0.181098 170 207 193
0.0210912 -0.0230601 0.191749 174 213 203
0.0213217 -0.0222524 0.185033 179 216 204
0.0233307 -0.0232904 0.193665 185 218 205
0.0235149 -0.0224962 0.187061 186 220 206
0.0246192 -0.0226106 0.188012 194 226 211
0.0247997 -0.0219003 0.182106 186 221 207
0.0267868 -0.022779 0.189412 175 213 198
0.0273516 -0.0224286 0.186499 167 209 183
0.0289577 -0.0229268 0.190641 174 210 186
0.0281607 -0.0215526 0.179214 171 208 183
0.0311148 -0.0230453 0.191627 177 215 193
0.0309653 -0.0222179 0.184747 187 222 200
0.0326544 -0.0227199 0.188921 188 221 199
0.0346631 -0.0234081 0.194643 170 210 180
0.0338062 -0.0221771 0.184408 163 211 180
0.0356152 -0.0227149 0.188879 177 219 198
0.0363509 -0.0225575 0.187571 180 221 199
0.0369645 -0.0223346 0.185717 167 213 185
0.038008 -0.0223763 0.186064 173 219 192
0.0409714 -0.0235179 0.195557 186 225 202
0.0403745 -0.02261 0.188007 177 222 196
0.0412552 -0.0225531 0.187534 175 219 190
0.0422006 -0.0225335 0.187371 161 210 174
0.0444923 -0.0232172 0.193056 177 219 191
0.0476802 -0.0243278 0.202291 198 229 212
0.0467211 -0.0233203 0.193913 167 211 185
0.0471941 -0.0230551 0.191708 168 211 183
0.0493055 -0.0235848 0.196112 193 226 205
0.0488539 -0.0228919 0.190351 206 234 217
0.05159 -0.0236905 0.196991 182 223 201
0.0537557 -0.0242009 0.201236 204 231 216
0.0547985 -0.024196 0.201195 172 215 190
0.0546355 -0.0236688 0.196812 193 228 206
0.0565044 -0.0240252 0.199775 184 223 199
0.0565242 -0.0235966 0.196211 185 224 197
0.0564781 -0.0231563 0.19255 185 224 197
0.059042 -0.0237828 0.197759 202 233 211
0.0590213 -0.0233646 0.194282 170 218 191
0.0589283 -0.0229324 0.190688 194 229 210
0.0615112 -0.0235386 0.195729 187 224 201
0.0643575 -0.0242241 0.201428 171 216 187
0.0649802 -0.024064 0.200097 177 219 194
0.0648979 -0.023652 0.196671 190 228 207
0.0654924 -0.0234957 0.195372 178 223 196
0.0676769 -0.0239059 0.198783 160 215 183
0.0671343 -0.0233549 0.194201 172 221 193
0.0690783 -0.0236725 0.196842 180 225 198
0.0699446 -0.0236169 0.19638 177 222 193
0.0705247 -0.0234677 0.195139 185 225 202
0.0690818 -0.0226591 0.188416 199 230 212
0.0752563 -0.0243367 0.202365 174 217 192
0.076109 -0.0242706 0.201816 201 231 211
0.0785416 -0.0247033 0.205413 193 228 206
0.0762861 -0.0236696 0.196818 173 217 190
0.0791584 -0.0242333 0.201505 172 217 189
0.0789742 -0.0238589 0.198392 186 224 199
0.0800134 -0.0238589 0.198392 169 217 187
0.0804732 -0.0236883 0.196974 189 227 203
0.0797079 -0.023166 0.192631 203 233 213
0.0804035 -0.0230761 0.191883 179 222 191
0.0818072 -0.0231891 0.192822 183 225 194
0.0849488 -0.023786 0.197786 195 231 205
0.0819535 -0.0226708 0.188513 206 234 213
0.0861202 -0.0235398 0.195739 173 217 188
0.0864109 -0.0233414 0.194089 192 229 205
0.0841213 -0.0224587 0.186749 192 230 204
0.085448 -0.0225507 0.187514 181 223 193
0.0863566 -0.0225315 0.187355 193 228 202
0.0879891 -0.0226995 0.188751 171 216 182
0.0877108 -0.0223763 0.186064 187 228 201
0.0894107 -0.0225593 0.187586 196 233 209
0.0889816 -0.022207 0.184656 197 232 207
0.0908146 -0.0224208 0.186434 175 220 186
0.090662 -0.022145 0.18414 175 219 185
0.0948476 -0.0229235 0.190614 190 229 202
0.0955043 -0.0228417 0.189934 181 224 193
0.0928304 -0.0219733 0.182713 189 225 198
0.0956435 -0.0224082 0.186329 188 226 198
0.0967594 -0.0224407 0.186599 179 223 191
0.0981121 -0.0225268 0.187316 185 224 196
0.0990274 -0.0225119 0.187191 199 231 209
0.0990547 -0.0222973 0.185407 186 226 200
0.102462 -0.0228403 0.189922 167 216 182
0.103396 -0.0228271 0.189812 170 216 182
0.102994 -0.0225216 0.187272 198 232 208
0.099185 -0.0214841 0.178645 203 233 212
0.106123 -0.0227722 0.189356 184 222 195
0.105552 -0.0224399 0.186592 161 212 182
0.10489 -0.0220945 0.18372 187 226 201
0.108747 -0.0226987 0.188745 179 222 190
0.109508 -0.0226518 0.188354 175 222 187
0.10894 -0.022333 0.185704 173 220 189
0.108679 -0.0220824 0.18362 189 226 200
0.108282 -0.0218087 0.181344 184 224 195
0.111268 -0.0222152 0.184724 187 227 196
0.116325 -0.0230247 0.191456 206 238 215
0.115961 -0.0227563 0.189224 203 236 215
0.114352 -0.0222505 0.185018 185 225 198
0.119406 -0.0230387 0.191572 179 215 182
-0.505272 -0.0924733 0.803887 193 223 190
-0.460558 -0.0849982 0.738905 190 223 187
-0.486939 -0.0906285 0.78785 190 224 188
-0.482812 -0.0906285 0.78785 191 224 189
-0.470384 -0.0890568 0.774187 191 224 189
-0.453993 -0.086701 0.753707 190 224 188
-0.479381 -0.0923525 0.802837 191 224 190
-0.428941 -0.0833666 0.724721 192 225 191
-0.419501 -0.0822599 0.7151 191 225 190
-0.433255 -0.0857222 0.745199 190 224 190
-0.429352 -0.0857222 0.745199 191 225 190
-0.402403 -0.0810788 0.704833 191 225 190
-0.367018 -0.0746338 0.648805 191 225 191
-0.325716 -0.0668541 0.581175 191 225 191
-0.268984 -0.0557305 0.484476 191 225 191
-0.23317 -0.0487703 0.423969 192 225 192
-0.18741 -0.039576 0.344042 188 224 189
-0.159241 -0.0339539 0.295167 191 225 191
-0.137711 -0.0296511 0.257762 189 224 189
-0.136833 -0.0297538 0.258655 189 224 190
-0.133033 -0.0292167 0.253986 190 224 190
-0.12084 -0.0268071 0.233039 188 224 189
-0.113006 -0.0253248 0.220153 189 225 191
-0.114867 -0.0260074 0.226087 191 225 193
-0.108711 -0.02487 0.2162 191 225 193
-0.112305 -0.0259627 0.225698 189 225 191
-0.106601 -0.024906 0.216513 189 225 191
-0.109604 -0.0258832 0.225007 189 225 191
-0.10576 -0.0252468 0.219475 188 225 190
-0.10072 -0.0243078 0.211312 186 224 189
-0.101037 -0.0246554 0.214334 188 225 191
-0.102722 -0.0253483 0.220357 189 225 192
-0.0978246 -0.024414 0.212235 186 224 190
-0.0998006 -0.0251934 0.219011 182 222 187
-0.0966473 -0.0246811 0.214557 183 222 189
-0.0941845 -0.0243351 0.211549 186 224 192
-0.0944506 -0.0246944 0.214673 187 224 190
-0.0920748 -0.0243633 0.211794 181 222 188
-0.0872885 -0.0233785 0.203233 181 223 191
-0.0893296 -0.0242205 0.210553 178 222 190
-0.0889355 -0.0244151 0.212245 182 223 191
-0.087508 -0.0243273 0.211481 183 221 189
-0.0867121 -0.0244151 0.212245 174 217 186
-0.0852243 -0.0243078 0.211312 177 218 188
-0.0834342 -0.0241103 0.209595 176 217 184
-0.0834784 -0.0244447 0.212503 177 218 185
-0.0791033 -0.0234766 0.204086 181 212 178
-0.0802804 -0.0241523 0.209961 177 207 165
-0.0753393 -0.0229806 0.199775 164 200 154
-0.0724584 -0.0224132 0.194842 157 191 143
-0.0740773 -0.0232413 0.202041 150 175 125
-0.0742819 -0.0236432 0.205535 131 153 107
-0.0729553 -0.0235625 0.204833 116 132 90
-0.0703897 -0.0230732 0.200579 110 115 85
-0.0720671 -0.0239809 0.208471 99 102 74
-0.0687537 -0.0232303 0.201946 94 98 77
-0.0694074 -0.0238176 0.207051 86 89 76
-0.0668307 -0.0232975 0.202529 78 77 67
-0.0688066 -0.0243731 0.21188 83 76 67
-0.0657004 -0.0236543 0.205632 81 73 65
-0.0664894 -0.0243374 0.211569 77 69 65
-0.0643804 -0.0239648 0.208331 78 71 66
-0.0588438 -0.0222816 0.193698 76 65 62
-0.0623453 -0.0240216 0.208824 76 64 62
-0.0600808 -0.0235625 0.204833 75 64 62
-0.0606601 -0.0242222 0.210568 71 60 60
-0.0607265 -0.0246978 0.214702 70 59 60
-0.0597711 -0.0247678 0.215311 70 60 61
-0.0596419 -0.0251896 0.218978 73 64 65
-0.0571342 -0.0246036 0.213884 69 59 60
-0.0574611 -0.0252392 0.219409 71 61 62
-0.0582936 -0.0261275 0.227131 69 59 62
-0.0582567 -0.0266549 0.231716 69 58 61
-0.060733 -0.0283792 0.246705 68 58 62
-0.059828 -0.028564 0.248312 70 60 63
-0.0651155 -0.0317793 0.276263 68 58 62
-0.0634417 -0.0316661 0.275279 66 56 62
-0.0664791 -0.0339539 0.295167 66 57 62
-0.06728 -0.0351811 0.305836 66 56 62
-0.0626147 -0.0335401 0.291571 64 53 60
-0.0650351 -0.0357076 0.310413 65 54 62
-0.0586593 -0.0330328 0.28716 65 55 62
-0.0612998 -0.0354281 0.307983 66 56 64
-0.0623765 -0.0370248 0.321863 61 51 59
-0.0573012 -0.034957 0.303887 63 53 61
-0.0608204 -0.038164 0.331767 62 53 62
-0.0639516 -0.041309 0.359107 63 52 61
-0.0561731 -0.0373841 0.324987 63 53 62
-0.0546737 -0.0375233 0.326197 63 54 62
-0.0555386 -0.0393465 0.342046 63 51 60
-0.0479079 -0.0350718 0.304886 61 49 59
-0.0441538 -0.0334382 0.290684 61 50 59
-0.0391809 -0.0307319 0.267158 59 47 58
-0.0367461 -0.0298896 0.259836 62 49 59
-0.0370698 -0.0313126 0.272206 60 48 58
-0.0331793 -0.0291474 0.253384 61 50 60
-0.030032 -0.0274819 0.238905 62 48 58
-0.0285793 -0.0272896 0.237233 61 46 56
-0.0273849 -0.0273377 0.237651 58 43 54
-0.0241215 -0.0252265 0.219299 60 45 56
-0.0217449 -0.0238781 0.207577 61 45 55
-0.021955 -0.0253778 0.220613 59 43 53
-0.0200016 -0.0244042 0.21215 59 43 53
-0.0186603 -0.0241069 0.209566 61 45 55
-0.0180342 -0.0247542 0.215193 60 42 53
-0.0163513 -0.0239406 0.20812 62 46 57
-0.0140959 -0.0221125 0.192228 61 47 57
-0.0138088 -0.0233285 0.202799 59 45 56
-0.0126212 -0.023099 0.200804 60 48 56
-0.0118016 -0.0235625 0.204833 62 53 61
-0.0103646 -0.0227628 0.197881 63 55 64
-0.00906392 -0.022118 0.192276 61 53 64
-0.00815339 -0.0223831 0.194581 60 54 65
-0.00702725 -0.0220475 0.191663 60 55 66
-0.00609459 -0.0223083 0.19393 67 60 72
-0.00491731 -0.0215989 0.187763 62 54 66
-0.00406434 -0.0223153 0.193991 61 55 67
-0.00309112 -0.0226291 0.196719 69 63 75
-0.00196432 -0.0215702 0.187514 69 62 75
-0.000997019 -0.0218966 0.190351 76 69 86
0 -0.0227172 0.197485 80 75 91
0.00103439 -0.0227172 0.197485 79 84 97
0.00203019 -0.0222935 0.193802 82 88 102
0.00290642 -0.021277 0.184965 92 99 113
0.00405475 -0.0222626 0.193533 94 105 118
0.00494277 -0.0217107 0.188735 99 112 124
0.00603446 -0.0220882 0.192017 103 121 134
0.00702846 -0.0220513 0.191696 99 123 136
0.00791684 -0.0217337 0.188935 102 131 141
0.00895806 -0.0218597 0.19003 108 138 147
0.00998785 -0.0219353 0.190688 111 142 151
0.0110975 -0.0221568 0.192613 122 157 161
0.0120621 -0.0220757 0.191908 119 159 160
0.0128548 -0.0217167 0.188787 129 166 168
0.0136294 -0.0213807 0.185866 138 172 174
0.0144031 -0.0210881 0.183323 143 177 170
0.0154315 -0.0211818 0.184137 146 179 173
0.0167833 -0.0216821 0.188487 143 188 182
0.0174501 -0.0212911 0.185087 153 194 189
0.0190389 -0.022007 0.191311 169 203 195
0.0195166 -0.0214312 0.186305 170 208 196
0.0204586 -0.0213958 0.185997 173 212 202
0.0211059 -0.0210695 0.183161 178 213 206
0.0221186 -0.0211204 0.183604 186 213 205
0.0236755 -0.0216651 0.188339 187 216 205
0.0238571 -0.020958 0.182192 196 223 209
0.0252488 -0.0213275 0.185404 190 223 207
0.0260601 -0.0211975 0.184274 193 227 211
0.0274776 -0.0215523 0.187358 195 228 210
0.0278865 -0.0211188 0.183589 197 224 206
0.0290477 -0.0212649 0.18486 187 220 201
0.0301732 -0.0213763 0.185828 187 223 205
0.0305908 -0.0209949 0.182512 182 219 197
0.0328085 -0.0218346 0.189812 183 217 193
0.0336481 -0.0217347 0.188944 192 224 203
0.0349381 -0.0219232 0.190582 174 216 189
0.0352049 -0.021477 0.186703 189 225 204
0.0366739 -0.0217685 0.189237 171 217 193
0.0386184 -0.0223194 0.194027 180 221 198
0.0393318 -0.0221489 0.192544 163 215 184
0.0384671 -0.0211204 0.183604 170 216 187
0.0406328 -0.0217654 0.18921 182 223 201
0.0417001 -0.0218052 0.189557 176 217 193
0.0426652 -0.0217911 0.189434 178 218 187
0.0424278 -0.0211773 0.184098 173 218 187
0.0458572 -0.0223804 0.194557 187 226 202
0.0440191 -0.0210163 0.182698 174 220 195
0.0474168 -0.0221568 0.192613 170 215 190
0.0483986 -0.0221444 0.192505 167 213 182
0.0473113 -0.0212052 0.18434 178 220 193
0.0510219 -0.0224109 0.194822 166 215 183
0.0517443 -0.0222825 0.193706 196 229 206
0.0531919 -0.0224654 0.195296 174 216 192
0.0528691 -0.0219078 0.190448 171 217 189
0.0550772 -0.0224001 0.194729 185 225 200
0.0565905 -0.0225971 0.196441 175 218 189
0.0546875 -0.0214473 0.186445 167 223 194
0.0569385 -0.0219384 0.190714 195 234 212
0.0573061 -0.0216993 0.188636 184 226 201
0.0597966 -0.0222586 0.193498 183 223 198
0.061735 -0.0225971 0.196441 184 221 197
0.0610283 -0.0219722 0.191008 193 227 205
0.0638183 -0.0226061 0.196519 184 225 200
0.0656092 -0.0228716 0.198827 181 225 200
0.0660442 -0.0226635 0.197018 190 228 205
0.0685191 -0.023151 0.201256 178 221 195
0.0672837 -0.0223892 0.194633 195 229 209
0.0672287 -0.022037 0.191572 182 225 198
0.0680775 -0.0219871 0.191138 205 235 216
0.0718979 -0.0228844 0.198938 176 221 195
0.0731685 -0.0229561 0.199562 177 220 195
0.0755277 -0.0233626 0.203095 178 220 198
0.0757476 -0.0231052 0.200857 190 228 209
0.0763584 -0.0229724 0.199703 195 230 210
0.0791748 -0.0234978 0.204271 199 231 212
0.0778917 -0.0228088 0.198281 172 217 190
0.0773499 -0.0223521 0.194311 196 228 207
0.0766412 -0.0218597 0.19003 190 227 205
0.0802326 -0.0225907 0.196385 202 233 213
0.0802325 -0.0223047 0.193899 188 227 201
0.0809802 -0.0222311 0.193259 182 224 195
0.0807125 -0.0218841 0.190242 179 219 188
0.0825998 -0.0221227 0.192317 182 221 192
0.0829246 -0.0219421 0.190747 188 224 200
0.0829505 -0.0216877 0.188535 183 221 195
0.0840818 -0.0217248 0.188858 197 231 211
0.0863703 -0.0220566 0.191742 202 235 215
0.0848856 -0.0214283 0.18628 177 221 194
0.0872847 -0.0217835 0.189368 189 225 199
0.0876285 -0.0216236 0.187978 175 215 184
0.0884901 -0.0215936 0.187717 195 231 209
0.088324 -0.0213162 0.185306 181 225 199
0.0918373 -0.0219232 0.190582 210 238 217
0.0929733 -0.0219557 0.190865 187 225 195
0.091897 -0.0214707 0.186649 204 232 209
0.0927583 -0.0214438 0.186415 198 234 210
0.0909488 -0.0208065 0.180874 182 226 198
0.093147 -0.0210897 0.183336 192 228 203
0.0976918 -0.021893 0.19032 188 226 198
0.0987924 -0.021916 0.19052 174 219 185
0.0975294 -0.0214195 0.186203 171 216 181
0.0981577 -0.021344 0.185547 186 224 199
0.0972484 -0.020939 0.182026 191 226 202
0.103657 -0.0221022 0.192138 181 222 194
0.103863 -0.021933 0.190668 178 221 190
0.104101 -0.0217741 0.189286 175 219 184
0.100601 -0.0208435 0.181196 181 222 189
0.102953 -0.0211313 0.183698 179 219 192
0.107246 -0.0218087 0.189587 163 213 182
0.102122 -0.0205762 0.178873 167 215 185
0.109688 -0.0218997 0.190378 171 216 184
0.106391 -0.02105 0.182992 204 233 211
0.110724 -0.0217118 0.188745 191 227 200
0.111201 -0.0216124 0.187881 175 219 186
0.113176 -0.0218033 0.18954 178 220 188
0.109232 -0.0208605 0.181344 181 223 191
0.112636 -0.0213252 0.185384 187 228 196
0.116376 -0.0218449 0.189902 204 236 211
0.114999 -0.0214034 0.186064 198 233 210
0.113117 -0.0208762 0.181481 170 220 184
-0.479289 -0.0837308 0.762549 191 223 189
-0.484904 -0.0854237 0.777965 191 223 188
-0.454964 -0.0808285 0.736117 190 223 188
-0.451109 -0.0808285 0.736117 191 224 188
-0.460404 -0.0832053 0.757762 191 224 189
-0.443397 -0.0808285 0.736117 192 225 190
-0.462274 -0.0850088 0.774187 192 224 191
-0.429938 -0.0797621 0.726405 192 224 190
-0.449508 -0.0841372 0.76625 190 224 189
-0.403912 -0.0762839 0.694728 191 224 190
-0.388914 -0.0741191 0.675013 191 225 190
-0.339575 -0.0653099 0.594786 192 225 192
-0.292572 -0.0567908 0.517202 191 225 191
-0.234728 -0.0459886 0.418825 191 225 191
-0.191014 -0.0377771 0.344042 190 224 190
-0.152426 -0.0304327 0.277155 190 224 190
-0.140411 -0.0283033 0.257762 188 224 189
-0.126848 -0.0258177 0.235125 191 225 191
-0.123562 -0.0253953 0.231279 191 225 192
-0.118019 -0.0244963 0.223091 189 224 190
-0.113872 -0.0238718 0.217404 191 225 191
-0.10983 -0.0232572 0.211806 190 225 191
-0.112296 -0.0240219 0.218771 190 225 191
-0.111137 -0.0240191 0.218746 190 225 191
-0.105836 -0.0231116 0.210481 189 225 191
-0.105345 -0.0232467 0.211711 188 224 191
-0.108441 -0.0241843 0.22025 189 225 191
-0.102192 -0.0230357 0.20979 189 225 191
-0.100327 -0.0228613 0.208201 188 225 190
-0.0995239 -0.0229274 0.208803 187 225 190
-0.0986826 -0.0229862 0.209339 188 225 191
-0.0977996 -0.0230365 0.209797 188 224 190
-0.0961354 -0.0229018 0.20857 186 225 191
-0.094184 -0.0226948 0.206685 187 225 191
-0.0931014 -0.0226948 0.206685 184 224 188
-0.0906522 -0.0223578 0.203616 185 224 189
-0.0901213 -0.0224914 0.204833 186 224 190
-0.0920418 -0.0232475 0.211718 186 224 191
-0.086884 -0.0222124 0.202291 182 223 190
-0.0896586 -0.0232047 0.211329 179 221 189
-0.0858298 -0.0224914 0.204833 181 222 190
-0.0855708 -0.0227074 0.2068 181 221 188
-0.0855249 -0.0229862 0.209339 182 221 190
-0.0828713 -0.0225623 0.205478 180 219 186
-0.0807922 -0.0222856 0.202959 179 220 186
-0.0783361 -0.0218963 0.199412 177 219 188
-0.0814622 -0.0230778 0.210172 183 219 188
-0.0792146 -0.0227484 0.207173 182 215 177
-0.0752771 -0.021918 0.19961 177 214 173
-0.0736283 -0.0217398 0.197988 170 208 163
-0.0725913 -0.0217398 0.197988 170 205 163
-0.0732152 -0.0222444 0.202583 159 193 146
-0.0723528 -0.0223057 0.203141 149 185 144
-0.0689038 -0.0215594 0.196345 154 182 144
-0.0706153 -0.0224297 0.204271 131 156 125
-0.068957 -0.02224 0.202543 106 120 89
-0.0655543 -0.0214729 0.195557 96 102 78
-0.0652698 -0.0217191 0.197799 97 103 79
-0.0647905 -0.0219073 0.199513 86 90 70
-0.0635264 -0.021832 0.198827 82 88 66
-0.0641805 -0.0224244 0.204222 78 82 68
-0.0627087 -0.0222815 0.202921 79 79 67
-0.0634328 -0.0229274 0.208803 76 70 61
-0.059042 -0.0217148 0.197759 79 72 69
-0.0587901 -0.0220082 0.200432 75 66 64
-0.0576628 -0.0219787 0.200163 76 66 66
-0.0567734 -0.0220405 0.200726 74 66 65
-0.0573373 -0.0226794 0.206544 72 64 64
-0.0548152 -0.0220987 0.201256 72 63 63
-0.0567289 -0.0233187 0.212366 73 65 65
-0.0526208 -0.0220626 0.200927 66 59 60
-0.0520649 -0.022275 0.202862 71 61 64
-0.0486721 -0.0212573 0.193593 68 58 60
-0.049653 -0.0221471 0.201697 72 62 64
-0.0490935 -0.0223736 0.203759 67 59 61
-0.0488113 -0.0227393 0.20709 68 61 64
-0.0510234 -0.0243101 0.221395 68 60 64
-0.0501525 -0.0244508 0.222677 69 59 65
-0.0494357 -0.0246752 0.224721 66 56 62
-0.0475344 -0.0243049 0.221348 66 55 61
-0.048159 -0.0252398 0.229863 65 55 62
-0.0472932 -0.0254217 0.231519 63 53 60
-0.0438867 -0.0242113 0.220496 65 56 62
-0.0454306 -0.0257404 0.234422 61 52 59
-0.0444744 -0.0258987 0.235863 63 54 61
-0.0449272 -0.0269098 0.245071 64 55 62
-0.0416971 -0.0257096 0.234141 64 52 61
-0.042406 -0.0269391 0.245338 63 52 61
-0.0395754 -0.0259265 0.236117 63 52 61
-0.0358214 -0.0242242 0.220613 61 49 58
-0.0351041 -0.0245305 0.223403 62 50 59
-0.0342471 -0.0247568 0.225464 61 49 58
-0.032263 -0.0241555 0.219987 58 45 55
-0.0323705 -0.0251336 0.228895 61 48 58
-0.0297754 -0.0240078 0.218643 60 47 57
-0.0275866 -0.0231327 0.210673 58 46 55
-0.0253413 -0.0221354 0.20159 61 46 54
-0.0246761 -0.0224914 0.204833 58 42 51
-0.0238275 -0.0227052 0.20678 58 43 54
-0.0214189 -0.021382 0.194729 59 43 54
-0.021093 -0.0221095 0.201354 60 43 54
-0.0203004 -0.0223986 0.203987 59 43 52
-0.0184686 -0.0215095 0.19589 60 44 53
-0.0176067 -0.0217119 0.197733 60 43 53
-0.0165854 -0.0217307 0.197905 59 40 50
-0.0160931 -0.0224914 0.204833 59 41 51
-0.0141916 -0.0212507 0.193533 58 42 52
-0.0137977 -0.0222501 0.202635 58 42 52
-0.0124146 -0.021688 0.197516 60 46 54
-0.0112992 -0.0215339 0.196112 60 47 55
-0.00984638 -0.0206417 0.187987 58 46 56
-0.00887077 -0.0206628 0.188179 59 48 58
-0.00816897 -0.0214066 0.194953 58 52 62
-0.00743391 -0.0222632 0.202755 61 55 66
-0.00591904 -0.0206809 0.188344 63 55 67
-0.00484888 -0.0203302 0.18515 62 53 65
-0.00396624 -0.0207868 0.189309 62 53 66
-0.0029242 -0.0204341 0.186096 62 55 68
-0.00192869 -0.0202163 0.184113 63 58 71
-0.000981121 -0.020568 0.187316 71 65 82
0 -0.0208661 0.19003 77 72 87
0.00101052 -0.0211844 0.192929 74 79 91
0.00197029 -0.0206523 0.188083 76 84 97
0.0029921 -0.0209085 0.190417 81 90 107
0.00403768 -0.0211613 0.192719 87 96 113
0.00502872 -0.0210842 0.192017 85 94 113
0.00610382 -0.0213265 0.194223 89 103 120
0.00693625 -0.0207729 0.189181 95 115 127
0.00789803 -0.0206966 0.188487 95 124 131
0.00874672 -0.0203738 0.185547 106 134 136
0.00929101 -0.0194774 0.177384 109 133 136
0.0106904 -0.0203738 0.185547 106 137 139
0.0118958 -0.0207818 0.189263 103 145 147
0.0126342 -0.0203738 0.185547 105 142 151
0.0136374 -0.0204208 0.185975 121 155 161
0.0147436 -0.0206054 0.187656 124 162 164
0.0151994 -0.0199148 0.181367 131 167 169
0.0168923 -0.020831 0.189711 139 175 177
0.0170551 -0.0198632 0.180897 143 182 177
0.0186163 -0.0205405 0.187065 148 187 179
0.0193069 -0.0202373 0.184304 151 196 180
0.0205898 -0.0205543 0.187191 159 202 187
0.0220053 -0.0209688 0.190966 169 206 195
0.022189 -0.0202246 0.184188 170 202 192
0.0237087 -0.0207093 0.188603 180 209 199
0.0251208 -0.021065 0.191842 187 215 200
0.0251627 -0.0202886 0.184772 185 217 200
0.0262402 -0.0203738 0.185547 188 221 204
0.0263325 -0.0197153 0.17955 192 224 206
0.0287459 -0.0207801 0.189247 204 228 210
0.0286972 -0.0200534 0.182629 200 227 210
0.0297989 -0.0201515 0.183523 194 228 210
0.0304599 -0.0199548 0.181731 191 227 207
0.0315158 -0.0200209 0.182333 187 224 201
0.0324034 -0.0199794 0.181955 184 220 196
0.0341812 -0.0204733 0.186453 189 224 202
0.035283 -0.0205462 0.187117 200 230 214
0.034918 -0.0197841 0.180177 185 223 202
0.0380662 -0.0210003 0.191252 181 220 198
0.0381734 -0.0205195 0.186874 189 225 202
0.0387625 -0.0203152 0.185014 187 223 199
0.0398751 -0.0203886 0.185682 196 228 210
0.041734 -0.020831 0.189711 200 230 214
0.0418217 -0.0203893 0.185689 191 227 205
0.0432187 -0.0205915 0.18753 190 226 200
0.0429225 -0.019996 0.182106 190 228 203
0.0455442 -0.020756 0.189028 172 219 191
0.0469482 -0.0209407 0.19071 183 223 201
0.0488986 -0.0213562 0.194494 174 217 191
0.0492471 -0.0210695 0.191883 177 219 193
0.0502255 -0.0210583 0.191781 174 220 188
0.0510172 -0.0209708 0.190984 176 221 187
0.052308 -0.0210879 0.192051 200 232 214
0.0521563 -0.02063 0.187881 180 222 201
0.0541233 -0.0210116 0.191356 182 222 196
0.0550937 -0.0209995 0.191245 162 213 177
0.0581057 -0.0217521 0.198099 191 232 211
0.0574516 -0.0211299 0.192433 176 226 200
0.0574042 -0.0207484 0.188959 179 223 194
0.0600479 -0.0213361 0.194311 182 222 193
0.0608212 -0.0212507 0.193533 181 221 196
0.0620835 -0.0213361 0.194311 188 225 202
0.0644439 -0.0217901 0.198445 181 224 195
0.0635617 -0.0211507 0.192622 180 224 195
0.0650775 -0.0213167 0.194134 194 228 207
0.066669 -0.021502 0.195822 177 216 189
0.068383 -0.0217207 0.197813 189 223 200
0.070347 -0.022011 0.200457 175 217 190
0.069719 -0.0214937 0.195746 195 230 210
0.0693572 -0.0210723 0.191908 198 231 213
0.0747107 -0.0223745 0.203768 177 218 194
0.0736071 -0.0217336 0.197931 195 228 210
0.0734042 -0.0213726 0.194643 190 228 209
0.0738426 -0.0212057 0.193124 172 220 194
0.077155 -0.0218575 0.19906 201 232 213
0.0774033 -0.0216355 0.197038 173 217 189
0.0787492 -0.0217221 0.197826 193 225 203
0.0769584 -0.0209524 0.190817 167 215 184
0.0813993 -0.0218774 0.19924 170 217 186
0.0793282 -0.0210509 0.191713 195 229 204
0.0797134 -0.0208887 0.190236 204 233 212
0.0807488 -0.0208987 0.190328 199 229 206
0.0820363 -0.020973 0.191004 179 219 191
0.0852819 -0.0215401 0.196169 169 214 185
0.0838179 -0.0209183 0.190506 165 212 176
0.0858804 -0.0211809 0.192898 199 232 210
0.0858876 -0.0209364 0.190671 201 234 215
0.0868 -0.0209156 0.190481 191 229 208
0.0872572 -0.0207868 0.189309 168 215 184
0.085774 -0.0202039 0.184 191 225 200
0.0871946 -0.0203103 0.184969 210 236 219
0.0892653 -0.0205641 0.187281 166 216 185
0.0924294 -0.0210616 0.191811 173 220 186
0.0904975 -0.0203997 0.185783 177 222 188
0.0919959 -0.0205168 0.18685 166 215 176
0.095101 -0.0209861 0.191123 200 234 211
0.0949443 -0.0207332 0.188821 194 232 208
0.095318 -0.0206002 0.187609 186 226 199
0.0975921 -0.0208765 0.190125 179 223 194
0.0938992 -0.0198836 0.181083 201 232 209
0.0968568 -0.0203048 0.184919 195 229 204
0.098431 -0.0204305 0.186064 188 226 199
0.0969614 -0.0199282 0.181489 188 226 201
0.0983722 -0.0200219 0.182342 201 231 212
0.104855 -0.0211361 0.19249 177 220 193
0.100854 -0.020136 0.183382 189 227 198
0.101645 -0.0201025 0.183076 185 225 195
0.106743 -0.0209134 0.190461 183 221 193
0.106082 -0.0205915 0.18753 189 226 200
0.105767 -0.0203421 0.185258 185 222 200
0.108075 -0.0205969 0.187579 194 226 202
0.109351 -0.0206523 0.188083 205 233 210
0.110336 -0.0206523 0.188083 204 232 210
0.110894 -0.020573 0.187361 170 216 183
0.113325 -0.0208396 0.189789 201 229 207
0.111096 -0.0202521 0.184439 192 227 204
0.116362 -0.0210292 0.191516 176 221 187
0.114211 -0.0204641 0.186369 202 234 208
0.116155 -0.020636 0.187935 217 244 227
0.11695 -0.0206026 0.187631 186 230 202
-0.526427 -0.0875865 0.837546 192 224 189
-0.506066 -0.0849063 0.811916 192 224 190
-0.471301 -0.0797436 0.762549 190 223 187
-0.482812 -0.0823896 0.78785 190 223 189
-0.465561 -0.0801307 0.76625 191 224 189
-0.478966 -0.0831547 0.795167 191 224 189
-0.439542 -0.0769795 0.736117 190 224 189
-0.456687 -0.0806901 0.771599 191 224 189
-0.426133 -0.0759639 0.726405 189 223 188
-0.367498 -0.0661016 0.632096 188 223 187
-0.364187 -0.0661016 0.632096 190 224 189
-0.325679 -0.0596545 0.570447 191 224 190
-0.236922 -0.0437987 0.418825 191 224 190
-0.174812 -0.0326187 0.311917 191 224 190
-0.137253 -0.0258522 0.247211 190 224 190
-0.133223 -0.0253321 0.242238 190 225 191
-0.125133 -0.0240226 0.229716 192 226 192
-0.125429 -0.0243131 0.232494 187 223 188
-0.121362 -0.0237554 0.227161 190 225 190
-0.115085 -0.0227497 0.217544 190 225 191
-0.105934 -0.0211502 0.202248 190 225 191
-0.112521 -0.0226924 0.216996 189 225 191
-0.110133 -0.0224373 0.214557 189 224 190
-0.109111 -0.0224582 0.214757 192 226 193
-0.105013 -0.02184 0.208845 190 225 191
-0.103839 -0.0218231 0.208683 189 225 191
-0.101155 -0.0214852 0.205453 190 225 191
-0.100366 -0.0215467 0.206041 190 225 191
-0.0972905 -0.0211136 0.201899 188 224 189
-0.0968251 -0.0212435 0.203141 187 225 190
-0.098901 -0.0219401 0.209802 186 224 189
-0.0954856 -0.0214204 0.204833 187 224 189
-0.0961549 -0.0218157 0.208612 187 225 190
-0.0953133 -0.0218733 0.209163 187 224 189
-0.0929893 -0.0215881 0.206436 186 225 190
-0.0936166 -0.0219894 0.210274 186 224 189
-0.0908513 -0.0215939 0.206492 186 224 190
-0.0876019 -0.0210725 0.201505 185 224 191
-0.0855343 -0.020826 0.199149 185 224 191
-0.0864142 -0.0213 0.203682 186 224 192
-0.0865633 -0.0216035 0.206583 185 224 190
-0.0871736 -0.0220312 0.210673 186 224 190
-0.0843927 -0.0216018 0.206567 184 223 191
-0.0819228 -0.0212419 0.203126 184 222 191
-0.0817554 -0.0214775 0.205378 184 223 193
-0.080254 -0.0213641 0.204295 176 219 185
-0.078177 -0.0210925 0.201697 177 220 186
-0.0757658 -0.0207219 0.198153 177 220 186
-0.0749531 -0.0207844 0.198751 173 218 182
-0.0731867 -0.0205804 0.1968 176 218 183
-0.0738355 -0.0210594 0.201381 178 212 176
-0.070975 -0.020537 0.196385 167 208 172
-0.0705173 -0.0207046 0.197988 151 200 159
-0.0713625 -0.0212655 0.203351 179 207 181
-0.0682605 -0.0206493 0.197459 137 180 142
-0.0682327 -0.0209585 0.200415 126 164 135
-0.0651711 -0.0203308 0.194414 114 145 108
-0.0679233 -0.0215258 0.20584 113 135 102
-0.0643834 -0.020733 0.198259 103 116 89
-0.0636452 -0.0208313 0.199199 94 101 81
-0.064046 -0.0213118 0.203794 88 95 77
-0.0611485 -0.0206925 0.197873 77 85 66
-0.0613894 -0.0211322 0.202077 73 80 63
-0.0599342 -0.0209933 0.200748 78 77 66
-0.0597238 -0.0212931 0.203616 77 70 68
-0.0577382 -0.0209595 0.200425 75 67 65
-0.0562764 -0.0208072 0.198968 77 69 68
-0.054962 -0.0207046 0.197988 76 68 66
-0.0550452 -0.0211347 0.202101 75 72 69
-0.0543411 -0.0212735 0.203427 74 70 67
-0.0519709 -0.0207525 0.198445 69 62 63
-0.0531209 -0.0216446 0.206976 72 64 66
-0.0500656 -0.0208247 0.199136 69 60 62
-0.0486642 -0.0206724 0.19768 69 60 62
-0.047964 -0.020818 0.199072 67 58 60
-0.0481093 -0.021345 0.204112 69 62 64
-0.0460136 -0.0208792 0.199657 69 61 64
-0.0444266 -0.0206279 0.197254 69 60 63
-0.0424833 -0.0201953 0.193117 69 60 64
-0.0444935 -0.0216667 0.207188 66 56 61
-0.0442553 -0.0220895 0.211231 65 54 60
-0.0420094 -0.0215061 0.205652 66 55 62
-0.0417801 -0.0219516 0.209912 66 54 61
-0.0383516 -0.0206948 0.197894 65 53 60
-0.0389644 -0.0216096 0.206641 63 55 61
-0.0377255 -0.0215202 0.205787 63 53 60
-0.0364777 -0.0214204 0.204833 65 54 61
-0.0348715 -0.0210978 0.201747 64 53 59
-0.035378 -0.0220731 0.211074 62 50 58
-0.0325834 -0.0209853 0.200672 63 51 59
-0.0345487 -0.0229928 0.219868 62 50 58
-0.0302179 -0.020804 0.198938 62 48 57
-0.0297759 -0.0212318 0.203029 60 46 56
-0.0281284 -0.0207999 0.198899 61 47 57
-0.0269986 -0.0207323 0.198253 61 47 57
-0.0266124 -0.0212531 0.203233 60 47 56
-0.025176 -0.0209438 0.200275 61 46 54
-0.0238979 -0.0207449 0.198373 62 47 56
-0.0227971 -0.0206889 0.197837 60 44 54
-0.0220038 -0.0209199 0.200046 56 39 50
-0.0196479 -0.019614 0.187559 58 41 50
-0.0193587 -0.0203424 0.194524 59 42 51
-0.0183684 -0.0203741 0.194828 57 39 48
-0.0185716 -0.0218113 0.20857 56 37 47
-0.016492 -0.0205794 0.19679 56 36 47
-0.0151941 -0.0202238 0.193391 58 39 49
-0.0141731 -0.0202124 0.193281 58 41 51
-0.0132856 -0.0204041 0.195114 58 43 52
-0.0121484 -0.0202124 0.193281 57 42 51
-0.01127 -0.0204556 0.195607 58 42 52
-0.00991559 -0.019797 0.189309 58 43 53
-0.0088588 -0.0196522 0.187925 58 43 54
-0.0081556 -0.0203538 0.194633 57 48 58
-0.00702169 -0.0200273 0.191511 60 52 62
-0.00578295 -0.0192432 0.184014 61 51 61
-0.00487244 -0.0194561 0.186049 59 47 58
-0.00398661 -0.0198987 0.190281 61 48 61
-0.0029609 -0.0197052 0.188431 61 51 64
-0.00201585 -0.0201237 0.192433 64 58 72
-0.000967778 -0.0193222 0.184768 67 62 78
0 -0.0194676 0.186159 71 66 81
0.00097506 -0.0194676 0.186159 74 75 88
0.00198947 -0.0198604 0.189915 71 78 92
0.0028876 -0.0192174 0.183767 68 80 96
0.00372512 -0.0185935 0.1778 74 89 104
0.0049324 -0.0196955 0.188339 82 89 109
0.00582664 -0.0193886 0.185404 83 95 115
0.00657833 -0.0187628 0.179419 80 101 116
0.00780998 -0.0194913 0.186385 85 109 119
0.00872098 -0.0193465 0.185001 98 121 125
0.00983911 -0.0196443 0.187848 103 124 129
0.0106368 -0.0193062 0.184615 97 126 130
0.0114557 -0.01906 0.182261 97 135 138
0.0125721 -0.0193084 0.184636 104 135 146
0.0130329 -0.0185863 0.177731 113 139 149
0.0139052 -0.0185082 0.176985 116 150 153
0.0160071 -0.0199743 0.191004 115 155 158
0.0162285 -0.0190594 0.182255 127 167 169
0.0171759 -0.0190514 0.182179 132 172 167
0.0186263 -0.0195728 0.187165 136 173 168
0.0193321 -0.0192987 0.184544 146 181 175
0.0200386 -0.0190514 0.182179 155 189 183
0.0216417 -0.0196403 0.18781 154 192 183
0.0219646 -0.0190667 0.182325 165 200 190
0.023463 -0.0195188 0.186649 168 201 192
0.024137 -0.0192763 0.18433 174 206 197
0.0249249 -0.0191399 0.183026 179 210 197
0.0263417 -0.0194787 0.186265 184 210 198
0.0262574 -0.0187229 0.179038 194 217 204
0.0283984 -0.0195513 0.186959 203 225 209
0.0293219 -0.0195142 0.186604 201 227 209
0.0301658 -0.0194283 0.185783 195 227 209
0.030225 -0.018858 0.18033 197 229 210
0.0323341 -0.0195626 0.187068 204 232 213
0.0333195 -0.0195659 0.187099 194 224 203
0.0343658 -0.0196037 0.18746 198 227 207
0.0357977 -0.0198533 0.189847 192 225 207
0.0364705 -0.0196798 0.188188 184 222 202
0.0371227 -0.0195045 0.186512 189 223 200
0.0385504 -0.0197353 0.188719 183 218 190
0.0384591 -0.0191964 0.183565 182 218 190
0.0390592 -0.0190204 0.181883 193 226 204
0.042229 -0.0200743 0.191961 186 225 202
0.0424723 -0.0197205 0.188577 182 223 199
0.0434103 -0.0196979 0.188361 186 224 198
0.044767 -0.0198621 0.189931 183 224 197
0.0452354 -0.0196336 0.187746 177 220 192
0.0468057 -0.019883 0.190131 193 227 206
0.0469514 -0.0195293 0.186749 183 221 198
0.0478972 -0.0195162 0.186623 188 224 202
0.0510535 -0.0203862 0.194943 177 222 195
0.0491931 -0.0192581 0.184156 172 219 189
0.0550344 -0.0211305 0.202061 190 230 206
0.0536494 -0.0202101 0.193259 171 222 194
0.0541158 -0.0200083 0.191329 189 225 201
0.0556494 -0.0202012 0.193174 164 213 178
0.0565323 -0.0201553 0.192735 205 234 215
0.0546405 -0.019139 0.183017 207 237 220
0.0577962 -0.0198953 0.190249 199 233 212
0.0595053 -0.0201365 0.192555 186 225 202
0.0596853 -0.0198608 0.189918 181 223 202
0.0605375 -0.0198141 0.189472 189 226 205
0.0627653 -0.0202119 0.193277 193 228 202
0.064132 -0.0203242 0.19435 174 218 185
0.0655853 -0.02046 0.195649 178 219 189
0.0658023 -0.0202119 0.193277 173 214 185
0.0664687 -0.0201073 0.192276 176 213 185
0.0662941 -0.0197551 0.188909 188 221 201
0.0696843 -0.02046 0.195649 172 220 197
0.0709238 -0.0205222 0.196243 164 215 189
0.0705659 -0.0201269 0.192464 182 220 198
0.0736668 -0.0207154 0.198091 157 210 180
0.072683 -0.0201549 0.192731 185 223 200
0.0736211 -0.0201354 0.192544 202 234 215
0.0753853 -0.0203393 0.194494 183 226 201
0.0791402 -0.0210676 0.201459 193 226 202
0.0785305 -0.0206303 0.197277 190 224 196
0.0767267 -0.0198946 0.190242 189 222 195
0.0800968 -0.0205022 0.196052 185 224 196
0.0785073 -0.019841 0.189729 172 215 182
0.0840632 -0.0209795 0.200617 197 228 204
0.0803416 -0.0198032 0.189368 204 233 212
0.0841829 -0.020497 0.196003 197 230 208
0.0824929 -0.0198435 0.189754 169 216 186
0.0823667 -0.0195773 0.187208 163 211 173
0.0846039 -0.0198725 0.19003 170 218 185
0.0846556 -0.0196534 0.187935 175 222 194
0.0868334 -0.0199273 0.190554 187 228 204
0.0878315 -0.0199273 0.190554 169 217 189
0.0864954 -0.0194036 0.185547 167 211 176
0.0899062 -0.0199447 0.190721 201 230 206
0.0912367 -0.0200174 0.191417 204 235 213
0.0904442 -0.0196279 0.187691 190 230 204
0.0888367 -0.0190717 0.182373 181 225 193
0.0910176 -0.019332 0.184862 176 216 182
0.0912276 -0.0191727 0.183339 188 227 199
0.0948294 -0.019722 0.188592 182 223 194
0.0935489 -0.0192552 0.184127 186 226 198
0.0939478 -0.0191399 0.183026 178 222 191
0.0979632 -0.0197564 0.188921 191 227 200
0.0980924 -0.0195846 0.187278 191 226 199
0.0973042 -0.0192349 0.183934 194 231 205
0.0964951 -0.018888 0.180616 166 217 182
0.100801 -0.0195393 0.186844 176 219 192
0.100789 -0.0193491 0.185026 185 223 199
0.102045 -0.0194036 0.185547 201 232 212
0.100931 -0.0190107 0.18179 180 222 197
0.103062 -0.0192306 0.183893 182 224 197
0.107254 -0.0198276 0.189601 186 226 199
0.105771 -0.0193741 0.185265 162 214 180
0.108149 -0.0196296 0.187708 177 218 189
0.108295 -0.019479 0.186268 181 220 192
0.11082 -0.0197551 0.188909 195 227 204
0.113294 -0.0200174 0.191417 176 218 188
0.106966 -0.0187336 0.17914 175 217 185
0.113895 -0.0197737 0.189086 187 224 202
0.110702 -0.0190536 0.1822 171 218 182
0.110427 -0.0188439 0.180195 202 233 209
0.115101 -0.019475 0.18623 203 238 218
0.11522 -0.0193313 0.184856 202 238 217
-0.505272 -0.0798633 0.803887 194 224 186
-0.506066 -0.080661 0.811916 190 223 187
-0.476895 -0.0766556 0.771599 189 223 187
-0.467307 -0.0757565 0.762549 188 222 187
-0.452771 -0.0740328 0.745199 191 224 189
-0.461548 -0.0761242 0.76625 192 225 191
-0.441207 -0.0734075 0.738905 189 223 188
-0.423247 -0.0710426 0.7151 189 223 188
-0.407551 -0.0690188 0.694728 190 223 189
-0.38594 -0.0659479 0.663817 190 224 189
-0.29799 -0.0513821 0.517202 191 225 191
-0.225435 -0.0392282 0.394863 192 225 192
-0.198664 -0.0348899 0.351194 191 224 190
-0.157835 -0.0279783 0.281624 189 224 189
-0.141816 -0.0253761 0.25543 191 225 191
-0.132026 -0.0238492 0.240061 192 225 193
-0.118956 -0.0216949 0.218376 190 225 190
-0.117443 -0.0216269 0.217692 187 223 188
-0.116772 -0.0217142 0.218571 190 225 191
-0.114878 -0.0215734 0.217153 191 225 192
-0.111567 -0.0211611 0.213004 190 225 191
-0.11151 -0.0213639 0.215045 192 225 192
-0.112373 -0.021749 0.218921 190 225 191
-0.105001 -0.0205317 0.206667 190 225 192
-0.100345 -0.0198258 0.199562 190 225 191
-0.100783 -0.0201219 0.202543 190 225 190
-0.101681 -0.0205172 0.206521 191 225 191
-0.097193 -0.0198224 0.199528 189 224 190
-0.0997117 -0.0205571 0.206923 188 224 190
-0.0995796 -0.0207555 0.20892 188 225 190
-0.098903 -0.0208435 0.209806 190 226 192
-0.0952579 -0.0203009 0.204344 190 225 192
-0.0924226 -0.0199205 0.200515 188 225 191
-0.091587 -0.0199673 0.200986 188 225 190
-0.092267 -0.0203494 0.204833 187 225 190
-0.088997 -0.0198591 0.199898 186 225 190
-0.0903459 -0.0204001 0.205343 186 224 190
-0.0874746 -0.0199898 0.201213 186 225 191
-0.0882059 -0.0204027 0.205369 183 224 189
-0.0862035 -0.0201857 0.203185 185 224 190
-0.0828117 -0.0196339 0.19763 184 224 188
-0.0840809 -0.0201871 0.203199 185 224 189
-0.0832417 -0.0202418 0.20375 183 222 190
-0.0798505 -0.0196694 0.197988 180 220 189
-0.0833441 -0.0208001 0.209369 178 219 187
-0.0773589 -0.0195638 0.196925 182 221 188
-0.0795785 -0.0203971 0.205313 181 221 186
-0.0759913 -0.0197444 0.198743 179 222 190
-0.0751378 -0.0197938 0.19924 178 220 189
-0.0735724 -0.0196544 0.197837 177 220 188
-0.073271 -0.0198535 0.199842 180 218 188
-0.0732094 -0.0201243 0.202567 166 208 173
-0.0698716 -0.0194893 0.196175 152 200 161
-0.0698212 -0.0197659 0.198959 182 214 190
-0.068673 -0.0197354 0.198652 142 191 159
-0.0682316 -0.0199102 0.200412 129 182 157
-0.0659664 -0.01955 0.196786 140 188 156
-0.0639952 -0.0192668 0.193936 147 186 148
-0.0645832 -0.0197575 0.198875 128 161 131
-0.0632263 -0.0196595 0.197888 114 136 112
-0.0627577 -0.019839 0.199695 99 119 87
-0.0613605 -0.0197261 0.198558 97 115 85
-0.0601147 -0.0196588 0.197881 86 99 74
-0.0591596 -0.0196858 0.198153 79 88 70
-0.0585117 -0.0198179 0.199483 77 85 79
-0.0573993 -0.0197946 0.199249 77 84 78
-0.05696 -0.0200069 0.201385 77 74 70
-0.0547907 -0.019608 0.19737 76 71 67
-0.0527865 -0.0192541 0.193808 74 74 69
-0.0515965 -0.0191891 0.193153 75 72 68
-0.052128 -0.0197745 0.199045 71 65 64
-0.0488067 -0.0188924 0.190167 74 67 67
-0.0497614 -0.0196632 0.197926 71 64 65
-0.0485712 -0.0196013 0.197303 70 63 65
-0.0474036 -0.019546 0.196745 69 62 64
-0.0465044 -0.0196013 0.197303 68 61 63
-0.0458604 -0.0197692 0.198992 68 60 62
-0.0456083 -0.0201177 0.202501 69 60 64
-0.0441453 -0.019936 0.200672 68 60 64
-0.0424343 -0.0196307 0.197599 66 56 61
-0.0422767 -0.0200468 0.201787 68 57 63
-0.0400779 -0.0194915 0.196197 68 59 64
-0.0386387 -0.019286 0.194129 65 53 60
-0.0391937 -0.0200918 0.20224 63 51 58
-0.0374945 -0.0197546 0.198846 66 56 62
-0.0356375 -0.0193127 0.194397 65 54 61
-0.0358513 -0.02 0.201316 63 52 59
-0.0360408 -0.020715 0.208513 64 53 60
-0.0342053 -0.0202744 0.204078 63 52 58
-0.0328894 -0.0201233 0.202556 63 51 59
-0.0319551 -0.0202033 0.203362 63 51 58
-0.0301431 -0.0197148 0.198445 63 49 57
-0.0288306 -0.0195298 0.196583 63 49 57
-0.0277472 -0.0194921 0.196203 59 46 55
-0.0274546 -0.0200284 0.201601 60 47 56
-0.0258373 -0.0196024 0.197314 62 48 57
-0.0256715 -0.0202882 0.204216 60 45 53
-0.0234357 -0.0193265 0.194536 62 45 54
-0.0227275 -0.0195944 0.197233 61 44 54
-0.0208725 -0.0188521 0.189761 64 46 56
-0.0206327 -0.0195672 0.19696 59 40 50
-0.0189115 -0.0188788 0.19003 60 41 50
-0.0182945 -0.0192775 0.194044 59 40 49
-0.0174365 -0.0194542 0.195822 56 37 47
-0.0164594 -0.0195118 0.196401 55 35 46
-0.0149301 -0.0188788 0.19003 56 37 48
-0.0136408 -0.0184806 0.186022 60 42 52
-0.0134078 -0.0195621 0.196908 55 40 49
-0.0120756 -0.0190868 0.192123 60 44 54
-0.0110569 -0.0190654 0.191908 58 42 52
-0.00972701 -0.0184494 0.185708 59 41 51
-0.00915572 -0.0192954 0.194223 56 38 49
-0.00799798 -0.0189624 0.190872 56 40 51
-0.00704147 -0.0190796 0.192051 58 41 52
-0.00593164 -0.0187511 0.188745 58 42 52
-0.00500914 -0.0190019 0.191269 58 44 55
-0.00390878 -0.0185347 0.186566 60 41 55
-0.0029312 -0.0185322 0.186541 60 45 57
-0.00197224 -0.018704 0.18827 67 57 69
-0.000988013 -0.0187399 0.188631 66 56 73
0 -0.0186854 0.188083 66 60 75
0.000974757 -0.0184884 0.186101 73 72 86
0.00193501 -0.0183509 0.184716 67 72 88
0.00288315 -0.0182285 0.183484 68 80 95
0.00389876 -0.0184872 0.186088 70 84 100
0.00490136 -0.018593 0.187153 75 83 102
0.00592364 -0.0187258 0.18849 78 89 109
0.00693781 -0.0187987 0.189224 75 95 112
0.00775349 -0.0183828 0.185037 79 101 115
0.00897169 -0.0189076 0.19032 83 105 115
0.00980331 -0.0185942 0.187165 87 107 118
0.0104628 -0.018041 0.181597 91 113 122
0.0115403 -0.0182407 0.183607 92 116 123
0.0124193 -0.01812 0.182392 98 119 132
0.0133589 -0.0180986 0.182177 105 126 138
0.0144285 -0.0182446 0.183646 109 131 142
0.0150589 -0.0178516 0.179691 112 140 150
0.0162213 -0.0180984 0.182175 115 149 154
0.0178993 -0.0188611 0.189852 125 159 159
0.0179125 -0.0178816 0.179992 124 163 161
0.019388 -0.0183868 0.185078 136 172 170
0.0199696 -0.0180366 0.181552 139 171 170
0.0207626 -0.0179004 0.180182 151 178 175
0.0222559 -0.0183536 0.184744 147 188 182
0.0233679 -0.0184676 0.185891 154 192 187
0.0235832 -0.0178923 0.1801 157 195 190
0.0251314 -0.0183335 0.184542 168 201 195
0.026098 -0.0183335 0.184542 177 203 198
0.0269365 -0.0182468 0.183669 190 212 203
0.0287364 -0.0187948 0.189184 192 216 205
0.0294648 -0.0186288 0.187514 189 216 204
0.0303933 -0.018596 0.187183 189 218 203
0.0306414 -0.018162 0.182814 188 223 204
0.0319574 -0.018368 0.184888 197 228 209
0.0325472 -0.0181568 0.182762 201 228 209
0.0332647 -0.0180268 0.181454 202 228 209
0.0347345 -0.0183005 0.184209 205 231 216
0.0360665 -0.0184887 0.186103 196 228 210
0.0367266 -0.0183316 0.184522 183 218 193
0.0384305 -0.0186903 0.188132 174 213 177
0.0394793 -0.0187203 0.188435 183 218 187
0.0411914 -0.0190557 0.191811 191 227 205
0.0414879 -0.0187359 0.188592 196 229 210
0.0415544 -0.0183296 0.184502 195 228 208
0.0438373 -0.0188971 0.190214 186 224 202
0.0436495 -0.018398 0.18519 181 222 198
0.0456962 -0.0188419 0.189659 182 221 194
0.0478593 -0.019314 0.19441 198 228 206
0.04787 -0.0189159 0.190403 201 230 211
0.0486737 -0.0188409 0.189649 181 220 197
0.0502726 -0.0190706 0.191961 193 228 207
0.0504491 -0.0187623 0.188858 169 216 188
0.0519728 -0.0189573 0.19082 202 235 214
0.0530313 -0.0189784 0.191033 178 225 197
0.0538908 -0.0189289 0.190534 185 224 199
0.0544271 -0.0187696 0.188931 178 218 192
0.05639 -0.0190993 0.19225 165 209 182
0.0554741 -0.0184595 0.185809 179 216 196
0.0595955 -0.019489 0.196172 203 232 216
0.0588504 -0.0189191 0.190436 179 222 198
0.0604934 -0.0191232 0.19249 188 227 205
0.0612375 -0.0190411 0.191663 189 226 204
0.0620774 -0.0189909 0.191158 198 229 209
0.0636278 -0.0191562 0.192822 192 227 202
0.0646378 -0.0191562 0.192822 182 222 194
0.0667055 -0.0194649 0.19593 191 226 205
0.0670024 -0.0192553 0.19382 170 215 190
0.0666158 -0.0188584 0.189825 181 220 199
0.0690328 -0.0192553 0.19382 183 224 203
0.0698974 -0.0192139 0.193403 182 223 200
0.0708812 -0.019206 0.193324 195 226 207
0.0717385 -0.0191645 0.192906 169 214 187
0.0737531 -0.019429 0.195569 165 213 181
0.0753661 -0.019582 0.197108 199 233 213
0.075307 -0.0193022 0.194292 182 227 203
0.0761848 -0.0192668 0.193936 187 223 198
0.0795793 -0.0198605 0.199912 190 224 197
0.078033 -0.0192217 0.193481 180 217 187
0.0762746 -0.0185477 0.186697 204 233 214
0.078474 -0.0188409 0.189649 169 217 186
0.0794716 -0.0188419 0.189659 167 214 179
0.0813108 -0.01904 0.191653 167 214 180
0.0797422 -0.018445 0.185663 193 228 204
0.0844742 -0.0193041 0.194311 182 224 196
0.0803293 -0.0181384 0.182577 188 226 199
0.083802 -0.0186999 0.188229 201 232 208
0.0832773 -0.0183667 0.184876 201 232 209
0.08349 -0.018202 0.183217 172 218 188
0.0873149 -0.0188196 0.189434 182 224 198
0.0854669 -0.0182143 0.183341 170 214 177
0.0878301 -0.0185099 0.186317 173 213 174
0.0900124 -0.0187614 0.188848 174 220 186
0.0904246 -0.0186424 0.187651 196 233 210
0.0924839 -0.018862 0.189861 176 221 192
0.0916285 -0.0184887 0.186103 178 217 185
0.0915405 -0.0182765 0.183967 189 226 198
0.0944488 -0.0186607 0.187835 210 237 218
0.0955588 -0.0186854 0.188083 178 225 195
0.0967541 -0.0187261 0.188493 186 225 196
0.098254 -0.0188243 0.189481 191 228 200
0.093693 -0.017771 0.178879 179 222 191
0.098414 -0.0184816 0.186032 186 227 199
0.0976794 -0.0181638 0.182833 189 229 202
0.0992121 -0.0182697 0.183899 198 231 207
0.100724 -0.0183697 0.184905 190 226 201
0.104125 -0.0188092 0.18933 194 228 206
0.102871 -0.0184073 0.185284 180 221 196
0.105049 -0.0186213 0.187438 176 220 192
0.104731 -0.018393 0.185141 199 232 210
0.103875 -0.0180753 0.181943 182 225 197
0.105928 -0.0182651 0.183853 186 226 203
0.106556 -0.0182079 0.183277 182 224 200
0.107078 -0.0181336 0.182529 191 228 205
0.11008 -0.0184771 0.185986 204 233 212
0.111956 -0.0186272 0.187497 180 220 191
0.114252 -0.0188438 0.189678 182 222 197
0.115678 -0.0189146 0.19039 166 215 181
0.116076 -0.0188174 0.189412 168 217 183
0.113454 -0.0182366 0.183565 179 222 194
0.111948 -0.0178432 0.179606 211 237 225
-0.499791 -0.0748393 0.795167 196 225 185
-0.439321 -0.0663372 0.704833 191 224 189
-0.491461 -0.0748393 0.795167 190 224 188
