ply
format ascii 1.0
element vertex 1216
property float x
property float y
property float z
property uchar red
property uchar green
property uchar blue
end_header
0.00537021 -0.0303787 0.17088 58 44 61
0.00630277 -0.0305606 0.171904 59 44 61
0.00708752 -0.03007 0.169144 58 45 61
0.00813815 -0.0306911 0.172637 59 45 61
0.00903852 -0.0306779 0.172563 59 46 62
0.00976244 -0.0301227 0.16944 59 45 62
0.0109325 -0.030922 0.173936 58 41 60
0.0118108 -0.0308365 0.173455 60 45 62
0.0126622 -0.030698 0.172676 60 45 62
0.013552 -0.0306649 0.17249 59 43 61
0.0144431 -0.0306387 0.172343 58 42 60
0.0153458 -0.0306387 0.172343 59 43 61
0.0162452 -0.0306325 0.172308 56 40 59
0.0170867 -0.0305234 0.171694 57 41 59
0.0178307 -0.0302599 0.170212 57 41 60
0.0191515 -0.0309537 0.174114 57 40 59
0.0191923 -0.0296096 0.166554 57 40 59
0.0206541 -0.0304794 0.171447 58 41 60
0.0214245 -0.030299 0.170432 58 42 59
0.022203 -0.030144 0.16956 58 40 58
0.0232577 -0.0303615 0.170783 57 38 57
0.0242366 -0.0304675 0.17138 57 40 59
0.0248243 -0.0300918 0.169267 57 39 59
0.0259263 -0.0303439 0.170685 57 39 58
0.0267461 -0.0302599 0.170212 56 38 57
0.0275126 -0.030123 0.169442 58 41 58
0.0284695 -0.0301966 0.169856 59 41 58
0.0299829 -0.0308382 0.173465 56 37 56
0.0305959 -0.0305431 0.171805 57 39 57
0.031162 -0.0302194 0.169984 57 40 58
0.0314683 -0.0296688 0.166887 58 41 58
0.0333204 -0.0305659 0.171933 58 39 57
0.0338217 -0.0302093 0.169927 58 39 57
0.0346623 -0.0301662 0.169685 57 40 57
0.0355381 -0.0301553 0.169623 58 41 58
0.0362963 -0.0300475 0.169017 57 37 55
0.0364576 -0.0294624 0.165726 57 38 55
0.0388911 -0.030698 0.172676 57 38 56
0.0396577 -0.0305917 0.172078 57 38 56
0.040241 -0.0303518 0.170729 57 38 56
0.04118 -0.0303849 0.170915 56 37 55
0.041758 -0.0301558 0.169626 57 37 55
0.0429276 -0.0303546 0.170745 56 35 54
0.04376 -0.0303117 0.170503 56 34 53
0.0445863 -0.0302664 0.170248 56 36 54
0.0448243 -0.0298313 0.167801 57 36 54
0.0467499 -0.0305145 0.171644 56 33 53
0.0472135 -0.0302357 0.170076 55 31 52
0.0484876 -0.0304765 0.17143 57 37 54
0.0502493 -0.0310096 0.174429 57 37 54
0.0495641 -0.0300406 0.168978 57 35 53
0.0515942 -0.0307224 0.172814 56 32 51
0.0503267 -0.0294509 0.165662 56 31 51
0.0528995 -0.0304319 0.171179 56 29 50
0.0530336 -0.0300005 0.168753 54 25 48
0.0547334 -0.0304545 0.171307 54 23 46
0.0562016 -0.030767 0.173065 54 22 45
0.0567555 -0.0305771 0.171996 53 21 43
0.0584314 -0.0309881 0.174308 51 19 40
0.0578667 -0.0302165 0.169968 51 18 38
0.0596151 -0.0306578 0.17245 51 18 39
0.0606718 -0.0307356 0.172888 50 17 38
0.0604402 -0.030168 0.169695 51 19 40
0.0632706 -0.031123 0.175067 51 19 39
0.0648113 -0.0314255 0.176768 52 20 41
0.0644667 -0.0308181 0.173352 53 20 42
0.0653501 -0.0308065 0.173287 54 22 44
0.0675464 -0.0314057 0.176657 55 27 47
0.0670284 -0.0307437 0.172933 56 29 48
0.0698003 -0.0315882 0.177684 56 30 49
0.0677359 -0.0302506 0.17016 58 35 51
0.0698548 -0.0307918 0.173204 60 39 54
0.0700787 -0.0304944 0.171531 59 39 54
0.0708341 -0.030433 0.171185 59 41 56
0.070455 -0.0298917 0.168141 61 45 57
0.0713357 -0.0298917 0.168141 60 43 56
0.072274 -0.0299155 0.168275 62 47 59
0.0735771 -0.030088 0.169245 60 44 57
0.0737241 -0.0297892 0.167564 61 47 59
0.0754352 -0.030122 0.169436 60 46 58
0.0748829 -0.0295538 0.16624 60 46 57
0.0753391 -0.029392 0.16533 60 46 57
0.0802307 -0.0309447 0.174064 60 46 57
0.0764189 -0.0291434 0.163931 60 47 58
0.0790044 -0.0297946 0.167595 60 46 57
0.0802194 -0.0299204 0.168302 61 47 59
0.0813539 -0.0300137 0.168827 60 45 58
0.0824674 -0.0300973 0.169298 60 46 58
0.0800494 -0.0289041 0.162586 59 46 58
0.0819385 -0.0292748 0.164671 58 43 56
0.0813942 -0.0287774 0.161873 58 43 56
0.0861179 -0.0301336 0.169501 59 45 57
0.0839553 -0.0290771 0.163559 61 48 59
0.0865189 -0.0296623 0.16685 60 47 58
0.0876952 -0.0297649 0.167428 60 46 57
0.0884668 -0.0297295 0.167229 61 48 58
0.0872226 -0.029024 0.16326 62 49 60
0.088069 -0.0290212 0.163244 60 47 58
0.0883837 -0.0288448 0.162252 60 47 58
0.0910377 -0.029428 0.165533 61 49 59
0.0932994 -0.0298746 0.168045 62 49 60
0.0940022 -0.0298183 0.167728 61 48 59
0.0940376 -0.0295533 0.166238 61 47 58
0.094995 -0.0295803 0.166389 62 48 58
0.0977717 -0.0301682 0.169696 62 49 60
0.0973168 -0.0297573 0.167385 61 48 59
0.0991929 -0.0300602 0.169088 63 49 60
0.0954543 -0.0286712 0.161276 62 49 60
0.0997797 -0.0297075 0.167105 63 51 60
0.0978537 -0.0288807 0.162454 61 48 58
0.099006 -0.0289689 0.16295 60 45 57
0.0996618 -0.0289116 0.162628 62 49 59
0.103157 -0.0296718 0.166904 61 48 59
0.0999231 -0.0285002 0.160314 60 45 57
-0.330265 -0.0906661 0.525451 181 217 189
-0.311649 -0.0862745 0.5 183 218 186
-0.331278 -0.0924857 0.535997 183 218 186
-0.334231 -0.0941075 0.545396 180 217 185
-0.316681 -0.0899348 0.521213 182 219 188
-0.320655 -0.0918552 0.532343 181 218 189
-0.317866 -0.0918552 0.532343 180 218 189
-0.314452 -0.0916725 0.531284 180 218 188
-0.280444 -0.0824881 0.478056 177 217 185
-0.315336 -0.0935869 0.542379 181 217 185
-0.299907 -0.0898168 0.520529 184 216 185
-0.298435 -0.090196 0.522727 182 213 187
-0.294841 -0.0899348 0.521213 174 206 176
-0.302492 -0.0931311 0.539737 173 201 167
-0.294422 -0.0915014 0.530292 168 193 156
-0.292189 -0.0916725 0.531284 157 184 141
-0.283548 -0.0898168 0.520529 137 165 123
-0.292609 -0.0935869 0.542379 123 150 109
-0.278095 -0.0898168 0.520529 115 129 90
-0.281058 -0.0916725 0.531284 106 119 83
-0.27883 -0.0918552 0.532343 94 98 80
-0.276042 -0.0918552 0.532343 93 92 81
-0.267916 -0.0900609 0.521944 88 86 74
-0.264811 -0.0899348 0.521213 86 83 71
-0.262448 -0.0900609 0.521944 84 80 70
-0.259714 -0.0900609 0.521944 82 76 69
-0.268527 -0.0941075 0.545396 80 71 66
-0.259864 -0.0920507 0.533475 79 69 66
-0.256524 -0.0918552 0.532343 79 70 66
-0.243643 -0.0882015 0.511168 76 64 64
-0.255678 -0.0935869 0.542379 74 62 63
-0.253516 -0.0938383 0.543835 71 59 61
-0.225128 -0.0842775 0.488426 71 60 61
-0.227844 -0.0862745 0.5 70 59 61
-0.225225 -0.0862745 0.5 70 60 61
-0.222606 -0.0862745 0.5 67 57 58
-0.219987 -0.0862745 0.5 67 57 59
-0.2224 -0.0882715 0.511574 67 57 59
-0.189031 -0.0759421 0.440119 67 57 59
-0.197928 -0.0804984 0.466525 66 57 59
-0.199636 -0.0822079 0.476432 65 55 58
-0.19351 -0.0806938 0.467657 66 56 59
-0.182285 -0.0769875 0.446178 66 57 59
-0.176065 -0.0753261 0.436549 63 53 58
-0.155768 -0.0675196 0.391307 66 56 60
-0.153187 -0.0672861 0.389953 65 56 60
-0.139452 -0.0620806 0.359785 64 55 59
-0.125226 -0.0565115 0.32751 65 56 60
-0.103509 -0.0473598 0.274471 64 54 59
-0.0893797 -0.041471 0.240343 64 54 60
-0.0790236 -0.0371897 0.215531 64 55 60
-0.0724736 -0.0346015 0.200531 62 52 59
-0.0703492 -0.0340811 0.197516 62 53 59
-0.0661241 -0.0325124 0.188424 63 54 61
-0.0663105 -0.033098 0.191818 62 52 60
-0.0646613 -0.0327714 0.189925 63 52 60
-0.0627043 -0.0322761 0.187055 62 51 59
-0.0615127 -0.0321653 0.186413 61 49 57
-0.0585968 -0.0311348 0.18044 63 51 59
-0.0581839 -0.0314222 0.182106 62 50 57
-0.0573723 -0.0315003 0.182559 61 48 57
-0.056623 -0.0316159 0.183228 59 46 56
-0.0558676 -0.0317319 0.183901 58 46 55
-0.0537585 -0.0310696 0.180063 59 46 56
-0.0535652 -0.0315107 0.182619 57 45 54
-0.0515922 -0.0309019 0.179091 59 46 55
-0.0519162 -0.0316718 0.183552 58 42 54
-0.0504673 -0.0313688 0.181797 58 43 54
-0.0502961 -0.0318636 0.184664 60 46 56
-0.0484303 -0.0312832 0.1813 59 42 53
-0.0469732 -0.0309488 0.179362 59 41 53
-0.046595 -0.0313261 0.181549 57 38 52
-0.0459683 -0.0315487 0.182839 58 38 52
-0.0456043 -0.0319648 0.185251 59 40 53
-0.0442037 -0.0316566 0.183465 57 38 51
-0.0426426 -0.0312173 0.180918 57 37 51
-0.0415444 -0.0311046 0.180265 56 34 50
-0.0408781 -0.0313175 0.181499 58 36 51
-0.0404011 -0.031689 0.183652 57 34 50
-0.0402259 -0.0323211 0.187316 53 25 45
-0.0380447 -0.0313328 0.181588 55 28 47
-0.0370755 -0.0313175 0.181499 55 28 47
-0.0352847 -0.0305891 0.177278 55 29 47
-0.0352319 -0.0313688 0.181797 56 31 48
-0.0338769 -0.0310002 0.17966 56 30 48
-0.0329625 -0.0310253 0.179806 56 29 47
-0.0318123 -0.0308233 0.178635 55 26 45
-0.0318505 -0.0317956 0.18427 54 22 42
-0.0299873 -0.030871 0.178912 53 20 41
-0.0296692 -0.0315288 0.182724 53 21 42
-0.0284366 -0.0312263 0.180971 53 21 43
-0.0276896 -0.0314545 0.182293 53 23 45
-0.0259027 -0.0304755 0.176619 54 25 48
-0.0256398 -0.0312835 0.181302 55 29 49
-0.023952 -0.0303482 0.175882 57 35 53
-0.022747 -0.0299743 0.173715 58 39 54
-0.0226032 -0.0310258 0.179809 59 39 55
-0.0216123 -0.0309555 0.179401 59 39 55
-0.0208223 -0.0311796 0.1807 59 40 55
-0.019357 -0.0303657 0.175983 60 42 57
-0.0185712 -0.0305896 0.177281 60 42 57
-0.0177085 -0.0307037 0.177942 58 41 57
-0.0165188 -0.0302321 0.175209 59 42 57
-0.0157854 -0.0305893 0.177279 58 41 57
-0.0149112 -0.0307014 0.177928 58 41 57
-0.0136908 -0.0300678 0.174257 59 43 58
-0.0129598 -0.0304955 0.176735 58 43 58
-0.01187 -0.0300795 0.174325 58 43 58
-0.0110343 -0.0302918 0.175555 58 42 58
-0.010326 -0.0309247 0.179223 59 44 58
-0.00920641 -0.0303287 0.175769 57 41 57
-0.00823909 -0.0301579 0.174779 57 41 58
-0.00754553 -0.0310716 0.180074 58 43 59
-0.00657548 -0.0309452 0.179342 57 41 58
-0.00550788 -0.0302411 0.175261 58 42 59
-0.00465383 -0.0306623 0.177702 57 41 59
-0.00367064 -0.0302305 0.175199 57 41 58
-0.00272557 -0.0299296 0.173455 59 44 60
-0.00181441 -0.0298861 0.173204 59 44 60
-0.000927986 -0.0305707 0.177171 58 45 61
0 -0.0297765 0.172568 58 45 61
0.000897409 -0.0295634 0.171333 58 45 60
0.00179333 -0.0295389 0.171191 59 46 61
0.00269965 -0.0296449 0.171806 58 42 59
0.00361387 -0.029763 0.17249 59 44 61
0.00450655 -0.0296919 0.172078 60 47 62
0.00538953 -0.0295912 0.171495 59 44 61
0.00627437 -0.0295281 0.171129 59 44 61
0.00718789 -0.0295989 0.171539 57 44 60
0.00814845 -0.0298261 0.172856 60 46 61
0.00903661 -0.0297694 0.172527 59 45 61
0.00989953 -0.0296473 0.17182 59 44 62
0.0106881 -0.0293415 0.170047 58 43 61
0.0116036 -0.0294046 0.170413 58 42 60
0.0127251 -0.0299432 0.173534 60 44 61
0.0132643 -0.0291311 0.168828 59 42 60
0.0141846 -0.0292053 0.169258 57 41 60
0.0151358 -0.0293306 0.169984 57 41 60
0.015935 -0.0291637 0.169017 57 42 60
0.0168031 -0.0291339 0.168844 58 42 60
0.0181224 -0.0298503 0.172996 56 41 59
0.0190367 -0.0298632 0.173071 57 41 59
0.0197432 -0.0295637 0.171335 57 41 59
0.0209754 -0.0300433 0.174114 58 41 59
0.0215013 -0.0295133 0.171043 57 40 58
0.0228025 -0.0300473 0.174138 55 35 55
0.0235 -0.0297754 0.172562 58 40 58
0.0243631 -0.0297257 0.172274 57 39 58
0.0251866 -0.0296329 0.171736 56 38 58
0.0259707 -0.0295019 0.170977 58 40 59
0.0267659 -0.0293917 0.170338 57 40 58
0.0276854 -0.0294207 0.170506 57 40 58
0.0283308 -0.0291657 0.169029 57 40 57
0.0288126 -0.0287629 0.166694 57 39 58
0.0299071 -0.0289774 0.167937 55 35 55
0.0317983 -0.0299296 0.173455 57 40 58
0.0320642 -0.0293415 0.170047 58 41 58
0.0329195 -0.02931 0.169865 58 40 57
0.0345297 -0.0299346 0.173485 58 40 57
0.0351823 -0.0297183 0.172231 59 42 58
0.0356402 -0.0293524 0.170111 58 40 57
0.0366242 -0.0294272 0.170544 58 39 57
0.0380761 -0.0298653 0.173083 57 38 56
0.0373961 -0.0286498 0.166038 56 37 55
0.0392614 -0.0293953 0.170359 57 38 56
0.0397928 -0.0291311 0.168828 57 37 55
0.0412364 -0.0295316 0.171149 56 35 54
0.0424814 -0.0297759 0.172565 57 37 55
0.0428771 -0.0294272 0.170544 56 34 54
0.0443178 -0.0297952 0.172676 56 34 54
0.0458661 -0.0302194 0.175135 56 34 54
0.0449823 -0.029056 0.168393 56 34 54
0.0456943 -0.0289483 0.167768 56 32 53
0.0475958 -0.029584 0.171453 55 33 52
0.048352 -0.0294975 0.170951 56 33 52
0.0505515 -0.0302786 0.175478 56 32 52
0.050076 -0.0294582 0.170723 56 31 51
0.0510283 -0.0294917 0.170918 56 31 51
0.052704 -0.029935 0.173487 55 30 50
0.0524212 -0.0292697 0.169631 54 26 48
0.0532073 -0.0292135 0.169306 53 24 47
0.055467 -0.029955 0.173603 53 21 45
0.0545776 -0.0289993 0.168064 54 23 45
0.0568517 -0.0297281 0.172288 53 20 42
0.0578756 -0.0297906 0.17265 52 20 41
0.0582391 -0.0295165 0.171062 51 18 39
0.0589511 -0.0294247 0.170529 51 17 38
0.060355 -0.0296758 0.171985 50 17 38
0.0610155 -0.0295594 0.17131 50 17 38
0.0620236 -0.0296123 0.171617 51 18 39
0.0634111 -0.0298422 0.172949 51 19 39
0.0653355 -0.0303148 0.175688 54 23 45
0.0649323 -0.0297093 0.172179 55 25 45
0.0671258 -0.0302922 0.175557 54 25 45
0.0653488 -0.0290918 0.1686 57 31 50
0.0662836 -0.0291145 0.168732 57 32 50
0.0672955 -0.02917 0.169053 58 37 52
0.069052 -0.0295427 0.171213 60 39 54
0.0695586 -0.0293779 0.170258 59 39 54
0.0709447 -0.029584 0.171453 59 42 55
0.071158 -0.029302 0.169819 59 42 55
0.0716995 -0.0291605 0.168998 60 44 57
0.0745647 -0.029956 0.173608 59 44 57
0.0744018 -0.0295304 0.171142 59 44 56
0.0735821 -0.0288574 0.167242 61 47 58
0.0760012 -0.0294554 0.170708 60 45 57
0.0769818 -0.0294886 0.1709 60 44 56
0.0786017 -0.029763 0.17249 60 46 57
0.078157 -0.0292583 0.169565 60 46 57
0.0776218 -0.0287315 0.166512 59 44 56
0.0792345 -0.0290025 0.168083 60 45 57
0.0812875 -0.029427 0.170543 60 45 58
0.0829452 -0.0297007 0.172129 61 47 59
0.0804351 -0.0284922 0.165126 61 47 59
0.082097 -0.0287716 0.166744 61 47 58
0.0834672 -0.0289438 0.167743 60 46 58
0.0831402 -0.0285301 0.165345 60 46 58
0.084791 -0.0287966 0.16689 60 47 58
0.0869684 -0.0292347 0.169429 59 46 57
0.0869322 -0.0289274 0.167647 60 46 58
0.0879949 -0.0289882 0.168 61 48 59
0.0875577 -0.0285586 0.16551 60 48 59
0.0904325 -0.0292071 0.169268 59 45 57
0.088833 -0.028412 0.16466 60 47 58
0.0925542 -0.0293175 0.169908 60 47 58
0.0891909 -0.0279831 0.162175 61 48 59
0.0911436 -0.0283259 0.164162 60 46 58
0.0942088 -0.0290049 0.168097 62 49 60
0.0954243 -0.0291071 0.168689 61 47 58
0.0947967 -0.0286504 0.166042 62 49 59
0.0957477 -0.0286747 0.166183 61 48 59
0.0953097 -0.0282864 0.163933 60 47 58
0.096837 -0.0284831 0.165073 61 47 59
0.100512 -0.0293025 0.169821 61 48 59
0.0998337 -0.0288494 0.167195 61 49 59
0.0990309 -0.0283685 0.164408 62 48 59
0.103273 -0.0293286 0.169973 60 45 57
0.0974044 -0.0274256 0.158944 61 47 58
0.103448 -0.0288803 0.167375 61 48 58
0.10305 -0.0285276 0.16533 62 48 60
-0.295228 -0.0785916 0.469708 183 218 191
-0.286881 -0.0770113 0.460263 182 219 186
-0.278823 -0.0754824 0.451125 182 218 187
-0.283488 -0.0774015 0.462595 180 217 185
-0.269751 -0.0742856 0.443973 184 220 190
-0.29022 -0.0806175 0.481816 183 219 192
-0.266051 -0.0745522 0.445566 179 217 189
-0.259914 -0.0734771 0.43914 180 218 188
-0.256615 -0.073192 0.437437 180 219 188
-0.260753 -0.0750423 0.448495 183 218 188
-0.258404 -0.0750423 0.448495 183 217 187
-0.246319 -0.0721891 0.431442 181 216 188
-0.244059 -0.0721891 0.431442 183 217 189
-0.255137 -0.0761711 0.455242 179 214 184
-0.238491 -0.071873 0.429553 170 208 172
-0.246658 -0.0750423 0.448495 177 209 173
-0.243533 -0.074804 0.447071 170 202 161
-0.24038 -0.0745522 0.445566 159 191 145
-0.257937 -0.0807819 0.482798 145 171 122
-0.245285 -0.0775799 0.463661 134 152 104
-0.223946 -0.0715391 0.427558 121 134 97
-0.240428 -0.0775799 0.463661 110 120 85
-0.218383 -0.0711858 0.425446 100 106 75
-0.230636 -0.0759548 0.453949 94 94 70
-0.238266 -0.0792851 0.473852 91 89 73
-0.239747 -0.0806175 0.481816 84 81 71
-0.23696 -0.0805281 0.481281 86 80 73
-0.2347 -0.0806175 0.481816 84 78 70
-0.22679 -0.0787473 0.470638 81 75 68
-0.233791 -0.0820704 0.490499 79 68 67
-0.226326 -0.0803325 0.480112 77 66 66
-0.224356 -0.0805281 0.481281 78 67 66
-0.211558 -0.0767974 0.458985 75 64 63
-0.218489 -0.0802252 0.479471 72 61 62
-0.201772 -0.0749485 0.447934 71 62 61
-0.19339 -0.0726799 0.434376 71 62 62
-0.19708 -0.0749485 0.447934 68 59 60
-0.212832 -0.0819141 0.489565 68 60 61
-0.201313 -0.0784257 0.468716 70 61 62
-0.181271 -0.0714898 0.427263 68 59 61
-0.182924 -0.0730435 0.436549 67 57 60
-0.170786 -0.0690599 0.412741 66 56 59
-0.178351 -0.0730435 0.436549 63 53 56
-0.160597 -0.0666263 0.398196 65 56 59
-0.157184 -0.0660686 0.394863 69 60 62
-0.151438 -0.0645022 0.385502 64 55 59
-0.135112 -0.058326 0.348589 66 57 61
-0.11286 -0.0493875 0.295167 65 55 60
-0.0982989 -0.043613 0.260656 64 54 60
-0.0880015 -0.0395942 0.236637 65 56 61
-0.0692179 -0.0315879 0.188787 65 56 60
-0.0740282 -0.0342727 0.204833 66 57 62
-0.0694938 -0.0326465 0.195114 66 56 61
-0.0671185 -0.0320013 0.191258 63 53 59
-0.0641426 -0.0310458 0.185547 64 53 60
-0.0648275 -0.03186 0.190413 65 54 61
-0.0608401 -0.0303676 0.181494 63 52 59
-0.059814 -0.0303293 0.181265 63 51 59
-0.0588068 -0.0302995 0.181087 62 50 58
-0.0596458 -0.0312356 0.186681 64 52 60
-0.0575125 -0.0306204 0.183005 61 48 57
-0.0574425 -0.0311015 0.18588 59 47 56
-0.0559012 -0.0307888 0.184011 59 48 56
-0.0554912 -0.0310992 0.185866 59 48 56
-0.0538232 -0.030703 0.183499 59 46 55
-0.0525515 -0.0305226 0.182421 59 46 55
-0.053207 -0.0314757 0.188116 58 43 55
-0.0520244 -0.0313567 0.187406 57 43 54
-0.0500795 -0.030765 0.183869 59 45 55
-0.0487586 -0.0305409 0.182529 59 41 53
-0.0476471 -0.0304415 0.181936 58 40 52
-0.0463459 -0.0302145 0.180579 57 39 52
-0.0451768 -0.0300659 0.179691 57 38 52
-0.0455513 -0.0309602 0.185035 57 38 51
-0.0440773 -0.0306095 0.18294 58 39 52
-0.044013 -0.0312441 0.186732 57 36 51
-0.0416661 -0.0302503 0.180793 56 33 50
-0.0405243 -0.0301056 0.179928 57 35 50
-0.0396911 -0.0301887 0.180424 56 31 49
-0.0389959 -0.0303833 0.181588 52 23 44
-0.0380715 -0.0304046 0.181715 54 27 47
-0.0366866 -0.0300499 0.179595 55 29 48
-0.0363848 -0.0305869 0.182805 55 28 48
-0.0354799 -0.0306324 0.183076 56 31 49
-0.0330189 -0.0292995 0.17511 56 30 47
-0.0327002 -0.0298457 0.178375 56 28 47
-0.0322328 -0.0302844 0.180997 54 24 44
-0.0310383 -0.0300458 0.179571 53 21 43
-0.0297941 -0.0297427 0.177759 53 21 43
-0.0289763 -0.0298594 0.178457 52 22 44
-0.0280222 -0.0298388 0.178333 53 23 45
-0.0275833 -0.0303843 0.181594 55 27 48
-0.0261305 -0.0298119 0.178173 54 27 48
-0.0256398 -0.0303355 0.181302 56 34 52
-0.0240545 -0.0295544 0.176634 59 39 55
-0.0232827 -0.0297505 0.177805 60 41 55
-0.0221376 -0.0294659 0.176105 58 37 54
-0.0212417 -0.0295027 0.176325 58 38 55
-0.0202917 -0.0294643 0.176095 58 40 56
-0.0194756 -0.029626 0.177061 59 42 57
-0.0186858 -0.0298457 0.178375 59 43 57
-0.0178718 -0.0300479 0.179583 59 43 58
-0.0165715 -0.0294097 0.175769 59 42 57
-0.0160148 -0.0300935 0.179856 59 43 58
-0.015038 -0.0300242 0.179441 59 43 58
-0.0136835 -0.0291412 0.174164 58 42 58
-0.0127045 -0.0289888 0.173253 59 43 58
-0.0118847 -0.0292041 0.17454 59 43 59
-0.0109164 -0.0290602 0.17368 59 44 59
-0.0101766 -0.0295536 0.176629 59 42 58
-0.00915963 -0.0292602 0.174876 57 39 57
-0.00832137 -0.0295361 0.176524 58 43 59
-0.00745095 -0.0297524 0.177817 57 42 58
-0.00644863 -0.0294286 0.175882 58 42 59
-0.00555446 -0.0295727 0.176743 58 42 59
-0.00459286 -0.0293436 0.175374 58 42 59
-0.00366792 -0.0292927 0.17507 58 42 59
-0.00279048 -0.0297138 0.177586 58 43 60
-0.00184078 -0.0294016 0.17572 59 44 60
-0.00091456 -0.0292154 0.174608 59 45 60
0 -0.029525 0.176458 58 45 60
0.000886815 -0.0283291 0.169311 58 44 60
0.00180131 -0.0287712 0.171953 59 45 61
0.00268889 -0.028632 0.171121 59 45 61
0.00366489 -0.0292686 0.174925 59 45 61
0.00454105 -0.0290126 0.173396 59 45 61
0.0054688 -0.0291166 0.174017 59 45 61
0.00625484 -0.0285442 0.170596 58 44 61
0.00715821 -0.0285834 0.170831 58 46 61
0.0080616 -0.028614 0.171013 60 45 61
0.00913122 -0.0291695 0.174333 59 44 61
0.00990608 -0.028768 0.171933 59 45 62
0.0107995 -0.0287489 0.17182 58 43 61
0.0117198 -0.0287989 0.172119 57 42 60
0.0126703 -0.0289108 0.172787 59 43 60
0.0133124 -0.0283508 0.16944 58 42 60
0.0143122 -0.028575 0.17078 57 41 60
0.0152171 -0.0285946 0.170897 57 42 60
0.0161859 -0.0287252 0.171678 56 40 59
0.0168324 -0.0283004 0.169139 56 40 59
0.0177814 -0.0284012 0.169741 56 41 59
0.0185646 -0.0282401 0.168779 56 39 58
0.0197536 -0.028683 0.171426 56 39 58
0.0205205 -0.028501 0.170338 58 41 59
0.0216465 -0.0288121 0.172198 57 39 58
0.02309 -0.0295042 0.176334 56 36 56
0.0233481 -0.0286865 0.171447 57 39 57
0.0243165 -0.0287698 0.171945 57 40 58
0.0249643 -0.0284814 0.170221 58 41 59
0.0262561 -0.0289223 0.172856 57 40 58
0.0266344 -0.028361 0.169501 57 39 57
0.0275805 -0.0284211 0.16986 57 40 58
0.0287704 -0.0287208 0.171652 57 40 57
0.0294018 -0.0284617 0.170103 57 39 57
0.0300788 -0.0282606 0.168901 56 38 57
0.0311506 -0.0284314 0.169922 57 38 57
0.0321311 -0.0285117 0.170402 57 38 57
0.0332574 -0.0287136 0.171608 59 41 58
0.0344195 -0.0289348 0.172931 58 39 56
0.0349064 -0.0285917 0.17088 57 38 56
0.0359686 -0.0287252 0.171678 58 39 57
0.0363226 -0.0283004 0.169139 57 39 57
0.037848 -0.0287868 0.172046 57 39 56
0.038176 -0.028361 0.169501 57 39 56
0.0397106 -0.0288306 0.172308 56 37 55
0.0404813 -0.028737 0.171749 56 36 55
0.0403151 -0.0279969 0.167325 56 36 55
0.0418616 -0.0284523 0.170047 56 35 55
0.0445433 -0.0296443 0.177171 56 33 54
0.0433004 -0.028229 0.168712 56 33 53
0.0454896 -0.0290631 0.173697 55 31 52
0.0460272 -0.02883 0.172304 55 31 52
0.0472352 -0.0290176 0.173426 55 32 52
0.0479566 -0.0289049 0.172752 56 34 53
0.0475878 -0.0281515 0.168249 56 33 52
0.0491183 -0.0285286 0.170503 56 31 51
0.0487575 -0.0278133 0.166228 56 30 51
0.0502097 -0.0281392 0.168176 56 31 51
0.0505552 -0.0278444 0.166414 55 29 50
0.053029 -0.0287119 0.171598 53 24 47
0.0535703 -0.0285215 0.170461 54 25 47
0.0547496 -0.0286716 0.171357 54 24 47
0.0548567 -0.0282643 0.168923 53 21 43
0.0559752 -0.0283828 0.169631 52 20 41
0.0571647 -0.028533 0.170529 51 18 39
0.0583809 -0.0286918 0.171478 50 17 38
0.0593873 -0.0287442 0.171791 50 17 37
0.0608676 -0.0290209 0.173445 50 17 37
0.0615438 -0.0289118 0.172793 50 17 38
0.0629207 -0.0291303 0.174099 53 21 41
0.062033 -0.028309 0.169191 53 21 41
0.0657066 -0.0295632 0.176686 53 21 42
0.0661921 -0.0293679 0.175519 55 25 45
0.0664447 -0.0290762 0.173776 56 28 47
0.0666029 -0.0287516 0.171836 55 27 48
0.0673526 -0.0286875 0.171453 56 31 49
0.0687088 -0.0288801 0.172604 59 38 53
0.0700414 -0.0290579 0.173666 59 39 54
0.0706721 -0.0289436 0.172983 60 42 55
0.0706731 -0.0285777 0.170796 59 41 55
0.0728275 -0.0290807 0.173803 59 41 55
0.0718083 -0.0283197 0.169255 60 44 56
0.0732485 -0.0285354 0.170544 59 44 56
0.0741933 -0.0285553 0.170662 61 46 58
0.0744413 -0.0283097 0.169195 60 46 57
0.0753544 -0.0283197 0.169255 59 44 56
0.0767432 -0.0285063 0.17037 58 42 55
0.0769559 -0.0282568 0.168878 59 45 57
0.0793647 -0.0288101 0.172185 60 45 57
0.0782583 -0.0280893 0.167877 61 47 57
0.0759601 -0.0269614 0.161137 58 42 55
0.079739 -0.0279917 0.167294 60 45 57
0.0801279 -0.0278225 0.166283 58 42 55
0.0822512 -0.0282526 0.168854 58 42 55
0.082872 -0.0281631 0.168318 61 47 59
0.0834092 -0.0280473 0.167626 59 44 57
0.0857756 -0.0285425 0.170586 60 46 57
0.0837674 -0.0275869 0.164875 59 45 57
0.0870057 -0.028361 0.169501 59 44 57
0.0888982 -0.0286852 0.171439 60 47 58
0.087069 -0.027814 0.166232 61 48 58
0.0864332 -0.0273375 0.163384 60 46 57
0.089657 -0.0280791 0.167817 60 46 57
0.090684 -0.0281251 0.168091 59 45 56
0.0903087 -0.0277394 0.165786 61 48 59
0.090717 -0.0275994 0.164949 60 46 57
0.0936881 -0.0282344 0.168745 62 49 59
0.0933005 -0.0278548 0.166476 60 45 57
0.0941098 -0.0278363 0.166365 62 48 59
0.0966676 -0.0283305 0.169319 62 49 60
0.0974969 -0.0283138 0.169219 61 47 58
0.0946429 -0.0272374 0.162786 61 48 59
0.0962067 -0.0274402 0.163998 61 48 59
0.0960922 -0.027165 0.162353 61 48 59
0.100223 -0.0280843 0.167848 63 50 60
0.0985148 -0.0273655 0.163552 62 49 60
0.103923 -0.0286189 0.171043 60 45 57
0.103356 -0.0282195 0.168656 60 46 57
0.103053 -0.0278982 0.166736 60 46 57
0.105403 -0.0282947 0.169105 61 46 58
-0.247343 -0.0637867 0.393523 184 219 190
-0.233322 -0.0606764 0.374334 181 218 186
-0.206801 -0.0542353 0.334597 183 219 188
-0.225917 -0.059755 0.36865 185 220 191
-0.21541 -0.057467 0.354535 184 220 192
-0.217321 -0.0584812 0.360791 182 219 191
-0.223518 -0.0606764 0.374334 181 218 190
-0.212256 -0.058129 0.358618 185 221 192
-0.201826 -0.0557662 0.344042 182 219 189
-0.211785 -0.059045 0.36427 180 216 185
-0.205449 -0.0577993 0.356584 185 219 188
-0.205198 -0.0582583 0.359416 185 219 188
-0.203315 -0.0582583 0.359416 185 219 188
-0.197156 -0.0570215 0.351786 185 219 190
-0.197978 -0.0577993 0.356584 182 217 186
-0.198814 -0.0585962 0.361501 185 217 187
-0.189992 -0.0565344 0.348781 180 214 180
-0.190785 -0.0573218 0.353638 174 208 168
-0.187294 -0.0568246 0.350571 165 203 158
-0.185458 -0.0568246 0.350571 162 199 152
-0.194691 -0.06025 0.371703 154 192 142
-0.190066 -0.0594129 0.366539 131 166 121
-0.196301 -0.061988 0.382426 122 140 99
-0.209111 -0.0667141 0.411583 109 117 84
-0.199119 -0.0641879 0.395998 101 110 84
-0.190292 -0.061988 0.382426 88 100 78
-0.196725 -0.0647655 0.399561 94 99 78
-0.19756 -0.0657397 0.405572 85 87 72
-0.207804 -0.0699 0.431238 84 80 68
-0.192268 -0.065385 0.403383 83 75 68
-0.194181 -0.0667692 0.411923 82 73 68
-0.199418 -0.0693403 0.427785 82 73 70
-0.193047 -0.067888 0.418825 78 68 66
-0.173601 -0.0617512 0.380965 76 67 66
-0.172986 -0.0622477 0.384028 75 67 65
-0.191243 -0.069627 0.429553 75 67 66
-0.169264 -0.0623587 0.384713 71 63 63
-0.182472 -0.0680346 0.41973 73 64 64
-0.172722 -0.0651846 0.402147 72 63 63
-0.166275 -0.0635262 0.391916 69 59 61
-0.159835 -0.0618293 0.381447 68 58 60
-0.165248 -0.0647323 0.399357 69 59 60
-0.16195 -0.0642538 0.396405 67 58 60
-0.152448 -0.0612694 0.377993 67 59 60
-0.143221 -0.0583181 0.359785 67 59 61
-0.131702 -0.054343 0.335261 67 59 61
-0.127495 -0.0533181 0.328938 66 57 60
-0.106826 -0.0452862 0.279386 66 57 60
-0.0928822 -0.039922 0.246293 65 55 61
-0.0795398 -0.0346687 0.213884 66 57 62
-0.0804455 -0.0355644 0.219409 66 57 61
-0.0740282 -0.0332016 0.204833 65 55 60
-0.0676001 -0.0307645 0.189797 64 54 59
-0.0660959 -0.0305289 0.188344 66 55 61
-0.0653345 -0.0306344 0.188995 63 52 59
-0.0635682 -0.0302649 0.186715 63 53 60
-0.0618913 -0.0299269 0.184629 62 51 58
-0.0620096 -0.03046 0.187919 63 51 58
-0.0604022 -0.030149 0.186 62 50 58
-0.0583644 -0.0296094 0.182671 62 50 58
-0.0585261 -0.0301863 0.18623 61 48 57
-0.0571875 -0.0299958 0.185055 61 50 58
-0.0564408 -0.0301146 0.185787 59 48 56
-0.0555834 -0.0301774 0.186175 60 49 57
-0.0547213 -0.0302399 0.18656 61 50 57
-0.0533646 -0.0300263 0.185243 60 48 57
-0.0524377 -0.0300512 0.185396 59 45 56
-0.0508921 -0.0297157 0.183327 59 45 56
-0.0491086 -0.0292257 0.180304 57 43 54
-0.0486111 -0.029497 0.181977 58 41 53
-0.0488205 -0.0302165 0.186416 58 42 53
-0.0463847 -0.0292948 0.18073 60 43 54
-0.0458927 -0.0295879 0.182538 58 39 52
-0.0449574 -0.0296016 0.182623 57 38 51
-0.0441377 -0.0296937 0.183191 58 39 52
-0.0432948 -0.0297739 0.183685 58 38 52
-0.0418879 -0.029461 0.181756 56 33 50
-0.0408092 -0.0293698 0.181193 55 30 48
-0.0401273 -0.0295666 0.182407 53 24 44
-0.0392825 -0.0296501 0.182922 53 27 46
-0.037452 -0.0289752 0.178758 54 29 48
-0.0379025 -0.0300756 0.185547 55 28 48
-0.0359412 -0.0292698 0.180576 56 29 48
-0.0353515 -0.0295677 0.182414 56 31 49
-0.0342284 -0.0294236 0.181525 55 27 46
-0.0324998 -0.0287359 0.177282 54 26 45
-0.0323728 -0.0294654 0.181783 54 23 43
-0.0304232 -0.0285301 0.176012 53 22 44
-0.0307315 -0.0297197 0.183352 52 21 43
-0.028863 -0.0288132 0.177759 52 22 45
-0.0285107 -0.0294102 0.181442 52 22 45
-0.0272569 -0.0290864 0.179444 52 23 46
-0.025951 -0.0286819 0.176949 54 29 50
-0.0252552 -0.0289467 0.178582 59 40 55
-0.0242005 -0.0288047 0.177706 58 38 54
-0.0234093 -0.0289775 0.178772 58 38 54
-0.0224856 -0.0289937 0.178873 59 40 56
-0.0214201 -0.0288208 0.177805 59 41 57
-0.0201315 -0.0283182 0.174705 59 42 57
-0.019667 -0.0289822 0.178801 60 44 58
-0.0182517 -0.0282413 0.17423 60 43 58
-0.017534 -0.0285588 0.176189 59 43 58
-0.0167652 -0.0288235 0.177823 58 41 57
-0.0157854 -0.0287354 0.177279 58 42 57
-0.0148749 -0.0287704 0.177495 59 43 58
-0.013945 -0.0287699 0.177492 57 41 57
-0.0129047 -0.0285254 0.175983 57 41 57
-0.012145 -0.0289113 0.178364 58 42 58
-0.0111289 -0.0287002 0.177061 58 42 58
-0.0100314 -0.0282216 0.174109 57 40 58
-0.00921172 -0.028507 0.17587 57 40 58
-0.008306 -0.0285602 0.176198 57 42 59
-0.0074284 -0.0287354 0.177279 61 48 62
-0.00651958 -0.0288226 0.177817 59 45 60
-0.00555104 -0.0286309 0.176634 58 42 59
-0.00454464 -0.0281282 0.173533 58 42 59
-0.00366991 -0.0283927 0.175165 57 42 59
-0.00273471 -0.0282099 0.174037 58 43 60
-0.00184179 -0.0284985 0.175817 59 45 60
-0.000902213 -0.0279203 0.17225 59 46 61
0 -0.0277796 0.171382 58 44 60
0.000927455 -0.0287015 0.17707 59 46 61
0.0018004 -0.027858 0.171866 59 46 61
0.00276683 -0.0285413 0.176081 58 44 60
0.00361387 -0.0279592 0.17249 59 45 62
0.00449447 -0.0278176 0.171617 59 46 62
0.00540295 -0.0278671 0.171922 58 45 61
0.00633824 -0.0280209 0.172871 60 47 62
0.00728615 -0.0281851 0.173884 59 44 60
0.00818552 -0.0281459 0.173642 59 44 61
0.00885584 -0.0274057 0.169076 58 43 60
0.00989706 -0.0278436 0.171777 57 43 60
0.0108112 -0.0278806 0.172006 58 43 61
0.0115458 -0.0274847 0.169563 58 43 60
0.0125367 -0.0277119 0.170965 58 42 60
0.0134575 -0.0277642 0.171287 57 41 59
0.0142668 -0.0275943 0.170239 57 42 60
0.0153623 -0.0279653 0.172528 57 43 61
0.0161075 -0.0276929 0.170847 57 42 60
0.0170257 -0.0277308 0.171081 56 39 58
0.0181984 -0.0281589 0.173722 58 42 60
0.0187718 -0.0276629 0.170662 57 40 59
0.0200337 -0.0281806 0.173856 56 40 59
0.0208512 -0.0280553 0.173083 57 40 59
0.0216274 -0.0278872 0.172046 57 40 59
0.0228143 -0.028241 0.174229 56 38 57
0.0234902 -0.0279592 0.17249 57 38 56
0.0245644 -0.0281549 0.173697 56 39 58
0.0251843 -0.0278345 0.171721 57 39 58
0.0261782 -0.0279353 0.172343 58 40 59
0.0266438 -0.0274844 0.169561 57 39 58
0.027198 -0.0271511 0.167505 56 39 57
0.0287441 -0.0277978 0.171495 57 40 58
0.0294018 -0.0275723 0.170103 57 39 58
0.0301212 -0.027416 0.169139 56 38 57
0.0315677 -0.0279118 0.172198 57 38 57
0.0326688 -0.0280829 0.173253 57 39 57
0.0328031 -0.0274362 0.169264 57 38 56
0.0341199 -0.0277867 0.171426 57 39 56
0.0346981 -0.0275329 0.16986 58 39 57
0.0363308 -0.0281078 0.173407 57 37 56
0.0365961 -0.0276225 0.170413 56 38 56
0.0375119 -0.0276396 0.170518 56 38 56
0.0375331 -0.0270121 0.166647 56 37 55
0.038357 -0.0269776 0.166435 56 37 55
0.040793 -0.0280534 0.173071 57 36 55
0.0416476 -0.0280184 0.172856 57 36 55
0.0421395 -0.0277462 0.171176 57 37 56
0.0434027 -0.0279826 0.172634 57 38 56
0.0442232 -0.0279296 0.172308 57 35 54
0.0442164 -0.0273669 0.168836 56 31 53
0.0448465 -0.0272126 0.167884 56 33 53
0.0456857 -0.0271887 0.167737 56 32 53
0.047241 -0.0275838 0.170174 56 31 52
0.0480802 -0.027554 0.16999 56 32 52
0.0499979 -0.028132 0.173556 56 31 51
0.04957 -0.0273932 0.168998 55 29 50
0.0520778 -0.0282742 0.174433 55 29 50
0.0517201 -0.0275958 0.170248 56 29 50
0.0532104 -0.0279098 0.172185 54 25 47
0.0528576 -0.0272626 0.168193 53 23 45
0.0548032 -0.0278028 0.171525 53 21 43
0.055374 -0.0276392 0.170516 52 19 41
0.0576384 -0.0283128 0.174672 52 19 40
0.0579792 -0.0280352 0.172959 50 17 37
0.057751 -0.0274953 0.169628 50 16 36
0.0607703 -0.0284944 0.175792 50 17 37
0.0618669 -0.0285756 0.176293 51 18 39
0.0627302 -0.0285483 0.176124 51 19 40
0.0626882 -0.0281157 0.173455 51 19 39
0.0651677 -0.0288102 0.17774 52 20 41
0.0638705 -0.027839 0.171749 53 21 42
0.06512 -0.0279894 0.172676 55 27 47
0.066898 -0.0283597 0.174961 55 30 48
0.0680307 -0.0284502 0.175519 57 34 51
0.0692204 -0.0285617 0.176208 57 35 51
0.0693792 -0.0282506 0.174288 59 39 53
0.0695075 -0.0279353 0.172343 61 42 55
0.0722658 -0.0286715 0.176884 60 42 55
0.0720497 -0.0282239 0.174123 60 44 56
0.0707497 -0.0273682 0.168844 59 43 56
0.0727586 -0.0277978 0.171495 60 44 57
0.0724132 -0.0273285 0.168599 61 47 58
0.0747329 -0.0278641 0.171904 60 44 57
0.0750522 -0.0276501 0.170583 60 45 56
0.0755711 -0.0275137 0.169741 59 44 56
0.0764878 -0.0275236 0.169803 59 43 56
0.0757644 -0.0269499 0.166264 59 45 57
0.0774477 -0.0272356 0.168026 58 43 55
0.0801828 -0.0278806 0.172006 60 45 57
0.0776297 -0.026693 0.164679 60 46 56
0.080079 -0.0272326 0.168007 58 44 55
0.0806926 -0.027143 0.167455 59 42 56
0.0825354 -0.0274643 0.169437 59 43 56
0.0822448 -0.0270765 0.167044 60 44 57
0.0834218 -0.0271749 0.167651 57 41 55
0.0836968 -0.0269805 0.166452 58 43 56
0.0849313 -0.0270962 0.167166 59 46 57
0.0854735 -0.0269909 0.166516 59 45 57
0.0850532 -0.0265869 0.164024 61 49 60
0.0880974 -0.0272631 0.168196 60 46 57
0.0897086 -0.0274868 0.169576 60 47 57
0.0873784 -0.0265104 0.163552 58 44 55
0.0878651 -0.0263992 0.162866 59 44 56
0.0921617 -0.0274239 0.169188 61 48 58
0.0896249 -0.026415 0.162964 58 44 56
0.091194 -0.0266239 0.164252 60 47 58
0.0947545 -0.0274049 0.16907 61 48 59
0.0928145 -0.0265952 0.164075 60 47 58
0.0966137 -0.0274299 0.169225 61 48 59
0.0947024 -0.0266428 0.164369 61 47 58
0.0975121 -0.0271861 0.167721 60 45 57
0.0966607 -0.0267081 0.164772 60 46 58
0.0977727 -0.0267763 0.165193 60 47 58
0.101611 -0.0275834 0.170172 60 47 58
0.101754 -0.027382 0.168929 60 47 58
0.102553 -0.027359 0.168788 60 47 58
0.100692 -0.0266329 0.164308 61 48 58
0.104606 -0.0274337 0.169248 61 47 58
0.102922 -0.0267654 0.165126 61 46 57
-0.168323 -0.0420083 0.267803 184 220 191
-0.163646 -0.0411841 0.262549 183 219 188
-0.157633 -0.0400071 0.255045 184 220 190
-0.156424 -0.0400396 0.255252 183 220 189
-0.159089 -0.0410726 0.261838 185 221 191
-0.15478 -0.0403077 0.256961 183 220 191
-0.145284 -0.0381668 0.243313 183 219 191
-0.149016 -0.0394934 0.251771 184 219 191
-0.136215 -0.0364231 0.232197 183 219 191
-0.136129 -0.0367281 0.234141 185 220 189
-0.133782 -0.0364231 0.232197 185 219 188
-0.143959 -0.0395535 0.252153 182 218 185
-0.140999 -0.0390989 0.249255 183 219 187
-0.133558 -0.0373817 0.238308 184 219 190
-0.137253 -0.0387783 0.247211 180 216 186
-0.139818 -0.0398791 0.254229 184 218 189
-0.134066 -0.0386061 0.246114 181 218 188
-0.137564 -0.0399981 0.254988 179 218 186
-0.134714 -0.0395535 0.252153 175 213 177
-0.132507 -0.0392907 0.250478 177 210 172
-0.13346 -0.0399688 0.254801 171 208 167
-0.138656 -0.0419445 0.267396 169 204 170
-0.139413 -0.0426038 0.271599 162 191 153
-0.135273 -0.0417647 0.26625 152 180 140
-0.140142 -0.0437187 0.278707 148 171 135
-0.146872 -0.0463007 0.295167 124 145 112
-0.146764 -0.0467588 0.298087 119 134 104
-0.153827 -0.0495359 0.315791 108 114 91
-0.142234 -0.0463007 0.295167 96 99 76
-0.146696 -0.048278 0.307772 89 92 69
-0.153199 -0.0509783 0.324987 86 86 72
-0.157977 -0.0531587 0.338887 86 81 71
-0.147393 -0.0501609 0.319776 84 77 72
-0.147461 -0.0507609 0.323601 82 76 72
-0.149807 -0.0521682 0.332572 79 76 70
-0.148569 -0.0523456 0.333703 79 73 69
-0.152023 -0.0542001 0.345526 77 70 68
-0.147557 -0.0532419 0.339417 77 69 68
-0.16407 -0.0599222 0.382004 73 65 64
-0.145266 -0.0537093 0.342397 73 64 64
-0.148558 -0.0556133 0.354535 71 62 62
-0.139416 -0.0528516 0.336929 71 62 62
-0.136099 -0.0522556 0.333129 69 60 61
-0.136523 -0.053099 0.338506 68 60 62
-0.133194 -0.0524858 0.334597 68 59 61
-0.121767 -0.0486227 0.30997 68 59 61
-0.118173 -0.0478252 0.304886 66 58 60
-0.0975601 -0.040024 0.255153 67 59 61
-0.0806601 -0.0335504 0.213884 67 58 61
-0.0781144 -0.0329491 0.210051 65 56 60
-0.0766366 -0.0327876 0.209021 67 58 61
-0.0720784 -0.0312844 0.199438 66 56 60
-0.0679566 -0.0299291 0.190798 65 54 60
-0.067707 -0.0302643 0.192935 64 53 58
-0.0654053 -0.0296784 0.1892 65 54 60
-0.06151 -0.0283402 0.180669 63 52 58
-0.0625042 -0.0292483 0.186458 63 52 59
-0.0608833 -0.028942 0.184505 63 51 59
-0.0608383 -0.0293871 0.187343 62 50 57
-0.0595617 -0.0292421 0.186419 63 51 58
-0.0595364 -0.0297169 0.189445 61 48 57
-0.0582775 -0.0295815 0.188582 61 48 57
-0.0558548 -0.0288406 0.183859 61 49 58
-0.0545334 -0.0286522 0.182658 60 48 56
-0.0544918 -0.0291416 0.185778 61 48 56
-0.0527312 -0.0287128 0.183044 58 45 55
-0.0520618 -0.0288733 0.184068 60 47 57
-0.0502397 -0.0283885 0.180977 59 44 55
-0.0496582 -0.0285995 0.182322 58 43 54
-0.0491954 -0.0288885 0.184164 58 43 54
-0.0474576 -0.0284254 0.181212 59 42 53
-0.0469685 -0.0287066 0.183005 58 41 53
-0.0461525 -0.0287956 0.183572 58 39 52
-0.0446587 -0.0284564 0.181409 58 39 52
-0.0435822 -0.0283742 0.180885 57 38 51
-0.043333 -0.0288388 0.183848 59 39 52
-0.0423515 -0.0288262 0.183767 57 35 50
-0.0406361 -0.0283019 0.180424 55 30 47
-0.0404313 -0.0288297 0.183789 53 24 45
-0.0389497 -0.0284506 0.181372 53 27 47
-0.0373862 -0.0279913 0.178444 54 29 47
-0.0368179 -0.0282726 0.180238 54 26 47
-0.0358171 -0.0282278 0.179952 55 28 48
-0.0348793 -0.0282318 0.179977 55 28 47
-0.0334691 -0.0278428 0.177498 54 26 45
-0.0324594 -0.0277743 0.177061 55 26 45
-0.0317932 -0.0280044 0.178528 53 23 43
-0.0307632 -0.0279183 0.177979 53 22 44
-0.0300734 -0.0281451 0.179425 53 23 46
-0.0294422 -0.0284432 0.181326 53 25 47
-0.028911 -0.0288611 0.18399 54 26 48
-0.0272059 -0.0280955 0.179109 55 30 51
-0.0261147 -0.0279318 0.178065 57 37 54
-0.0254699 -0.028251 0.1801 58 39 55
-0.023395 -0.0269477 0.171791 58 39 55
-0.0230338 -0.0275928 0.175904 59 41 56
-0.0229799 -0.0286752 0.182805 60 42 57
-0.0211897 -0.0275911 0.175893 58 39 56
-0.020241 -0.0275537 0.175655 59 42 57
-0.0190902 -0.0272246 0.173557 59 41 57
-0.0183193 -0.0274315 0.174876 59 42 57
-0.0173936 -0.0274162 0.174779 59 42 58
-0.0170514 -0.02837 0.180858 59 42 58
-0.01567 -0.0276052 0.175983 59 43 58
-0.0148207 -0.0277409 0.176848 57 42 58
-0.0138185 -0.0275893 0.175882 58 43 58
-0.0131655 -0.0281631 0.17954 57 41 58
-0.0120122 -0.0276727 0.176413 57 41 57
-0.0113061 -0.0282165 0.17988 59 44 60
-0.0100576 -0.0273826 0.174564 56 39 57
-0.00929142 -0.0278262 0.177392 58 41 59
-0.00834675 -0.0277745 0.177062 58 42 59
-0.00741483 -0.0277576 0.176955 58 41 59
-0.00632582 -0.0270639 0.172532 58 41 59
-0.00558821 -0.0278928 0.177817 58 42 59
-0.00471847 -0.0282619 0.18017 57 42 59
-0.00367839 -0.0275403 0.175569 58 43 60
-0.00274442 -0.0273969 0.174655 58 43 59
-0.00186363 -0.0279062 0.177902 58 43 59
-0.000900294 -0.0269622 0.171884 59 46 61
0 -0.0272586 0.173774 58 44 60
0.000907028 -0.0271639 0.17317 59 46 61
0.00181979 -0.0272498 0.173717 59 47 62
0.00268764 -0.02683 0.171041 59 47 62
0.00365592 -0.0273721 0.174497 59 46 61
0.00460894 -0.0276059 0.175988 58 45 61
0.00549676 -0.0274364 0.174907 59 46 61
0.00622617 -0.0266376 0.169814 58 44 60
0.0070764 -0.0264907 0.168878 58 44 60
0.00820864 -0.0273149 0.174133 58 44 60
0.00895311 -0.026813 0.170933 59 44 60
0.0100624 -0.0273956 0.174647 58 45 61
0.0107586 -0.0268502 0.17117 58 43 61
0.0119852 -0.0276104 0.176016 58 44 61
0.012461 -0.0266561 0.169933 57 42 59
0.0130596 -0.0260741 0.166223 58 43 60
0.0141275 -0.0264434 0.168576 58 43 61
0.0153019 -0.0269567 0.171849 57 43 60
0.0161027 -0.0267916 0.170796 57 41 59
0.0169114 -0.0266561 0.169933 58 43 60
0.0179361 -0.0268577 0.171218 57 41 59
0.0189687 -0.0270514 0.172453 56 38 57
0.0200493 -0.0272928 0.173992 56 39 58
0.0205533 -0.0267624 0.17061 56 40 58
0.02159 -0.026941 0.171749 57 40 58
0.02264 -0.0271211 0.172897 56 38 57
0.0234952 -0.0270631 0.172527 57 40 58
0.0240312 -0.0266553 0.169927 56 38 58
0.0249925 -0.0267314 0.170413 56 38 58
0.0262509 -0.0271093 0.172822 56 38 58
0.026872 -0.0268256 0.171013 57 39 58
0.0275517 -0.0266169 0.169683 56 38 57
0.0283191 -0.0265034 0.168959 57 39 58
0.0297889 -0.0270341 0.172343 56 39 58
0.0301857 -0.0265884 0.169501 56 37 56
0.0313682 -0.0268406 0.171109 57 40 58
0.0323538 -0.0269149 0.171583 57 39 57
0.0324668 -0.026279 0.167529 57 37 57
0.0338552 -0.0266817 0.170096 57 38 57
0.0348561 -0.0267661 0.170634 57 38 56
0.0354255 -0.0265233 0.169086 57 38 56
0.0355718 -0.0259832 0.165643 56 36 55
0.0369094 -0.0263184 0.16778 55 34 55
0.0383361 -0.0267 0.170212 55 34 55
0.0392543 -0.0267181 0.170328 55 34 54
0.0397723 -0.0264691 0.168741 57 36 55
0.0414568 -0.0269904 0.172064 56 34 54
0.0427288 -0.0272266 0.17357 55 32 54
0.0423464 -0.0264209 0.168433 55 32 54
0.0450891 -0.0275579 0.175682 57 36 54
0.0441866 -0.0264662 0.168722 56 31 52
0.0453909 -0.0266544 0.169922 56 32 53
0.0466533 -0.026869 0.17129 56 33 53
0.0460803 -0.0260382 0.165993 55 30 52
0.0482368 -0.026752 0.170544 56 33 52
0.0491879 -0.0267835 0.170745 56 32 51
0.0500428 -0.0267624 0.17061 55 28 50
0.0503669 -0.0264631 0.168703 55 27 49
0.0527426 -0.0272336 0.173614 53 23 47
0.0527604 -0.026781 0.170729 54 22 46
0.0529382 -0.0264234 0.168449 53 22 43
0.05493 -0.0269681 0.171922 51 20 41
0.0542337 -0.0261968 0.167005 51 18 39
0.0563252 -0.0267752 0.170692 51 18 39
0.0574584 -0.0268871 0.171405 50 17 38
0.0592761 -0.027311 0.174108 49 15 35
0.0602341 -0.0273319 0.174241 51 18 39
0.0605324 -0.0270573 0.17249 51 18 40
0.0619033 -0.0272632 0.173803 52 20 41
0.0631707 -0.0274181 0.174791 50 18 39
0.0634884 -0.0271624 0.17316 55 25 46
0.064585 -0.0272424 0.17367 54 22 44
0.0656442 -0.0273046 0.174067 55 27 47
0.0662093 -0.0271624 0.17316 56 34 50
0.0676029 -0.0273593 0.174416 58 37 52
0.0677021 -0.0270341 0.172343 58 38 52
0.0699295 -0.0275561 0.17567 59 39 53
0.0691102 -0.0268796 0.171357 57 38 52
0.0704408 -0.0270459 0.172417 58 40 53
0.0693519 -0.0262907 0.167603 58 42 55
0.0710499 -0.0265977 0.169561 59 43 56
0.0723392 -0.0267461 0.170506 59 43 55
0.0739916 -0.0270234 0.172274 59 44 56
0.075536 -0.027255 0.173751 59 44 56
0.0747837 -0.0266624 0.169973 59 43 56
0.0763105 -0.0268866 0.171402 59 45 56
0.0755201 -0.0262988 0.167655 57 40 54
0.076584 -0.0263627 0.168062 59 44 57
0.0779879 -0.0265409 0.169198 59 44 57
0.0791273 -0.0266261 0.169741 57 41 54
0.0783769 -0.0260806 0.166264 58 45 56
0.0789244 -0.0259741 0.165585 58 44 55
0.0812275 -0.0264415 0.168565 59 43 56
0.0816738 -0.0263009 0.167669 59 44 57
0.0833594 -0.0265582 0.169308 58 43 56
0.0818765 -0.0258111 0.164546 59 44 57
0.0830754 -0.0259163 0.165216 57 43 55
0.0857705 -0.0264812 0.168818 57 43 56
0.08606 -0.0262994 0.167659 57 42 55
0.0871599 -0.0263665 0.168087 60 46 58
0.0875043 -0.026206 0.167063 59 45 56
0.0890928 -0.0264175 0.168412 59 45 57
0.0900765 -0.0264474 0.168602 58 43 55
0.0904851 -0.0263094 0.167722 58 43 55
0.0892855 -0.025711 0.163908 59 44 56
0.0911771 -0.0260056 0.165786 61 48 59
0.0909524 -0.0256968 0.163817 60 47 58
0.0958705 -0.0268332 0.171062 60 45 57
0.0947748 -0.0262809 0.167541 61 46 58
0.0932522 -0.0256215 0.163337 61 46 58
0.0948066 -0.0258117 0.16455 60 45 57
0.0984884 -0.0265726 0.1694 61 47 58
0.097958 -0.0261935 0.166983 62 48 59
0.0976717 -0.0258858 0.165022 60 46 57
0.101077 -0.0265533 0.169277 61 47 58
0.10147 -0.0264248 0.168458 60 47 58
0.101484 -0.0262006 0.167029 61 47 59
0.102697 -0.0262871 0.16758 61 48 58
0.101294 -0.0257082 0.16389 61 47 57
0.104118 -0.026203 0.167044 60 45 56
-0.132399 -0.0319412 0.210646 184 220 192
-0.127672 -0.0310596 0.204833 183 220 190
-0.136155 -0.0334041 0.220294 185 220 191
-0.13237 -0.032753 0.216 183 220 189
-0.12593 -0.0314281 0.207263 183 220 190
-0.126898 -0.0319452 0.210673 183 220 191
-0.122307 -0.0310596 0.204833 184 220 192
-0.121899 -0.0312299 0.205956 184 219 191
-0.124677 -0.0322266 0.212529 184 220 192
-0.119089 -0.0310596 0.204833 183 219 189
-0.11862 -0.0312186 0.205882 183 218 188
-0.116943 -0.0310596 0.204833 188 222 193
-0.117043 -0.031374 0.206906 182 219 188
-0.111389 -0.0301373 0.198751 182 219 188
-0.111451 -0.0304388 0.200739 180 217 188
-0.118298 -0.0326165 0.2151 183 218 188
-0.113227 -0.0315186 0.207859 181 219 188
-0.112693 -0.0316745 0.208888 182 220 190
-0.114346 -0.0324541 0.214029 183 219 189
-0.10782 -0.0309047 0.203811 188 220 191
-0.112183 -0.0324768 0.214179 184 219 187
-0.108988 -0.0318708 0.210182 178 215 180
-0.10672 -0.031526 0.207908 167 207 169
-0.0998546 -0.0298019 0.196539 170 204 169
-0.10762 -0.0324541 0.214029 165 198 163
-0.105564 -0.0321691 0.21215 160 193 155
-0.104575 -0.0322068 0.212398 146 179 140
-0.107287 -0.0333973 0.22025 142 168 124
-0.110476 -0.0347638 0.229261 124 152 108
-0.109716 -0.0349042 0.230187 112 130 96
-0.108982 -0.0350557 0.231187 101 110 83
-0.114745 -0.0373244 0.246148 94 94 76
-0.116458 -0.0383119 0.25266 88 87 71
-0.113089 -0.0376312 0.248172 86 84 70
-0.114699 -0.0386109 0.254632 86 84 74
-0.113281 -0.0385822 0.254443 83 76 71
-0.118545 -0.0408556 0.269436 79 72 69
-0.118074 -0.0411837 0.271599 77 70 67
-0.118232 -0.0417417 0.275279 77 69 68
-0.120872 -0.0432005 0.2849 78 70 69
-0.113383 -0.0410305 0.270589 76 67 67
-0.117411 -0.043026 0.283749 74 66 65
-0.115706 -0.0429448 0.283213 71 63 63
-0.116464 -0.0437872 0.288769 70 62 63
-0.113716 -0.0433167 0.285666 67 58 60
-0.109372 -0.0422176 0.278418 68 60 62
-0.0933447 -0.0365179 0.240829 69 60 63
-0.0876773 -0.0347706 0.229306 69 60 63
-0.0746654 -0.0300217 0.197988 69 60 63
-0.0777315 -0.0316947 0.209021 67 58 62
-0.0739222 -0.0305721 0.201618 68 59 62
-0.0683249 -0.0286667 0.189052 65 55 60
-0.0666932 -0.0283936 0.187251 64 54 59
-0.068015 -0.0293886 0.193812 65 55 60
-0.0658249 -0.0288731 0.190413 64 53 59
-0.0637951 -0.0284133 0.187381 64 53 59
-0.0634163 -0.0286859 0.189179 63 52 58
-0.0627305 -0.0288261 0.190103 62 51 58
-0.0592245 -0.027654 0.182373 63 52 59
-0.0596458 -0.0283073 0.186681 61 49 56
-0.0572769 -0.0276361 0.182255 62 49 57
-0.0576943 -0.0283093 0.186695 62 50 58
-0.0567575 -0.0283298 0.18683 62 51 59
-0.0550247 -0.0279467 0.184304 61 49 57
-0.0550035 -0.0284348 0.187523 62 49 57
-0.0553591 -0.029139 0.192167 61 48 56
-0.0518524 -0.0277986 0.183327 60 47 56
-0.0510977 -0.0279109 0.184068 59 45 55
-0.0501172 -0.0279017 0.184007 59 43 54
-0.0499595 -0.0283593 0.187025 59 45 54
-0.0473635 -0.0274234 0.180853 60 45 55
-0.0474141 -0.028013 0.184741 60 44 54
-0.0459473 -0.0277119 0.182755 59 42 53
-0.0456411 -0.0281129 0.1854 59 41 52
-0.0441903 -0.0278111 0.183409 57 37 51
-0.0431268 -0.0277449 0.182973 58 37 50
-0.0424068 -0.0279017 0.184007 56 32 48
-0.0412592 -0.0277779 0.183191 55 31 48
-0.0402406 -0.0277372 0.182922 54 28 47
-0.0391536 -0.0276462 0.182322 53 28 46
-0.0379358 -0.027456 0.181068 55 30 48
-0.0364308 -0.0270428 0.178343 55 27 47
-0.0359412 -0.0273815 0.180576 55 26 47
-0.0357832 -0.0279979 0.184641 55 29 48
-0.0342956 -0.0275793 0.181881 55 26 46
-0.0335018 -0.0277107 0.182747 54 25 45
-0.0327466 -0.0278827 0.183882 53 23 44
-0.0315096 -0.0276425 0.182297 53 23 46
-0.0305642 -0.027651 0.182354 54 24 47
-0.0295212 -0.027569 0.181813 54 29 49
-0.0281903 -0.0272036 0.179403 57 36 52
-0.027327 -0.0272798 0.179906 57 35 53
-0.0259019 -0.0267807 0.176614 57 38 54
-0.0256319 -0.0274831 0.181246 58 40 56
-0.024549 -0.0273343 0.180265 60 42 57
-0.0231574 -0.0268162 0.176848 60 43 57
-0.0221643 -0.0267357 0.176317 60 42 57
-0.0214861 -0.0270444 0.178353 60 42 58
-0.0206521 -0.0271762 0.179223 59 41 57
-0.0195834 -0.0269971 0.178041 59 42 58
-0.0185824 -0.026898 0.177388 59 43 58
-0.0177824 -0.0270947 0.178685 59 43 58
-0.0165003 -0.0265379 0.175013 59 43 58
-0.0157373 -0.0267997 0.176739 58 43 58
-0.0146313 -0.0264734 0.174588 58 44 59
-0.0139367 -0.0268977 0.177386 58 43 58
-0.0129521 -0.026783 0.176629 57 42 58
-0.0120638 -0.0268652 0.177171 57 41 58
-0.0110397 -0.0266332 0.175641 58 43 59
-0.0103154 -0.0271482 0.179038 59 43 60
-0.00924535 -0.0267653 0.176512 58 41 59
-0.00836741 -0.0269151 0.177501 57 41 59
-0.00729049 -0.0263824 0.173987 57 40 59
-0.00645195 -0.0266834 0.175972 57 41 60
-0.00562236 -0.0271278 0.178903 57 41 59
-0.00466523 -0.0270116 0.178137 59 44 61
-0.00368283 -0.0266544 0.175781 57 41 59
-0.00276076 -0.0266413 0.175695 57 42 59
-0.00182162 -0.0263679 0.173892 58 44 60
-0.00091916 -0.0266096 0.175486 58 44 60
0 -0.0265609 0.175165 59 47 62
0.000918736 -0.0265974 0.175405 60 48 62
0.00180652 -0.0261493 0.17245 58 46 61
0.00276625 -0.0266942 0.176044 60 46 61
0.0036205 -0.0262033 0.172807 59 46 61
0.00452658 -0.0262089 0.172843 59 46 61
0.0054294 -0.0261968 0.172763 58 44 60
0.00619126 -0.0256052 0.168862 58 44 60
0.0071611 -0.0259142 0.1709 59 46 61
0.00816413 -0.0262613 0.173189 58 44 60
0.00906107 -0.0262318 0.172994 58 44 60
0.00991823 -0.0261029 0.172144 57 44 60
0.0107362 -0.025901 0.170813 58 44 61
0.0118438 -0.0263752 0.17394 58 43 60
0.0124248 -0.0256927 0.169439 57 42 59
0.0134983 -0.0260516 0.171806 57 42 60
0.0139691 -0.0252752 0.166686 56 40 59
0.0152371 -0.0259478 0.171121 58 43 60
0.0159865 -0.0257116 0.169564 57 41 59
0.0171208 -0.0260867 0.172037 57 42 59
0.0180893 -0.0261842 0.17268 56 40 58
0.0188689 -0.0260121 0.171545 56 40 58
