ply
format ascii 1.0
element vertex 1245
property float x
property float y
property float z
property uchar red
property uchar green
property uchar blue
end_header
-0.28764 -0.406787 1.52545 64 48 52
-0.290121 -0.422019 1.58257 65 48 52
-0.280668 -0.420275 1.57603 65 50 53
-0.26367 -0.406787 1.52545 66 51 56
-0.264158 -0.420275 1.57603 66 51 56
-0.258225 -0.424089 1.59033 66 53 58
-0.255447 -0.433511 1.62567 65 51 58
-0.236611 -0.415391 1.55772 66 52 59
-0.212225 -0.385885 1.44707 66 54 61
-0.216043 -0.407376 1.52766 66 55 62
-0.204274 -0.4 1.5 64 53 61
-0.208246 -0.424089 1.59033 63 52 60
-0.188561 -0.4 1.5 64 54 63
-0.190651 -0.422019 1.58257 64 55 64
-0.176338 -0.408078 1.53029 65 56 65
-0.164991 -0.4 1.5 66 57 67
-0.1598 -0.406787 1.52545 65 57 67
-0.162839 -0.43634 1.63628 65 57 67
-0.132904 -0.375911 1.40967 65 57 67
-0.133564 -0.4 1.5 65 57 68
-0.122902 -0.391073 1.46652 65 57 69
-0.113316 -0.384609 1.44228 66 60 71
-0.107965 -0.392624 1.47234 65 60 70
-0.0982071 -0.384609 1.44228 68 63 74
-0.09588 -0.406787 1.52545 68 63 75
-0.0894732 -0.414115 1.55293 69 64 76
-0.0785669 -0.4 1.5 66 61 74
-0.0732053 -0.414115 1.55293 68 64 77
-0.0641229 -0.408078 1.53029 68 65 77
-0.0549969 -0.4 1.5 68 65 77
-0.0461882 -0.391922 1.46971 68 67 79
-0.0377719 -0.384609 1.44228 69 70 82
-0.0296968 -0.377981 1.41743 70 70 83
-0.0235701 -0.4 1.5 71 70 84
-0.0157134 -0.4 1.5 78 77 90
-0.00785669 -0.4 1.5 75 76 89
0 -0.408078 1.53029 75 78 91
0.00752435 -0.38308 1.43655 75 80 92
0.0149754 -0.381214 1.42955 77 81 93
0.0235701 -0.4 1.5 80 84 96
0.0308472 -0.392624 1.47234 84 89 102
0.0392835 -0.4 1.5 86 92 103
0.0471402 -0.4 1.5 89 94 105
0.0549969 -0.4 1.5 91 94 109
0.0628536 -0.4 1.5 97 100 113
0.0720142 -0.407376 1.52766 94 111 117
0.0785669 -0.4 1.5 104 122 125
0.08789 -0.406787 1.52545 97 116 118
0.0961843 -0.408078 1.53029 102 117 122
0.100074 -0.391922 1.46971 107 121 124
0.112215 -0.408078 1.53029 111 136 131
0.11785 -0.4 1.5 114 138 128
0.123574 -0.393213 1.47455 116 138 129
0.133564 -0.4 1.5 112 132 128
0.138813 -0.392624 1.47234 111 131 125
0.146524 -0.392624 1.47234 118 140 131
0.157134 -0.4 1.5 123 148 140
0.158011 -0.38308 1.43655 129 159 150
0.172847 -0.4 1.5 131 161 155
0.184036 -0.407376 1.52766 130 167 159
0.188561 -0.4 1.5 136 175 167
0.192451 -0.391922 1.46971 138 178 169
0.204274 -0.4 1.5 141 183 172
0.220293 -0.415391 1.55772 143 185 172
0.22443 -0.408078 1.53029 146 187 175
0.232929 -0.408927 1.53348 148 191 179
0.240461 -0.408078 1.53029 150 195 182
0.239066 -0.392624 1.47234 153 198 185
0.262049 -0.41692 1.56345 156 200 184
0.274885 -0.424089 1.59033 160 202 182
0.261166 -0.391073 1.46652 168 206 188
0.286616 -0.41692 1.56345 171 205 188
0.288057 -0.407376 1.52766 176 209 193
0.273191 -0.375911 1.40967 177 211 194
0.309089 -0.414115 1.55293 176 212 192
0.327888 -0.428037 1.60514 184 216 200
0.320063 -0.407376 1.52766 180 217 199
0.328065 -0.407376 1.52766 182 218 199
0.357626 -0.433511 1.62567 186 221 202
0.337838 -0.4 1.5 184 219 200
0.345695 -0.4 1.5 185 220 199
0.360071 -0.407376 1.52766 186 221 199
0.375314 -0.415391 1.55772 194 228 207
0.387982 -0.420275 1.57603 189 227 203
0.384076 -0.407376 1.52766 188 227 202
0.398562 -0.414115 1.55293 182 224 199
0.422821 -0.430533 1.6145 196 230 210
0.437094 -0.43634 1.63628 186 225 200
0.422964 -0.414115 1.55293 197 230 208
0.463459 -0.4452 1.6695 202 233 210
0.439232 -0.414115 1.55293 169 219 184
0.440087 -0.407376 1.52766 187 227 197
0.4555 -0.414115 1.55293 169 215 179
0.474801 -0.424089 1.59033 183 220 189
0.464092 -0.407376 1.52766 179 218 186
0.481381 -0.415391 1.55772 181 222 191
0.471402 -0.4 1.5 193 231 207
0.49617 -0.414115 1.55293 201 234 213
0.505858 -0.415391 1.55772 172 217 185
0.52478 -0.424089 1.59033 184 223 194
0.53311 -0.424089 1.59033 176 221 189
0.520998 -0.408078 1.53029 195 232 208
0.54977 -0.424089 1.59033 199 233 213
0.5581 -0.424089 1.59033 181 223 196
0.546178 -0.408927 1.53348 163 213 178
0.565044 -0.41692 1.56345 204 234 213
0.573233 -0.41692 1.56345 193 230 201
0.54656 -0.391922 1.46971 184 224 191
0.613073 -0.433511 1.62567 173 219 181
0.611658 -0.426586 1.5997 193 229 201
0.593137 -0.408078 1.53029 195 229 207
0.574558 -0.390025 1.46259 175 220 188
0.611999 -0.409975 1.53741 201 234 210
0.620051 -0.409975 1.53741 179 226 194
0.575916 -0.375911 1.40967 180 224 190
0.5833 -0.375911 1.40967 169 215 177
0.568035 -0.361497 1.35562 168 213 173
0.618413 -0.388699 1.45762 188 226 195
0.60545 -0.375911 1.40967 177 223 190
0.630858 -0.386967 1.45113 204 235 212
0.569841 -0.345378 1.29517 197 234 208
0.58894 -0.352754 1.32283 194 233 207
0.583409 -0.345378 1.29517 197 235 209
0.536423 -0.313912 1.17717 208 241 218
0.502564 -0.290756 1.09033 200 236 213
0.466164 -0.266667 1 175 218 180
0.434082 -0.245556 0.920833 176 218 179
0.367775 -0.20576 0.771599 210 240 219
0.339643 -0.187955 0.704833 196 236 215
0.287561 -0.157423 0.590334 171 224 194
0.16552 -0.0896487 0.336183 172 222 188
0.186265 -0.0998224 0.374334 176 223 189
0.116513 -0.061791 0.231716 175 221 185
0.107786 -0.0565733 0.21215 172 220 183
0.10225 -0.0531198 0.199199 199 234 209
0.108191 -0.0556386 0.208645 185 228 198
0.103425 -0.0526558 0.197459 201 234 210
0.107406 -0.0541411 0.203029 173 220 182
0.105524 -0.0526708 0.197516 203 236 211
0.107656 -0.0532133 0.19955 206 241 218
0.10048 -0.0491889 0.184458 171 226 191
0.103191 -0.0500349 0.187631 174 224 190
0.107056 -0.0514193 0.192822 179 226 194
0.0987793 -0.0470005 0.176252 189 231 205
0.106237 -0.0500809 0.187804 190 232 208
0.10429 -0.0487122 0.182671 201 237 214
0.111903 -0.0517929 0.194223 175 226 190
0.102222 -0.0468857 0.175821 201 236 209
0.100998 -0.0459107 0.172165 181 226 191
0.1012 -0.0455955 0.170983 194 234 204
0.0946646 -0.0422769 0.158538 206 241 218
0.0985996 -0.0436513 0.163693 172 226 195
0.0970216 -0.0425825 0.159684 191 232 203
0.0929307 -0.0404384 0.151644 173 223 184
0.0951223 -0.0410412 0.153905 194 232 202
0.0951309 -0.0407001 0.152625 189 230 197
-0.455513 -0.189469 0.724721 186 225 187
-0.413756 -0.173547 0.663817 185 223 187
-0.447921 -0.189469 0.724721 188 224 189
-0.41915 -0.178815 0.683967 187 223 188
-0.465561 -0.200327 0.76625 187 224 189
-0.453993 -0.197048 0.753707 189 225 190
-0.450045 -0.197048 0.753707 190 225 192
-0.41119 -0.181628 0.694728 189 225 190
-0.407987 -0.181823 0.695471 187 223 188
-0.420512 -0.189093 0.72328 191 226 193
-0.417553 -0.189469 0.724721 187 224 189
-0.407827 -0.186754 0.714334 188 225 190
-0.419871 -0.194049 0.742238 188 225 190
-0.420461 -0.196138 0.750228 189 225 191
-0.402369 -0.189469 0.724721 188 224 190
-0.429869 -0.204346 0.781624 191 226 193
-0.433152 -0.207887 0.795167 191 227 193
-0.40203 -0.194823 0.745199 190 226 192
-0.387186 -0.189469 0.724721 191 226 193
-0.398724 -0.197048 0.753707 192 227 193
-0.3969 -0.198108 0.757762 191 226 192
-0.423451 -0.213495 0.816618 189 226 192
-0.401211 -0.204346 0.781624 189 226 191
-0.400663 -0.206171 0.788604 191 227 194
-0.386774 -0.201097 0.769197 189 226 191
-0.385228 -0.202402 0.774187 190 226 193
-0.398032 -0.211354 0.808428 191 227 193
-0.400812 -0.215119 0.822829 191 227 194
-0.376647 -0.204346 0.781624 191 227 194
-0.389232 -0.213495 0.816618 192 227 194
-0.374843 -0.207887 0.795167 191 227 195
-0.373869 -0.209676 0.802012 191 227 194
-0.366513 -0.207887 0.795167 192 228 195
-0.369094 -0.211757 0.80997 191 227 194
-0.375033 -0.217666 0.832572 191 227 194
-0.389265 -0.228584 0.874334 190 227 193
-0.371357 -0.220664 0.844042 191 228 194
-0.35297 -0.212266 0.811916 189 227 194
-0.345269 -0.210167 0.803887 189 226 194
-0.345541 -0.212929 0.814453 190 227 195
-0.350952 -0.218966 0.837546 190 227 194
-0.352212 -0.222534 0.851194 190 227 195
-0.36177 -0.231504 0.885502 190 226 195
-0.340411 -0.220664 0.844042 190 227 195
-0.348048 -0.228584 0.874334 189 227 196
-0.331569 -0.220664 0.844042 188 227 195
-0.33364 -0.225043 0.860791 190 227 196
-0.316406 -0.216342 0.82751 187 226 195
-0.315342 -0.21861 0.836183 186 226 193
-0.332785 -0.233951 0.894863 185 225 192
-0.312706 -0.222976 0.852883 185 225 192
-0.321219 -0.232366 0.8888 187 225 192
-0.300622 -0.220664 0.844042 188 225 192
-0.306832 -0.228584 0.874334 188 222 189
-0.288342 -0.218064 0.834095 175 211 178
-0.28736 -0.220664 0.844042 174 202 164
-0.282939 -0.220664 0.844042 163 182 139
-0.267275 -0.211757 0.80997 139 155 119
-0.283934 -0.228584 0.874334 111 125 98
-0.285914 -0.233951 0.894863 98 110 89
-0.281227 -0.233951 0.894863 92 97 86
-0.30903 -0.261438 1 88 91 82
-0.247424 -0.212929 0.814453 83 79 77
-0.237401 -0.207887 0.795167 85 81 79
-0.293317 -0.261438 1 84 80 77
-0.288079 -0.261438 1 86 81 78
-0.282841 -0.261438 1 79 72 70
-0.258047 -0.24302 0.929553 80 72 71
-0.238138 -0.228584 0.874334 80 72 71
-0.267128 -0.261438 1 73 63 63
-0.238232 -0.237821 0.909666 75 64 64
-0.216625 -0.220664 0.844042 73 61 62
-0.251414 -0.261438 1 72 60 61
-0.246176 -0.261438 1 70 59 60
-0.240939 -0.261438 1 65 52 53
-0.235701 -0.261438 1 68 53 54
-0.230463 -0.261438 1 64 48 49
-0.225225 -0.261438 1 67 52 54
-0.265048 -0.314989 1.20483 65 49 51
-0.237328 -0.288925 1.10514 67 51 53
-0.260264 -0.324768 1.24224 65 49 51
-0.256928 -0.328827 1.25776 66 51 54
-0.291109 -0.382378 1.46259 64 48 51
-0.296568 -0.400076 1.53029 67 52 55
-0.287285 -0.398318 1.52357 66 52 54
-0.288922 -0.412034 1.57603 65 50 53
-0.27166 -0.398811 1.52545 66 51 55
-0.269247 -0.407246 1.55772 66 52 57
-0.25568 -0.398811 1.52545 66 52 57
-0.239066 -0.384925 1.47234 66 53 58
-0.240461 -0.400076 1.53029 66 53 59
-0.232445 -0.400076 1.53029 66 53 59
-0.212225 -0.378319 1.44707 65 53 60
-0.216415 -0.400076 1.53029 65 54 61
-0.215519 -0.413744 1.58257 65 54 61
-0.196417 -0.392157 1.5 64 53 61
-0.181907 -0.378319 1.44707 65 55 63
-0.189191 -0.410574 1.57045 65 55 64
-0.169357 -0.384237 1.46971 65 56 65
-0.162191 -0.385503 1.47455 66 57 66
-0.160307 -0.400076 1.53029 65 56 66
-0.149277 -0.392157 1.5 65 57 66
-0.135438 -0.375568 1.43655 66 58 68
-0.136261 -0.400076 1.53029 65 57 68
-0.118787 -0.37057 1.41743 65 58 69
-0.113316 -0.377068 1.44228 66 59 69
-0.107965 -0.384925 1.47234 67 61 71
-0.102137 -0.392157 1.5 68 62 73
-0.096019 -0.399389 1.52766 68 62 73
-0.0848299 -0.384925 1.47234 70 64 76
-0.0769803 -0.384237 1.46971 66 61 73
-0.0668178 -0.37057 1.41743 67 61 74
-0.0617871 -0.385503 1.47455 69 64 76
-0.0560111 -0.399389 1.52766 69 65 77
-0.0451461 -0.375568 1.43655 69 67 78
-0.0400768 -0.400076 1.53029 69 67 80
-0.0307921 -0.384237 1.46971 71 69 82
-0.0222726 -0.37057 1.41743 70 67 81
-0.014669 -0.366093 1.4003 72 70 84
-0.00755439 -0.377068 1.44228 73 73 86
0 -0.384237 1.46971 74 75 88
0.00725698 -0.362223 1.3855 72 73 86
0.0147671 -0.36854 1.40967 75 78 90
0.0225731 -0.375568 1.43655 77 81 92
0.0300974 -0.375568 1.43655 77 81 95
0.0366725 -0.366093 1.4003 81 85 97
0.0445452 -0.37057 1.41743 83 87 99
0.0549969 -0.392157 1.5 86 91 106
0.0601948 -0.375568 1.43655 87 96 109
0.0629879 -0.349329 1.33618 85 101 108
0.0752435 -0.375568 1.43655 84 102 106
0.0830983 -0.377068 1.44228 86 105 106
0.0857149 -0.356529 1.36372 93 108 108
0.102137 -0.392157 1.5 105 115 115
0.107772 -0.384237 1.46971 99 125 120
0.11547 -0.384237 1.46971 99 124 116
0.118787 -0.37057 1.41743 99 119 113
0.126211 -0.37057 1.41743 97 116 115
0.14142 -0.392157 1.5 98 120 117
0.146524 -0.384925 1.47234 111 133 126
0.142858 -0.356529 1.36372 118 144 137
0.168323 -0.400076 1.53029 117 144 136
0.172847 -0.392157 1.5 124 151 144
0.184737 -0.400909 1.53348 124 155 148
0.184753 -0.384237 1.46971 129 165 157
0.184589 -0.36854 1.40967 136 173 165
0.204274 -0.392157 1.5 132 175 165
0.198032 -0.366093 1.4003 137 179 169
0.210682 -0.375568 1.43655 145 184 174
0.227844 -0.392157 1.5 142 186 174
0.235701 -0.392157 1.5 141 186 174
0.243558 -0.392157 1.5 149 191 178
0.257025 -0.400909 1.53348 152 193 178
0.254872 -0.385503 1.47455 157 200 180
0.289507 -0.425011 1.62567 161 203 184
0.298022 -0.425011 1.62567 163 200 185
0.282841 -0.392157 1.5 167 204 188
0.308204 -0.415774 1.59033 169 208 189
0.311183 -0.408745 1.56345 167 208 189
0.312599 -0.400076 1.53029 168 209 190
0.320063 -0.399389 1.52766 173 211 191
0.322124 -0.392157 1.5 177 215 194
0.348146 -0.413744 1.58257 175 214 192
0.352129 -0.408745 1.56345 180 216 196
0.360318 -0.408745 1.56345 188 222 203
0.367155 -0.407246 1.55772 194 225 205
0.374161 -0.405995 1.55293 193 225 205
0.387982 -0.412034 1.57603 195 226 206
0.397881 -0.413744 1.58257 191 224 202
0.392077 -0.399389 1.52766 180 217 193
0.414459 -0.413744 1.58257 191 225 203
0.43426 -0.425011 1.62567 196 229 208
0.422964 -0.405995 1.55293 186 224 200
0.432427 -0.407246 1.55772 195 229 207
0.440586 -0.407246 1.55772 191 228 205
0.455905 -0.413744 1.58257 188 227 203
0.456904 -0.407246 1.55772 191 225 201
0.470531 -0.412034 1.57603 184 221 193
0.464092 -0.399389 1.52766 166 212 175
0.505658 -0.427784 1.63628 175 218 183
0.504443 -0.419644 1.60514 166 216 177
0.50564 -0.413744 1.58257 185 225 198
0.513929 -0.413744 1.58257 170 217 185
0.518218 -0.410574 1.57045 176 219 193
0.544954 -0.425011 1.62567 166 215 183
0.510685 -0.392157 1.5 169 216 183
0.50807 -0.384237 1.46971 183 223 196
0.546653 -0.407246 1.55772 187 225 199
0.545044 -0.400076 1.53029 175 219 189
0.542112 -0.392157 1.5 195 231 207
0.586522 -0.418221 1.5997 198 234 209
0.56909 -0.400076 1.53029 187 229 200
0.576114 -0.399389 1.52766 175 220 184
0.573539 -0.392157 1.5 207 236 214
0.581395 -0.392157 1.5 193 229 204
0.577352 -0.384237 1.46971 166 217 180
0.597109 -0.392157 1.5 203 236 214
0.522354 -0.338606 1.29517 192 233 208
0.553834 -0.354409 1.35562 186 230 199
0.587921 -0.37146 1.42083 191 231 202
0.575878 -0.359303 1.37433 201 234 210
0.561225 -0.345838 1.32283 195 231 204
0.527597 -0.32115 1.2284 170 220 185
0.589336 -0.354409 1.35562 188 229 201
0.517926 -0.307757 1.17717 183 228 200
0.50719 -0.297832 1.13921 193 233 208
0.486111 -0.282135 1.07917 197 235 211
0.38462 -0.220664 0.844042 171 223 191
0.379263 -0.215119 0.822829 188 229 201
0.40127 -0.225043 0.860791 170 215 173
0.345891 -0.19183 0.73375 166 215 169
0.271897 -0.149136 0.570447 191 231 202
0.197408 -0.107102 0.409665 203 237 218
0.199554 -0.107102 0.409665 170 223 193
0.119266 -0.0633302 0.242238 188 229 202
0.116312 -0.0611111 0.23375 204 237 214
0.105987 -0.0551065 0.210782 203 236 213
0.0942702 -0.0485091 0.185547 202 235 211
0.103137 -0.05253 0.200927 175 223 188
0.106214 -0.053551 0.204833 196 232 206
0.10405 -0.0519352 0.198652 190 230 202
0.104924 -0.0518528 0.198337 188 228 197
0.10344 -0.0506185 0.193616 194 233 205
0.111842 -0.0541987 0.20731 206 240 218
0.10785 -0.0517615 0.197988 174 227 195
0.103127 -0.0490233 0.187514 197 234 209
0.0983665 -0.0463192 0.177171 204 238 213
0.0976093 -0.0455331 0.174164 212 242 221
0.103306 -0.0477445 0.182623 179 228 197
0.101877 -0.0466521 0.178444 203 238 215
0.101836 -0.0462093 0.176751 181 227 194
0.106867 -0.0480551 0.183811 195 234 206
0.102496 -0.0456783 0.174719 202 238 212
0.107061 -0.0472903 0.180885 165 225 184
0.099459 -0.0435471 0.166568 203 240 214
0.102352 -0.0444241 0.169922 201 238 216
0.0960757 -0.0413405 0.158127 176 222 187
0.101347 -0.0432361 0.165378 189 229 198
0.0932291 -0.0394357 0.150842 193 230 205
0.0898429 -0.037684 0.144141 177 224 192
-0.42427 -0.172945 0.675013 185 224 187
-0.44572 -0.183215 0.7151 187 224 187
-0.423709 -0.175643 0.685547 188 223 188
-0.448412 -0.187472 0.731716 187 223 188
-0.445815 -0.187993 0.73375 185 223 188
-0.451898 -0.192215 0.750228 186 224 188
-0.478889 -0.205483 0.802012 187 224 189
-0.444038 -0.192215 0.750228 188 224 189
-0.435421 -0.190168 0.742238 177 219 180
-0.409787 -0.180585 0.704833 191 226 193
-0.417553 -0.18568 0.724721 189 225 191
-0.402403 -0.180585 0.704833 192 227 193
-0.409961 -0.18568 0.724721 189 225 191
-0.406165 -0.18568 0.724721 189 225 191
-0.422896 -0.195152 0.761692 192 226 193
-0.409836 -0.190927 0.745199 191 226 193
-0.436881 -0.205483 0.802012 190 226 193
-0.418789 -0.198886 0.776263 190 226 193
-0.39201 -0.187993 0.73375 191 227 193
-0.417185 -0.202048 0.788604 192 227 194
-0.384323 -0.187993 0.73375 193 228 195
-0.408924 -0.202048 0.788604 192 227 194
-0.392613 -0.195968 0.764875 192 228 195
-0.394393 -0.198886 0.776263 192 227 195
-0.399833 -0.203729 0.795167 190 226 192
-0.392402 -0.202048 0.788604 191 227 193
-0.361264 -0.187993 0.73375 191 227 193
-0.390672 -0.205483 0.802012 190 226 192
-0.376647 -0.200259 0.781624 191 227 194
-0.379008 -0.203729 0.795167 191 227 194
-0.384955 -0.209225 0.816618 191 227 193
-0.373869 -0.205483 0.802012 191 227 194
-0.366513 -0.203729 0.795167 192 228 194
-0.365843 -0.205694 0.802837 189 226 192
-0.375033 -0.213313 0.832572 190 227 193
-0.378452 -0.21779 0.850047 190 227 192
-0.365399 -0.212781 0.830499 190 227 193
-0.327265 -0.192871 0.752789 188 226 192
-0.370969 -0.221294 0.863725 190 227 194
-0.360642 -0.21779 0.850047 190 227 194
-0.336848 -0.205963 0.803887 191 227 195
-0.317905 -0.196841 0.768284 190 227 194
-0.339299 -0.212781 0.830499 190 227 194
-0.334949 -0.212781 0.830499 189 226 194
-0.327546 -0.210816 0.822829 190 227 195
-0.331569 -0.216251 0.844042 188 227 193
-0.332454 -0.219758 0.85773 187 226 193
-0.329131 -0.220543 0.860791 188 226 194
-0.303685 -0.206318 0.805271 185 226 192
-0.313885 -0.216251 0.844042 185 226 192
-0.315605 -0.220543 0.860791 185 225 193
-0.323411 -0.229272 0.894863 184 225 191
-0.300622 -0.216251 0.844042 185 225 191
-0.306832 -0.224012 0.874334 188 224 192
-0.302253 -0.224012 0.874334 180 219 187
-0.280138 -0.210816 0.822829 178 217 184
-0.271517 -0.207522 0.80997 171 213 177
-0.297914 -0.231311 0.90282 159 203 166
-0.277855 -0.219216 0.855615 144 178 144
-0.265349 -0.212781 0.830499 111 139 112
-0.281227 -0.229272 0.894863 98 113 91
-0.27654 -0.229272 0.894863 92 105 86
-0.287713 -0.242648 0.947071 86 98 84
-0.26437 -0.226874 0.885502 91 95 88
-0.215221 -0.187993 0.73375 87 85 81
-0.288079 -0.256209 1 86 81 78
-0.260449 -0.235926 0.920833 81 74 72
-0.277603 -0.256209 1 79 73 70
-0.247761 -0.233065 0.909666 79 72 70
-0.242997 -0.233065 0.909666 76 65 65
-0.208246 -0.203729 0.795167 74 63 63
-0.233467 -0.233065 0.909666 74 63 62
-0.231511 -0.235926 0.920833 71 60 59
-0.226687 -0.235926 0.920833 70 57 56
-0.26627 -0.283146 1.10514 71 59 59
-0.214409 -0.233065 0.909666 70 57 57
-0.206233 -0.229272 0.894863 71 57 58
-0.225225 -0.256209 1 66 50 51
-0.219987 -0.256209 1 64 48 50
-0.21475 -0.256209 1 67 51 53
-0.299508 -0.366265 1.42955 66 50 52
-0.280741 -0.352117 1.37433 66 52 53
-0.273542 -0.352117 1.37433 66 52 54
-0.290698 -0.384314 1.5 66 51 53
-0.28764 -0.390835 1.52545 66 53 56
-0.2928 -0.409212 1.59718 65 51 54
-0.272054 -0.391401 1.52766 67 53 56
-0.25449 -0.377227 1.47234 67 52 57
-0.251414 -0.384314 1.5 66 51 56
-0.260629 -0.411251 1.60514 65 53 57
-0.251366 -0.409857 1.5997 66 53 59
-0.218206 -0.368057 1.43655 65 53 59
-0.215545 -0.376553 1.46971 64 51 58
-0.194359 -0.352117 1.37433 64 53 60
-0.196414 -0.369526 1.44228 65 54 61
-0.200384 -0.392075 1.53029 66 55 63
-0.185083 -0.377227 1.47234 65 54 63
-0.184353 -0.392075 1.53029 65 54 63
-0.166197 -0.369526 1.44228 66 56 65
-0.158011 -0.368057 1.43655 66 56 65
-0.163781 -0.40057 1.56345 65 56 65
-0.146263 -0.376553 1.46971 64 54 64
-0.133636 -0.363158 1.41743 64 55 65
-0.133564 -0.384314 1.5 66 57 67
-0.118137 -0.361169 1.40967 66 58 68
-0.10959 -0.357377 1.39486 65 58 68
-0.11186 -0.390835 1.52545 66 59 69
-0.102137 -0.384314 1.5 66 60 70
-0.0961843 -0.392075 1.53029 66 60 71
-0.0830983 -0.369526 1.44228 67 60 71
-0.0769803 -0.376553 1.46971 66 59 71
-0.0707102 -0.384314 1.5 67 60 72
-0.0604351 -0.369526 1.44228 67 61 73
-0.0569375 -0.397875 1.55293 67 62 74
-0.0453263 -0.369526 1.44228 68 65 76
-0.0376217 -0.368057 1.43655 68 66 77
-0.0296968 -0.363158 1.41743 71 68 79
-0.0231354 -0.377227 1.47234 69 66 78
-0.0141546 -0.346188 1.35119 70 67 81
-0.00769803 -0.376553 1.46971 71 70 83
0 -0.348647 1.36079 70 70 82
0.00752435 -0.368057 1.43655 72 73 85
0.0150487 -0.368057 1.43655 72 75 86
0.0218228 -0.355823 1.3888 75 77 89
0.0302176 -0.369526 1.44228 76 78 91
0.0359924 -0.352117 1.37433 76 78 91
0.044007 -0.358771 1.4003 76 77 88
0.0503894 -0.352117 1.37433 77 84 94
0.0590683 -0.361169 1.40967 79 89 98
0.0653128 -0.354978 1.3855 76 90 97
0.0785669 -0.384314 1.5 77 92 100
0.078403 -0.348647 1.36079 77 94 98
0.0921763 -0.375737 1.46652 85 98 102
0.095986 -0.361169 1.40967 91 100 102
0.107772 -0.376553 1.46971 91 99 102
0.107977 -0.352117 1.37433 92 103 105
0.113236 -0.346188 1.35119 89 100 102
0.127914 -0.368057 1.43655 93 106 103
0.132904 -0.361169 1.40967 95 116 111
0.146263 -0.376553 1.46971 106 127 124
0.147671 -0.361169 1.40967 107 137 131
0.164991 -0.384314 1.5 112 143 137
0.166748 -0.370753 1.44707 116 147 142
0.169821 -0.361169 1.40967 117 147 142
0.188561 -0.384314 1.5 129 159 155
0.18886 -0.369526 1.44228 125 161 157
0.191972 -0.361169 1.40967 123 167 160
0.203157 -0.368057 1.43655 129 172 166
0.206739 -0.361169 1.40967 134 175 168
0.232046 -0.391401 1.52766 137 177 167
0.224631 -0.366265 1.42955 142 181 170
0.233255 -0.368057 1.43655 140 183 170
0.246337 -0.376553 1.46971 138 183 168
0.264507 -0.392075 1.53029 138 186 170
0.25104 -0.361169 1.40967 145 190 175
0.269431 -0.376553 1.46971 151 192 178
0.282841 -0.384314 1.5 153 193 179
0.278401 -0.368057 1.43655 158 199 183
0.292525 -0.376553 1.46971 162 204 186
0.319372 -0.40057 1.56345 165 207 186
0.327561 -0.40057 1.56345 169 207 185
0.316659 -0.377793 1.47455 170 207 185
0.329981 -0.384314 1.5 164 205 182
0.330298 -0.375737 1.46652 171 209 189
0.338713 -0.376553 1.46971 184 215 197
0.367155 -0.399101 1.55772 192 221 205
0.361408 -0.384314 1.5 183 217 198
0.369265 -0.384314 1.5 183 214 195
0.385537 -0.39289 1.53348 178 211 193
0.370165 -0.369526 1.44228 177 214 194
0.392835 -0.384314 1.5 188 223 201
0.408081 -0.391401 1.52766 190 225 204
0.401616 -0.377793 1.47455 190 225 204
0.431098 -0.397875 1.55293 189 225 205
0.432829 -0.392075 1.53029 191 228 208
0.424149 -0.377227 1.47234 188 227 206
0.458586 -0.40057 1.56345 196 229 211
0.437837 -0.375737 1.46652 194 227 206
0.447285 -0.377227 1.47234 194 227 205
0.479902 -0.397875 1.55293 180 220 188
0.48954 -0.399101 1.55772 206 233 211
0.508121 -0.407458 1.59033 192 228 202
0.497986 -0.39289 1.53348 187 226 200
0.522219 -0.405469 1.58257 193 228 204
0.502828 -0.384314 1.5 180 223 193
0.520998 -0.392075 1.53029 183 222 192
0.518542 -0.384314 1.5 180 221 189
0.515768 -0.376553 1.46971 169 216 180
0.546178 -0.39289 1.53348 200 231 207
0.542112 -0.384314 1.5 190 228 203
0.549969 -0.384314 1.5 200 234 211
0.557825 -0.384314 1.5 177 225 194
0.539115 -0.366265 1.42955 164 216 178
0.546603 -0.366265 1.42955 179 224 189
0.520946 -0.344356 1.34404 201 233 208
0.539886 -0.352117 1.37433 178 220 189
0.565595 -0.36403 1.42083 207 237 216
0.573037 -0.36403 1.42083 201 236 214
0.592854 -0.371792 1.45113 182 229 199
0.56868 -0.352117 1.37433 201 236 212
0.520527 -0.318273 1.24224 189 230 203
0.518462 -0.313096 1.22203 197 232 207
0.527597 -0.314727 1.2284 180 224 193
0.469154 -0.276492 1.07917 158 214 173
0.508593 -0.296167 1.15596 164 215 178
0.445213 -0.256209 1 166 215 177
0.380199 -0.216251 0.844042 202 234 210
0.351609 -0.197691 0.771599 178 222 189
0.288386 -0.160301 0.625666 189 228 199
0.250519 -0.137688 0.537405 188 226 193
0.221421 -0.120343 0.469708 185 226 192
0.1695 -0.0911119 0.355615 199 234 210
0.111659 -0.0593678 0.231716 185 229 202
0.112428 -0.0591338 0.230803 196 232 208
0.10085 -0.05248 0.204833 169 220 186
0.0843423 -0.0434278 0.169501 167 222 189
0.0976313 -0.0497466 0.194164 190 231 206
0.0900146 -0.0453928 0.177171 178 224 195
0.101863 -0.0508435 0.198445 172 220 189
0.0981205 -0.0484809 0.189224 207 236 216
0.0937764 -0.0458712 0.179038 179 222 193
0.0934319 -0.0452501 0.176614 171 219 185
0.100243 -0.0480728 0.187631 182 228 196
0.103592 -0.0491964 0.192017 188 231 202
0.0965105 -0.0453928 0.177171 180 224 192
0.104755 -0.0488015 0.190475 178 225 191
0.0988131 -0.0455989 0.177975 192 233 207
0.102604 -0.0469059 0.183076 182 230 201
0.100222 -0.0453928 0.177171 192 233 205
0.102452 -0.0459771 0.179451 188 230 200
0.098782 -0.043927 0.17145 183 226 192
0.10504 -0.046289 0.180669 170 223 185
0.102341 -0.0446971 0.174455 190 232 203
0.104651 -0.0453012 0.176813 185 232 199
0.100419 -0.0430882 0.168176 177 228 192
0.095708 -0.0407096 0.158892 200 238 213
0.0980722 -0.0413556 0.161413 176 222 186
0.0996646 -0.0416679 0.162632 189 228 197
0.0933089 -0.03868 0.150971 190 229 202
0.0972084 -0.0399579 0.155958 190 230 203
-0.455513 -0.181891 0.724721 186 224 187
-0.44572 -0.179476 0.7151 186 223 186
-0.422733 -0.171662 0.683967 187 223 187
-0.443242 -0.181529 0.72328 186 223 187
-0.428245 -0.176899 0.704833 188 224 189
-0.447084 -0.186287 0.742238 188 224 190
-0.431877 -0.181529 0.72328 189 225 190
-0.374119 -0.158644 0.632096 186 223 188
-0.425145 -0.181891 0.724721 179 220 181
-0.420512 -0.181529 0.72328 188 225 190
-0.406095 -0.176899 0.704833 191 226 192
-0.412935 -0.181529 0.72328 188 225 190
-0.428652 -0.190183 0.757762 190 226 192
-0.406165 -0.181891 0.724721 189 225 191
-0.413739 -0.18703 0.745199 188 225 190
-0.398574 -0.181891 0.724721 189 226 191
-0.414917 -0.19117 0.761692 192 227 194
-0.410927 -0.19117 0.761692 192 228 195
-0.428124 -0.201123 0.801348 192 227 194
-0.402948 -0.19117 0.761692 191 226 192
-0.378839 -0.181529 0.72328 191 227 193
-0.394969 -0.19117 0.761692 192 227 194
-0.394832 -0.193053 0.769197 190 226 192
-0.388607 -0.191969 0.764875 190 226 192
-0.381024 -0.190183 0.757762 192 227 193
-0.382745 -0.193053 0.769197 191 227 192
-0.356109 -0.181529 0.72328 191 227 194
-0.373252 -0.192314 0.76625 191 227 193
-0.374064 -0.194827 0.776263 191 227 194
-0.385329 -0.2029 0.808428 191 227 194
-0.381094 -0.2029 0.808428 192 227 194
-0.351351 -0.189166 0.753707 191 227 194
-0.360271 -0.196172 0.781624 192 228 194
-0.362348 -0.199571 0.795167 191 227 194
-0.375033 -0.208959 0.832572 191 227 194
-0.357433 -0.201496 0.802837 191 227 194
-0.363506 -0.207359 0.826197 190 227 193
-0.33821 -0.195254 0.777965 189 227 193
-0.344818 -0.201496 0.802837 190 227 193
-0.330061 -0.195254 0.777965 191 227 195
-0.347999 -0.208439 0.830499 190 227 194
-0.33596 -0.203775 0.811916 189 227 193
-0.328427 -0.20176 0.803887 191 227 195
-0.334949 -0.208439 0.830499 189 226 194
-0.345489 -0.217827 0.867904 189 226 194
-0.328482 -0.209865 0.836183 189 227 194
-0.32074 -0.207689 0.82751 188 226 193
-0.311413 -0.204412 0.814453 187 226 192
-0.339524 -0.225959 0.900304 184 225 191
-0.310963 -0.209865 0.836183 186 226 193
-0.299877 -0.205275 0.817894 186 226 193
-0.299069 -0.207689 0.82751 183 225 191
-0.274821 -0.193656 0.771599 185 225 192
-0.274297 -0.196172 0.781624 185 223 190
-0.299238 -0.217252 0.865614 186 224 193
-0.283973 -0.209342 0.834095 180 222 193
-0.266555 -0.199571 0.795167 181 223 194
-0.247046 -0.187901 0.748668 178 219 191
-0.263032 -0.203286 0.80997 168 211 179
-0.273374 -0.214743 0.855615 163 193 158
-0.281227 -0.224593 0.894863 144 167 134
-0.256649 -0.208439 0.830499 113 134 106
-0.269008 -0.222244 0.885502 94 112 89
-0.243158 -0.204412 0.814453 93 100 83
-0.256457 -0.219441 0.874334 92 90 82
-0.234627 -0.204412 0.814453 85 83 79
-0.247298 -0.219441 0.874334 85 81 77
-0.238958 -0.216042 0.860791 83 77 73
-0.210157 -0.193656 0.771599 80 73 71
-0.2198 -0.206514 0.822829 81 73 71
-0.26189 -0.25098 1 78 69 67
-0.198033 -0.193656 0.771599 75 63 63
-0.21982 -0.219441 0.874334 73 62 61
-0.272059 -0.277368 1.10514 70 58 57
-0.210661 -0.219441 0.874334 69 56 56
-0.235701 -0.25098 1 68 55 55
-0.254693 -0.277368 1.10514 70 55 56
-0.225225 -0.25098 1 66 49 51
-0.196859 -0.224593 0.894863 67 53 55
-0.252797 -0.295447 1.17717 67 52 54
-0.257364 -0.308304 1.2284 66 52 54
-0.264569 -0.325062 1.29517 68 56 57
-0.278711 -0.351449 1.4003 69 56 58
-0.28421 -0.368069 1.46652 68 55 57
-0.282841 -0.376471 1.5 67 55 57
-0.274984 -0.376471 1.5 66 53 55
-0.277406 -0.390956 1.55772 67 55 58
-0.259271 -0.376471 1.5 66 53 57
-0.242543 -0.363186 1.44707 66 51 57
-0.234186 -0.361985 1.44228 66 54 59
-0.230941 -0.368868 1.46971 66 54 60
-0.212701 -0.351449 1.4003 65 53 59
-0.199571 -0.341532 1.36079 66 55 60
-0.203969 -0.361985 1.44228 65 55 62
-0.199715 -0.368069 1.46652 64 53 60
-0.196417 -0.376471 1.5 65 55 62
-0.181305 -0.361985 1.44228 65 55 63
-0.165565 -0.344931 1.37433 65 55 63
-0.172847 -0.376471 1.5 65 56 64
-0.151168 -0.344931 1.37433 66 55 64
-0.157134 -0.376471 1.5 65 56 65
-0.140287 -0.353798 1.40967 65 56 65
-0.133636 -0.355747 1.41743 64 54 65
-0.127914 -0.360546 1.43655 65 56 66
-0.12087 -0.361985 1.44228 66 57 68
-0.113316 -0.361985 1.44228 65 56 67
-0.105761 -0.361985 1.44228 65 56 67
-0.095986 -0.353798 1.40967 65 58 68
-0.0923763 -0.368868 1.46971 66 60 71
-0.0848299 -0.369528 1.47234 67 60 71
-0.0707728 -0.339123 1.35119 67 60 71
-0.0664519 -0.353798 1.40967 66 59 70
-0.0604351 -0.361985 1.44228 67 61 72
-0.0519694 -0.355747 1.41743 67 62 73
-0.0447508 -0.357388 1.42397 67 62 74
-0.0349933 -0.335356 1.33618 68 65 76
-0.0314268 -0.376471 1.5 70 66 77
-0.0206545 -0.329902 1.31445 67 64 74
-0.0147671 -0.353798 1.40967 68 64 77
-0.00727425 -0.348562 1.3888 70 66 79
0 -0.351449 1.4003 68 65 77
0.00719848 -0.344931 1.37433 69 67 79
0.0139973 -0.335356 1.33618 70 68 80
0.0213826 -0.341532 1.36079 73 72 83
0.0275393 -0.329902 1.31445 71 70 83
0.0339191 -0.325062 1.29517 74 73 85
0.0436455 -0.348562 1.3888 75 73 85
0.0474867 -0.325062 1.29517 74 74 86
0.0601948 -0.360546 1.43655 71 76 87
0.0664519 -0.353798 1.40967 71 79 88
0.0690286 -0.330766 1.31789 72 83 91
0.0806796 -0.351449 1.4003 75 87 93
0.0923763 -0.368868 1.46971 78 88 93
0.0953486 -0.351449 1.4003 79 86 94
0.0990819 -0.339123 1.35119 81 87 95
0.107977 -0.344931 1.37433 78 87 94
0.110157 -0.329902 1.31445 87 97 102
0.122374 -0.344931 1.37433 91 105 100
0.129573 -0.344931 1.37433 95 113 105
0.128893 -0.325062 1.29517 94 114 115
0.14514 -0.347734 1.3855 97 128 124
0.154025 -0.351449 1.4003 101 134 128
0.162438 -0.353798 1.40967 105 137 135
0.172217 -0.35879 1.42955 104 137 135
0.181305 -0.361985 1.44228 110 142 140
0.184589 -0.353798 1.40967 113 146 145
0.195633 -0.360546 1.43655 109 151 148
0.208219 -0.369528 1.47234 115 159 157
0.201557 -0.344931 1.37433 117 158 159
0.214123 -0.353798 1.40967 125 159 160
0.230941 -0.368868 1.46971 122 162 155
0.233255 -0.360546 1.43655 128 170 158
0.230351 -0.344931 1.37433 127 172 161
0.254035 -0.368868 1.46971 134 174 167
0.262201 -0.369528 1.47234 142 178 172
0.259847 -0.355747 1.41743 140 177 172
0.277129 -0.368868 1.46971 138 180 170
0.274695 -0.355747 1.41743 141 184 171
0.305217 -0.384872 1.53348 154 195 181
0.313249 -0.384872 1.53348 157 198 181
0.307921 -0.368868 1.46971 161 197 181
0.329313 -0.384872 1.53348 159 197 180
0.336645 -0.384073 1.53029 154 195 176
0.331608 -0.369528 1.47234 165 204 184
0.326665 -0.355747 1.41743 174 208 189
0.339948 -0.361985 1.44228 170 207 188
0.361408 -0.376471 1.5 173 208 189
0.369265 -0.376471 1.5 159 199 181
0.363814 -0.363186 1.44707 169 207 191
0.399791 -0.390956 1.55772 171 209 193
0.392835 -0.376471 1.5 171 211 194
0.409634 -0.384872 1.53348 179 216 197
0.416799 -0.384073 1.53029 187 219 201
0.424814 -0.384073 1.53029 188 223 204
0.416438 -0.369528 1.47234 190 227 208
0.423392 -0.368868 1.46971 190 227 207
0.423046 -0.361985 1.44228 195 228 210
0.447832 -0.376471 1.5 193 228 209
0.455688 -0.376471 1.5 195 228 209
0.47389 -0.384872 1.53348 194 227 207
0.471402 -0.376471 1.5 192 227 204
0.479258 -0.376471 1.5 206 235 214
0.496952 -0.384073 1.53029 191 227 202
0.494972 -0.376471 1.5 199 233 211
0.502828 -0.376471 1.5 198 232 209
0.499288 -0.368069 1.46652 176 222 192
0.496607 -0.360546 1.43655 183 224 194
0.514651 -0.368069 1.46652 173 219 182
0.498746 -0.351449 1.4003 178 223 185
0.530014 -0.368069 1.46652 164 218 174
0.562242 -0.384872 1.53348 199 233 205
0.531627 -0.35879 1.42955 186 225 191
0.535826 -0.356601 1.42083 178 224 187
0.53102 -0.348562 1.3888 190 228 198
0.510812 -0.330766 1.31789 192 228 200
0.499528 -0.319147 1.2716 164 212 174
0.582219 -0.367083 1.46259 173 220 187
0.510692 -0.317804 1.26625 188 229 202
0.540439 -0.332004 1.32283 162 218 183
0.535922 -0.325062 1.29517 185 229 199
0.504853 -0.302389 1.20483 174 223 189
0.399775 -0.236495 0.942284 169 220 185
0.454288 -0.265466 1.05772 184 226 195
0.434737 -0.25098 1 190 228 198
0.358339 -0.204412 0.814453 204 233 214
0.326675 -0.184157 0.73375 189 227 204
0.287932 -0.160429 0.639209 190 229 200
0.21404 -0.117887 0.469708 185 226 195
0.18567 -0.1011 0.40282 191 228 200
0.167175 -0.0900062 0.358618 189 226 194
0.114191 -0.060797 0.242238 200 233 205
0.113871 -0.0599604 0.238905 206 237 215
0.108288 -0.0564005 0.224721 175 224 192
0.0921217 -0.0474646 0.189117 180 226 195
0.097807 -0.0498578 0.198652 169 220 185
0.0995411 -0.0502077 0.200046 196 233 208
0.0941876 -0.0470125 0.187316 201 236 215
0.098423 -0.0486201 0.193721 171 221 189
0.097208 -0.0475299 0.189377 177 222 190
0.0932753 -0.0451464 0.17988 175 221 187
0.0907466 -0.0434832 0.173253 179 224 194
0.0920768 -0.0436838 0.174053 195 234 209
0.0931035 -0.0437378 0.174268 207 239 218
0.0978989 -0.0455441 0.181465 189 232 204
0.100213 -0.0461722 0.183967 170 216 179
0.0951837 -0.0434375 0.173071 177 220 183
0.0993718 -0.0449209 0.178982 205 240 218
0.098085 -0.0439248 0.175013 194 237 212
0.10002 -0.0443766 0.176813 181 228 196
0.10175 -0.0447301 0.178222 204 238 214
0.103915 -0.0452667 0.180359 198 235 207
0.0997256 -0.0430502 0.171528 202 236 213
0.103087 -0.044104 0.175727 183 228 200
0.101268 -0.0429422 0.171098 196 234 209
0.10134 -0.0425958 0.169718 180 228 195
0.10336 -0.0430671 0.171595 199 236 210
0.0971225 -0.0401193 0.15985 187 229 200
0.0955747 -0.0391425 0.155958 198 234 208
0.097548 -0.0396121 0.157829 189 231 203
0.0972084 -0.0391425 0.155958 180 229 201
-0.436662 -0.170731 0.694728 185 224 187
-0.445243 -0.175549 0.714334 187 223 187
-0.429843 -0.170913 0.695471 186 223 186
-0.404118 -0.162058 0.659437 184 222 185
-0.422947 -0.171071 0.696112 186 223 187
-0.434915 -0.177441 0.722035 187 224 189
-0.410157 -0.168808 0.686904 187 224 188
-0.390302 -0.162058 0.659437 187 223 188
-0.430442 -0.18032 0.73375 184 222 185
-0.420512 -0.177747 0.72328 187 224 188
-0.411569 -0.175549 0.714334 189 225 191
-0.412935 -0.177747 0.72328 190 226 192
-0.387802 -0.168474 0.685547 190 226 192
-0.405358 -0.177747 0.72328 190 225 191
-0.37597 -0.166416 0.677171 188 225 191
-0.402421 -0.17982 0.731716 189 225 191
-0.383944 -0.173214 0.704833 191 226 192
-0.385378 -0.175549 0.714334 191 227 193
-0.376561 -0.173214 0.704833 191 227 193
-0.396884 -0.18437 0.750228 191 227 193
-0.38743 -0.181778 0.739681 191 226 192
-0.365485 -0.173214 0.704833 191 227 193
-0.388962 -0.186221 0.757762 192 227 193
-0.367474 -0.177747 0.72328 190 226 192
-0.386774 -0.189031 0.769197 192 227 193
-0.369331 -0.182406 0.742238 191 227 193
-0.347026 -0.173214 0.704833 190 226 192
-0.378129 -0.190768 0.776263 190 227 193
-0.370659 -0.189031 0.769197 190 227 193
-0.37588 -0.193801 0.788604 190 227 192
-0.374843 -0.195414 0.795167 191 227 193
-0.355073 -0.187187 0.761692 191 227 193
-0.351084 -0.187187 0.761692 193 228 195
-0.349171 -0.188307 0.76625 192 228 195
-0.358183 -0.195414 0.795167 190 227 193
-0.341144 -0.188307 0.76625 190 227 193
-0.362024 -0.202212 0.822829 191 227 194
-0.333117 -0.188307 0.76625 191 227 194
-0.334136 -0.191186 0.777965 190 227 194
-0.347611 -0.201352 0.819331 191 227 194
-0.325986 -0.191186 0.777965 192 228 195
-0.329029 -0.195414 0.795167 191 227 195
-0.317836 -0.191186 0.777965 191 227 195
-0.331855 -0.202212 0.822829 191 227 194
-0.308617 -0.190526 0.775279 189 227 194
-0.301809 -0.188807 0.768284 188 227 193
-0.297784 -0.188807 0.768284 191 228 196
-0.296435 -0.190526 0.775279 190 227 194
-0.292374 -0.190526 0.775279 189 227 195
-0.320114 -0.211541 0.860791 187 227 194
-0.291545 -0.195414 0.795167 188 227 195
-0.278862 -0.189622 0.771599 186 225 194
-0.303771 -0.209597 0.852883 185 225 193
-0.32315 -0.226296 0.920833 186 226 194
-0.304904 -0.216754 0.882004 184 225 193
-0.2527 -0.182406 0.742238 184 224 194
-0.250968 -0.183986 0.748668 181 223 191
-0.285636 -0.212726 0.865614 182 222 190
-0.248835 -0.188307 0.76625 184 221 190
-0.239204 -0.183986 0.748668 181 215 180
-0.249895 -0.195414 0.795167 164 200 164
-0.273647 -0.217613 0.885502 145 176 141
-0.271852 -0.219914 0.894863 118 139 109
-0.277522 -0.228439 0.929553 103 115 88
-0.276388 -0.231568 0.942284 93 95 77
-0.222281 -0.189622 0.771599 92 91 82
-0.157745 -0.13706 0.557716 88 86 78
-0.203691 -0.18032 0.73375 87 83 81
-0.229888 -0.207425 0.844042 84 79 77
-0.248309 -0.228439 0.929553 79 74 71
-0.26189 -0.245752 1 81 72 70
-0.204081 -0.195414 0.795167 79 70 68
-0.233703 -0.228439 0.929553 73 62 60
-0.207783 -0.207425 0.844042 74 62 61
-0.221864 -0.226296 0.920833 71 59 58
-0.174946 -0.182406 0.742238 70 58 58
-0.174636 -0.186221 0.757762 71 57 58
-0.225225 -0.245752 1 69 54 56
-0.247632 -0.276634 1.12567 66 52 53
-0.21475 -0.245752 1 68 54 55
-0.257364 -0.301881 1.2284 68 54 55
-0.246116 -0.29609 1.20483 69 57 58
-0.276422 -0.3413 1.3888 69 57 59
-0.28044 -0.35562 1.44707 69 57 59
-0.271958 -0.354444 1.44228 69 58 59
-0.27965 -0.374882 1.52545 68 56 59
-0.267128 -0.368627 1.5 67 55 58
-0.243657 -0.346428 1.40967 67 54 58
-0.237574 -0.348335 1.41743 66 52 57
-0.234963 -0.35562 1.44707 66 55 59
-0.235701 -0.368627 1.5 64 53 59
-0.208756 -0.337745 1.37433 66 55 61
-0.210682 -0.353034 1.43655 66 56 62
-0.220293 -0.382811 1.55772 65 54 61
-0.211482 -0.381635 1.55293 66 56 63
-0.192795 -0.36183 1.47234 65 55 62
-0.180584 -0.353034 1.43655 65 55 63
-0.173751 -0.354444 1.44228 66 55 63
-0.16899 -0.360401 1.46652 67 58 64
-0.172739 -0.38594 1.57045 65 54 63
-0.151088 -0.354444 1.44228 65 55 64
-0.140287 -0.346428 1.40967 66 57 66
-0.14142 -0.368627 1.5 64 53 64
-0.120314 -0.332058 1.35119 64 55 65
-0.116388 -0.3413 1.3888 66 58 67
-0.107977 -0.337745 1.37433 64 55 66
-0.107772 -0.361183 1.46971 65 55 66
-0.0905954 -0.326972 1.3305 66 58 68
-0.0906527 -0.354444 1.44228 65 57 68
-0.0830983 -0.354444 1.44228 66 58 68
-0.0719848 -0.337745 1.37433 66 58 68
-0.0636955 -0.332058 1.35119 66 58 69
-0.0590683 -0.346428 1.40967 66 58 69
-0.0500004 -0.335138 1.36372 66 59 70
-0.041309 -0.323029 1.31445 68 63 73
-0.0363713 -0.3413 1.3888 68 63 74
-0.0283091 -0.332058 1.35119 68 64 75
-0.0203515 -0.318289 1.29517 66 61 73
-0.014397 -0.337745 1.37433 67 61 73
-0.00712755 -0.334417 1.36079 66 60 72
0 -0.323875 1.31789 68 63 75
0.00712755 -0.334417 1.36079 67 64 76
0.0133208 -0.312498 1.2716 72 69 80
0.0215954 -0.337745 1.37433 67 65 75
0.0275393 -0.323029 1.31445 65 62 75
0.0339191 -0.318289 1.29517 71 69 81
0.0395274 -0.309097 1.25776 71 69 80
0.0467576 -0.313402 1.27528 71 70 82
0.0593936 -0.348335 1.41743 69 69 80
0.0641479 -0.334417 1.36079 66 69 80
0.0688484 -0.323029 1.31445 70 74 84
0.078403 -0.334417 1.36079 73 76 85
0.082618 -0.323029 1.31445 73 79 88
0.0909825 -0.328369 1.33618 75 82 90
0.0949735 -0.318289 1.29517 77 82 91
0.0983133 -0.307517 1.25133 77 83 91
0.108541 -0.318289 1.29517 86 93 99
0.115325 -0.318289 1.29517 90 100 99
0.132021 -0.344127 1.4003 91 104 102
0.142266 -0.351315 1.42955 91 107 110
0.142551 -0.334417 1.36079 93 118 118
0.146972 -0.328369 1.33618 95 126 124
0.15397 -0.328369 1.33618 94 125 124
0.163934 -0.334417 1.36079 101 132 132
0.179705 -0.351315 1.42955 105 136 136
0.174966 -0.328369 1.33618 105 136 136
0.19468 -0.351315 1.42955 104 133 134
0.199356 -0.346428 1.40967 112 140 142
0.189947 -0.318289 1.29517 116 143 147
0.196731 -0.318289 1.29517 120 147 149
0.218228 -0.3413 1.3888 116 145 144
0.21343 -0.323029 1.31445 122 156 153
0.234704 -0.344127 1.4003 121 160 155
0.247094 -0.351315 1.42955 124 162 156
0.246737 -0.340489 1.3855 126 163 158
0.269913 -0.36183 1.47234 125 163 159
0.270877 -0.353034 1.43655 138 173 169
0.273191 -0.346428 1.40967 133 173 165
0.292525 -0.361183 1.46971 147 187 173
0.287958 -0.346428 1.40967 149 187 172
0.307921 -0.361183 1.46971 150 184 169
0.295138 -0.337745 1.37433 143 186 170
0.316023 -0.353034 1.43655 146 188 172
0.330298 -0.360401 1.46652 160 198 180
0.345695 -0.368627 1.5 163 200 180
0.338596 -0.353034 1.43655 159 197 178
0.368073 -0.375425 1.52766 157 194 174
0.369265 -0.368627 1.5 163 198 180
0.384737 -0.376072 1.53029 166 201 184
0.393569 -0.376854 1.53348 164 204 187
0.392835 -0.368627 1.5 165 205 189
0.392599 -0.361183 1.46971 168 205 191
0.42583 -0.384221 1.56345 173 208 193
0.398791 -0.353034 1.43655 178 213 194
0.416438 -0.36183 1.47234 182 218 199
0.423392 -0.361183 1.46971 187 222 203
0.439975 -0.368627 1.5 192 225 208
0.456875 -0.376072 1.53029 187 224 205
0.446486 -0.361183 1.46971 191 226 207
0.463545 -0.368627 1.5 193 226 208
0.471402 -0.368627 1.5 197 228 209
0.479258 -0.368627 1.5 198 229 208
0.476244 -0.360401 1.46652 195 227 203
0.485844 -0.36183 1.47234 209 237 220
0.502828 -0.368627 1.5 199 232 211
0.510685 -0.368627 1.5 183 225 194
0.484077 -0.344127 1.4003 204 232 208
0.506144 -0.354444 1.44228 205 234 210
0.534255 -0.368627 1.5 202 233 206
0.501923 -0.3413 1.3888 170 217 172
0.516848 -0.346428 1.40967 203 231 202
0.499827 -0.3303 1.34404 194 228 197
0.523746 -0.3413 1.3888 173 222 183
0.503909 -0.323875 1.31789 196 231 203
0.532688 -0.337745 1.37433 186 224 194
0.508787 -0.318289 1.29517 179 218 187
0.465546 -0.287407 1.1695 182 222 191
0.471672 -0.287407 1.1695 186 225 196
0.477798 -0.287407 1.1695 198 233 210
0.461164 -0.27389 1.1145 191 231 203
0.371046 -0.217613 0.885502 204 235 212
0.311302 -0.18032 0.73375 172 221 187
0.334136 -0.191186 0.777965 165 216 177
0.251785 -0.142331 0.579167 159 214 172
0.234716 -0.131102 0.533475 199 233 212
0.19691 -0.108692 0.442284 182 224 199
0.157305 -0.0858207 0.349217 163 214 180
0.129826 -0.0700147 0.2849 176 220 190
0.124473 -0.0663654 0.270051 167 215 180
0.102281 -0.0539202 0.219409 163 214 171
0.0908968 -0.0473864 0.192822 178 221 185
0.0898526 -0.0463273 0.188513 207 237 215
0.0987042 -0.050338 0.204833 200 234 211
0.0958016 -0.0483323 0.196671 191 231 204
0.0905769 -0.0452103 0.183967 168 220 184
0.0890876 -0.0439989 0.179038 200 234 210
0.089639 -0.0438101 0.17827 197 235 210
0.0912771 -0.0441507 0.179656 194 233 206
0.0883566 -0.042302 0.172133 196 232 205
0.0938794 -0.0444921 0.181045 191 230 203
0.090509 -0.0424658 0.1728 172 222 188
0.0953418 -0.0442904 0.180224 184 229 203
0.0935016 -0.0430097 0.175013 195 234 213
0.0952028 -0.0433671 0.176467 190 231 207
0.0985803 -0.0444738 0.180971 179 220 188
0.0974385 -0.0435401 0.177171 180 225 194
0.0965474 -0.0427349 0.173895 174 229 200
0.100028 -0.0438615 0.178479 192 236 211
0.0998565 -0.0433811 0.176524 196 236 210
0.100394 -0.0432145 0.175846 182 229 195
0.10431 -0.0444921 0.181045 185 229 198
0.102436 -0.0432988 0.176189 198 235 210
0.101795 -0.0426438 0.173524 180 228 198
0.105658 -0.0438705 0.178516 197 235 210
0.0996068 -0.0409951 0.166815 195 234 206
0.102942 -0.0419995 0.170902 210 240 217
0.104158 -0.0421293 0.17143 190 230 200
0.102845 -0.0412427 0.167823 177 226 196
0.0985135 -0.0391707 0.159391 192 233 208
0.0972084 -0.038327 0.155958 210 243 227
-0.454607 -0.173965 0.72328 186 224 187
-0.451717 -0.174312 0.724721 186 223 186
-0.424548 -0.165216 0.686904 186 223 186
-0.404118 -0.15861 0.659437 187 224 188
-0.449419 -0.17791 0.739681 186 223 187
-0.403272 -0.16103 0.669501 187 224 188
-0.389688 -0.156971 0.652625 189 225 190
-0.396258 -0.16103 0.669501 191 225 192
-0.403653 -0.1655 0.688083 192 225 192
-0.409787 -0.169528 0.704833 189 224 190
-0.385738 -0.16103 0.669501 189 225 191
-0.402403 -0.169528 0.704833 189 225 191
-0.403713 -0.171655 0.713674 189 225 191
-0.373744 -0.160398 0.666871 189 225 191
-0.38613 -0.167277 0.695471 189 225 191
-0.378424 -0.1655 0.688083 188 225 190
-0.364698 -0.16103 0.669501 187 224 189
-0.37058 -0.165216 0.686904 189 226 191
-0.381284 -0.171655 0.713674 195 228 196
-0.387091 -0.175995 0.731716 192 227 193
-0.364902 -0.167565 0.696671 190 226 192
-0.383556 -0.17791 0.739681 192 227 194
-0.370623 -0.173666 0.722035 190 226 192
-0.366841 -0.173666 0.722035 189 226 192
-0.345988 -0.1655 0.688083 189 226 192
-0.336954 -0.162875 0.677171 189 226 192
-0.365443 -0.178525 0.742238 191 227 193
-0.347641 -0.171655 0.713674 191 227 193
-0.367042 -0.183204 0.761692 191 227 193
-0.335951 -0.169528 0.704833 192 228 194
-0.344932 -0.175995 0.731716 191 227 193
-0.355073 -0.183204 0.761692 191 227 193
-0.329255 -0.171814 0.714334 192 228 194
-0.325213 -0.171655 0.713674 192 228 194
-0.348733 -0.18621 0.774187 192 228 194
-0.350761 -0.189496 0.78785 192 228 195
-0.340623 -0.18621 0.774187 192 228 194
-0.320017 -0.177053 0.736117 192 228 194
-0.316162 -0.177053 0.736117 191 228 195
-0.303771 -0.172214 0.716 192 228 195
-0.315436 -0.181063 0.752789 190 227 194
-0.325608 -0.189267 0.7869 191 227 195
-0.311538 -0.18341 0.762549 191 227 194
-0.320699 -0.191256 0.795167 191 228 194
-0.316534 -0.191256 0.795167 191 228 195
-0.312369 -0.191256 0.795167 190 227 194
-0.308204 -0.191256 0.795167 188 226 192
-0.289737 -0.182259 0.757762 189 227 193
-0.281443 -0.1795 0.746293 189 227 194
-0.288314 -0.186472 0.775279 189 227 194
-0.284253 -0.186472 0.775279 187 226 194
-0.271537 -0.180712 0.751332 186 225 193
-0.267602 -0.180712 0.751332 186 226 193
-0.296202 -0.203011 0.844042 186 226 192
-0.274885 -0.191256 0.795167 184 226 192
-0.280138 -0.197909 0.822829 183 224 189
-0.248812 -0.178525 0.742238 184 224 192
-0.256714 -0.187118 0.777965 183 222 192
-0.263032 -0.194816 0.80997 181 221 189
-0.248564 -0.187118 0.777965 180 220 187
-0.254547 -0.194816 0.80997 176 216 184
-0.24573 -0.191256 0.795167 168 205 167
-0.241566 -0.191256 0.795167 158 194 157
-0.226233 -0.182259 0.757762 131 163 127
-0.238893 -0.195895 0.814453 115 132 103
-0.222281 -0.185587 0.771599 94 106 83
-0.243467 -0.20704 0.860791 85 97 78
-0.202206 -0.175197 0.7284 88 92 82
-0.210157 -0.185587 0.771599 87 84 80
-0.248309 -0.223579 0.929553 87 83 78
-0.221046 -0.203011 0.844042 83 77 73
-0.194481 -0.182259 0.757762 81 73 70
-0.193991 -0.185587 0.771599 81 72 70
-0.202561 -0.197909 0.822829 77 66 64
-0.198251 -0.197909 0.822829 74 62 62
-0.187422 -0.191256 0.795167 72 61 61
-0.206233 -0.215235 0.894863 71 59 60
-0.225225 -0.240523 1 70 57 58
-0.219987 -0.240523 1 69 57 58
-0.234149 -0.26225 1.09033 70 57 59
-0.226098 -0.259564 1.07917 70 59 59
-0.246116 -0.28979 1.20483 70 59 60
-0.276422 -0.334038 1.3888 68 57 59
-0.264288 -0.328007 1.36372 69 60 60
-0.270877 -0.345523 1.43655 69 58 59
-0.259847 -0.340924 1.41743 67 56 58
-0.267128 -0.360784 1.5 67 55 57
-0.244999 -0.340924 1.41743 67 56 59
-0.225274 -0.323273 1.34404 66 55 59
-0.234186 -0.346902 1.44228 66 54 59
-0.218228 -0.334038 1.3888 66 56 61
-0.23171 -0.366906 1.52545 65 55 60
-0.211523 -0.346902 1.44228 64 54 60
-0.203157 -0.345523 1.43655 66 57 63
-0.184009 -0.324993 1.35119 67 57 63
-0.174966 -0.321382 1.33618 65 55 62
-0.184753 -0.353498 1.46971 65 55 62
-0.17306 -0.345523 1.43655 65 55 62
-0.161359 -0.336805 1.4003 66 56 64
-0.151168 -0.330559 1.37433 64 54 62
-0.14669 -0.336805 1.4003 66 57 65
-0.134468 -0.324993 1.35119 65 56 65
-0.130626 -0.333245 1.3855 65 54 64
-0.117042 -0.316156 1.31445 66 56 66
-0.111978 -0.321382 1.33618 66 56 66
-0.103543 -0.316984 1.31789 65 55 66
-0.100779 -0.330559 1.37433 64 54 65
-0.0909825 -0.321382 1.33618 64 55 66
-0.0814059 -0.311517 1.29517 65 56 67
-0.0766577 -0.320015 1.3305 64 55 66
-0.0699865 -0.321382 1.33618 66 56 67
-0.0653128 -0.333245 1.3855 63 53 65
-0.0601948 -0.345523 1.43655 65 56 67
-0.049541 -0.324993 1.35119 66 58 68
-0.041309 -0.316156 1.31445 65 58 68
-0.0359924 -0.330559 1.37433 64 58 69
-0.0246631 -0.283137 1.17717 64 56 69
-0.0183203 -0.280427 1.1659 63 56 68
-0.0131084 -0.300974 1.25133 66 59 71
-0.00678382 -0.311517 1.29517 65 57 69
0 -0.281292 1.1695 65 59 70
0.00666038 -0.305849 1.2716 66 61 73
0.0133593 -0.306734 1.27528 68 63 75
0.018932 -0.28979 1.20483 67 62 73
0.0266415 -0.305849 1.2716 67 62 73
0.0299703 -0.275251 1.14438 67 63 74
0.0400779 -0.306734 1.27528 71 67 78
0.04832 -0.316984 1.31789 68 64 76
0.0527032 -0.302521 1.25776 66 65 77
