ply
format ascii 1.0
element vertex 1207
property float x
property float y
property float z
property uchar red
property uchar green
property uchar blue
end_header
0.0355914 0.00654499 0.178818 54 39 58
0.0368428 0.00660139 0.180359 54 39 57
0.0368029 0.0064294 0.17566 54 39 58
0.0376999 0.00642547 0.175553 54 39 57
0.0392065 0.00652314 0.178222 53 37 56
0.0402993 0.00654902 0.178929 55 39 58
0.0404057 0.00641709 0.175324 54 39 57
0.0412949 0.00641257 0.1752 55 40 58
0.0422423 0.00641709 0.175324 54 39 57
0.0426372 0.00633927 0.173198 54 38 57
0.0440618 0.0064146 0.175256 54 39 57
0.045185 0.00644386 0.176055 54 39 57
0.0446871 0.0062454 0.170633 55 40 57
0.045484 0.00623213 0.170271 54 38 57
0.046781 0.00628658 0.171758 54 38 56
0.0486163 0.00640995 0.175129 53 37 56
0.0498097 0.00644567 0.176105 53 37 56
0.0503623 0.00639868 0.174821 54 37 56
0.0503148 0.00627849 0.171537 53 36 55
0.0512986 0.00628895 0.171823 54 36 55
0.0523501 0.00630722 0.172322 54 36 55
0.0539752 0.00639278 0.17466 53 35 54
0.0562713 0.00655365 0.179055 52 33 54
0.0566432 0.00648882 0.177284 53 35 54
0.0579843 0.00653532 0.178554 53 34 54
0.0587666 0.00651836 0.178091 53 33 53
0.0597365 0.00652241 0.178202 53 32 53
0.0607526 0.00653129 0.178444 53 33 53
0.0594412 0.0062935 0.171947 54 34 53
0.0618912 0.00645509 0.176362 51 27 47
0.0624145 0.00641393 0.175238 50 26 46
0.0639891 0.00648045 0.177055 51 24 45
0.0662171 0.00661028 0.180602 48 20 40
0.067687 0.00666185 0.182011 48 20 40
0.067817 0.00658194 0.179828 45 17 35
0.0700141 0.00670209 0.183111 46 18 37
0.0695867 0.00657117 0.179534 46 18 37
0.0720022 0.00670861 0.183289 47 18 37
0.0714674 0.00657117 0.179534 47 18 37
0.0728516 0.00661145 0.180634 48 19 38
0.0717535 0.0064283 0.17563 52 23 42
0.0748719 0.00662277 0.180944 51 23 42
0.0757768 0.00661903 0.180841 51 25 43
0.0757771 0.00653734 0.178609 55 32 47
0.0766636 0.00653316 0.178495 55 31 47
0.0799975 0.00673514 0.184014 56 36 51
0.0791055 0.00658075 0.179796 56 37 51
0.0784214 0.00644709 0.176144 57 39 53
0.0808245 0.00656739 0.17943 57 38 52
0.0818568 0.00657481 0.179633 57 39 54
0.0817276 0.00648984 0.177312 56 39 53
0.084083 0.00660186 0.180372 56 39 53
0.084652 0.00657268 0.179575 57 40 54
0.0868286 0.00666759 0.182168 58 43 55
0.0832065 0.00632 0.172671 57 42 55
0.0859958 0.00646163 0.176541 57 42 55
0.0904725 0.00672569 0.183755 57 43 55
0.0880774 0.00647872 0.177008 57 42 55
0.0927726 0.006753 0.184502 57 43 55
0.0900146 0.00648469 0.177171 58 43 55
0.0910327 0.00649112 0.177347 57 42 55
0.0927212 0.00654473 0.178811 56 41 54
0.0934972 0.00653351 0.178505 55 39 53
0.091535 0.00633306 0.173028 56 39 53
0.0936604 0.00641658 0.17531 56 39 53
0.0979102 0.00664261 0.181486 55 38 52
0.0968788 0.00650944 0.177847 57 40 53
0.101323 0.0067432 0.184234 55 38 51
0.101563 0.00669543 0.182929 56 38 51
0.10134 0.00661828 0.180821 55 37 51
0.105729 0.00684095 0.186905 54 36 51
0.103968 0.00666532 0.182106 54 35 49
0.109487 0.00695536 0.19003 52 34 48
0.110483 0.00695536 0.19003 52 34 48
0.108848 0.00679127 0.185547 52 34 47
0.105282 0.00651065 0.17788 53 35 48
0.102479 0.00628173 0.171626 53 33 48
0.11381 0.00691559 0.188944 54 34 48
0.109177 0.00657691 0.179691 53 32 47
0.112739 0.00673345 0.183967 53 33 47
0.114888 0.00680362 0.185885 52 32 47
0.118103 0.00693526 0.189481 53 31 47
-0.333308 0.0221822 0.530292 167 214 180
-0.359802 0.0241466 0.577255 166 214 179
-0.336437 0.0227699 0.544343 164 213 177
-0.323363 0.0220721 0.527662 164 211 174
-0.327444 0.0225434 0.538928 171 214 182
-0.367202 0.0255004 0.60962 173 214 185
-0.364009 0.0255004 0.60962 173 213 184
-0.310999 0.0219797 0.525451 182 219 191
-0.332898 0.0237374 0.567472 179 218 188
-0.29768 0.0214174 0.51201 180 218 188
-0.288079 0.020915 0.5 180 218 186
-0.306815 0.0224797 0.537405 177 216 183
-0.282841 0.020915 0.5 175 218 185
-0.29343 0.0219009 0.523568 173 220 186
-0.296189 0.0223153 0.533475 172 220 184
-0.281126 0.0213822 0.511168 172 219 186
-0.272365 0.020915 0.5 174 219 185
-0.275771 0.0213822 0.511168 175 219 183
-0.237369 0.018585 0.444299 178 221 186
-0.252486 0.0199644 0.477273 173 218 181
-0.244356 0.0195148 0.466525 176 220 186
-0.241912 0.0195148 0.466525 175 219 185
-0.245763 0.0200277 0.478787 173 218 185
-0.232502 0.0191423 0.457621 174 218 187
-0.23079 0.0191994 0.458985 176 219 186
-0.217223 0.0182609 0.436549 176 219 186
-0.214936 0.0182609 0.436549 175 219 188
-0.203764 0.0174978 0.418307 175 219 186
-0.205889 0.0178725 0.427263 173 218 182
-0.208076 0.0182609 0.436549 173 217 182
-0.201413 0.0178725 0.427263 173 216 182
-0.17838 0.0160065 0.382655 171 216 186
-0.17254 0.0156584 0.374334 178 220 193
-0.17254 0.0158383 0.378635 182 221 196
-0.184534 0.0171363 0.409665 145 202 164
-0.185037 0.0173852 0.415615 177 215 190
-0.177588 0.0168839 0.403631 154 208 175
-0.160904 0.0154821 0.370118 164 215 189
-0.162474 0.0158238 0.378288 150 211 181
-0.157027 0.0154821 0.370118 147 210 179
-0.148362 0.0148106 0.354066 161 215 189
-0.140364 0.0141896 0.339219 172 220 199
-0.141562 0.0144941 0.3465 149 213 185
-0.129108 0.0133906 0.32012 145 211 182
-0.117498 0.0123469 0.295167 163 213 186
-0.115952 0.0123469 0.295167 162 213 185
-0.103684 0.0111898 0.267506 158 210 180
-0.105256 0.011515 0.275279 158 208 177
-0.105817 0.0117371 0.280591 161 210 180
-0.102907 0.0115752 0.27672 151 208 174
-0.101458 0.0115752 0.27672 153 210 178
-0.0908333 0.0105132 0.251332 151 212 180
-0.0790821 0.00928772 0.222035 167 219 192
-0.0756369 0.00901569 0.215531 159 212 182
-0.074094 0.0089656 0.214334 158 212 185
-0.0675621 0.00830099 0.198445 180 223 202
-0.0722006 0.00900951 0.215383 164 216 188
-0.0696304 0.0088267 0.211013 142 204 167
-0.0659712 0.00849772 0.203149 156 211 179
-0.0634112 0.00830188 0.198467 141 204 169
-0.0648446 0.00863102 0.206335 162 212 186
-0.0601351 0.00813984 0.194593 176 220 201
-0.0601471 0.00828184 0.197988 158 212 190
-0.0594206 0.00832535 0.199028 155 210 182
-0.057751 0.00823591 0.19689 151 209 179
-0.0546447 0.00793461 0.189687 161 213 187
-0.055257 0.0081721 0.195364 157 211 186
-0.0548987 0.00827229 0.197759 155 210 186
-0.0538244 0.00826639 0.197618 134 199 169
-0.0517085 0.00809714 0.193572 162 211 189
-0.0496687 0.00793328 0.189655 171 216 195
-0.0499903 0.00814759 0.194778 163 212 187
-0.0480105 0.00798795 0.190962 178 218 197
-0.0468159 0.00795492 0.190172 143 202 173
-0.0467204 0.00811126 0.19391 144 197 166
-0.0444435 0.00788744 0.188559 142 189 155
-0.0436149 0.00791629 0.189249 130 184 150
-0.0434415 0.0080682 0.19288 121 179 143
-0.0431147 0.00819816 0.195987 146 193 162
-0.0413834 0.00806087 0.192705 137 187 150
-0.0400886 0.00800389 0.191343 138 184 146
-0.0401666 0.00822509 0.196631 118 168 126
-0.0378669 0.00795823 0.190251 117 163 123
-0.0380909 0.00822165 0.196549 127 165 134
-0.0362676 0.00804556 0.192339 114 151 127
-0.0347275 0.00792402 0.189434 120 156 133
-0.0336297 0.00789922 0.188841 116 150 132
-0.0324075 0.00784281 0.187492 96 118 105
-0.0305713 0.00762964 0.182396 97 117 100
-0.0303064 0.00780752 0.186649 97 113 96
-0.0292682 0.00779139 0.186263 84 100 84
-0.0286804 0.00789819 0.188816 79 94 81
-0.0271172 0.0077344 0.1849 82 84 79
-0.0265132 0.00784221 0.187478 74 70 69
-0.0258343 0.00793529 0.189703 69 63 64
-0.0244485 0.00781002 0.186708 63 54 57
-0.0237173 0.00789214 0.188671 62 48 56
-0.0218218 0.00757709 0.18114 61 47 56
-0.0207802 0.00754338 0.180334 58 44 55
-0.0202353 0.00769537 0.183967 59 50 59
-0.0192938 0.00770422 0.184179 60 46 57
-0.0184368 0.00774945 0.18526 61 45 57
-0.0169592 0.00752439 0.17988 57 42 55
-0.0163967 0.00770278 0.184144 56 44 56
-0.0154173 0.00769537 0.183967 58 47 57
-0.0147612 0.00785907 0.187881 57 44 56
-0.0138361 0.00789269 0.188685 59 47 58
-0.0126033 0.00774251 0.185094 60 49 59
-0.0117648 0.00782968 0.187178 61 51 60
-0.0106541 0.00773509 0.184917 59 47 59
-0.00980271 0.00782864 0.187153 59 46 59
-0.00857958 0.00761314 0.182002 57 46 59
-0.00764823 0.00763503 0.182525 56 46 59
-0.0066922 0.00763503 0.182525 58 48 60
-0.00572965 0.00762635 0.182317 58 48 60
-0.00481857 0.00769641 0.183992 58 47 60
-0.00389692 0.00778038 0.186 59 47 61
-0.00285142 0.00759067 0.181465 56 44 59
-0.0019 0.00758687 0.181374 56 44 59
-0.000968126 0.00773165 0.184835 59 48 61
0 0.00744261 0.177925 56 46 60
0.000968703 0.00773626 0.184945 57 47 62
0.00192935 0.0077041 0.184176 56 45 60
0.00279544 0.00744165 0.177902 58 47 62
0.00377331 0.00753361 0.1801 57 46 62
0.00476149 0.00760523 0.181813 57 45 61
0.00570925 0.0075992 0.181668 56 44 60
0.00673464 0.00768345 0.183682 56 44 60
0.00791343 0.00789978 0.188854 56 44 60
0.00867531 0.00769808 0.184032 56 43 60
0.00957272 0.00764496 0.182762 56 44 60
0.0106904 0.00776145 0.185547 57 44 61
0.0115008 0.00765397 0.182978 56 43 60
0.0124496 0.00764805 0.182836 56 43 60
0.0133341 0.00760631 0.181838 56 42 60
0.0140888 0.00750106 0.179322 56 42 59
0.0150911 0.00753251 0.180074 57 44 60
0.0159584 0.00749689 0.179223 55 41 59
0.0168575 0.00747928 0.178801 55 41 59
0.0181816 0.00764219 0.182696 55 42 59
0.0192134 0.0076721 0.183411 55 41 59
0.019719 0.00749904 0.179274 54 40 58
0.0210962 0.0076581 0.183076 55 41 59
0.0226539 0.00786603 0.188047 55 41 58
0.0224707 0.0074773 0.178754 56 42 59
0.0237546 0.00758837 0.181409 55 40 58
0.0245796 0.00754991 0.18049 55 40 58
0.0262767 0.00777224 0.185805 55 40 57
0.0264176 0.00753486 0.18013 54 39 57
0.0270598 0.0074519 0.178147 55 39 58
0.0284063 0.00756194 0.180778 55 40 58
0.0291116 0.0074997 0.17929 54 41 58
0.0302281 0.007544 0.180349 55 40 58
0.0308106 0.00745634 0.178253 54 39 58
0.0321622 0.00755451 0.1806 53 38 57
0.0326759 0.00745589 0.178242 54 39 57
0.0341331 0.00757204 0.181019 54 38 57
0.0340583 0.00735126 0.175741 53 38 56
0.0355442 0.00747007 0.178581 53 37 57
0.0368152 0.0075388 0.180224 53 37 57
0.0370706 0.00740133 0.176938 55 40 58
0.0382469 0.00744992 0.1781 54 38 57
0.0377531 0.00717866 0.171615 54 38 57
0.0393746 0.00731287 0.174823 53 36 56
0.039711 0.00720773 0.17231 54 39 57
0.0410193 0.00727973 0.174031 54 39 57
0.0406623 0.0070595 0.168766 54 38 57
0.042083 0.0071507 0.170947 54 39 57
0.04395 0.00731236 0.174811 54 39 57
0.0448656 0.00731236 0.174811 55 40 57
0.0455901 0.00728183 0.174081 54 38 56
0.0459165 0.00719016 0.17189 54 38 56
0.0480163 0.00737438 0.176294 53 38 56
0.0474751 0.00715368 0.171018 52 37 55
0.0476942 0.00705362 0.168626 52 36 55
0.0500258 0.00726393 0.173653 54 37 56
0.0525636 0.00749613 0.179204 53 35 54
0.052702 0.00738401 0.176524 52 34 54
0.0514304 0.00708161 0.169295 53 36 54
0.0544096 0.00736484 0.176066 52 34 53
0.0551524 0.00734096 0.175495 52 35 54
0.0568605 0.00744425 0.177964 53 37 55
0.0559856 0.00721148 0.172399 51 33 53
0.0574598 0.0072839 0.174131 53 34 53
0.0591934 0.00738641 0.176581 52 32 52
0.0603191 0.00741108 0.177171 53 33 53
0.060151 0.00727844 0.174 54 33 51
0.0634269 0.00756029 0.180738 52 29 48
0.0605578 0.00711215 0.170025 50 24 44
0.0636122 0.00736261 0.176012 47 20 40
0.063712 0.0072688 0.17377 46 18 37
0.0665406 0.0074846 0.178929 43 16 34
0.0688586 0.00763775 0.18259 46 18 37
0.0696666 0.00762153 0.182202 44 16 35
0.0695447 0.00750537 0.179425 47 18 37
0.070973 0.00755739 0.180669 48 18 38
0.0711508 0.00747663 0.178738 47 18 37
0.0739222 0.00766698 0.183289 48 19 38
0.0727736 0.00745108 0.178127 53 25 43
0.0749458 0.00757635 0.181122 52 25 44
0.0758676 0.00757367 0.181058 50 24 42
0.075887 0.00748208 0.178868 54 31 47
0.0779077 0.00758764 0.181392 54 31 47
0.0782742 0.00753148 0.180049 55 35 50
0.0789648 0.00750748 0.179476 55 35 50
0.0787627 0.00740017 0.17691 56 38 52
0.0787689 0.0073147 0.174867 56 37 52
0.0814967 0.00748102 0.178843 58 42 55
0.0829418 0.00752715 0.179946 57 41 54
0.0854322 0.00766605 0.183266 58 42 55
0.0842324 0.00747441 0.178685 58 42 56
0.0819268 0.00718993 0.171884 58 42 55
0.0902631 0.00783542 0.187316 57 42 55
0.0859917 0.00738437 0.176533 56 41 54
0.0897919 0.00762868 0.182373 57 43 55
0.0887394 0.0074599 0.178338 57 43 56
0.0913926 0.00760291 0.181757 57 41 55
0.0901038 0.00741842 0.177347 57 42 54
0.0925217 0.00753976 0.180247 56 40 54
0.0916764 0.00739541 0.176796 56 41 55
0.096457 0.00770324 0.184156 56 42 55
0.0932903 0.00737658 0.176346 56 40 53
0.09558 0.00748354 0.178903 55 38 52
0.100696 0.00780752 0.186649 55 37 51
0.0976673 0.00749991 0.179295 54 36 50
0.0999255 0.00760024 0.181693 53 34 50
0.103843 0.00782365 0.187034 55 37 51
0.106079 0.00791747 0.189277 54 35 50
0.103563 0.0076581 0.183076 53 35 49
0.105435 0.00772497 0.184675 53 35 48
0.105852 0.00768504 0.18372 52 33 47
0.104627 0.00752768 0.179959 53 35 49
0.109297 0.00779344 0.186312 52 35 48
0.109185 0.0077166 0.184475 52 33 48
0.103847 0.00727495 0.173917 53 33 48
0.111211 0.00772306 0.184629 53 34 48
0.114106 0.00785583 0.187804 53 33 47
0.117904 0.00804794 0.192396 52 32 47
0.115843 0.00784019 0.18743 53 33 48
0.114395 0.00767712 0.183531 54 34 48
-0.37693 0.028221 0.599696 143 198 171
-0.370729 0.0279899 0.594786 149 205 172
-0.372526 0.028364 0.602735 160 209 181
-0.364498 0.0279899 0.594786 153 206 169
-0.366212 0.028364 0.602735 156 206 170
-0.366018 0.0285954 0.607653 161 206 173
-0.350073 0.0275896 0.58628 169 209 184
-0.356741 0.028364 0.602735 166 208 181
-0.360485 0.0289176 0.614498 163 208 176
-0.333543 0.0269974 0.573695 168 212 178
-0.344682 0.0281526 0.598242 171 214 180
-0.316986 0.026128 0.555219 172 215 183
-0.32955 0.0274151 0.582571 170 217 184
-0.309886 0.0260202 0.552929 173 220 189
-0.308261 0.026128 0.555219 164 215 183
-0.304094 0.0260202 0.552929 167 217 187
-0.31549 0.0272549 0.579167 166 217 185
-0.283477 0.0247271 0.525451 170 218 186
-0.294279 0.025921 0.550821 171 218 184
-0.298756 0.0265759 0.564737 169 217 182
-0.268427 0.0241168 0.512481 175 219 186
-0.285624 0.025921 0.550821 176 220 186
-0.275852 0.0252897 0.537405 175 219 188
-0.273037 0.0252897 0.537405 174 218 187
-0.270223 0.0252897 0.537405 174 219 185
-0.261987 0.024777 0.52651 173 218 184
-0.240031 0.0229421 0.487519 174 218 185
-0.23723 0.0229181 0.48701 174 218 186
-0.240939 0.0235294 0.5 173 218 182
-0.220491 0.0217692 0.462595 174 219 184
-0.229817 0.0229421 0.487519 173 218 190
-0.233082 0.0235294 0.5 158 211 180
-0.230463 0.0235294 0.5 142 204 168
-0.205573 0.0212294 0.451125 171 217 189
-0.189564 0.0198039 0.420833 132 197 156
-0.180701 0.0191001 0.405876 144 203 170
-0.169611 0.0181413 0.385502 147 209 175
-0.182952 0.0198039 0.420833 172 220 196
-0.182094 0.0199515 0.423969 175 219 201
-0.167525 0.0185818 0.394863 135 200 163
-0.163578 0.0183708 0.39038 144 206 172
-0.163389 0.0185818 0.394863 157 212 185
-0.146839 0.0169137 0.359416 151 211 182
-0.139897 0.0163233 0.346871 165 217 192
-0.135786 0.0160521 0.341108 155 211 181
-0.127442 0.0152667 0.324416 151 209 179
-0.119828 0.0145485 0.309157 168 214 188
-0.110214 0.0135646 0.288248 156 207 177
-0.123938 0.0154655 0.328643 156 210 178
-0.114699 0.0145143 0.308428 159 213 183
-0.110488 0.0141811 0.301348 155 211 182
-0.0919203 0.0119689 0.254339 162 215 186
-0.0871085 0.0115092 0.24457 168 218 191
-0.0865769 0.0116097 0.246705 140 202 166
-0.0732016 0.00996481 0.211752 159 211 186
-0.0758692 0.0104868 0.222845 185 225 206
-0.0670593 0.00941394 0.200046 159 214 183
-0.0718582 0.0102477 0.217765 149 206 170
-0.0623361 0.00903317 0.191955 169 216 187
-0.0643913 0.00948396 0.201534 158 213 180
-0.0616753 0.00923533 0.196251 146 205 172
-0.0606046 0.00922882 0.196112 149 206 177
-0.0582241 0.00901918 0.191658 156 210 183
-0.0582299 0.00917832 0.195039 177 221 199
-0.0582897 0.00935183 0.198726 167 217 192
-0.0575083 0.00939421 0.199627 162 213 189
-0.0553556 0.00921001 0.195713 159 212 189
-0.0546975 0.00927223 0.197035 153 210 185
-0.0532466 0.00919985 0.195497 139 202 173
-0.0519609 0.00915375 0.194517 150 207 182
-0.0494343 0.00888282 0.18876 142 205 177
-0.0494429 0.00906568 0.192646 154 210 184
-0.0482862 0.00903804 0.192058 161 212 187
-0.047454 0.00907125 0.192764 155 209 184
-0.0464584 0.009074 0.192822 148 206 176
-0.0454215 0.00906862 0.192708 157 206 176
-0.044465 0.00907942 0.192938 140 193 163
-0.0427515 0.00893254 0.189817 147 194 165
-0.0415992 0.00889872 0.189098 151 199 170
-0.0407461 0.00892884 0.189738 144 195 163
-0.0406723 0.00913548 0.194129 145 188 151
-0.0389843 0.00898086 0.190843 141 184 145
-0.0386174 0.00913045 0.194022 145 186 149
-0.0375907 0.0091279 0.193968 137 180 146
-0.0355523 0.00887273 0.188545 126 172 142
-0.0340862 0.00874989 0.185935 125 169 147
-0.0331643 0.00876363 0.186227 127 168 147
-0.0325172 0.00885301 0.188127 111 152 125
-0.0316978 0.00889962 0.189117 110 147 120
-0.0309575 0.00897214 0.190658 119 150 131
-0.029369 0.00879551 0.186905 105 127 109
-0.0288523 0.00893873 0.189948 100 117 103
-0.0278204 0.00892683 0.189695 94 105 93
-0.026816 0.00892325 0.189619 89 91 82
-0.0262956 0.00908663 0.193091 82 78 72
-0.0246707 0.00886613 0.188405 75 67 66
-0.0231543 0.0086679 0.184193 69 60 62
-0.0229684 0.00897214 0.190658 61 50 58
-0.0215533 0.00880205 0.187044 61 48 59
-0.0205937 0.00881063 0.187226 59 47 59
-0.0199146 0.0089461 0.190105 61 48 59
-0.0185982 0.00879447 0.186882 63 50 60
-0.0176602 0.00881485 0.187316 60 49 60
-0.0164476 0.00869254 0.184716 59 48 59
-0.01562 0.00877107 0.186385 61 52 60
-0.0146427 0.00877045 0.186372 58 47 59
-0.013766 0.00883427 0.187728 60 49 60
-0.012775 0.00882894 0.187615 59 48 58
-0.0117463 0.00879453 0.186884 59 50 59
-0.0105619 0.00862662 0.183316 59 47 60
-0.00982525 0.00882746 0.187584 57 44 59
-0.00893552 0.0089201 0.189552 58 48 61
-0.00785686 0.00882372 0.187504 60 50 62
-0.00682919 0.00876524 0.186261 60 50 62
-0.00583683 0.00874014 0.185728 58 48 61
-0.00496392 0.00891964 0.189542 57 47 60
-0.00391193 0.00878666 0.186716 57 46 60
-0.00294379 0.00881613 0.187343 58 48 61
-0.00192312 0.00863909 0.183581 58 47 61
-0.000978754 0.00879359 0.186864 58 47 61
0 0.00873571 0.185634 57 47 62
0.000967826 0.0086954 0.184777 57 48 62
0.00191647 0.00860924 0.182946 59 49 63
0.00284829 0.00853012 0.181265 57 46 61
0.00383493 0.0086137 0.183041 58 47 62
0.00482441 0.00866895 0.184215 56 44 60
0.00561969 0.00841499 0.178818 57 45 61
0.00677907 0.00870091 0.184894 57 46 62
0.00764658 0.00858756 0.182486 57 45 61
0.00857131 0.00855652 0.181826 57 46 61
0.00974345 0.00875397 0.186022 57 45 61
0.0103376 0.00844343 0.179423 56 44 60
0.0115406 0.00864054 0.183611 56 44 60
0.0124091 0.00857609 0.182242 56 43 60
0.0131976 0.00846953 0.179977 56 42 60
0.0140297 0.00840328 0.17857 57 43 60
0.0152798 0.00858008 0.182327 55 42 59
0.0159314 0.00841972 0.178919 55 41 59
0.0167454 0.00835826 0.177613 55 41 59
0.018016 0.00851919 0.181033 55 42 59
0.0192511 0.00864804 0.183771 55 41 59
0.0200571 0.00858107 0.182348 55 41 59
0.0214665 0.00876661 0.18629 55 41 58
0.0222917 0.00870779 0.185041 54 40 58
0.0226399 0.00847531 0.1801 53 38 57
0.0238328 0.00856502 0.182007 52 37 56
0.0252451 0.00872359 0.185376 53 37 56
0.0260695 0.00867485 0.18434 54 39 57
0.0262403 0.00841983 0.178921 54 39 57
0.0269489 0.00834901 0.177417 53 37 56
0.0279568 0.00837257 0.177917 54 39 57
0.0293355 0.00850207 0.180669 54 39 57
0.0296344 0.00832028 0.176806 55 40 58
0.0308917 0.00841048 0.178723 54 39 57
0.0307508 0.00812586 0.172675 54 38 57
0.0328927 0.00844354 0.179425 54 38 57
0.0341832 0.00853106 0.181285 54 39 57
0.0345871 0.00839856 0.178469 53 36 56
0.0359393 0.00849725 0.180567 54 39 57
0.0362634 0.00835404 0.177523 54 39 57
0.0370702 0.00832639 0.176936 53 37 56
0.0371897 0.0081495 0.173177 53 37 56
0.0396537 0.00848256 0.180255 54 39 57
0.0389734 0.00814314 0.173042 53 37 56
0.0402903 0.00822698 0.174823 53 37 56
0.0397592 0.00793811 0.168685 53 37 56
0.0421023 0.0082232 0.174743 53 38 56
0.0429432 0.00820898 0.174441 54 38 56
0.0442895 0.00828996 0.176162 55 40 58
0.0451551 0.00827947 0.175939 54 38 56
0.0445951 0.00801326 0.170282 54 38 56
0.0464032 0.00817467 0.173712 53 36 56
0.0464295 0.00802201 0.170468 53 38 56
0.0476494 0.00807745 0.171646 51 36 54
0.0477273 0.00794082 0.168742 53 37 55
0.0492824 0.00805047 0.171073 54 37 55
0.0503378 0.00807604 0.171616 53 35 54
0.0527651 0.00831696 0.176735 53 36 54
0.051791 0.00802266 0.170482 53 35 54
0.0540967 0.00823779 0.175053 53 34 54
0.0548602 0.00821483 0.174565 53 35 54
0.0564241 0.0083105 0.176598 53 35 54
0.0570397 0.00826567 0.175646 53 34 54
0.0574399 0.00819154 0.17407 52 33 52
0.0575396 0.00807755 0.171648 53 32 51
0.0598273 0.00826949 0.175727 50 27 48
0.0589433 0.00802386 0.170507 51 27 47
0.0619639 0.00830915 0.176569 51 27 45
0.0631456 0.00834309 0.177291 49 22 42
0.0639443 0.00832617 0.176931 47 20 40
0.0667328 0.00856513 0.182009 46 18 37
0.0665057 0.00841575 0.178835 43 16 34
0.0679664 0.00848115 0.180224 43 15 33
0.0679699 0.0083654 0.177765 44 15 33
0.0695191 0.00844043 0.179359 45 17 35
0.0710431 0.00851046 0.180847 46 18 37
0.0712095 0.00841815 0.178886 48 19 38
0.072292 0.00843514 0.179247 50 21 41
0.0752529 0.00866804 0.184196 50 22 41
0.0734114 0.0083489 0.177414 51 25 43
0.0748051 0.00840106 0.178522 51 26 44
0.0763631 0.00847015 0.179991 55 32 47
0.0777067 0.00851407 0.180924 55 35 48
0.0784783 0.00849501 0.180519 55 35 49
0.0784683 0.00839282 0.178347 56 38 52
0.0806099 0.00852044 0.181059 56 37 51
0.0808595 0.00844744 0.179508 57 41 54
0.0798913 0.00825035 0.17532 57 41 54
0.0833538 0.00851011 0.18084 56 39 53
0.0841393 0.00849379 0.180493 57 40 54
0.0838101 0.00836655 0.177789 57 41 55
0.0845957 0.00835217 0.177484 56 41 54
0.0830589 0.00811131 0.172365 57 43 55
0.0881466 0.0085156 0.180956 56 41 54
0.0903741 0.00863791 0.183556 56 41 55
0.090123 0.00852324 0.181119 55 40 54
0.0910538 0.00852156 0.181083 55 38 53
0.0902908 0.00836304 0.177715 54 38 53
0.0936763 0.00858808 0.182497 55 40 54
0.0942198 0.00855065 0.181701 54 38 52
0.0952519 0.00855788 0.181855 56 41 53
0.0930383 0.00827624 0.17587 57 41 54
0.0953729 0.00840073 0.178516 55 38 52
0.099469 0.00867647 0.184375 53 35 50
0.0948677 0.00819554 0.174155 55 36 51
0.0952113 0.00814689 0.173121 53 34 49
0.100851 0.00854806 0.181646 54 35 50
0.103039 0.0086519 0.183853 56 38 52
0.106724 0.00887828 0.188663 54 36 50
0.109325 0.0090113 0.19149 53 33 47
0.108366 0.00885099 0.188083 52 32 47
0.107573 0.00870708 0.185026 52 34 48
0.107025 0.00858536 0.182439 52 35 48
0.10758 0.00855355 0.181763 52 32 47
0.111904 0.00881927 0.18741 54 34 49
0.105573 0.00824797 0.175269 52 32 46
0.115795 0.00896859 0.190582 54 33 47
0.114649 0.00880391 0.187083 52 30 46
0.118403 0.00901514 0.191572 53 33 48
0.117821 0.00889545 0.189028 52 32 47
-0.401765 0.0334227 0.639209 137 188 156
-0.426315 0.035763 0.683967 149 197 165
-0.417198 0.0352948 0.675013 146 195 166
-0.383422 0.0327146 0.625666 144 195 168
-0.39855 0.0342985 0.655958 150 199 168
-0.34139 0.0296349 0.566767 150 197 162
-0.384768 0.0336933 0.644385 153 198 165
-0.362853 0.0320555 0.613061 149 199 165
-0.336548 0.0299971 0.573695 157 204 171
-0.353287 0.0317727 0.607653 157 206 166
-0.360482 0.0327146 0.625666 160 207 170
-0.346921 0.0317727 0.607653 160 208 177
-0.333942 0.0308672 0.590334 158 211 178
-0.312569 0.0291616 0.557716 162 214 180
-0.325506 0.0306551 0.58628 165 213 180
-0.315514 0.0299971 0.573695 163 215 184
-0.337638 0.0324092 0.619825 162 215 184
-0.331517 0.0321306 0.614498 163 215 183
-0.306499 0.0299971 0.573695 167 216 185
-0.321459 0.0317727 0.607653 170 217 185
-0.313347 0.0312806 0.598242 167 214 182
-0.297485 0.0299971 0.573695 170 214 183
-0.283821 0.0289113 0.552929 169 214 182
-0.31788 0.0327146 0.625666 173 217 187
-0.258527 0.0268834 0.514145 173 218 186
-0.269883 0.0283597 0.542379 172 217 185
-0.260414 0.0276558 0.528917 174 216 184
-0.265158 0.0284624 0.544343 172 217 185
-0.240939 0.0261438 0.5 168 216 182
-0.252758 0.0277277 0.530292 171 216 187
-0.262908 0.0291616 0.557716 162 213 183
-0.239395 0.0268519 0.513543 157 212 182
-0.218244 0.0247576 0.473489 189 229 209
-0.23429 0.0268834 0.514145 165 216 191
-0.218557 0.0253698 0.485198 146 203 171
-0.202864 0.0238252 0.455656 136 200 165
-0.159463 0.0189509 0.362436 136 208 174
-0.204199 0.0245599 0.469708 170 221 199
-0.189961 0.023126 0.442284 154 210 191
-0.206385 0.0254357 0.486457 152 202 169
-0.17166 0.0214204 0.409665 161 212 181
-0.159515 0.020157 0.385502 178 222 197
-0.148599 0.0190183 0.363725 152 211 179
-0.148919 0.0193067 0.369241 156 214 183
-0.136954 0.0179891 0.344042 158 214 183
-0.141191 0.018793 0.359416 147 209 178
-0.129808 0.0175113 0.334904 173 217 198
-0.13947 0.0190725 0.364762 164 211 184
-0.122344 0.016963 0.324416 160 212 181
-0.11262 0.0158346 0.302837 176 220 198
-0.113351 0.0161651 0.309157 155 210 183
-0.101781 0.0147254 0.281624 139 204 172
-0.0932068 0.0136832 0.261692 149 209 179
-0.0823705 0.0122729 0.234719 152 207 176
-0.0760485 0.0115026 0.219987 147 205 173
-0.0729714 0.011207 0.214334 159 213 185
-0.0762522 0.0118938 0.22747 155 210 178
-0.0705084 0.0111725 0.213674 162 211 179
-0.065924 0.0106146 0.203003 169 218 188
-0.0635521 0.0104004 0.198908 178 223 196
-0.0617174 0.0102685 0.196385 160 213 184
-0.0604949 0.0102357 0.195757 148 206 176
-0.0611087 0.0105178 0.201153 141 204 172
-0.0576344 0.0100938 0.193045 147 209 180
-0.0578175 0.0103067 0.197117 153 211 183
-0.0571859 0.0103795 0.198508 177 220 201
-0.0540568 0.00999325 0.191121 151 210 184
-0.0549833 0.0103563 0.198064 154 211 185
-0.0541969 0.0104045 0.198986 149 208 178
-0.0526677 0.0103092 0.197163 159 214 186
-0.0511732 0.010217 0.1954 164 217 191
-0.0486774 0.00991702 0.189663 165 216 192
-0.0494561 0.0102856 0.196711 161 213 188
-0.0483519 0.0102699 0.196412 158 211 185
-0.046882 0.0101742 0.194581 146 205 174
-0.0455857 0.0101127 0.193405 153 205 174
-0.0447319 0.0101488 0.194096 151 200 170
-0.0432191 0.0100336 0.191893 154 201 172
-0.0418519 0.00994754 0.190247 160 205 190
-0.0415611 0.0101194 0.193533 145 200 182
-0.040411 0.0100853 0.192882 157 200 175
-0.0386834 0.0099017 0.18937 146 192 155
-0.037602 0.0098782 0.188921 147 196 158
-0.037787 0.0101951 0.194981 138 192 155
-0.0358463 0.00994012 0.190105 139 190 160
-0.0348231 0.00993229 0.189955 148 190 170
-0.0329558 0.00967614 0.185056 132 180 156
-0.0329898 0.00997967 0.190861 125 175 148
-0.0318639 0.00994029 0.190108 108 160 129
-0.0311001 0.010015 0.191536 125 169 144
-0.0295906 0.00984651 0.188315 133 162 141
-0.0282493 0.00972435 0.185978 113 137 114
-0.0266507 0.00950167 0.181719 108 130 105
-0.0263023 0.00972477 0.185986 101 113 89
-0.0253693 0.0097406 0.186289 93 99 81
-0.0245322 0.00979595 0.187348 85 84 74
-0.0234952 0.00977279 0.186905 78 78 68
-0.0221327 0.0096063 0.18372 70 67 67
-0.020951 0.00950676 0.181817 64 56 64
-0.0207951 0.00988535 0.189057 59 48 59
-0.0196073 0.00978671 0.187171 63 52 62
-0.0187338 0.00984288 0.188245 63 51 61
-0.0176255 0.00977506 0.186948 60 50 60
-0.016595 0.00974494 0.186372 60 50 61
-0.0154732 0.00965407 0.184634 61 50 61
-0.0144344 0.0096063 0.18372 60 50 61
-0.0135733 0.0096785 0.185101 60 50 61
-0.0128279 0.00985058 0.188392 58 47 58
-0.0117566 0.0097803 0.187048 57 45 58
-0.0107005 0.00971098 0.185723 59 49 61
-0.00985143 0.00983443 0.188083 57 47 60
-0.00861386 0.00955444 0.182729 57 47 60
-0.007786 0.00971571 0.185813 57 46 60
-0.00688883 0.00982421 0.187888 58 48 60
-0.00586523 0.00975851 0.186632 56 45 60
-0.00479728 0.009578 0.183179 57 46 61
-0.00393481 0.00982005 0.187809 57 48 62
-0.00287636 0.00957131 0.183051 57 47 61
-0.00187058 0.00933674 0.178565 58 48 61
-0.00100595 0.0100421 0.192056 58 48 61
0 0.0097153 0.185805 58 49 63
0.000968749 0.00967078 0.184954 59 50 63
0.00192235 0.00959518 0.183508 58 49 63
0.00290246 0.00965817 0.184712 57 47 62
0.00378668 0.00945036 0.180738 58 46 62
0.00467097 0.00932582 0.178356 58 46 62
0.00573494 0.00954174 0.182486 57 46 62
0.00655911 0.00935399 0.178895 57 47 62
0.00775507 0.00967711 0.185075 57 45 61
0.00864328 0.00958707 0.183353 58 47 62
0.00963695 0.00962032 0.183989 57 46 61
0.0104187 0.00945518 0.18083 57 46 62
0.0112888 0.00939114 0.179606 56 43 60
0.0122717 0.0094235 0.180224 56 42 60
0.0129517 0.00923525 0.176624 56 43 60
0.013937 0.00927528 0.17739 55 41 58
0.0151436 0.00944842 0.180701 55 42 59
0.0158252 0.00929288 0.177726 56 43 60
0.017419 0.00966053 0.184758 55 41 59
0.0179562 0.00943433 0.180432 55 41 59
0.0192647 0.00961572 0.183901 55 41 59
0.0202801 0.00964053 0.184375 55 41 59
0.0210921 0.00957078 0.183041 55 41 59
0.0219979 0.00954781 0.182602 55 41 58
0.0225884 0.00939559 0.179691 55 41 58
0.0235794 0.00941547 0.180071 55 41 59
0.0239463 0.00919422 0.175839 54 39 57
0.0256885 0.00949785 0.181646 54 40 57
0.0267525 0.00953797 0.182414 55 40 57
0.0279043 0.00960558 0.183707 54 38 56
0.0282161 0.00938914 0.179567 54 38 57
0.029212 0.00940696 0.179908 54 39 57
0.0299609 0.00934662 0.178754 54 39 57
0.0307068 0.00928903 0.177653 54 38 56
0.0310047 0.00910331 0.174101 52 35 55
0.0325232 0.0092763 0.177409 53 38 57
0.0341832 0.00947896 0.181285 54 39 57
0.0338849 0.00914227 0.174846 52 35 55
0.0354726 0.00931878 0.178222 53 37 56
0.0355968 0.00911163 0.17426 54 38 57
0.0370706 0.00925167 0.176938 53 36 55
0.0387766 0.00944139 0.180567 53 37 56
0.0398053 0.0094611 0.180944 55 40 57
0.0400632 0.00930094 0.17788 54 38 57
0.0403728 0.0091598 0.175181 53 37 56
0.0406135 0.00900966 0.17231 54 38 57
0.0426597 0.00925784 0.177056 54 38 57
0.0429984 0.00913282 0.174665 54 38 57
0.0433665 0.00901909 0.17249 53 36 55
0.045217 0.00921203 0.17618 52 36 55
0.0442439 0.00883351 0.168941 52 36 55
0.0447561 0.00876057 0.167546 54 38 56
0.0462037 0.00887 0.169639 52 36 55
0.0481641 0.00907189 0.1735 51 36 54
0.0477089 0.00881974 0.168678 53 37 55
0.0488297 0.00886281 0.169501 54 37 56
0.0506683 0.0090323 0.172743 54 37 54
0.050794 0.00889586 0.170133 53 36 54
0.0524011 0.00901909 0.17249 53 35 53
0.0537004 0.00908606 0.173771 52 34 53
0.0543941 0.00905004 0.173082 52 33 53
0.0562721 0.00920902 0.176122 53 35 54
0.0569529 0.0091701 0.175378 53 35 53
0.0558815 0.00885478 0.169348 53 35 52
0.0593502 0.00925747 0.177049 53 32 50
0.0605731 0.00930286 0.177917 51 28 48
0.060524 0.00915448 0.175079 51 27 47
0.0613088 0.00913478 0.174703 50 24 44
0.0620509 0.00910938 0.174217 48 22 41
0.0642499 0.00929551 0.177777 45 19 37
0.0652243 0.00930168 0.177895 46 19 38
0.0661122 0.00929551 0.177777 47 19 38
0.0671757 0.00931385 0.178127 47 18 37
0.0676973 0.0092576 0.177052 45 17 35
0.0683871 0.00922555 0.176439 45 17 36
0.0709162 0.00943918 0.180524 47 19 38
0.0713161 0.0093675 0.179154 50 22 42
0.0717042 0.00929616 0.177789 51 23 42
0.0726877 0.00930286 0.177917 54 28 46
0.0746392 0.0094317 0.180381 55 31 47
0.0756439 0.00943918 0.180524 56 36 51
0.0752197 0.00927036 0.177296 56 37 51
0.077741 0.00946425 0.181004 56 36 50
0.0781497 0.00939938 0.179763 56 37 51
0.0791962 0.00941185 0.180002 56 38 53
0.0800434 0.00940062 0.179787 57 39 53
0.0796151 0.0092416 0.176746 57 40 54
0.0837192 0.0096063 0.18372 56 39 54
0.0847041 0.00960886 0.183769 57 40 54
0.085449 0.00958445 0.183303 56 40 54
0.0827016 0.00917321 0.175438 57 41 55
0.0839191 0.00920597 0.176064 57 42 55
0.08713 0.0094543 0.180814 56 41 55
0.08952 0.00960919 0.183776 56 42 55
0.0888534 0.00943618 0.180467 56 40 54
0.0887828 0.00932943 0.178425 55 41 55
0.09202 0.00956888 0.183005 54 38 53
0.0917361 0.00944101 0.180559 54 38 53
0.0904358 0.00921222 0.176184 54 38 52
0.0915468 0.00923119 0.176547 55 38 53
0.0931399 0.00929792 0.177823 55 38 52
0.0920133 0.00909451 0.173932 53 36 50
0.10091 0.00987604 0.188879 53 35 51
0.0998157 0.00967413 0.185018 54 37 52
0.0998561 0.00958498 0.183313 54 37 51
0.0999585 0.00950343 0.181753 52 34 49
0.101246 0.00953499 0.182357 54 36 51
0.100567 0.00938255 0.179441 54 36 50
0.106454 0.00983988 0.188188 52 33 47
0.104912 0.00960838 0.18376 54 35 48
0.101634 0.0092235 0.176399 52 32 47
0.103721 0.00932815 0.178401 52 33 48
0.113672 0.0101318 0.193771 54 35 49
0.108118 0.00955142 0.182671 52 31 46
0.110792 0.00970181 0.185547 53 33 48
0.112215 0.00974095 0.186296 53 33 47
0.11656 0.010031 0.191842 54 34 48
0.108574 0.00926385 0.177171 54 35 49
0.117232 0.0099178 0.189678 54 34 49
0.109978 0.00922593 0.176446 53 31 48
-0.406736 0.0372198 0.647117 133 182 145
-0.413756 0.0381803 0.663817 135 179 149
-0.435629 0.0405394 0.704833 130 177 147
-0.41801 0.0392322 0.682106 137 187 160
-0.396086 0.0374951 0.651903 131 185 155
-0.392672 0.0374951 0.651903 146 191 160
-0.40155 0.0386792 0.67249 145 189 155
-0.358163 0.0348053 0.605137 148 196 161
-0.387313 0.0379741 0.660231 148 199 164
-0.379014 0.0374951 0.651903 148 199 162
-0.360482 0.035986 0.625666 157 202 169
-0.350009 0.035261 0.613061 157 202 172
-0.357565 0.0363559 0.632096 154 201 168
-0.378307 0.0388243 0.675013 157 205 170
-0.357766 0.0370626 0.644385 156 208 171
-0.354391 0.0370626 0.644385 155 208 172
-0.328328 0.0346671 0.602735 155 211 177
-0.31354 0.0334271 0.581175 157 213 180
-0.320391 0.0344923 0.599696 160 213 181
-0.333995 0.0363129 0.63135 157 210 178
-0.309205 0.0339539 0.590334 162 211 181
-0.321405 0.0356501 0.619825 169 213 185
-0.289222 0.0324076 0.563451 170 213 186
-0.293284 0.0332016 0.577255 165 213 182
-0.280435 0.0320778 0.557716 172 216 187
-0.283849 0.03281 0.570447 166 214 184
-0.26907 0.0314326 0.546499 165 211 179
-0.250768 0.0296095 0.514802 166 213 182
-0.284469 0.0339539 0.590334 161 212 179
-0.23092 0.0278653 0.484476 163 209 178
-0.272119 0.0332016 0.577255 139 200 165
-0.239982 0.0296095 0.514802 135 200 166
-0.22364 0.0279068 0.485198 191 229 212
-0.234918 0.0296511 0.515524 161 214 192
-0.217874 0.0278195 0.48368 159 206 177
-0.210291 0.0271672 0.472338 155 208 179
-0.20666 0.0270159 0.469708 144 209 184
-0.203542 0.0269289 0.468195 176 222 207
-0.195704 0.0262077 0.455656 151 204 181
-0.180865 0.0245195 0.426305 142 197 162
-0.179993 0.0247063 0.429553 152 208 175
-0.169514 0.0235625 0.409665 175 220 196
-0.152933 0.0215303 0.374334 174 221 199
-0.157444 0.0224532 0.39038 166 218 192
-0.149012 0.0215303 0.374334 155 214 184
-0.135152 0.019788 0.344042 164 216 190
-0.145091 0.0215303 0.374334 166 215 195
-0.133844 0.0201334 0.350047 136 202 168
-0.119885 0.0182841 0.317894 141 205 166
-0.123678 0.0191283 0.332572 148 209 173
-0.127179 0.0199508 0.346871 145 207 174
-0.101781 0.016198 0.281624 151 209 182
-0.10055 0.0162373 0.282308 151 209 181
-0.0823705 0.0135002 0.234719 154 211 181
-0.0784835 0.013058 0.227031 162 213 186
-0.0793396 0.0134035 0.233039 161 213 185
-0.0798018 0.0136923 0.238059 155 209 176
-0.0726464 0.0126624 0.220153 150 206 170
-0.0670892 0.0118824 0.206591 174 222 194
-0.0674792 0.0121474 0.211199 164 220 190
-0.0631543 0.0115583 0.200957 176 223 199
-0.0612988 0.0114089 0.198359 164 214 187
-0.0594923 0.0112636 0.195832 164 214 187
-0.0591727 0.0113996 0.198197 158 211 184
-0.0563445 0.0110486 0.192094 156 211 185
-0.0565254 0.0112856 0.196215 160 214 189
-0.0575168 0.0116962 0.203354 156 213 186
-0.0550792 0.0114118 0.19841 156 212 185
-0.0539047 0.0113832 0.197913 154 210 181
-0.052646 0.0113354 0.197082 155 212 184
-0.0509974 0.0112001 0.194729 156 214 186
-0.0497396 0.0111468 0.193802 150 211 181
-0.0493275 0.0112847 0.1962 170 219 195
-0.0487148 0.0113817 0.197886 167 218 194
-0.0460313 0.0109885 0.19105 157 212 185
-0.0439766 0.0107313 0.186578 158 209 181
-0.0442767 0.0110501 0.192121 156 206 176
-0.0435472 0.0111207 0.193349 141 199 166
-0.0423149 0.0110634 0.192352 159 208 187
-0.0414974 0.0111142 0.193236 149 204 184
-0.0399514 0.0109677 0.190688 159 205 185
-0.0390126 0.0109846 0.190982 151 200 173
-0.0380439 0.0109937 0.191141 156 202 171
-0.0374846 0.0111248 0.19342 145 198 163
-0.0358602 0.0109384 0.190178 134 192 161
-0.0340687 0.0106888 0.18584 147 196 170
-0.0335412 0.0108328 0.188344 129 188 156
-0.0332966 0.0110797 0.192636 117 180 150
-0.0321914 0.0110467 0.192062 111 168 135
-0.0301617 0.0106841 0.185757 127 173 144
-0.0291894 0.0106843 0.185761 133 168 149
-0.028217 0.0106845 0.185765 123 156 135
-0.0279308 0.0109539 0.190448 125 157 128
-0.026956 0.0109631 0.190609 103 138 101
-0.026277 0.011098 0.192954 102 124 98
-0.0249144 0.0109434 0.190267 91 104 89
-0.0231846 0.0106079 0.184433 83 97 86
-0.0227162 0.0108455 0.188564 70 83 77
-0.0212905 0.0106269 0.184763 69 65 67
-0.0202925 0.0106111 0.184488 65 57 64
-0.0190364 0.0104519 0.181721 63 53 62
-0.0182634 0.0105553 0.183519 63 52 63
-0.0176837 0.0107881 0.187566 60 51 61
-0.0165862 0.0107137 0.186272 61 52 62
-0.0152168 0.0104435 0.181574 60 50 61
-0.0144288 0.0105629 0.18365 62 52 62
-0.0135995 0.0106669 0.185458 60 48 60
-0.0123822 0.0104591 0.181846 58 47 59
-0.0115526 0.0105716 0.183802 58 46 60
-0.0107304 0.0107119 0.18624 60 51 63
-0.00981954 0.0107829 0.187475 59 50 62
-0.00866447 0.0105716 0.183802 58 48 61
-0.00760448 0.0104381 0.181481 58 48 61
-0.00670405 0.0105168 0.182848 57 47 60
-0.00561267 0.0102721 0.178595 58 48 62
-0.00479558 0.0105321 0.183115 57 47 61
-0.00389122 0.0106824 0.185728 57 48 61
-0.00293788 0.0107536 0.186966 57 48 61
-0.00198073 0.0108752 0.189081 58 48 62
-0.000947643 0.0104061 0.180924 58 47 61
0 0.0106026 0.18434 57 48 62
0.000949646 0.0104281 0.181306 58 48 63
0.00189929 0.0104281 0.181306 56 46 61
0.00290502 0.0106334 0.184876 56 46 62
0.0039187 0.0107578 0.187039 58 47 63
0.00472262 0.0103718 0.180328 55 43 60
0.00582859 0.0106673 0.185466 56 45 61
0.00657925 0.010321 0.179444 57 46 61
0.00765597 0.0105088 0.18271 56 44 60
0.00860814 0.0105029 0.182607 57 45 61
0.00941264 0.010336 0.179706 58 46 61
0.0105706 0.0105524 0.183467 57 44 60
0.0113216 0.0103602 0.180127 56 42 60
0.012372 0.0104506 0.181698 56 43 60
0.0129918 0.0101902 0.177171 55 42 59
0.0146083 0.0106942 0.185934 55 42 59
0.0150383 0.010321 0.179444 55 42 59
0.0163208 0.0105423 0.183292 56 42 59
0.0171143 0.0104407 0.181526 55 40 58
0.0182835 0.0105669 0.18372 54 40 58
0.0186102 0.0102179 0.177653 54 41 59
0.0202604 0.0105943 0.184196 55 42 60
0.0209041 0.010434 0.181409 54 40 58
0.0222222 0.0106097 0.184463 55 41 58
0.0229476 0.0104995 0.182548 53 39 57
0.0236802 0.0104013 0.180841 53 39 57
0.0254745 0.0107591 0.187061 55 41 58
0.0253031 0.0102909 0.178921 54 38 56
0.0267376 0.0104859 0.182312 54 38 56
0.0273273 0.0103477 0.179908 53 36 56
0.0283776 0.0103872 0.180595 54 39 57
0.0293415 0.0103935 0.180706 54 38 56
0.0293485 0.0100711 0.175101 53 37 56
0.0304982 0.0101485 0.176446 54 38 56
0.0314878 0.0101696 0.176813 53 37 56
0.0327815 0.010285 0.178818 52 35 55
0.0339133 0.0103445 0.179854 51 35 55
0.0340427 0.0101033 0.17566 53 36 56
0.0351247 0.0101501 0.176474 53 37 56
0.0360037 0.0101374 0.176252 54 37 56
0.0369268 0.0101374 0.176252 54 37 56
0.0369741 0.00990276 0.172173 55 39 57
0.0381554 0.00997583 0.173443 54 37 56
0.0394032 0.0100625 0.17495 53 36 55
0.0405617 0.0101229 0.176001 54 37 56
0.0415406 0.0101368 0.176243 53 37 56
0.0420836 0.0100461 0.174665 54 38 56
0.043247 0.0101042 0.175675 53 37 56
0.0443746 0.0101516 0.1765 51 35 54
0.0448149 0.0100431 0.174613 52 35 55
0.0451508 0.00991603 0.172404 52 36 55
0.0457813 0.00985737 0.171384 53 37 55
0.046679 0.00985737 0.171384 53 37 55
0.0472472 0.00978911 0.170197 53 38 55
0.0481771 0.00979693 0.170333 52 36 54
0.0500953 0.0100018 0.173895 53 36 55
0.0489184 0.00959239 0.166777 53 36 54
0.0518338 0.00998575 0.173616 54 37 54
0.0529718 0.010029 0.174369 54 36 54
0.0537004 0.00999467 0.173771 52 33 52
0.0541084 0.00990276 0.172173 52 34 52
0.0562259 0.0101216 0.175978 53 35 53
0.0566044 0.0100254 0.174305 53 34 52
0.0562143 0.00979826 0.170356 54 33 51
0.0578871 0.00993217 0.172684 52 29 48
0.0590762 0.00998025 0.17352 51 26 46
0.0603281 0.0100373 0.174513 48 21 41
0.0607059 0.00994943 0.172984 48 21 41
0.0620783 0.0100247 0.174294 46 19 38
0.0628518 0.0100026 0.173908 46 18 37
0.0639256 0.0100281 0.174353 44 16 33
0.0657969 0.0101763 0.176929 44 17 35
0.0670906 0.0102323 0.177902 43 17 34
0.0669513 0.0100711 0.175101 44 17 34
0.068816 0.0102118 0.177545 44 16 34
0.07044 0.0103134 0.179312 48 20 39
0.0705269 0.0101902 0.177171 51 24 42
0.0715057 0.0101975 0.177297 52 24 43
0.0732099 0.0103067 0.179195 54 29 46
0.0721078 0.010023 0.174264 53 28 45
0.073277 0.0100582 0.174876 56 36 51
0.0751118 0.0101828 0.177041 55 35 50
0.07847 0.0105083 0.182701 55 36 50
0.0778979 0.010306 0.179184 56 38 52
0.0780113 0.0101981 0.177308 56 38 53
0.0787532 0.010174 0.176889 57 39 54
0.0803942 0.0102652 0.178475 57 40 54
0.0812076 0.0102499 0.178209 55 38 53
0.0824359 0.0102867 0.178848 55 39 53
0.0844992 0.0104257 0.181265 57 41 56
0.0853449 0.010413 0.181045 56 41 56
0.0855436 0.0103226 0.179472 56 42 55
0.0844808 0.0100835 0.175316 56 41 55
0.0856295 0.0101107 0.175789 56 42 55
0.085029 0.00993303 0.172699 53 38 52
0.0891737 0.0103076 0.179211 55 39 53
0.0888953 0.0101683 0.176791 54 38 52
0.0890086 0.0100763 0.175191 56 40 54
0.0895692 0.0100363 0.174495 55 40 54
0.0936844 0.0103914 0.180669 54 38 52
0.0938895 0.01031 0.179254 53 34 50
0.0967103 0.0105146 0.182811 54 37 52
0.0967242 0.010413 0.181045 54 36 52
0.0995846 0.0106169 0.184589 54 36 51
0.0984159 0.0103914 0.180669 53 35 48
0.102764 0.0107472 0.186854 51 31 48
0.100733 0.0104353 0.181433 52 34 49
0.103851 0.0106578 0.185301 54 36 51
0.101707 0.0103412 0.179796 54 34 48
0.102287 0.0103047 0.179162 54 35 48
0.10353 0.0103351 0.179691 51 31 45
0.107507 0.0106355 0.184912 52 33 48
0.107652 0.0105547 0.183508 51 31 46
0.113311 0.0110112 0.191445 53 32 47
0.10711 0.0103174 0.179382 54 32 47
0.115991 0.0110757 0.192565 54 33 48
0.116106 0.0109911 0.191095 53 30 46
0.116214 0.0109073 0.189638 52 29 45
0.116396 0.0108317 0.188325 54 33 48
0.111594 0.0102976 0.179038 54 33 49
-0.427329 0.0426591 0.67988 124 159 128
-0.446951 0.0449929 0.717074 126 166 137
-0.395069 0.0401072 0.639209 118 163 132
-0.401986 0.0411582 0.655958 122 172 140
-0.421577 0.0435362 0.693858 124 174 143
-0.392672 0.0409037 0.651903 126 174 142
-0.396371 0.0416513 0.663817 133 174 143
-0.398027 0.0421955 0.67249 137 179 148
-0.387313 0.0414262 0.660231 136 180 150
-0.383855 0.0414262 0.660231 136 183 152
-0.368285 0.0401072 0.639209 140 187 154
-0.378986 0.0416513 0.663817 140 189 152
-0.357565 0.0396609 0.632096 146 191 156
-0.365355 0.0409037 0.651903 149 193 160
-0.343692 0.0388414 0.619035 149 198 167
-0.337164 0.0384666 0.613061 147 200 165
-0.351016 0.040432 0.644385 141 202 167
-0.340609 0.0396141 0.63135 139 202 170
-0.327531 0.0384666 0.613061 146 205 172
-0.312297 0.0370406 0.590334 146 202 168
-0.327711 0.0392575 0.625666 145 204 170
-0.299331 0.0362199 0.577255 155 207 181
-0.296307 0.0362199 0.577255 154 206 177
-0.308728 0.0381273 0.607653 163 209 183
-0.305545 0.0381273 0.607653 154 207 179
-0.285465 0.0359965 0.573695 161 211 182
-0.268009 0.0341549 0.544343 159 210 178
-0.267365 0.0344392 0.548874 165 213 183
-0.255536 0.0332732 0.530292 166 213 185
-0.259456 0.0341549 0.544343 160 209 180
-0.228723 0.0304438 0.485198 127 194 155
-0.233082 0.0313726 0.5 139 199 166
-0.22364 0.0304438 0.485198 154 205 176
-0.227844 0.0313726 0.5 135 193 162
-0.231893 0.0323013 0.514802 142 197 164
-0.210291 0.0296369 0.472338 136 196 160
-0.219987 0.0313726 0.5 169 218 199
-0.198945 0.0287135 0.457621 176 221 203
-0.184493 0.0269524 0.429553 155 207 179
-0.199862 0.0295581 0.471083 151 204 171
-0.18124 0.027139 0.432528 145 205 170
-0.154894 0.0234876 0.374334 134 200 164
-0.150853 0.0231681 0.369241 133 202 170
-0.144956 0.0225516 0.359416 147 209 180
-0.146985 0.0231681 0.369241 145 206 173
-0.127442 0.0203555 0.324416 144 206 173
-0.137835 0.0223131 0.355615 147 208 179
-0.133526 0.0219117 0.349217 173 219 195
-0.121746 0.0202559 0.322829 181 223 196
-0.112184 0.0189279 0.301663 166 216 184
-0.119883 0.0205159 0.326972 162 213 186
-0.106676 0.0185203 0.295167 157 211 184
-0.109215 0.0192399 0.306637 165 215 190
-0.0888342 0.0158832 0.253138 151 209 178
-0.0837403 0.0151992 0.242238 162 211 182
-0.0857972 0.0158122 0.252006 161 213 186
-0.0828699 0.0155113 0.247211 158 213 181
-0.0704798 0.0134016 0.213587 154 211 177
-0.0701907 0.0135619 0.216142 143 209 173
-0.0639301 0.0125547 0.200091 149 213 181
-0.0627577 0.0125299 0.199695 160 216 187
-0.0621246 0.0126137 0.201031 144 207 173
-0.0603611 0.0124669 0.198692 149 207 177
-0.0585029 0.0122951 0.195954 146 206 176
-0.0582897 0.0124691 0.198726 172 218 195
-0.0560123 0.0121998 0.194434 159 214 187
-0.0564963 0.0125331 0.199746 150 211 182
-0.055778 0.0126072 0.200927 172 221 198
-0.0540969 0.0124623 0.198619 155 210 181
-0.0539097 0.0126627 0.201812 173 218 195
-0.0521759 0.0125006 0.199228 168 218 194
-0.0513107 0.0125442 0.199923 159 215 186
-0.0493941 0.0123272 0.196465 156 213 185
-0.0474536 0.0120949 0.192763 163 217 191
-0.0472407 0.0123024 0.19607 172 220 197
-0.0460942 0.0122706 0.195562 155 211 183
-0.0437784 0.011919 0.189958 159 211 181
-0.0431249 0.0120141 0.191475 158 208 178
-0.0419642 0.0119691 0.190757 149 205 175
-0.0418392 0.0122245 0.194828 160 211 186
-0.0419413 0.0125607 0.200186 179 220 201
-0.0390403 0.0119917 0.191117 145 200 173
-0.0366831 0.0115642 0.184304 159 202 177
-0.0373228 0.0120838 0.192586 164 207 183
-0.0359856 0.0119745 0.190843 152 205 180
-0.0350405 0.0119931 0.191141 149 202 174
-0.0337074 0.0118762 0.189277 142 196 164
-0.0320014 0.0116168 0.185143 130 190 158
-0.0330118 0.0123581 0.196957 124 184 151
-0.0313408 0.012111 0.193019 129 185 155
-0.0304236 0.0121485 0.193616 130 170 144
-0.0295264 0.0121967 0.194385 135 170 145
-0.028328 0.0121196 0.193156 136 169 142
-0.0262704 0.0116556 0.185761 126 163 132
-0.0258788 0.0119235 0.19003 111 146 119
-0.0243098 0.0116486 0.185649 112 132 112
-0.0228259 0.0113933 0.18158 94 111 103
-0.0225163 0.0117273 0.186905 81 96 90
-0.0217208 0.0118272 0.188497 73 77 74
-0.0205439 0.0117191 0.186773 69 64 69
-0.0196486 0.0117688 0.187566 64 55 64
-0.0183839 0.0115909 0.184729 64 54 64
-0.0175957 0.0117102 0.186632 63 54 63
-0.0163853 0.0115461 0.184016 62 53 63
-0.0156321 0.0117039 0.186531 60 50 61
-0.0141371 0.0112901 0.179937 58 47 59
-0.0135738 0.0116146 0.185108 59 47 60
-0.012687 0.0116909 0.186323 59 50 62
-0.0116239 0.0116038 0.184936 59 48 60
-0.0106904 0.0116422 0.185547 58 48 60
-0.00973706 0.0116643 0.1859 56 46 60
-0.00870933 0.0115924 0.184754 57 47 62
-0.00788276 0.0118037 0.188122 59 50 62
-0.00670405 0.0114728 0.182848 58 48 62
-0.00575787 0.0114959 0.183216 57 46 61
-0.00479291 0.0114831 0.183013 57 47 60
-0.0038686 0.0115858 0.184648 60 52 63
-0.0028582 0.0114131 0.181896 57 47 61
-0.00194832 0.0116697 0.185986 57 46 61
-0.000992215 0.011886 0.189434 58 48 62
0 0.0115242 0.183667 57 48 62
0.000982061 0.0117644 0.187495 57 46 62
0.00191708 0.0114827 0.183005 58 47 62
0.00289494 0.0115598 0.184234 57 46 62
0.00374877 0.0112269 0.178929 58 46 62
0.00478919 0.0114742 0.182871 57 47 62
0.00574992 0.01148 0.182963 57 47 62
0.00673877 0.0115322 0.183795 57 47 62
0.00731055 0.0109469 0.174466 56 45 61
0.0085031 0.0113179 0.180379 56 44 60
0.00949821 0.0113782 0.18134 55 42 59
0.0103983 0.011324 0.180476 54 40 59
0.0113455 0.0113259 0.180507 54 41 59
0.012185 0.0112283 0.178952 56 43 60
0.0132723 0.0113566 0.180997 57 44 60
0.0138127 0.0110311 0.175809 56 43 59
0.0155225 0.0116218 0.185222 56 42 59
0.0164847 0.0116162 0.185133 55 41 59
0.0169974 0.011312 0.180285 56 42 60
0.0187831 0.0118425 0.18874 55 40 58
0.0192861 0.0115517 0.184105 55 41 59
0.0198528 0.0113249 0.18049 55 41 58
0.0207341 0.01129 0.179934 56 41 59
0.021634 0.0112678 0.179581 55 41 58
0.0223016 0.0111316 0.177409 55 41 58
0.023685 0.0113492 0.180878 55 40 58
0.0243432 0.0112159 0.178754 54 41 57
0.0249858 0.0110856 0.176677 53 38 56
0.0263314 0.0112654 0.179542 53 36 56
0.0268538 0.0110927 0.176791 54 38 56
0.027899 0.0111403 0.177549 54 38 57
0.0288082 0.0111323 0.177422 54 38 56
0.0297576 0.0111399 0.177541 52 36 55
0.0312343 0.0113383 0.180704 53 36 55
0.0310176 0.0109285 0.174173 53 37 56
0.0325227 0.0111314 0.177407 53 38 57
0.0329258 0.0109563 0.174617 52 35 55
0.0338892 0.0109721 0.174868 53 36 55
0.0352184 0.0111024 0.176945 53 36 55
0.0351721 0.0108035 0.172181 52 35 54
0.0367144 0.0109953 0.175238 53 36 56
0.03709 0.0108369 0.172713 53 36 55
0.0373849 0.010663 0.169941 55 38 57
0.0393847 0.0109721 0.174868 54 37 56
0.0393324 0.0107085 0.170667 54 38 56
