ply
format ascii 1.0
element vertex 1183
property float x
property float y
property float z
property uchar red
property uchar green
property uchar blue
end_header
0.0303554 -0.0115864 0.170454 54 34 54
0.0309343 -0.0114701 0.168742 52 30 52
0.0322186 -0.0116144 0.170866 53 30 53
0.033008 -0.0115774 0.170321 52 29 52
0.034202 -0.0116805 0.171838 53 29 53
0.0352435 -0.0117276 0.17253 51 26 51
0.0363056 -0.011779 0.173287 51 26 51
0.0363164 -0.0114951 0.16911 51 27 51
0.0373999 -0.0115562 0.170009 52 26 50
0.0368876 -0.0111328 0.163781 52 24 49
0.0384459 -0.0113394 0.16682 51 22 48
0.0396259 -0.0114277 0.168119 51 21 46
0.040453 -0.0114127 0.167898 51 21 45
0.0412928 -0.0114017 0.167737 50 20 42
0.0417779 -0.0112953 0.166171 48 16 38
0.0430964 -0.011414 0.167918 47 15 36
0.0435306 -0.0112984 0.166217 47 15 34
0.0445099 -0.0113261 0.166624 46 14 35
0.0470007 -0.0117299 0.172565 46 14 34
0.0457043 -0.0111911 0.164639 46 15 35
0.0478887 -0.0115089 0.169313 46 15 36
0.0486848 -0.0114875 0.168998 50 19 41
0.0495895 -0.011492 0.169065 50 20 42
0.0505672 -0.011513 0.169374 53 23 46
0.0520132 -0.011638 0.171213 53 22 47
0.0527915 -0.011612 0.17083 55 29 49
0.0536006 -0.0115934 0.170557 54 30 50
0.0546742 -0.0116318 0.171121 54 32 50
0.0546751 -0.0114444 0.168364 55 35 52
0.0572404 -0.0117911 0.173466 56 37 53
0.0567986 -0.0115173 0.169437 55 36 53
0.0581479 -0.0116095 0.170794 56 38 54
0.0605074 -0.0118976 0.175031 56 38 54
0.0604207 -0.0117032 0.172172 57 40 54
0.0601436 -0.0114782 0.168862 56 38 54
0.0615568 -0.0115776 0.170325 57 39 54
0.0615438 -0.0114098 0.167856 57 40 55
0.0649728 -0.0118759 0.174713 57 40 54
0.0644693 -0.0116202 0.170951 57 40 54
0.0646648 -0.0114958 0.169121 57 40 54
0.0651556 -0.0114265 0.168101 56 39 54
0.0660137 -0.0114226 0.168045 57 40 54
0.0671988 -0.0114747 0.16881 55 38 53
0.0672869 -0.0113405 0.166837 55 37 52
0.0689672 -0.0114747 0.16881 55 37 52
0.0715316 -0.0117507 0.172871 54 35 51
0.0717332 -0.0116365 0.171191 55 36 51
0.0712006 -0.0114075 0.167823 54 31 49
0.0758035 -0.0119969 0.176493 54 31 49
0.0744232 -0.0116365 0.171191 54 34 50
0.0738282 -0.0114061 0.167801 54 33 49
0.0758054 -0.0115738 0.170268 54 31 47
0.0742352 -0.0112022 0.164802 54 32 48
0.0795464 -0.0118657 0.174563 55 33 49
0.0806236 -0.0118898 0.174917 53 29 47
0.0783363 -0.0114226 0.168045 53 29 48
0.0802765 -0.0115755 0.170293 54 32 49
0.0795939 -0.0113509 0.16699 53 29 47
0.0810304 -0.0114302 0.168156 54 30 48
0.0828643 -0.0115632 0.170112 55 32 49
0.0829976 -0.0114586 0.168574 55 32 48
0.0836058 -0.0114211 0.168021 55 32 49
0.0840356 -0.0113602 0.167126 56 33 49
0.0836062 -0.0111856 0.164558 54 31 48
0.0850364 -0.0112609 0.165665 55 32 48
0.0877646 -0.0115048 0.169253 53 29 46
0.0879785 -0.0114175 0.167969 54 31 47
0.0882037 -0.0113334 0.166731 54 32 48
0.0912237 -0.0116065 0.170749 54 31 48
0.0927846 -0.0116905 0.171985 54 29 47
0.0928966 -0.011592 0.170537 53 26 45
0.0939606 -0.0116131 0.170847 51 25 44
0.0933324 -0.0114267 0.168104 51 25 44
0.0953403 -0.0115634 0.170116 52 25 45
0.0966616 -0.0116151 0.170876 51 23 44
0.0980207 -0.0116704 0.171689 52 24 45
0.0970125 -0.0114453 0.168379 52 27 47
0.0979261 -0.011449 0.168433 53 29 47
0.101232 -0.0117299 0.172565 54 32 48
0.104505 -0.012002 0.176567 54 32 49
0.103814 -0.011818 0.173861 55 32 49
0.104359 -0.0117767 0.173253 55 31 48
0.105834 -0.0118403 0.174189 54 29 47
0.1068 -0.0118462 0.174276 54 29 47
0.107287 -0.0117994 0.173587 55 32 48
0.109085 -0.0118963 0.175013 53 29 47
-0.124632 -0.0124417 0.198289 89 109 87
-0.126563 -0.0127407 0.203055 90 110 92
-0.122932 -0.0124799 0.198899 90 108 95
-0.124043 -0.0127004 0.202412 94 106 97
-0.119678 -0.0123591 0.196974 91 115 101
-0.122931 -0.0128054 0.204086 96 124 102
-0.116686 -0.0122615 0.195418 103 127 101
-0.121235 -0.0128523 0.204833 105 132 106
-0.116928 -0.0125064 0.199321 103 148 121
-0.116746 -0.0125994 0.200804 102 146 132
-0.110956 -0.0120834 0.192579 104 149 137
-0.111519 -0.0122561 0.195332 114 159 142
-0.11413 -0.0126593 0.201757 125 168 148
-0.108818 -0.0121828 0.194164 120 177 151
-0.110101 -0.0124428 0.198307 130 187 160
-0.106344 -0.0121326 0.193363 137 193 166
-0.107916 -0.0124303 0.198108 148 199 174
-0.106084 -0.012338 0.196636 153 200 178
-0.102469 -0.0120344 0.191798 153 200 177
-0.104061 -0.0123423 0.196706 163 208 188
-0.0991422 -0.0118765 0.189282 165 212 188
-0.101503 -0.0122821 0.195746 166 215 188
-0.0984734 -0.0120372 0.191842 168 214 187
-0.10277 -0.0126918 0.202276 172 216 188
-0.0956662 -0.0119376 0.190256 178 219 191
-0.0942322 -0.0118825 0.189377 180 220 191
-0.0955973 -0.0121828 0.194164 172 216 184
-0.0935342 -0.0120481 0.192017 178 220 189
-0.0928055 -0.0120842 0.192592 177 219 188
-0.0905325 -0.0119178 0.189939 177 218 188
-0.0901968 -0.0120055 0.191338 179 220 190
-0.0910464 -0.0122547 0.19531 177 220 190
-0.0885383 -0.0120526 0.192088 177 220 190
-0.0875103 -0.0120496 0.19204 172 217 186
-0.0882544 -0.0122933 0.195925 177 219 189
-0.0863856 -0.0121746 0.194032 177 220 189
-0.0860025 -0.0122649 0.195471 175 219 188
-0.083746 -0.012087 0.192636 176 219 188
-0.0831058 -0.0121408 0.193495 177 220 189
-0.0827689 -0.0122409 0.195089 178 221 190
-0.0804141 -0.0120413 0.191908 175 220 188
-0.0787895 -0.0119474 0.190411 176 220 189
-0.0798104 -0.0122573 0.195351 177 220 189
-0.0791844 -0.0123191 0.196336 173 218 186
-0.0776848 -0.0122449 0.195152 173 220 187
-0.076709 -0.0122523 0.195271 174 220 188
-0.0750362 -0.012147 0.193593 168 216 186
-0.0732627 -0.0120224 0.191607 128 194 155
-0.0718114 -0.0119479 0.19042 175 216 192
-0.0714495 -0.0120551 0.192129 157 209 179
-0.0704675 -0.0120593 0.192195 155 208 177
-0.0698411 -0.0121253 0.193247 137 202 167
-0.0670197 -0.0118066 0.188168 139 203 171
-0.0672871 -0.0120306 0.191738 147 208 180
-0.0649625 -0.011791 0.187919 156 211 186
-0.0649395 -0.0119682 0.190742 134 203 168
-0.0642185 -0.0120202 0.191572 166 216 192
-0.0625718 -0.0118979 0.189622 180 224 203
-0.0616891 -0.0119192 0.189963 138 204 170
-0.0605879 -0.0118984 0.18963 160 212 184
-0.0598037 -0.0119401 0.190295 155 210 178
-0.057393 -0.011653 0.18572 146 204 170
-0.0564734 -0.011664 0.185895 165 213 185
-0.0558849 -0.0117449 0.187185 162 213 184
-0.0551464 -0.0117967 0.18801 155 209 177
-0.0557002 -0.0121318 0.193351 148 206 174
-0.0535289 -0.0118748 0.189254 142 204 178
-0.0519501 -0.011742 0.187138 177 220 202
-0.0509277 -0.0117323 0.186983 163 214 191
-0.0502027 -0.011792 0.187935 155 210 182
-0.0485245 -0.0116258 0.185286 153 207 179
-0.0475299 -0.0116199 0.185192 167 213 188
-0.046252 -0.0115431 0.183967 145 205 175
-0.0463963 -0.0118254 0.188468 163 214 190
-0.0446841 -0.0116366 0.185458 150 208 180
-0.044029 -0.0117208 0.186801 160 205 179
-0.0426165 -0.0116026 0.184917 162 200 176
-0.0419922 -0.0116985 0.186445 105 162 125
-0.0399337 -0.0113899 0.181527 80 112 95
-0.0402554 -0.0117618 0.187453 63 76 72
-0.0380749 -0.0114027 0.181731 70 63 70
-0.0371451 -0.0114095 0.18184 69 59 67
-0.0361927 -0.0114095 0.18184 66 56 65
-0.0354157 -0.0114664 0.182745 64 55 63
-0.0337519 -0.0112312 0.178997 62 53 62
-0.034098 -0.0116706 0.186 61 52 61
-0.0326396 -0.0115 0.183281 61 53 62
-0.0316856 -0.0115022 0.183316 61 51 61
-0.0300117 -0.011235 0.179058 60 50 60
-0.029171 -0.0112725 0.179656 59 49 60
-0.0284894 -0.0113761 0.181306 59 50 61
-0.0272037 -0.0112373 0.179094 59 49 61
-0.0262325 -0.0112231 0.178868 60 49 61
-0.0249541 -0.0110716 0.176453 60 50 62
-0.0246604 -0.0113621 0.181083 59 49 62
-0.0232925 -0.0111611 0.17788 59 50 62
-0.0223763 -0.0111688 0.178003 59 49 62
-0.0219965 -0.0114566 0.18259 59 48 62
-0.0207432 -0.011295 0.180014 59 49 62
-0.0195268 -0.0111389 0.177527 59 49 62
-0.0185226 -0.0110944 0.176817 58 47 61
-0.0178302 -0.0112418 0.179166 59 48 62
-0.0173466 -0.0115444 0.18399 59 48 62
-0.0158902 -0.0111973 0.178457 58 47 61
-0.015121 -0.0113212 0.180432 58 46 61
-0.0142105 -0.0113488 0.180871 57 46 61
-0.0133537 -0.0114263 0.182106 56 44 60
-0.0120954 -0.0111457 0.177634 57 44 60
-0.0111213 -0.0111021 0.17694 56 42 59
-0.0102343 -0.0111454 0.17763 56 42 59
-0.00926766 -0.011102 0.176938 56 41 59
-0.00841248 -0.0111973 0.178457 56 41 58
-0.0074628 -0.0111749 0.1781 56 41 59
-0.00658168 -0.0112634 0.179511 57 41 59
-0.00563337 -0.0112473 0.179254 56 40 58
-0.00460111 -0.0110236 0.175689 56 39 58
-0.00361295 -0.0108202 0.172446 55 37 57
-0.00278746 -0.0111306 0.177394 54 37 57
-0.00187353 -0.0112218 0.178847 55 38 57
-0.000931462 -0.0111583 0.177835 55 37 57
0 -0.0110956 0.176836 55 38 57
0.000945622 -0.0113279 0.180538 55 36 56
0.00187826 -0.0112501 0.179299 54 35 56
0.00279801 -0.0111727 0.178065 54 36 56
0.00370725 -0.0111025 0.176947 55 37 56
0.00467792 -0.0112076 0.178622 54 34 55
0.00566342 -0.0113073 0.18021 56 36 56
0.00652069 -0.011159 0.177847 55 34 56
0.00753531 -0.0112835 0.17983 54 33 56
0.00828394 -0.0110262 0.17573 54 33 55
0.00937311 -0.0112283 0.178952 55 35 55
0.0103164 -0.0112348 0.179055 54 34 55
0.0110333 -0.0110143 0.17554 53 33 54
0.0119235 -0.0109873 0.17511 54 34 55
0.0133082 -0.0113873 0.181486 55 35 56
0.0138096 -0.0110286 0.175769 54 33 55
0.0146751 -0.0109873 0.17511 55 35 56
0.0155246 -0.0109396 0.17435 54 32 54
0.0166416 -0.0110753 0.176512 54 34 56
0.0174012 -0.0109713 0.174854 55 36 56
0.0182262 -0.0109169 0.173987 55 36 56
0.0186363 -0.0106309 0.169431 54 35 55
0.0202107 -0.011005 0.175392 54 33 54
0.0211668 -0.0110245 0.175703 55 36 56
0.0220871 -0.0110245 0.175703 54 36 55
0.0226385 -0.0108477 0.172886 54 35 55
0.0230057 -0.0105997 0.168933 54 35 55
0.024283 -0.0107738 0.171708 54 34 55
0.0255544 -0.010933 0.174245 54 35 55
0.0258651 -0.0106843 0.170282 54 34 55
0.0269094 -0.0107452 0.171251 53 33 54
0.0277501 -0.0107235 0.170905 53 31 53
0.0285743 -0.0106969 0.170482 54 35 54
0.0288104 -0.0104584 0.166681 54 33 53
0.0310446 -0.010938 0.174325 53 31 52
0.0315353 -0.0107934 0.17202 51 27 51
0.0320925 -0.010679 0.170197 53 29 52
0.0335107 -0.0108496 0.172915 52 29 52
0.0342084 -0.010784 0.17187 53 29 52
0.0340691 -0.0104647 0.166782 53 29 52
0.0348824 -0.0104467 0.166494 51 26 50
0.0365398 -0.0106761 0.170151 53 27 51
0.0370184 -0.0105584 0.168275 52 23 49
0.0378307 -0.0105392 0.167969 50 21 47
0.0387544 -0.0105511 0.168159 51 21 46
0.039577 -0.0105357 0.167912 49 18 42
0.0406445 -0.0105846 0.168692 47 17 40
0.041819 -0.0106588 0.169874 48 18 40
0.0424604 -0.0105968 0.168886 48 16 38
0.0425913 -0.0104125 0.16595 47 14 35
0.0436974 -0.0104693 0.166854 47 15 33
0.0440276 -0.0103416 0.164819 45 14 33
0.0455307 -0.0104889 0.167168 45 14 34
0.0459669 -0.0103896 0.165585 46 15 37
0.0472945 -0.0104917 0.167212 49 18 41
0.0485906 -0.0105833 0.168671 51 21 45
0.0490933 -0.0105018 0.167373 50 19 42
0.0506437 -0.0106434 0.16963 53 24 45
0.050888 -0.0105104 0.167509 54 27 48
0.0523415 -0.0106274 0.169374 54 29 49
0.0532089 -0.0106234 0.169311 56 35 53
0.0550742 -0.0108156 0.172373 55 35 52
0.0545713 -0.010544 0.168045 55 36 52
0.0550869 -0.0104746 0.166939 56 38 54
0.0562994 -0.0105379 0.167948 55 36 53
0.0582639 -0.0107379 0.171135 56 38 54
0.0589993 -0.0107086 0.170669 56 38 53
0.0595285 -0.0106434 0.16963 55 38 53
0.0607375 -0.0106999 0.170529 57 39 54
0.0610094 -0.010592 0.16881 56 38 54
0.0629594 -0.0107744 0.171717 57 39 54
0.0636895 -0.0107459 0.171262 56 39 54
0.0646406 -0.0107549 0.171405 57 39 54
0.06503 -0.0106714 0.170076 56 39 54
0.0674509 -0.0109191 0.174023 56 40 54
0.0653731 -0.0104416 0.166414 56 38 53
0.0687098 -0.0108302 0.172606 54 35 51
0.0686938 -0.0106871 0.170325 54 35 52
0.0688906 -0.0105803 0.168623 54 35 52
0.0707582 -0.0107295 0.171002 53 34 51
0.0712626 -0.0106709 0.170068 55 36 51
0.0719929 -0.0106472 0.16969 53 29 48
0.0730972 -0.0106787 0.170192 54 30 49
0.0735785 -0.0106195 0.169248 53 31 49
0.0759424 -0.0108302 0.172606 54 32 49
0.0754641 -0.0106354 0.169501 54 31 48
0.077957 -0.010859 0.173065 54 31 48
0.0754635 -0.0103908 0.165603 54 30 48
0.07816 -0.0106398 0.169572 54 32 49
0.0808156 -0.0108777 0.173363 54 32 49
0.0814171 -0.0108369 0.172713 54 30 49
0.0810406 -0.0106682 0.170025 54 30 49
0.0815324 -0.0106163 0.169197 54 31 48
0.0862433 -0.011109 0.177049 56 34 49
0.0842227 -0.0107333 0.171062 54 31 48
0.0825235 -0.010406 0.165846 54 31 48
0.0848683 -0.0105902 0.168782 56 35 50
0.0869828 -0.0107422 0.171204 55 32 48
0.0863215 -0.0105517 0.168168 55 32 48
0.0894433 -0.0108229 0.17249 55 33 48
0.0884637 -0.0105973 0.168895 55 33 49
0.0907587 -0.0107646 0.171561 54 29 47
0.0902148 -0.0105952 0.168861 54 29 47
0.0923109 -0.0107361 0.171107 52 23 44
0.0921211 -0.010611 0.169113 54 27 45
0.0928917 -0.0105979 0.168904 52 26 44
0.0944493 -0.0106739 0.170116 51 26 45
0.0951753 -0.0106555 0.169821 49 21 42
0.0973838 -0.0108018 0.172153 52 24 45
0.100045 -0.0109951 0.175234 52 25 45
0.0980642 -0.0106794 0.170204 52 25 45
0.101206 -0.0109223 0.174074 53 28 47
0.0989132 -0.0105796 0.168612 53 28 47
0.100795 -0.0106854 0.170299 54 30 48
0.104619 -0.0109935 0.175209 55 32 48
0.104804 -0.0109173 0.173994 54 29 47
0.107355 -0.0110865 0.176692 54 30 48
0.106895 -0.0109447 0.174431 53 28 46
0.109173 -0.0110832 0.176639 54 29 47
0.108331 -0.0109053 0.173803 53 29 46
-0.131959 -0.0120753 0.209946 81 92 78
-0.130622 -0.0120535 0.209566 85 98 82
-0.127293 -0.0118458 0.205956 82 96 81
-0.126169 -0.0118416 0.205882 83 95 82
-0.123256 -0.0116679 0.202862 83 96 82
-0.122811 -0.0117268 0.203887 86 105 86
-0.115754 -0.01115 0.193858 82 104 84
-0.119176 -0.0115811 0.201354 84 104 89
-0.11916 -0.0116831 0.203126 87 103 94
-0.119565 -0.0118284 0.205652 97 115 104
-0.114811 -0.0114612 0.199269 96 122 110
-0.112564 -0.0113401 0.197163 96 125 118
-0.113789 -0.0115696 0.201153 90 125 119
-0.110789 -0.0113698 0.19768 101 140 127
-0.110597 -0.0114572 0.199199 100 146 123
-0.107752 -0.0112689 0.195925 107 155 128
-0.110106 -0.0116257 0.202129 110 158 131
-0.107309 -0.0114404 0.198908 123 168 141
-0.105294 -0.0113356 0.197085 124 181 155
-0.102961 -0.0111943 0.194627 125 185 162
-0.10463 -0.0114895 0.19976 137 196 173
-0.102665 -0.0113875 0.197988 140 198 175
-0.103578 -0.011606 0.201787 145 200 179
-0.0986483 -0.0111676 0.194164 156 207 185
-0.0983735 -0.0112525 0.19564 163 211 184
-0.0978444 -0.0113098 0.196636 171 214 187
-0.0969805 -0.0113292 0.196974 174 214 184
-0.0925666 -0.0109298 0.19003 177 219 190
-0.092788 -0.0110751 0.192555 176 221 192
-0.0940014 -0.0113432 0.197217 176 220 193
-0.0912074 -0.0111283 0.193481 176 220 192
-0.0897051 -0.011068 0.192433 172 218 189
-0.0890848 -0.0111164 0.193274 180 221 196
-0.0884293 -0.0111614 0.194057 171 216 188
-0.0880377 -0.0112412 0.195444 173 217 189
-0.087623 -0.0113199 0.196812 178 220 190
-0.0873863 -0.0114237 0.198617 178 221 190
-0.0854704 -0.0113079 0.196603 176 219 188
-0.0817589 -0.0109487 0.190359 174 220 187
-0.0803814 -0.0108972 0.189462 171 219 185
-0.0833395 -0.0114394 0.19889 174 220 187
-0.080191 -0.0111466 0.193798 175 220 188
-0.0813951 -0.011459 0.19923 174 219 187
-0.0766412 -0.0109298 0.19003 174 220 187
-0.076652 -0.0110752 0.192558 170 217 185
-0.0751983 -0.0110101 0.191425 167 215 186
-0.0741374 -0.0110014 0.191275 168 216 189
-0.0729707 -0.0109766 0.190843 143 204 174
-0.0760706 -0.0116018 0.201714 152 208 178
-0.0698112 -0.0107972 0.187723 153 206 173
-0.0702135 -0.0110145 0.191502 151 205 171
-0.0687892 -0.0109475 0.190337 161 212 186
-0.0692461 -0.0111822 0.194419 157 212 185
-0.0694077 -0.0113756 0.197781 143 205 175
-0.0675087 -0.011232 0.195284 141 202 172
-0.0649681 -0.0109756 0.190826 140 202 169
-0.0636058 -0.0109134 0.189744 149 207 173
-0.0620898 -0.0108224 0.188162 171 218 192
-0.0612913 -0.0108555 0.188738 140 203 173
-0.0612758 -0.0110307 0.191783 166 215 191
-0.0603932 -0.011053 0.192171 160 212 186
-0.0586838 -0.0109222 0.189897 151 207 175
-0.0567618 -0.0107466 0.186844 149 206 174
-0.0547305 -0.0105438 0.183318 177 219 197
-0.0549811 -0.0107812 0.187446 150 207 176
-0.0549332 -0.0109677 0.190688 156 209 181
-0.0533232 -0.0108434 0.188527 160 212 187
-0.0537621 -0.0111389 0.193665 151 208 180
-0.0505596 -0.0106768 0.185631 163 213 188
-0.0504302 -0.0108583 0.188787 166 214 189
-0.0481853 -0.0105825 0.183991 144 204 173
-0.0478659 -0.0107269 0.186501 168 215 191
-0.0457451 -0.0104652 0.181951 140 204 172
-0.0448943 -0.010489 0.182366 167 215 193
-0.0450029 -0.010743 0.186782 164 206 189
-0.0444681 -0.0108512 0.188663 151 198 177
-0.0430079 -0.0107334 0.186615 132 183 155
-0.0407759 -0.010413 0.181045 109 160 127
-0.0404439 -0.0105742 0.183846 80 109 90
-0.0396531 -0.0106203 0.184648 62 81 78
-0.038052 -0.0104462 0.181622 70 61 69
-0.0373847 -0.0105262 0.183013 66 56 65
-0.0364182 -0.0105239 0.182973 65 56 64
-0.034745 -0.0103118 0.179284 63 54 63
-0.0341109 -0.0104048 0.180902 62 53 63
-0.0332548 -0.0104335 0.1814 61 52 62
-0.0334522 -0.0108041 0.187844 60 51 61
-0.0318196 -0.0105882 0.184091 60 50 61
-0.0304437 -0.0104469 0.181634 59 50 61
-0.0296263 -0.0104944 0.18246 60 51 62
-0.0282653 -0.010346 0.17988 60 51 62
-0.0269489 -0.0102043 0.177417 60 50 62
-0.0261253 -0.0102458 0.178137 59 49 61
-0.0257535 -0.0104741 0.182106 59 49 62
-0.0248672 -0.0105026 0.182602 59 49 62
-0.0235896 -0.0103615 0.180149 58 48 62
-0.0222867 -0.0101971 0.177291 58 48 61
-0.0218842 -0.0104483 0.181658 59 48 62
-0.0206093 -0.0102869 0.178851 59 48 62
-0.0201229 -0.0105224 0.182946 59 49 62
-0.0187866 -0.0103148 0.179337 58 48 61
-0.0177622 -0.0102656 0.178482 59 48 62
-0.0169142 -0.0103186 0.179403 58 47 62
-0.0156192 -0.0100891 0.175413 59 47 62
-0.0149648 -0.0102706 0.178568 58 46 61
-0.0138469 -0.0101368 0.176243 58 46 61
-0.0132135 -0.0103641 0.180195 58 45 61
-0.0122393 -0.0103384 0.179748 57 44 60
-0.0112667 -0.01031 0.179254 57 43 60
-0.01037 -0.0103521 0.179986 57 42 60
-0.00954338 -0.0104796 0.182202 57 44 61
-0.0083463 -0.0101834 0.177053 56 41 59
-0.00739893 -0.010156 0.176575 57 42 59
-0.00657301 -0.0103112 0.179274 56 41 59
-0.00558247 -0.0102169 0.177634 57 41 59
-0.00479253 -0.0105254 0.182998 57 40 59
-0.00354822 -0.00974078 0.169357 56 39 58
-0.0028034 -0.0102614 0.178409 55 38 58
-0.00188041 -0.0103244 0.179504 55 38 58
-0.000922142 -0.0101261 0.176055 56 39 58
0 -0.0102479 0.178173 55 37 57
0.000930322 -0.0102159 0.177617 55 37 57
0.00183021 -0.0100488 0.174712 55 37 57
0.00275924 -0.0100998 0.175598 56 37 57
0.00372129 -0.0102159 0.177617 56 37 57
0.0046605 -0.0102354 0.177957 55 34 55
0.00551895 -0.0101006 0.175613 55 34 55
0.0065 -0.0101967 0.177283 55 33 56
0.00722412 -0.00991603 0.172404 54 32 55
0.00841963 -0.0102729 0.178608 54 34 56
0.00931462 -0.0102284 0.177835 54 33 55
0.00994306 -0.00992591 0.172575 55 36 56
0.0110333 -0.0100964 0.17554 54 34 56
0.0118617 -0.0100195 0.174203 54 34 55
0.0126916 -0.0099548 0.173078 54 34 55
0.0136314 -0.00997908 0.1735 54 32 54
0.0148478 -0.0101902 0.177171 54 33 55
0.0153025 -0.00988453 0.171856 55 34 55
0.0164966 -0.0100638 0.174974 54 34 55
0.0168404 -0.00973287 0.169219 53 33 54
0.0182231 -0.0100054 0.173958 54 35 55
0.0192038 -0.0100418 0.17459 55 37 56
0.0202189 -0.010092 0.175463 54 33 54
0.0210937 -0.0100709 0.175096 55 36 55
0.0212239 -0.00971083 0.168836 54 34 54
0.0227924 -0.0100114 0.174061 54 33 55
0.0235509 -0.00994665 0.172936 53 34 55
0.0246978 -0.0100447 0.174641 54 35 55
0.0250825 -0.00983684 0.171027 54 35 55
0.0261332 -0.00989548 0.172046 54 35 55
0.0274106 -0.0100332 0.174441 54 35 55
0.027744 -0.00982764 0.170867 54 33 54
0.0281232 -0.00965066 0.16779 53 31 53
0.0297542 -0.00990096 0.172142 54 33 53
0.0303381 -0.00979832 0.170357 53 32 52
0.0317012 -0.00994604 0.172926 51 27 51
0.0324273 -0.00989125 0.171973 52 28 52
0.0326567 -0.009692 0.168509 53 28 52
0.0347682 -0.0100471 0.174683 52 29 51
0.0348647 -0.00981667 0.170676 52 27 51
0.0354698 -0.00973737 0.169298 52 26 50
0.0369458 -0.00989519 0.172041 52 24 49
0.0374196 -0.00978347 0.170099 53 24 49
0.0383532 -0.00979436 0.170288 50 20 46
0.0382016 -0.00953391 0.16576 50 20 44
0.0391039 -0.00954223 0.165905 49 18 42
0.0401433 -0.00958291 0.166612 49 17 40
0.0405698 -0.00947867 0.1648 48 17 39
0.0422535 -0.00966638 0.168063 46 14 34
0.0426385 -0.0095554 0.166134 45 14 33
0.0443093 -0.00973122 0.169191 46 14 32
0.0439902 -0.00947171 0.164679 45 14 33
0.046031 -0.00972053 0.169005 46 15 37
0.045173 -0.00935935 0.162725 47 15 37
0.0470297 -0.0095636 0.166276 51 21 43
0.0489399 -0.00977109 0.169884 52 22 45
0.0503626 -0.00987559 0.171701 52 22 45
0.0498042 -0.00959476 0.166818 53 24 47
0.050635 -0.00958663 0.166677 55 29 50
0.0526813 -0.009805 0.170473 55 28 50
0.0536137 -0.00981222 0.170599 55 34 52
0.0548979 -0.00988254 0.171821 56 36 53
0.0548567 -0.00971585 0.168923 56 38 54
0.0541677 -0.00944153 0.164154 56 38 54
0.0563187 -0.00966308 0.168006 57 39 54
0.0581295 -0.00982033 0.17074 56 38 54
0.0590671 -0.00982753 0.170865 56 38 54
0.0584206 -0.00957489 0.166473 56 38 54
0.0595151 -0.00961084 0.167098 56 38 54
0.0606646 -0.00965448 0.167856 55 37 53
0.0629157 -0.0098697 0.171598 56 38 54
0.064304 -0.00994541 0.172914 56 39 54
0.0645681 -0.00984755 0.171213 57 40 55
0.0652716 -0.00981848 0.170708 56 39 54
0.0650822 -0.00965769 0.167912 56 38 53
0.0669628 -0.00980427 0.170461 56 38 53
0.0683085 -0.0098697 0.171598 54 35 52
0.0684387 -0.00976008 0.169692 54 34 51
0.0687009 -0.00967187 0.168159 54 34 51
0.0711031 -0.00988335 0.171836 53 33 50
0.0706818 -0.00970197 0.168682 55 35 50
0.072853 -0.00987655 0.171717 53 29 49
0.0747571 -0.0100111 0.174056 53 30 49
0.0761476 -0.0100744 0.175158 53 32 49
0.0737733 -0.00964411 0.167676 54 31 49
0.0751074 -0.00970301 0.1687 54 31 48
0.0774707 -0.00989194 0.171985 53 29 48
0.0776584 -0.00980193 0.17042 54 31 49
0.0777312 -0.00969964 0.168641 54 30 48
0.0796334 -0.00982534 0.170827 53 29 48
0.0774074 -0.00944458 0.164207 53 29 48
0.0807547 -0.00974472 0.169425 54 31 49
0.0825023 -0.00984738 0.17121 54 32 49
0.0829897 -0.00979905 0.17037 54 30 48
0.085163 -0.00994868 0.172971 55 32 49
0.0843026 -0.00974451 0.169422 55 32 49
0.0846561 -0.00968344 0.16836 54 30 48
0.0871728 -0.00986852 0.171578 55 32 48
0.0873119 -0.0097834 0.170098 54 31 47
0.0854676 -0.00948001 0.164823 55 32 48
0.0892941 -0.0098054 0.17048 54 30 47
0.0904481 -0.00983378 0.170974 54 30 48
0.0888944 -0.00957011 0.166389 54 28 47
0.0936284 -0.00998189 0.173549 53 26 46
0.0921695 -0.00973188 0.169202 52 25 45
0.0948641 -0.009921 0.17249 51 23 43
0.0931581 -0.00965066 0.16779 51 24 44
0.0952424 -0.00977438 0.169941 51 23 44
0.0974958 -0.009913 0.172351 52 27 46
0.0960998 -0.00968141 0.168325 54 29 48
0.0939732 -0.00938111 0.163103 54 30 48
0.101855 -0.0100763 0.175191 54 29 47
0.102712 -0.0100704 0.175088 54 29 46
0.10199 -0.00991111 0.172318 54 28 46
0.102782 -0.00990047 0.172133 54 28 46
0.102557 -0.00979284 0.170262 52 25 44
0.110899 -0.0104982 0.182525 53 26 45
0.107753 -0.0101132 0.175831 55 31 48
0.105994 -0.00986375 0.171495 54 30 48
0.106128 -0.00979318 0.170268 54 32 48
-0.156548 -0.0130232 0.249068 81 79 70
-0.150986 -0.012666 0.242238 78 82 67
-0.147657 -0.0124918 0.238905 74 82 67
-0.139569 -0.0119084 0.227748 78 85 73
-0.143139 -0.0123183 0.235587 81 88 75
-0.137234 -0.0119128 0.227833 83 89 73
-0.125701 -0.0110074 0.210517 88 95 78
-0.131209 -0.0115913 0.221684 82 86 78
-0.124454 -0.0110928 0.21215 84 88 85
-0.119765 -0.0107711 0.205997 86 93 81
-0.118652 -0.0107679 0.205936 88 93 84
-0.116369 -0.0106576 0.203827 91 94 93
-0.11587 -0.0107102 0.204833 95 109 104
-0.113742 -0.0106117 0.202949 89 117 106
-0.112185 -0.0105653 0.202061 93 122 107
-0.112167 -0.0106642 0.203952 95 123 104
-0.108759 -0.0104396 0.199657 103 131 110
-0.110506 -0.0107102 0.204833 102 145 119
-0.108556 -0.0106244 0.203192 104 153 128
-0.106637 -0.0105399 0.201576 103 158 141
-0.103569 -0.010339 0.197733 95 169 149
-0.100452 -0.0101292 0.193721 112 177 158
-0.106739 -0.010873 0.207946 119 177 155
-0.0999461 -0.0102859 0.196719 140 188 168
-0.0972928 -0.0101172 0.193491 138 187 165
-0.101923 -0.0107102 0.204833 145 193 168
-0.0956696 -0.0101601 0.194311 148 199 173
-0.0973779 -0.0104527 0.199907 153 205 181
-0.0932928 -0.010123 0.193603 159 211 188
-0.0921054 -0.010104 0.193239 167 215 192
-0.0955514 -0.0105985 0.202696 168 215 190
-0.090288 -0.0101272 0.193683 165 213 187
-0.0882081 -0.0100064 0.191372 171 215 190
-0.0886336 -0.0101702 0.194505 176 218 193
-0.0874613 -0.0101524 0.194164 177 219 194
-0.0858107 -0.010078 0.192741 176 219 193
-0.0845938 -0.0100533 0.19227 176 219 191
-0.0864126 -0.0103932 0.19877 177 220 190
-0.0816179 -0.00993623 0.19003 177 221 189
-0.0837487 -0.0103215 0.197399 176 222 190
-0.0797022 -0.00994558 0.190209 171 219 186
-0.080778 -0.0102074 0.195217 170 218 184
-0.0802702 -0.0102733 0.196477 172 219 186
-0.0779715 -0.0101087 0.193329 172 218 187
-0.0757171 -0.00994558 0.190209 176 220 193
-0.0766137 -0.0101975 0.195028 123 194 154
-0.0725894 -0.00979245 0.187281 156 210 185
-0.0732784 -0.0100208 0.191648 180 222 201
-0.0721049 -0.00999729 0.191198 149 208 178
-0.0703693 -0.00989406 0.189224 155 207 178
-0.0726047 -0.0103542 0.198024 149 203 172
-0.0694609 -0.0100494 0.192195 166 213 190
-0.0690063 -0.0101305 0.193745 154 208 182
-0.0680309 -0.0101363 0.193858 160 209 184
-0.0689114 -0.0104231 0.199342 146 202 175
-0.0639782 -0.00982581 0.187919 160 210 185
-0.0654573 -0.01021 0.195267 150 207 174
-0.0629637 -0.00997699 0.19081 177 219 195
-0.0607232 -0.00977717 0.186988 150 207 179
-0.0603496 -0.00987631 0.188884 153 208 180
-0.0604959 -0.0100652 0.192498 159 211 184
-0.057313 -0.0096973 0.185461 158 210 182
-0.0569916 -0.00980918 0.1876 157 211 182
-0.0560317 -0.00981316 0.187677 158 212 184
-0.0559685 -0.00997713 0.190813 146 206 176
-0.054257 -0.00984788 0.188341 161 212 187
-0.0520204 -0.00961679 0.183921 151 207 181
-0.0528252 -0.00994982 0.19029 140 201 169
-0.0501439 -0.00962641 0.184105 142 202 169
-0.0496337 -0.0097153 0.185805 179 219 200
-0.0488643 -0.009756 0.186583 166 215 193
-0.047082 -0.00959198 0.183447 162 213 190
-0.0463413 -0.00963777 0.184322 133 200 168
-0.0458295 -0.00973414 0.186165 146 205 178
-0.0444733 -0.00965142 0.184584 160 204 184
-0.0438591 -0.00972965 0.18608 143 193 171
-0.0430271 -0.00976202 0.186699 132 184 159
-0.0416688 -0.0096737 0.18501 99 143 121
-0.0405995 -0.00964987 0.184554 70 85 77
-0.0393377 -0.009578 0.183179 60 72 78
-0.0385692 -0.00962565 0.184091 68 59 68
-0.0368666 -0.00943668 0.180476 65 56 65
-0.036746 -0.00965332 0.18462 64 55 64
-0.0356187 -0.00961007 0.183793 64 55 64
-0.033661 -0.00933415 0.178516 63 54 64
-0.0336693 -0.00960321 0.183661 62 53 62
-0.0324984 -0.00954187 0.182488 60 51 61
-0.0310056 -0.00937943 0.179382 60 51 62
-0.0296528 -0.0092505 0.176916 59 50 61
-0.0295437 -0.00951377 0.181951 60 51 62
-0.0288856 -0.00961192 0.183828 60 51 62
-0.0271923 -0.00936046 0.179019 59 49 61
-0.0259657 -0.00925747 0.177049 59 49 61
-0.0256757 -0.0094931 0.181556 59 49 62
-0.0243275 -0.00934059 0.178639 59 49 63
-0.0229312 -0.00915667 0.175121 59 49 62
-0.0222102 -0.00923828 0.176682 60 50 63
-0.0220348 -0.00956384 0.182908 58 47 61
-0.0210879 -0.00956888 0.183005 59 48 62
-0.0200526 -0.00953239 0.182307 59 48 62
-0.0188406 -0.00940406 0.179853 59 48 62
-0.0175603 -0.00922631 0.176453 59 48 62
-0.0172375 -0.00955989 0.182833 58 46 61
-0.0162367 -0.00953452 0.182348 59 46 62
-0.0151237 -0.009436 0.180463 58 46 62
-0.0139839 -0.00930651 0.177987 58 46 61
-0.0129402 -0.00922704 0.176467 58 45 61
-0.0121035 -0.00929428 0.177753 57 43 60
-0.0114764 -0.00954719 0.18259 56 42 60
-0.010344 -0.00938738 0.179534 57 43 60
-0.00927986 -0.00926385 0.177171 57 43 60
-0.00825115 -0.00915212 0.175034 57 42 60
-0.00749754 -0.00935575 0.178929 56 40 59
-0.00661055 -0.00942734 0.180298 56 40 59
-0.00570214 -0.00948717 0.181442 57 41 59
-0.00457754 -0.00913929 0.174789 56 39 59
-0.0037167 -0.00927571 0.177398 56 39 58
-0.00269863 -0.0089799 0.171741 56 39 58
-0.00187589 -0.00936328 0.179073 55 38 58
-0.000924471 -0.00922876 0.1765 56 39 58
0 -0.00926385 0.177171 55 37 57
0.000921532 -0.00919942 0.175939 55 36 56
0.0019023 -0.00949509 0.181594 56 37 57
0.00283013 -0.00941749 0.180109 56 37 57
0.00369775 -0.00922843 0.176494 55 35 56
0.00474515 -0.00947393 0.181189 55 34 55
0.00546304 -0.00908936 0.173834 53 29 54
0.00656875 -0.00936774 0.179158 51 27 53
0.00743783 -0.00928124 0.177504 53 32 55
0.00851828 -0.00944842 0.180701 53 32 55
0.00937676 -0.00936058 0.179021 54 33 55
0.010258 -0.00930933 0.178041 54 33 55
0.0109184 -0.00908297 0.173712 54 34 55
0.0119302 -0.00916125 0.175209 54 32 55
0.0126302 -0.00900598 0.172239 55 34 56
0.0136148 -0.00906084 0.173289 55 34 55
0.0150014 -0.00935971 0.179004 54 33 55
0.0157565 -0.00925254 0.176955 54 33 55
0.016621 -0.00921797 0.176294 54 34 55
0.0172437 -0.00905995 0.173272 54 34 55
0.0181936 -0.00908111 0.173676 54 33 54
0.0193114 -0.00918004 0.175568 54 35 55
0.0198398 -0.00900251 0.172173 54 35 54
0.0212173 -0.00920902 0.176122 54 36 55
0.0221832 -0.00922704 0.176467 55 35 54
0.0227672 -0.00909118 0.173869 54 34 55
0.0230022 -0.00883173 0.168907 54 34 55
0.0246298 -0.0091064 0.17416 54 33 54
0.0251187 -0.00895547 0.171273 54 34 55
0.0258903 -0.00891227 0.170447 53 32 53
0.0263574 -0.00877065 0.167739 54 33 54
0.0281849 -0.00907622 0.173583 54 33 54
0.0285428 -0.00890422 0.170293 54 32 53
0.0289131 -0.00874644 0.167276 53 31 52
0.0306322 -0.00899394 0.172009 52 29 51
0.0311258 -0.00887775 0.169787 51 28 51
0.0328375 -0.00910578 0.174148 52 29 51
0.032332 -0.00872329 0.166833 51 26 50
0.0344164 -0.00904133 0.172915 52 27 50
0.0353044 -0.00903679 0.172829 53 27 50
0.0359618 -0.00897494 0.171646 51 23 48
0.036371 -0.00885567 0.169365 51 22 47
0.0368572 -0.00876037 0.167542 50 20 45
0.0379646 -0.00881375 0.168563 50 20 45
0.03838 -0.00870767 0.166534 50 19 44
0.0398896 -0.00884906 0.169238 49 17 40
0.0399842 -0.00867723 0.165952 49 18 40
0.0407491 -0.00865506 0.165528 48 15 37
0.0418388 -0.00870137 0.166414 46 13 34
0.0425679 -0.00867234 0.165859 45 13 32
0.0423876 -0.00846289 0.161853 45 13 32
0.0441127 -0.00863462 0.165137 45 14 34
0.0455087 -0.00873657 0.167087 45 14 37
0.0464123 -0.00874193 0.16719 49 18 41
0.0474982 -0.00878078 0.167933 49 19 42
0.0491973 -0.00892952 0.170777 51 22 46
0.0500395 -0.0089202 0.170599 53 26 48
0.0508403 -0.00890397 0.170288 53 25 48
0.0515128 -0.0088662 0.169566 54 29 49
0.0515788 -0.00872709 0.166906 55 31 50
0.0537527 -0.00894333 0.171041 55 32 51
0.0543425 -0.00889324 0.170083 55 35 53
0.0545467 -0.00878267 0.167969 55 36 53
0.0571922 -0.00906246 0.17332 55 36 52
0.056733 -0.00884924 0.169242 56 37 53
0.0577522 -0.00886962 0.169631 56 37 53
0.0583905 -0.00883178 0.168908 56 39 54
0.0601695 -0.00896503 0.171456 56 39 55
0.0594282 -0.00872436 0.166853 56 38 54
0.0618598 -0.00894973 0.171164 56 38 54
0.0627485 -0.00894861 0.171142 55 36 53
0.0634324 -0.00891873 0.170571 54 35 52
0.0636323 -0.00882256 0.168732 54 34 52
0.065983 -0.00902317 0.172568 54 36 52
0.0666147 -0.00898646 0.171866 55 36 52
0.0667621 -0.00888625 0.16995 54 35 52
0.068523 -0.00900063 0.172137 54 35 52
0.067974 -0.00881256 0.16854 55 37 53
0.0704866 -0.00902115 0.172529 53 33 50
0.0695817 -0.00879261 0.168159 54 33 50
0.07241 -0.00903564 0.172807 54 31 49
0.0716677 -0.00883259 0.168923 52 28 48
0.0724921 -0.00882525 0.168783 53 31 49
0.0748998 -0.0090085 0.172288 54 32 49
0.0742238 -0.00882092 0.1687 53 29 48
0.0748246 -0.0087877 0.168065 53 30 48
0.0760995 -0.00883351 0.168941 53 29 48
0.0767505 -0.00880668 0.168428 54 29 48
0.0802881 -0.00910791 0.174189 54 30 48
0.0782236 -0.00877401 0.167803 53 28 47
0.0808735 -0.00897044 0.17156 53 29 48
0.0794784 -0.00871882 0.166747 53 29 48
0.0795053 -0.00862697 0.164991 54 31 48
0.0818685 -0.00878788 0.168068 55 32 49
0.0819155 -0.00869937 0.166376 54 31 48
0.0824625 -0.00866529 0.165724 55 33 49
0.0861154 -0.00895488 0.171262 54 31 48
0.0852484 -0.00877333 0.16779 54 32 47
0.0848957 -0.00864788 0.165391 54 31 47
0.0902671 -0.00910215 0.174079 55 33 48
0.0913541 -0.00911965 0.174413 54 31 47
0.0920768 -0.00910079 0.174053 54 29 47
0.0886738 -0.00867851 0.165977 52 24 44
0.0932889 -0.00904155 0.17292 51 22 43
0.0914394 -0.00877708 0.167862 52 23 44
0.0950436 -0.00903615 0.172816 52 26 44
0.0947876 -0.00892679 0.170725 52 27 47
0.0937796 -0.00874933 0.167331 52 27 46
0.0958838 -0.00886281 0.169501 53 28 47
0.0954978 -0.00874615 0.16727 53 28 47
0.0964647 -0.00875439 0.167428 54 28 46
0.100189 -0.00901051 0.172326 55 30 47
0.101088 -0.0090101 0.172318 54 28 45
0.0992796 -0.00877065 0.167739 54 27 46
0.10204 -0.0089354 0.17089 53 26 45
0.102776 -0.00892164 0.170626 53 27 45
0.103918 -0.00894298 0.171035 54 27 46
0.104094 -0.00888159 0.16986 54 29 48
0.110231 -0.00932552 0.178351 54 31 48
0.111987 -0.00939445 0.179669 55 34 49
-0.235282 -0.0176157 0.374334 72 67 62
-0.22488 -0.0169784 0.360791 74 73 64
-0.247412 -0.0188378 0.400304 71 70 61
-0.213079 -0.0163624 0.3477 74 71 63
-0.202991 -0.0157221 0.334095 75 73 64
-0.182872 -0.014287 0.303599 75 74 64
-0.183651 -0.0144738 0.307567 73 73 63
-0.168091 -0.0133647 0.284 74 77 66
-0.152987 -0.0122724 0.260789 79 80 71
-0.147704 -0.0119553 0.25405 81 80 71
-0.145989 -0.0119239 0.253384 86 86 77
-0.140849 -0.0116097 0.246705 83 86 79
-0.13245 -0.0110184 0.234141 80 88 80
-0.12834 -0.0107763 0.228997 87 99 91
-0.128057 -0.010854 0.230648 79 92 82
-0.11811 -0.0101062 0.214757 88 107 87
-0.118319 -0.0102215 0.217206 79 103 84
-0.114046 -0.00994803 0.211396 81 102 93
-0.118436 -0.0104322 0.221684 89 107 95
-0.10836 -0.00963919 0.204833 91 109 99
-0.107932 -0.00969713 0.206064 77 113 104
-0.109243 -0.00991403 0.210673 80 125 113
-0.106321 -0.00974734 0.207131 89 131 117
-0.109645 -0.0101557 0.215808 102 139 125
-0.105641 -0.00988677 0.210094 109 143 127
-0.10242 -0.00968622 0.205832 110 156 140
-0.0985282 -0.00941728 0.200117 115 162 146
-0.0945067 -0.00913003 0.194013 119 169 147
-0.0941629 -0.00919569 0.195408 129 182 159
-0.0949461 -0.00937407 0.199199 133 185 159
-0.0965585 -0.00963919 0.204833 144 193 166
-0.0921134 -0.00929877 0.197599 148 198 172
-0.0915944 -0.00935144 0.198718 158 204 178
-0.0918673 -0.00948712 0.201601 165 207 185
-0.0878892 -0.00918184 0.195114 161 207 185
-0.0855056 -0.00903791 0.192056 167 212 191
-0.0854819 -0.00914297 0.194288 169 214 189
-0.0853829 -0.00924241 0.196401 170 215 187
-0.0809548 -0.00886996 0.188487 172 218 188
-0.080478 -0.00892657 0.18969 168 217 186
-0.0803141 -0.00901975 0.19167 166 216 185
-0.0790724 -0.0089927 0.191095 173 219 189
-0.0784605 -0.00903752 0.192047 169 217 185
-0.0779694 -0.00909758 0.193324 172 217 187
-0.0779942 -0.00922021 0.19593 157 209 178
-0.0759673 -0.00910035 0.193382 149 206 177
-0.0732915 -0.00889845 0.189092 159 213 188
-0.0750664 -0.00923879 0.196324 175 220 199
-0.0739202 -0.00922408 0.196012 157 212 186
-0.0718073 -0.00908663 0.193091 157 211 185
-0.0705299 -0.00905248 0.192365 147 205 176
-0.0696647 -0.00907102 0.192759 161 212 189
-0.0681466 -0.00900385 0.191332 159 210 187
-0.0669542 -0.00897833 0.19079 157 209 184
-0.0676139 -0.00920417 0.195589 162 209 187
-0.0647724 -0.00895301 0.190251 158 208 186
-0.062869 -0.0088257 0.187546 160 210 187
-0.0649877 -0.00926794 0.196944 158 210 186
-0.0599326 -0.00868488 0.184554 168 214 190
-0.060106 -0.0088528 0.188122 163 213 187
-0.0610397 -0.00914015 0.194228 155 210 181
-0.0583843 -0.00889071 0.188928 165 214 189
-0.0581449 -0.00900691 0.191397 179 220 199
-0.0553449 -0.00872359 0.185376 166 215 190
-0.0551894 -0.00885443 0.188157 163 213 188
-0.0557147 -0.00910123 0.193401 162 212 188
-0.0524563 -0.00872763 0.185462 161 212 187
-0.051792 -0.00877969 0.186568 156 209 181
-0.0503269 -0.0086954 0.184777 142 204 173
-0.0496576 -0.00874799 0.185895 147 206 177
-0.0481109 -0.00864502 0.183707 186 224 207
-0.0484588 -0.00888524 0.188811 160 213 190
-0.0459297 -0.00859697 0.182686 163 214 191
-0.0465294 -0.00889452 0.189008 161 210 187
-0.0448982 -0.00876927 0.186347 155 203 182
-0.0441254 -0.00880986 0.18721 136 185 161
-0.0425762 -0.00869374 0.184742 118 168 141
-0.0414885 -0.00866865 0.184209 83 118 109
-0.0410156 -0.0087739 0.186445 72 74 80
-0.0391418 -0.00857727 0.182267 69 65 73
-0.0385277 -0.00865378 0.183893 66 59 67
-0.0375383 -0.00864774 0.183764 66 57 66
-0.0364441 -0.00861661 0.183103 63 55 64
-0.0349905 -0.00849651 0.180551 61 54 63
-0.0339996 -0.00848523 0.180311 61 53 62
-0.0330772 -0.0084909 0.180432 60 53 62
-0.031932 -0.00843801 0.179308 61 53 62
-0.0310098 -0.00844262 0.179406 59 50 61
-0.0303379 -0.00851782 0.181004 60 51 62
-0.0285399 -0.00827147 0.175769 60 52 63
-0.0287849 -0.00862058 0.183187 59 50 62
-0.0273399 -0.00847015 0.179991 59 50 62
-0.0264861 -0.00849871 0.180598 59 50 62
-0.0263132 -0.00875595 0.186064 58 48 62
-0.0248479 -0.00858634 0.18246 59 50 63
-0.0232963 -0.00837221 0.177909 59 50 63
-0.0226437 -0.00847672 0.18013 59 49 63
-0.0213736 -0.00834913 0.177419 58 48 62
-0.0202158 -0.00825581 0.175436 58 48 62
-0.0199357 -0.00852913 0.181244 58 48 62
-0.0190819 -0.00857204 0.182156 58 47 61
-0.0182065 -0.00860924 0.182946 58 47 61
-0.0168394 -0.00840515 0.178609 58 46 62
-0.0160966 -0.008507 0.180774 57 45 61
-0.01469 -0.00824884 0.175288 58 45 61
-0.0139198 -0.00833746 0.177171 58 45 61
-0.0131287 -0.00842532 0.179038 56 42 60
-0.0124263 -0.00858799 0.182495 57 44 60
-0.0111358 -0.00833746 0.177171 56 43 60
-0.0102281 -0.00835404 0.177523 56 42 60
-0.00929221 -0.00834856 0.177407 57 43 61
-0.00837392 -0.00835947 0.177639 57 41 60
-0.00756757 -0.00849883 0.1806 56 41 59
-0.00668919 -0.00858555 0.182443 57 41 60
-0.0054448 -0.0081531 0.173253 56 40 59
-0.00467864 -0.00840702 0.178649 57 41 60
-0.00362678 -0.00814617 0.173106 55 37 57
-0.00280887 -0.00841206 0.178756 55 38 59
-0.0018323 -0.00823113 0.174912 53 34 57
-0.000916151 -0.00823113 0.174912 55 38 58
0 -0.00828345 0.176023 55 38 57
0.000927395 -0.00833216 0.177058 55 37 57
0.00189124 -0.00849591 0.180538 56 36 57
0.00283892 -0.00850207 0.180669 55 35 57
0.003705 -0.00832186 0.17684 55 36 57
0.00460825 -0.00828054 0.175961 55 34 56
0.0055162 -0.00826002 0.175525 55 33 56
0.0065323 -0.00838417 0.178164 54 33 56
0.00722595 -0.00811517 0.172447 54 34 56
0.00839325 -0.00837877 0.178049 54 33 56
0.00899893 -0.00808507 0.171808 54 32 55
0.00998727 -0.0081573 0.173343 53 31 54
0.0114348 -0.00856133 0.181928 54 33 55
0.0119314 -0.00824596 0.175227 54 32 55
0.0126981 -0.00814895 0.173165 54 33 55
0.013399 -0.00802551 0.170542 54 32 55
0.0146931 -0.0082506 0.175325 54 34 55
0.0157271 -0.00831173 0.176624 54 33 55
0.0164214 -0.00819652 0.174176 55 35 55
0.0176875 -0.00836383 0.177731 54 33 55
0.0185353 -0.0083265 0.176938 55 35 55
0.0189931 -0.00812586 0.172675 54 34 54
0.019663 -0.00803006 0.170639 53 33 54
0.0212285 -0.00829248 0.176215 53 33 54
0.0214218 -0.0080193 0.17041 55 36 55
0.0226343 -0.0081343 0.172854 54 33 55
0.0233974 -0.00808511 0.171809 54 35 55
0.0245746 -0.0081774 0.17377 53 33 54
0.0256275 -0.0082232 0.174743 53 31 53
0.0262344 -0.00812766 0.172713 54 34 54
0.0269304 -0.00806517 0.171385 54 34 54
0.0276961 -0.00802694 0.170572 54 33 54
0.0281377 -0.00790007 0.167876 52 29 51
0.0284947 -0.00775786 0.164855 54 32 52
0.0300586 -0.00794295 0.168788 54 31 52
0.0321534 -0.00825376 0.175392 53 28 51
0.0321893 -0.00803343 0.17071 52 27 51
0.0330949 -0.00803622 0.17077 52 27 51
0.0342717 -0.00810297 0.172188 52 26 50
0.0347946 -0.00801567 0.170333 52 25 49
0.0358302 -0.00804789 0.171018 50 22 47
0.0359921 -0.00788707 0.1676 52 22 47
0.0368257 -0.0078776 0.167399 49 18 44
0.0367316 -0.00767475 0.163088 50 19 44
0.0386878 -0.00789976 0.16787 47 16 40
0.0387544 -0.00773751 0.164422 51 19 42
0.0397366 -0.00776114 0.164924 48 16 38
0.040337 -0.00771078 0.163854 46 14 34
0.0420664 -0.00787383 0.167319 47 14 35
0.0430122 -0.00788657 0.16759 45 13 33
0.0428448 -0.00769876 0.163599 44 12 32
0.0448794 -0.00790623 0.168007 48 15 37
0.0455446 -0.00786911 0.167219 47 16 38
0.0457997 -0.0077639 0.164983 48 17 40
0.0467556 -0.00777915 0.165307 51 20 44
0.0475771 -0.00777192 0.165153 52 24 48
0.0493578 -0.00791882 0.168275 54 29 49
0.0498877 -0.00786341 0.167098 54 27 49
0.0511156 -0.00791805 0.168259 54 29 49
0.0525214 -0.00799791 0.169956 55 33 51
0.0534097 -0.00799763 0.16995 55 34 52
0.0535201 -0.00788279 0.167509 54 33 51
0.0548768 -0.00795224 0.168985 57 39 55
0.0550869 -0.00785598 0.166939 57 39 55
0.0578487 -0.00812093 0.17257 56 38 53
0.0587526 -0.00812093 0.17257 55 35 51
0.0575028 -0.00782776 0.16634 55 37 53
0.059163 -0.00793355 0.168588 55 37 54
0.0590397 -0.00780059 0.165763 54 35 53
0.0617899 -0.00804565 0.17097 55 37 53
0.0615438 -0.00789912 0.167856 55 37 53
0.0629162 -0.00796153 0.169183 54 35 52
0.0635648 -0.00793189 0.168553 54 36 53
0.0654459 -0.00805475 0.171164 55 37 54
0.0659237 -0.00800391 0.170083 56 38 54
0.0674317 -0.00807784 0.171654 55 37 54
0.0685061 -0.00809856 0.172094 55 36 53
0.0694075 -0.00809856 0.172094 56 39 53
0.070762 -0.00815076 0.173204 54 34 50
0.0706721 -0.00803736 0.170794 53 30 48
0.0687238 -0.00771809 0.164009 54 31 50
0.0733181 -0.0081324 0.172814 53 29 49
0.0737173 -0.00807696 0.171635 53 29 48
0.0745178 -0.0080663 0.171409 54 33 50
0.0758913 -0.00811718 0.17249 54 30 48
0.074072 -0.00782938 0.166374 53 30 48
0.0756666 -0.00790493 0.16798 53 30 48
0.0768361 -0.00793485 0.168615 54 30 48
0.0793365 -0.00809996 0.172124 53 29 48
0.0789102 -0.00796591 0.169276 54 29 48
0.0800462 -0.00799081 0.169805 53 29 48
0.0804941 -0.00794722 0.168878 53 29 48
0.0820228 -0.00801012 0.170215 54 31 49
0.0812434 -0.0078487 0.166785 54 31 48
0.0834145 -0.00797271 0.16942 55 32 48
0.0831 -0.00785905 0.167005 54 31 48
0.0840231 -0.00786357 0.167101 54 30 48
0.0862514 -0.0079889 0.169764 53 30 47
0.0875966 -0.00803071 0.170653 54 32 48
0.0913451 -0.00828977 0.176158 54 30 47
0.0883781 -0.00794031 0.168732 53 27 45
0.0924405 -0.00822306 0.17474 54 28 47
0.0897465 -0.00790515 0.167984 54 26 45
0.0931256 -0.00812315 0.172617 51 23 43
0.0933881 -0.00806771 0.171439 52 24 44
0.0954247 -0.00816515 0.173509 52 27 45
0.0935291 -0.00792745 0.168458 53 31 47
0.0947246 -0.00795374 0.169017 51 25 44
0.0968798 -0.00805939 0.171262 54 29 47
0.0981139 -0.00808717 0.171852 54 30 47
0.101832 -0.00831732 0.176743 54 29 47
0.10159 -0.0082228 0.174734 55 31 46
0.101083 -0.00810869 0.17231 53 27 44
0.105877 -0.00841815 0.178886 51 23 43
0.105025 -0.00827711 0.175889 52 27 46
0.103334 -0.00807302 0.171552 54 28 47
0.102878 -0.00796811 0.169322 54 28 47
0.109297 -0.00839297 0.178351 54 29 48
0.104267 -0.00793882 0.1687 54 29 47
0.106452 -0.0080371 0.170788 56 34 49
-0.307249 -0.0204479 0.488832 73 67 61
-0.311649 -0.020915 0.5 69 65 58
-0.28368 -0.0191994 0.458985 68 63 56
-0.27646 -0.0188706 0.451125 72 68 61
-0.27498 -0.0189314 0.452579 70 67 60
-0.246761 -0.0171363 0.409665 69 68 59
-0.261197 -0.018298 0.437437 67 68 58
-0.270168 -0.0190939 0.456464 70 71 61
-0.233278 -0.0166339 0.397655 73 69 61
-0.246494 -0.0177347 0.423969 76 72 64
-0.225127 -0.0163446 0.390738 79 76 67
-0.222492 -0.0163015 0.389708 74 76 67
-0.202362 -0.0149639 0.35773 72 79 70
-0.202203 -0.0150919 0.360791 77 84 77
-0.198614 -0.0149639 0.35773 78 80 78
-0.178033 -0.013541 0.323714 82 85 84
-0.182433 -0.0140091 0.334904 79 86 80
-0.171877 -0.0133267 0.318591 80 85 81
-0.169837 -0.0132975 0.317894 82 87 82
-0.173755 -0.013739 0.328448 84 89 84
-0.163863 -0.0130864 0.312847 84 92 86
-0.153057 -0.0123469 0.295167 79 97 89
-0.153161 -0.0124814 0.298382 85 109 101
-0.14036 -0.0115561 0.276263 77 102 94
-0.145355 -0.012092 0.289075 83 111 100
-0.142573 -0.0119854 0.286526 87 120 108
-0.132274 -0.0112379 0.268657 88 126 112
-0.123056 -0.0105672 0.252622 96 136 122
-0.113379 -0.00984203 0.235286 102 140 127
-0.117308 -0.010295 0.246114 117 155 137
-0.107931 -0.00957735 0.228958 121 157 136
-0.109855 -0.00985759 0.235658 128 168 148
-0.107472 -0.00975333 0.233166 139 178 159
-0.100577 -0.0092325 0.220714 143 183 161
-0.0942864 -0.0087557 0.209316 142 189 166
-0.0948749 -0.00891399 0.2131 150 203 179
-0.0955472 -0.00908403 0.217165 155 205 183
-0.0886656 -0.00853133 0.203952 164 209 188
-0.0904644 -0.00881057 0.210628 161 211 186
-0.0842805 -0.00830963 0.198652 168 215 188
-0.0852276 -0.00850806 0.203396 162 211 180
-0.0797872 -0.00806578 0.192822 170 214 186
-0.0787773 -0.00806578 0.192822 170 215 187
-0.0784976 -0.00814152 0.194633 151 206 172
-0.0764661 -0.00803518 0.192091 126 191 156
-0.0767447 -0.00817198 0.195361 171 216 194
-0.0753362 -0.0081304 0.194367 152 211 185
-0.0734299 -0.00803323 0.192044 153 210 183
-0.0726359 -0.00805673 0.192606 164 214 194
-0.0722217 -0.00812361 0.194205 169 217 197
-0.0713554 -0.00814083 0.194617 143 206 177
-0.0693634 -0.00802826 0.191925 156 211 186
-0.0700943 -0.00823216 0.1968 148 206 179
-0.067095 -0.00799752 0.191191 174 218 196
-0.0680899 -0.00823908 0.196966 176 218 195
-0.0655464 -0.00805333 0.192525 144 203 169
-0.0643606 -0.00803119 0.191996 192 226 207
-0.0632256 -0.0080148 0.191604 163 213 187
-0.0619591 -0.00798093 0.190794 152 209 179
-0.0610626 -0.00799439 0.191116 157 210 181
-0.0603083 -0.00802723 0.191901 142 202 171
-0.0586449 -0.00793813 0.189771 160 210 187
-0.057535 -0.00792216 0.189389 160 210 184
-0.0565229 -0.00791935 0.189322 153 208 179
-0.0555673 -0.00792449 0.189445 167 214 190
-0.0535005 -0.00776847 0.185715 159 212 185
-0.053104 -0.00785368 0.187752 154 209 180
-0.0513901 -0.00774361 0.185121 146 204 173
-0.0514383 -0.00789992 0.188858 152 207 179
-0.0492178 -0.00770713 0.184248 131 199 164
-0.0480932 -0.00768163 0.183639 160 213 187
-0.047553 -0.00775036 0.185282 154 211 184
-0.0457578 -0.00761314 0.182002 153 208 185
-0.0449729 -0.00764175 0.182686 156 205 184
-0.044451 -0.00771727 0.184491 141 191 169
-0.0435438 -0.00772776 0.184742 118 166 139
-0.042824 -0.00777274 0.185817 101 133 117
-0.0409549 -0.00760636 0.18184 71 95 90
-0.0401198 -0.00762868 0.182373 67 68 75
-0.0391072 -0.00761751 0.182106 68 64 72
-0.038618 -0.00771028 0.184324 65 60 67
-0.0374169 -0.00766203 0.18317 67 59 68
-0.03674 -0.00772138 0.184589 62 54 63
-0.0349582 -0.00754548 0.180384 61 53 63
-0.0338002 -0.0074982 0.179254 60 51 62
-0.0325811 -0.00743425 0.177725 61 53 64
-0.0324005 -0.00761048 0.181938 60 53 63
-0.0308291 -0.00746082 0.17836 59 51 62
-0.0301058 -0.00751346 0.179619 59 52 63
-0.0290548 -0.00748506 0.17894 60 51 63
-0.0279786 -0.00744808 0.178056 59 50 63
-0.0274538 -0.00756039 0.180741 59 50 62
-0.0265963 -0.00758583 0.181349 59 49 62
-0.0258254 -0.00763877 0.182614 59 50 63
-0.0241448 -0.00741634 0.177297 59 50 63
-0.0234771 -0.0074997 0.17929 59 50 63
-0.0225697 -0.00751027 0.179542 59 49 63
-0.0214491 -0.0074477 0.178047 59 49 63
-0.0204157 -0.00741108 0.177171 58 48 62
-0.0196363 -0.00746761 0.178522 58 47 62
-0.0187255 -0.0074773 0.178754 58 47 62
-0.0180289 -0.00757802 0.181162 58 47 62
-0.0167376 -0.00742611 0.17753 58 46 62
-0.0158824 -0.00746115 0.178368 57 44 61
-0.0150568 -0.00751543 0.179666 58 46 61
-0.0140417 -0.00747598 0.178723 57 45 61
-0.0132508 -0.00755883 0.180703 57 45 61
-0.0123067 -0.00756029 0.180738 56 43 60
-0.0111584 -0.00742611 0.17753 57 44 60
-0.0101462 -0.00736635 0.176102 56 42 60
-0.00925525 -0.00739142 0.176701 56 40 59
-0.00845198 -0.00749991 0.179295 56 40 60
-0.00734574 -0.00733307 0.175306 57 42 61
-0.00644897 -0.00735753 0.175891 57 41 60
-0.00562547 -0.00748768 0.179002 56 41 60
-0.00467547 -0.00746785 0.178528 56 39 59
-0.00373103 -0.00744919 0.178082 56 39 59
-0.00276965 -0.00737299 0.17626 56 38 59
-0.00187019 -0.00746785 0.178528 55 38 59
-0.000949429 -0.00758233 0.181265 55 37 58
0 -0.00744919 0.178082 56 38 57
0.000917321 -0.00732591 0.175135 56 38 58
0.00186292 -0.00743884 0.177835 55 36 57
0.0027997 -0.00745298 0.178173 55 35 57
0.00370737 -0.00740195 0.176953 56 36 57
0.00461716 -0.00737471 0.176302 55 35 57
0.00556447 -0.00740649 0.177061 54 33 56
0.0064482 -0.00735666 0.17587 55 34 56
0.00745119 -0.00743833 0.177823 54 32 56
0.00825938 -0.007329 0.175209 54 32 55
0.00924017 -0.00737938 0.176413 54 33 55
0.0101197 -0.00734709 0.175641 54 31 55
0.0110469 -0.00735189 0.175756 53 31 55
0.0120122 -0.00737938 0.176413 54 32 55
0.0126641 -0.00722416 0.172702 54 33 55
0.0137411 -0.00731592 0.174896 54 32 55
0.0144231 -0.00719911 0.172104 53 30 54
