ply
format ascii 1.0
element vertex 1255
property float x
property float y
property float z
property uchar red
property uchar green
property uchar blue
end_header
-0.00807866 -0.693566 1.54238 180 226 197
0 -0.766618 1.70483 185 229 202
0.00861295 -0.739436 1.64438 198 235 211
0.0175694 -0.754179 1.67717 173 222 186
0.0262335 -0.75073 1.6695 158 215 174
0.0371171 -0.796641 1.7716 184 227 199
0.0430648 -0.739436 1.64438 188 228 202
0.0516777 -0.739436 1.64438 187 228 202
0.0649549 -0.796641 1.7716 182 226 198
0.0649015 -0.696487 1.54887 180 225 194
0.0756664 -0.721787 1.60514 175 223 189
0.0851491 -0.731018 1.62567 179 225 194
0.0924812 -0.721787 1.60514 191 230 204
0.112833 -0.807239 1.79517 180 225 194
0.113679 -0.75073 1.6695 179 221 192
0.127134 -0.779621 1.73375 171 217 183
0.133943 -0.766618 1.70483 181 224 192
0.139912 -0.75073 1.6695 199 236 213
0.156516 -0.790418 1.75776 204 239 219
0.169249 -0.807239 1.79517 189 232 209
0.163646 -0.739436 1.64438 176 223 193
0.18251 -0.783438 1.74224 172 220 190
0.187521 -0.766618 1.70483 201 234 214
0.204144 -0.796641 1.7716 186 228 200
0.19337 -0.721787 1.60514 173 223 189
0.225665 -0.807239 1.79517 176 222 188
0.228137 -0.783438 1.74224 171 221 186
0.232169 -0.766618 1.70483 166 218 185
0.23255 -0.739436 1.64438 203 235 214
0.235407 -0.721787 1.60514 191 230 203
0.258957 -0.766618 1.70483 189 230 202
0.267887 -0.766618 1.70483 193 231 206
0.272325 -0.754179 1.67717 187 230 205
0.277554 -0.74464 1.65596 165 219 186
0.288569 -0.75073 1.6695 166 219 184
0.277406 -0.700463 1.55772 165 219 182
0.312535 -0.766618 1.70483 203 236 212
0.334054 -0.796641 1.7716 168 222 184
0.298911 -0.693566 1.54238 202 237 213
0.333818 -0.754179 1.67717 205 241 218
0.35416 -0.779621 1.73375 181 230 198
0.344518 -0.739436 1.64438 181 226 195
0.366112 -0.766618 1.70483 181 228 197
0.357626 -0.731018 1.62567 175 226 197
0.390484 -0.779621 1.73375 183 228 199
0.399565 -0.779621 1.73375 167 222 185
0.383171 -0.731018 1.62567 196 234 210
0.444301 -0.829216 1.84404 169 224 192
0.436126 -0.796641 1.7716 186 229 205
0.451331 -0.807239 1.79517 190 231 207
0.454685 -0.796641 1.7716 199 236 214
0.46034 -0.790418 1.75776 195 234 211
0.4654 -0.783438 1.74224 189 230 205
0.482522 -0.796641 1.7716 207 239 218
0.473267 -0.766618 1.70483 174 226 196
0.492776 -0.783438 1.74224 170 224 193
0.51715 -0.807239 1.79517 194 233 211
0.540888 -0.829216 1.84404 178 226 199
0.498437 -0.75073 1.6695 206 239 218
0.560205 -0.829216 1.84404 180 227 197
0.538404 -0.783438 1.74224 193 233 207
0.547529 -0.783438 1.74224 170 225 194
0.553943 -0.779621 1.73375 201 238 217
0.56578 -0.783438 1.74224 187 229 203
0.592371 -0.807239 1.79517 195 233 210
0.581186 -0.779621 1.73375 195 233 209
0.593157 -0.783438 1.74224 198 235 211
0.589351 -0.766618 1.70483 200 236 213
0.608429 -0.779621 1.73375 208 240 218
0.630991 -0.796641 1.7716 187 231 205
0.629659 -0.783438 1.74224 186 231 205
0.638784 -0.783438 1.74224 201 238 216
0.64791 -0.783438 1.74224 186 231 204
0.642929 -0.766618 1.70483 196 235 209
0.686399 -0.807239 1.79517 190 232 204
0.675286 -0.783438 1.74224 176 226 193
0.655838 -0.75073 1.6695 172 222 187
0.725618 -0.819677 1.82283 200 235 212
0.655648 -0.731018 1.62567 176 224 195
0.723784 -0.796641 1.7716 189 224 192
0.754261 -0.819677 1.82283 185 223 190
0.714365 -0.766618 1.70483 174 217 185
0.708305 -0.75073 1.6695 191 232 209
0.760901 -0.796641 1.7716 181 229 204
0.725794 -0.75073 1.6695 207 239 219
0.766541 -0.783438 1.74224 176 224 191
0.799231 -0.807239 1.79517 170 218 180
0.767943 -0.766618 1.70483 183 225 192
0.854112 -0.842838 1.87433 209 239 217
0.733027 -0.715131 1.59033 186 230 201
0.873747 -0.842838 1.87433 181 231 201
0.846245 -0.807239 1.79517 202 239 216
0.774856 -0.731018 1.62567 190 233 206
0.888602 -0.829216 1.84404 198 237 212
0.774676 -0.715131 1.59033 209 241 222
0.865439 -0.790418 1.75776 193 234 210
0.746386 -0.67451 1.5 178 227 198
0.902661 -0.807239 1.79517 182 228 201
0.912064 -0.807239 1.79517 180 228 199
1.02661 -0.899346 2 193 233 209
0.842976 -0.731018 1.62567 163 222 189
0.785669 -0.67451 1.5 194 236 211
0.685166 -0.582402 1.29517 201 239 216
0.801383 -0.67451 1.5 176 228 196
0.877035 -0.731018 1.62567 178 226 193
0.712301 -0.582402 1.29517 195 236 214
1.11041 -0.899346 2 184 231 206
1.13136 -0.899346 2 206 240 218
0.85638 -0.67451 1.5 199 240 218
0.576158 -0.449673 1 178 232 203
0.581395 -0.449673 1 205 241 220
0.586633 -0.449673 1 201 239 216
0.591871 -0.449673 1 180 230 199
1.19422 -0.899346 2 172 221 186
0.602347 -0.449673 1 193 231 204
2.12655 -1.57386 3.5 173 224 188
0.744659 -0.541781 1.20483 191 237 212
-0.443012 -0.313259 0.704833 118 125 95
-0.439321 -0.313259 0.704833 105 117 86
-0.447921 -0.322098 0.724721 101 112 85
-0.442479 -0.320904 0.722035 97 100 85
-0.428245 -0.313259 0.704833 97 92 86
-0.452562 -0.333925 0.751332 94 88 88
-0.440339 -0.327756 0.737451 90 85 86
-0.464027 -0.348444 0.784 94 89 88
-0.430442 -0.326111 0.73375 89 84 84
-0.448604 -0.342933 0.771599 83 82 82
-0.458142 -0.353408 0.795167 82 80 82
-0.3745 -0.291537 0.655958 80 78 81
-0.43648 -0.342933 0.771599 80 78 80
-0.424683 -0.336783 0.757762 78 76 79
-0.420714 -0.336783 0.757762 76 73 76
-0.437317 -0.353408 0.795167 78 74 78
-0.420314 -0.342933 0.771599 78 73 78
-0.441248 -0.363508 0.817894 79 71 78
-0.450934 -0.37513 0.844042 76 67 77
-0.43268 -0.363508 0.817894 75 66 76
-0.450865 -0.382574 0.860791 74 64 75
-0.418555 -0.358746 0.807177 73 65 75
-0.40243 -0.348444 0.784 73 66 73
-0.381726 -0.333925 0.751332 75 67 74
-0.41126 -0.363508 0.817894 74 63 69
-0.424387 -0.379059 0.852883 75 64 70
-0.415566 -0.37513 0.844042 73 62 67
-0.432948 -0.395022 0.8888 72 63 66
-0.398758 -0.367782 0.82751 70 61 64
-0.420398 -0.392002 0.882004 73 61 66
-0.40205 -0.379059 0.852883 69 57 62
-0.397583 -0.379059 0.852883 68 55 61
-0.384456 -0.370709 0.834095 71 58 63
-0.401919 -0.392002 0.882004 71 59 62
-0.393844 -0.388593 0.874334 71 59 63
-0.347989 -0.347389 0.781624 73 60 65
-0.388059 -0.392002 0.882004 72 58 63
-0.380105 -0.388593 0.874334 72 57 63
-0.412432 -0.426784 0.960263 72 57 63
-0.353875 -0.370709 0.834095 73 57 64
-0.378303 -0.401253 0.90282 68 52 60
-0.393562 -0.422722 0.951125 70 55 60
-0.393266 -0.42782 0.962595 70 61 60
-0.385002 -0.424269 0.954604 71 60 60
-0.362113 -0.404296 0.909666 71 58 63
-0.372042 -0.42092 0.947071 68 57 62
-0.335509 -0.384717 0.865614 74 64 67
-0.347819 -0.404296 0.909666 74 64 69
-0.340473 -0.401253 0.90282 77 67 74
-0.390059 -0.466166 1.04887 76 67 73
-0.348726 -0.422722 0.951125 76 67 72
-0.32876 -0.404296 0.909666 76 70 76
-0.338762 -0.422722 0.951125 79 73 79
-0.332358 -0.42092 0.947071 79 74 79
-0.345695 -0.444444 1 80 76 81
-0.322437 -0.42092 0.947071 80 75 84
-0.335219 -0.444444 1 83 77 89
-0.329981 -0.444444 1 85 82 92
-0.34762 -0.475754 1.07045 82 82 91
-0.319506 -0.444444 1 87 87 97
-0.336407 -0.475754 1.07045 84 85 98
-0.30903 -0.444444 1 87 88 102
-0.303792 -0.444444 1 94 90 103
-0.298554 -0.444444 1 93 93 103
-0.36031 -0.545956 1.2284 95 106 111
-0.262055 -0.404296 0.909666 97 116 120
-0.302766 -0.475754 1.07045 96 112 119
-0.326786 -0.523187 1.17717 98 108 120
-0.293928 -0.47963 1.07917 102 114 126
-0.291258 -0.484593 1.09033 104 117 127
-0.26189 -0.444444 1 98 131 136
-0.256652 -0.444444 1 100 137 139
-0.277847 -0.491172 1.10514 113 143 143
-0.30581 -0.552106 1.24224 108 148 141
-0.278515 -0.513759 1.15596 117 157 149
-0.206081 -0.388593 0.874334 127 154 149
-0.28629 -0.552106 1.24224 132 164 159
-0.271359 -0.535481 1.20483 131 169 163
-0.247632 -0.500296 1.12567 137 175 169
-0.278137 -0.57563 1.29517 146 181 175
-0.260264 -0.552106 1.24224 153 189 179
-0.204274 -0.444444 1 153 196 182
-0.239805 -0.535481 1.20483 160 203 189
-0.218152 -0.500296 1.12567 163 208 195
-0.217968 -0.513759 1.15596 163 208 196
-0.251947 -0.610815 1.37433 167 212 198
-0.267128 -0.666667 1.5 176 219 205
-0.23755 -0.610815 1.37433 180 221 204
-0.201941 -0.535481 1.20483 182 224 203
-0.195631 -0.535481 1.20483 179 223 200
-0.289761 -0.819574 1.84404 183 226 202
-0.227844 -0.666667 1.5 188 229 202
-0.267333 -0.810146 1.82283 183 229 197
-0.241098 -0.757703 1.70483 184 229 195
-0.225513 -0.735981 1.65596 189 229 197
-0.227026 -0.770556 1.73375 190 229 197
-0.21431 -0.757703 1.70483 188 228 198
-0.208864 -0.770556 1.73375 160 212 172
-0.190819 -0.735981 1.65596 170 216 184
-0.180872 -0.730838 1.64438 189 228 204
-0.170298 -0.722518 1.62567 195 232 209
-0.163646 -0.730838 1.64438 167 220 189
-0.169249 -0.797852 1.79517 162 217 183
-0.159846 -0.797852 1.79517 185 227 200
-0.140555 -0.745409 1.67717 169 220 187
-0.141041 -0.797852 1.79517 186 229 203
-0.120581 -0.730838 1.64438 183 228 203
-0.105023 -0.685502 1.54238 176 226 198
-0.107155 -0.757703 1.70483 186 229 204
-0.0966315 -0.745409 1.67717 183 226 199
-0.0861295 -0.730838 1.64438 170 219 186
-0.0724735 -0.683291 1.53741 181 226 197
-0.0693886 -0.735981 1.65596 171 223 191
-0.0602907 -0.730838 1.64438 181 227 197
-0.0528632 -0.747603 1.68211 172 221 187
-0.0439234 -0.745409 1.67717 193 228 202
-0.0357183 -0.757703 1.70483 180 222 191
-0.0267887 -0.757703 1.70483 178 222 192
-0.0193174 -0.819574 1.84404 178 224 195
-0.00861295 -0.730838 1.64438 172 218 184
0 -0.787378 1.7716 182 226 197
0.00908103 -0.770556 1.73375 169 224 191
0.0178591 -0.757703 1.70483 177 227 194
0.0267887 -0.757703 1.70483 182 226 195
0.0363241 -0.770556 1.73375 180 224 195
0.0470136 -0.797852 1.79517 170 220 188
0.0544862 -0.770556 1.73375 190 229 205
0.0635672 -0.770556 1.73375 200 234 211
0.0752218 -0.797852 1.79517 179 225 192
0.0756664 -0.713394 1.60514 192 229 202
0.0832985 -0.706815 1.59033 189 228 202
0.0947425 -0.730838 1.64438 178 224 193
0.102179 -0.722518 1.62567 187 228 200
0.118053 -0.770556 1.73375 198 231 208
0.125014 -0.757703 1.70483 169 219 184
0.127724 -0.722518 1.62567 161 215 177
0.136239 -0.722518 1.62567 164 217 180
0.144753 -0.722518 1.62567 197 235 213
0.158124 -0.745409 1.67717 174 226 197
0.169662 -0.757703 1.70483 179 226 196
0.188054 -0.797852 1.79517 167 220 185
0.180872 -0.730838 1.64438 206 236 216
0.183257 -0.706815 1.59033 199 234 211
0.213423 -0.787378 1.7716 189 230 202
0.217945 -0.770556 1.73375 181 225 194
0.210184 -0.713394 1.60514 184 227 197
0.247097 -0.806423 1.81445 184 227 199
0.223327 -0.701852 1.57917 174 222 190
0.245971 -0.745409 1.67717 173 219 185
0.246932 -0.722518 1.62567 178 224 193
0.267887 -0.757703 1.70483 197 233 210
0.260629 -0.713394 1.60514 176 225 195
0.304119 -0.806423 1.81445 183 228 202
0.274885 -0.706815 1.59033 167 224 191
0.315495 -0.787378 1.7716 201 237 214
0.307464 -0.745409 1.67717 181 228 199
0.316248 -0.745409 1.67717 165 216 179
0.340652 -0.781228 1.75776 167 220 186
0.327292 -0.730838 1.64438 203 238 213
0.35416 -0.770556 1.73375 201 236 211
0.371171 -0.787378 1.7716 183 228 200
0.389653 -0.806423 1.81445 199 235 211
0.368957 -0.745409 1.67717 186 231 204
0.395892 -0.781228 1.75776 196 234 211
0.374656 -0.722518 1.62567 186 231 205
0.408646 -0.770556 1.73375 191 231 207
0.396196 -0.730838 1.64438 178 226 196
0.437693 -0.790207 1.77797 184 228 200
0.451331 -0.797852 1.79517 165 218 185
0.437549 -0.757703 1.70483 189 230 205
0.437225 -0.742001 1.6695 198 234 212
0.4654 -0.774328 1.74224 179 223 194
0.447873 -0.730838 1.64438 206 238 218
0.473267 -0.757703 1.70483 202 237 215
0.501081 -0.787378 1.7716 177 227 196
0.51715 -0.797852 1.79517 191 233 208
0.519639 -0.787378 1.7716 185 229 204
0.517619 -0.770556 1.73375 185 231 204
0.5267 -0.770556 1.73375 203 238 216
0.55476 -0.797852 1.79517 208 240 220
0.552408 -0.781228 1.75776 183 228 200
0.52539 -0.730838 1.64438 190 231 205
0.553633 -0.757703 1.70483 192 232 206
0.598735 -0.806423 1.81445 177 225 194
0.618158 -0.819574 1.84404 181 228 199
0.593157 -0.774328 1.74224 184 230 202
0.612432 -0.787378 1.7716 179 228 198
0.621711 -0.787378 1.7716 201 235 213
0.656793 -0.819574 1.84404 185 228 199
0.61614 -0.757703 1.70483 186 229 201
0.65819 -0.797852 1.79517 206 239 219
0.691998 -0.827018 1.86079 174 227 195
0.642929 -0.757703 1.70483 204 239 214
0.66616 -0.774328 1.74224 206 239 216
0.695801 -0.797852 1.79517 197 234 210
0.71607 -0.810146 1.82283 176 224 193
0.693537 -0.774328 1.74224 198 234 211
0.743721 -0.819574 1.84404 189 230 205
0.744713 -0.810146 1.82283 186 224 192
0.720913 -0.774328 1.74224 173 216 180
0.752218 -0.797852 1.79517 165 211 175
0.702559 -0.735981 1.65596 159 209 172
0.805025 -0.833037 1.87433 170 219 185
0.706737 -0.722518 1.62567 204 237 216
0.801999 -0.810146 1.82283 164 218 182
0.737253 -0.735981 1.65596 163 214 172
0.767943 -0.757703 1.70483 165 218 177
0.715634 -0.697976 1.57045 200 235 208
0.849967 -0.819574 1.84404 191 233 204
0.873747 -0.833037 1.87433 200 238 212
0.883564 -0.833037 1.87433 177 227 199
1.02761 -0.958204 2.15596 177 225 195
0.963754 -0.888889 2 169 222 188
0.89826 -0.819574 1.84404 203 237 215
0.984706 -0.888889 2 181 228 201
0.746386 -0.666667 1.5 193 233 210
0.754243 -0.666667 1.5 212 241 226
0.912064 -0.797852 1.79517 186 229 205
0.921467 -0.797852 1.79517 181 227 197
0.777813 -0.666667 1.5 192 233 207
0.832985 -0.706815 1.59033 174 226 193
1.05803 -0.888889 2 200 237 212
1.06851 -0.888889 2 182 228 196
0.80924 -0.666667 1.5 169 223 187
0.88555 -0.722518 1.62567 170 222 189
0.987286 -0.797852 1.79517 176 224 195
0.83281 -0.666667 1.5 178 225 196
1.23569 -0.979926 2.20483 180 226 196
0.732653 -0.57563 1.29517 214 244 226
0.57092 -0.444444 1 193 234 210
0.864236 -0.666667 1.5 178 229 198
0.581395 -0.444444 1 204 240 217
0.87995 -0.666667 1.5 197 237 212
0.591871 -0.444444 1 191 233 206
0.420862 -0.313259 0.704833 182 226 195
0.424554 -0.313259 0.704833 162 216 178
0.179339 -0.131185 0.295167 168 219 184
0.2294 -0.166371 0.374334 195 235 211
0.126599 -0.0910368 0.204833 191 237 212
0.311649 -0.222222 0.5 188 234 199
-0.466523 -0.326003 0.742238 140 154 111
-0.439321 -0.309574 0.704833 129 152 120
-0.447921 -0.318309 0.724721 118 134 107
-0.442479 -0.317129 0.722035 117 123 101
-0.418069 -0.302217 0.688083 114 113 99
-0.460122 -0.33551 0.763883 107 109 98
-0.431133 -0.317129 0.722035 97 98 91
-0.436476 -0.3239 0.737451 94 92 87
-0.448119 -0.33551 0.763883 91 88 83
-0.469289 -0.354525 0.807177 90 89 86
-0.432885 -0.329997 0.751332 91 91 87
-0.453977 -0.34925 0.795167 84 84 82
-0.449812 -0.34925 0.795167 83 81 82
-0.432438 -0.338899 0.771599 81 77 80
-0.493468 -0.390375 0.8888 81 78 80
-0.431175 -0.344345 0.784 79 75 77
-0.399696 -0.322275 0.73375 78 73 76
-0.428987 -0.34925 0.795167 77 70 75
-0.459882 -0.378073 0.860791 78 71 78
-0.426003 -0.353688 0.805271 80 70 78
-0.450865 -0.378073 0.860791 76 66 75
-0.429098 -0.363455 0.82751 76 68 77
-0.408163 -0.34925 0.795167 71 64 70
-0.42043 -0.363455 0.82751 74 67 73
-0.428854 -0.3746 0.852883 74 65 69
-0.424387 -0.3746 0.852883 74 63 68
-0.440588 -0.393038 0.894863 74 65 70
-0.438552 -0.395428 0.900304 71 61 66
-0.433836 -0.395428 0.900304 72 63 67
-0.3882 -0.35772 0.814453 74 62 66
-0.405778 -0.378073 0.860791 71 58 63
-0.397583 -0.3746 0.852883 71 57 62
-0.389041 -0.370716 0.844042 69 55 61
-0.351609 -0.338899 0.771599 70 58 62
-0.363593 -0.354525 0.807177 70 59 63
-0.395705 -0.390375 0.8888 72 58 63
-0.388059 -0.38739 0.882004 71 56 63
-0.37078 -0.3746 0.852883 72 58 62
-0.37178 -0.380191 0.865614 70 54 61
-0.377084 -0.390375 0.8888 70 53 62
-0.419024 -0.439216 1 71 56 62
-0.376407 -0.399539 0.909666 70 56 60
-0.392314 -0.421763 0.960263 70 58 60
-0.386219 -0.420602 0.957621 72 60 62
-0.381203 -0.420602 0.957621 71 59 62
-0.392835 -0.439216 1 71 61 65
-0.335509 -0.380191 0.865614 73 62 66
-0.350094 -0.402153 0.915615 74 65 69
-0.340473 -0.396533 0.90282 75 66 72
-0.371884 -0.439216 1 74 65 71
-0.350002 -0.419277 0.954604 74 65 71
-0.320027 -0.388926 0.885502 79 72 77
-0.300622 -0.370716 0.844042 75 68 74
-0.350932 -0.439216 1 77 69 75
-0.287099 -0.364768 0.830499 77 72 76
-0.318854 -0.411347 0.936549 80 74 81
-0.335219 -0.439216 1 80 74 86
-0.329981 -0.439216 1 79 77 86
-0.324743 -0.439216 1 78 78 86
-0.319506 -0.439216 1 78 78 88
-0.296129 -0.413866 0.942284 82 83 98
-0.30903 -0.439216 1 85 85 101
-0.282391 -0.408274 0.929553 88 84 98
-0.32219 -0.473987 1.07917 86 86 97
-0.316537 -0.473987 1.07917 86 94 102
-0.314102 -0.478892 1.09033 85 105 106
-0.282841 -0.439216 1 85 101 103
-0.277603 -0.439216 1 91 98 105
-0.328155 -0.529181 1.20483 95 109 118
-0.335983 -0.552429 1.25776 96 110 120
-0.325329 -0.54561 1.24224 104 116 115
-0.302123 -0.517032 1.17717 105 118 123
-0.312316 -0.54561 1.24224 101 123 129
-0.246176 -0.439216 1 101 138 140
-0.271216 -0.49441 1.12567 101 142 138
-0.332259 -0.619147 1.40967 117 147 141
-0.277669 -0.529181 1.20483 118 153 147
-0.225225 -0.439216 1 121 159 154
-0.254296 -0.507715 1.15596 127 163 159
-0.21475 -0.439216 1 133 168 164
-0.252427 -0.529181 1.20483 129 174 164
-0.204274 -0.439216 1 145 189 175
-0.257785 -0.568858 1.29517 143 188 174
-0.290698 -0.658824 1.5 150 193 180
-0.188561 -0.439216 1 155 196 186
-0.237434 -0.568858 1.29517 162 201 191
-0.205859 -0.507715 1.15596 163 204 191
-0.259271 -0.658824 1.5 164 209 192
-0.266555 -0.6985 1.59033 168 215 197
-0.243558 -0.658824 1.5 174 220 200
-0.255447 -0.714018 1.62567 177 223 197
-0.246932 -0.714018 1.62567 182 226 198
-0.245971 -0.73664 1.67717 181 227 196
-0.23255 -0.722239 1.64438 187 230 202
-0.236107 -0.76149 1.73375 188 228 200
-0.223239 -0.748789 1.70483 189 227 199
-0.217945 -0.76149 1.73375 188 227 199
-0.20538 -0.748789 1.70483 183 223 196
-0.199783 -0.76149 1.73375 169 217 188
-0.194865 -0.778114 1.7716 154 210 177
-0.178591 -0.748789 1.70483 178 222 196
-0.166909 -0.73664 1.67717 157 213 179
-0.155033 -0.722239 1.64438 182 226 199
-0.155133 -0.765218 1.74224 173 223 193
-0.137807 -0.722239 1.64438 156 214 181
-0.127724 -0.714018 1.62567 154 212 179
-0.125014 -0.748789 1.70483 168 218 188
-0.120631 -0.778114 1.7716 168 219 188
-0.0999582 -0.6985 1.59033 204 236 217
-0.093664 -0.714018 1.62567 179 225 198
-0.0874451 -0.733271 1.6695 180 225 197
-0.0846245 -0.788466 1.79517 181 226 196
-0.0649015 -0.68029 1.54887 165 219 183
-0.0635672 -0.76149 1.73375 192 231 205
-0.0516777 -0.722239 1.64438 185 228 199
-0.0454051 -0.76149 1.73375 174 221 187
-0.0352421 -0.738807 1.68211 172 220 184
-0.0258389 -0.722239 1.64438 172 220 186
-0.018251 -0.765218 1.74224 186 227 201
-0.00892957 -0.748789 1.70483 168 217 182
0 -0.796936 1.81445 200 233 210
0.00908103 -0.76149 1.73375 167 222 186
0.0184136 -0.772037 1.75776 198 234 210
0.0255447 -0.714018 1.62567 192 229 202
0.0322105 -0.675252 1.53741 177 221 192
0.0439234 -0.73664 1.67717 186 227 201
0.0535774 -0.748789 1.70483 204 236 217
0.0635672 -0.76149 1.73375 177 225 195
0.0699561 -0.733271 1.6695 164 213 172
0.0787006 -0.733271 1.6695 172 218 183
0.092068 -0.772037 1.75776 202 235 213
0.0966315 -0.73664 1.67717 175 224 193
0.0973523 -0.68029 1.54887 179 224 194
0.111968 -0.722239 1.64438 197 232 208
0.127134 -0.76149 1.73375 181 224 194
0.127724 -0.714018 1.62567 169 218 183
0.140968 -0.738807 1.68211 175 222 188
0.147451 -0.727323 1.65596 188 228 202
0.155033 -0.722239 1.64438 175 224 192
0.17254 -0.76149 1.73375 172 222 188
0.185586 -0.778114 1.7716 168 220 185
0.193343 -0.772037 1.75776 176 223 194
0.184962 -0.705001 1.60514 179 225 197
0.202048 -0.73664 1.67717 178 225 196
0.206711 -0.722239 1.64438 184 228 200
0.210184 -0.705001 1.60514 172 222 190
0.236107 -0.76149 1.73375 174 223 190
0.212131 -0.658824 1.5 189 230 202
0.241163 -0.722239 1.64438 185 228 198
0.26335 -0.76149 1.73375 184 229 200
0.278378 -0.778114 1.7716 182 228 200
0.272325 -0.73664 1.67717 163 217 184
0.292016 -0.765218 1.74224 170 220 190
0.299674 -0.76149 1.73375 187 231 208
0.303605 -0.748789 1.70483 205 239 219
0.322238 -0.772037 1.75776 178 227 199
0.314802 -0.733271 1.6695 174 223 189
0.308204 -0.6985 1.59033 161 217 178
0.339324 -0.748789 1.70483 168 220 181
0.338269 -0.727323 1.65596 192 232 202
0.357183 -0.748789 1.70483 193 233 208
0.372322 -0.76149 1.73375 180 229 200
0.368957 -0.73664 1.67717 191 233 206
0.390484 -0.76149 1.73375 189 232 206
0.386526 -0.73664 1.67717 185 230 203
0.387583 -0.722239 1.64438 195 234 210
0.417727 -0.76149 1.73375 175 225 195
0.404809 -0.722239 1.64438 196 233 210
0.441926 -0.772037 1.75776 174 222 194
0.448799 -0.768042 1.74867 183 227 200
0.425745 -0.714018 1.62567 193 231 208
0.43426 -0.714018 1.62567 159 217 184
0.437184 -0.705001 1.60514 176 225 199
0.456486 -0.722239 1.64438 180 228 200
0.501081 -0.778114 1.7716 202 238 216
0.506374 -0.772037 1.75776 190 233 209
0.489692 -0.733271 1.6695 198 236 215
0.498437 -0.733271 1.6695 168 224 192
0.545358 -0.788466 1.79517 192 235 211
0.569864 -0.809932 1.84404 175 228 201
0.516777 -0.722239 1.64438 201 236 213
0.561615 -0.772037 1.75776 194 233 208
0.534003 -0.722239 1.64438 196 234 210
0.536439 -0.714018 1.62567 185 230 202
0.593874 -0.778114 1.7716 205 237 215
0.611177 -0.788466 1.79517 176 226 197
0.602282 -0.765218 1.74224 191 232 209
0.621711 -0.778114 1.7716 194 233 208
0.554812 -0.684173 1.55772 170 223 187
0.64027 -0.778114 1.7716 182 227 196
0.65819 -0.788466 1.79517 208 240 218
0.633999 -0.748789 1.70483 172 226 194
0.730314 -0.850563 1.93655 189 232 205
0.66616 -0.765218 1.74224 188 231 204
0.671996 -0.76149 1.73375 202 236 215
0.638618 -0.714018 1.62567 185 229 204
0.690158 -0.76149 1.73375 202 236 215
0.714504 -0.778114 1.7716 199 235 213
0.78019 -0.838755 1.90967 184 227 198
0.720913 -0.765218 1.74224 186 226 196
0.714365 -0.748789 1.70483 181 221 188
0.723295 -0.748789 1.70483 168 214 176
0.792015 -0.809932 1.84404 183 226 195
0.757415 -0.765218 1.74224 209 240 220
0.715252 -0.714018 1.62567 187 230 201
0.843617 -0.832254 1.89486 197 232 204
0.745927 -0.727323 1.65596 187 229 197
0.740797 -0.714018 1.62567 187 230 200
0.803043 -0.765218 1.74224 169 225 188
0.819405 -0.772037 1.75776 199 237 211
0.821294 -0.765218 1.74224 196 233 210
0.830419 -0.765218 1.74224 180 225 196
0.903199 -0.823237 1.87433 175 225 193
0.791886 -0.714018 1.62567 186 229 202
0.783006 -0.6985 1.59033 165 221 187
0.893258 -0.788466 1.79517 179 228 197
0.927237 -0.809932 1.84404 184 229 199
1.01613 -0.878431 2 186 230 201
0.921467 -0.788466 1.79517 183 228 197
0.971921 -0.823237 1.87433 212 242 223
1.04756 -0.878431 2 205 240 222
1.21418 -1.00807 2.29517 171 227 195
0.801383 -0.658824 1.5 183 229 200
0.80924 -0.658824 1.5 195 234 207
0.928675 -0.748789 1.70483 188 231 202
1.09994 -0.878431 2 190 231 207
1.11041 -0.878431 2 168 220 186
1.12089 -0.878431 2 182 227 194
0.565682 -0.439216 1 204 238 216
1.14184 -0.878431 2 172 224 190
0.872093 -0.658824 1.5 187 232 202
0.413478 -0.309574 0.704833 171 224 189
0.591871 -0.439216 1 172 223 187
0.176247 -0.129642 0.295167 187 229 200
0.607584 -0.439216 1 176 222 189
0.612822 -0.439216 1 208 241 221
0.126599 -0.0899658 0.204833 203 242 219
-0.453824 -0.313354 0.722035 159 173 135
-0.396589 -0.276135 0.636275 135 161 129
-0.446261 -0.313354 0.722035 137 159 129
-0.422866 -0.299464 0.69003 136 144 113
-0.428245 -0.305888 0.704833 131 135 105
-0.492656 -0.354955 0.817894 118 127 96
-0.474801 -0.345092 0.795167 114 123 96
-0.444691 -0.326068 0.751332 105 110 95
-0.4378 -0.323881 0.746293 101 101 88
-0.41766 -0.311766 0.718376 95 96 79
-0.471236 -0.354955 0.817894 93 96 81
-0.447601 -0.340246 0.784 87 88 83
-0.43648 -0.334864 0.771599 81 80 80
-0.439388 -0.340246 0.784 85 81 82
-0.441482 -0.345092 0.795167 84 79 80
-0.459874 -0.362892 0.836183 84 80 81
-0.433152 -0.345092 0.795167 83 78 80
-0.446436 -0.359128 0.82751 79 73 76
-0.424822 -0.345092 0.795167 81 74 79
-0.400869 -0.328859 0.757762 80 71 78
-0.410643 -0.340246 0.784 75 66 74
-0.446356 -0.373572 0.860791 73 66 72
-0.40243 -0.340246 0.784 75 69 74
-0.42043 -0.359128 0.82751 71 65 70
-0.420456 -0.362892 0.836183 77 69 73
-0.442259 -0.385728 0.8888 77 69 73
-0.423813 -0.373572 0.860791 73 64 69
-0.37765 -0.336461 0.775279 72 63 67
-0.414796 -0.373572 0.860791 74 65 68
-0.394424 -0.359128 0.82751 72 59 64
-0.40205 -0.37014 0.852883 71 57 63
-0.397583 -0.37014 0.852883 71 59 63
-0.428455 -0.403414 0.929553 71 58 63
-0.388649 -0.37014 0.852883 71 58 62
-0.40036 -0.385728 0.8888 71 59 63
-0.379714 -0.37014 0.852883 70 55 61
-0.39105 -0.385728 0.8888 71 55 62
-0.398052 -0.397365 0.915615 72 58 62
-0.412432 -0.416742 0.960263 70 54 61
-0.38846 -0.397365 0.915615 71 55 63
-0.362713 -0.375665 0.865614 72 58 63
-0.39625 -0.415595 0.957621 73 59 63
-0.357208 -0.37945 0.874334 74 62 63
-0.360907 -0.388359 0.894863 70 57 60
-0.351101 -0.382778 0.882004 70 57 61
-0.357348 -0.394783 0.909666 75 64 68
-0.370002 -0.414286 0.954604 74 63 67
-0.382359 -0.433987 1 74 63 68
-0.326441 -0.375665 0.865614 75 65 71
-0.371884 -0.433987 1 75 66 72
-0.348726 -0.412776 0.951125 75 67 72
-0.346092 -0.415595 0.957621 76 69 73
-0.388345 -0.473191 1.09033 75 67 73
-0.332358 -0.411016 0.947071 76 67 73
-0.345695 -0.433987 1 77 70 75
-0.318854 -0.40645 0.936549 77 71 77
-0.315871 -0.408939 0.942284 78 71 84
-0.329981 -0.433987 1 77 72 84
-0.324743 -0.433987 1 76 73 85
-0.296997 -0.403414 0.929553 81 79 91
-0.336407 -0.46456 1.07045 79 79 91
-0.291194 -0.408939 0.942284 81 83 93
-0.323068 -0.461524 1.06345 84 85 93
-0.298554 -0.433987 1 84 87 94
-0.316537 -0.468344 1.07917 84 91 97
-0.265272 -0.39963 0.920833 80 101 104
-0.282841 -0.433987 1 85 100 104
-0.320898 -0.501671 1.15596 91 97 103
-0.320621 -0.510877 1.17717 91 99 109
-0.314455 -0.510877 1.17717 95 103 113
-0.26189 -0.433987 1 99 106 107
-0.288904 -0.488524 1.12567 109 117 119
-0.251414 -0.433987 1 100 120 125
-0.289792 -0.510877 1.17717 93 121 125
-0.271216 -0.488524 1.12567 108 137 134
-0.305272 -0.562086 1.29517 105 132 125
-0.28629 -0.539115 1.24224 112 139 133
-0.260351 -0.501671 1.15596 108 146 138
-0.329981 -0.65098 1.5 117 152 146
-0.258737 -0.522882 1.20483 125 158 152
-0.257364 -0.53311 1.2284 131 169 159
-0.264569 -0.562086 1.29517 138 175 166
-0.239805 -0.522882 1.20483 137 177 169
-0.315052 -0.705518 1.62567 146 183 175
-0.234237 -0.539115 1.24224 145 185 172
-0.220873 -0.522882 1.20483 150 193 180
-0.267128 -0.65098 1.5 157 201 186
-0.274885 -0.690184 1.59033 160 204 186
-0.251414 -0.65098 1.5 168 210 192
-0.258225 -0.690184 1.59033 171 214 193
-0.221506 -0.611776 1.40967 175 218 191
-0.246932 -0.705518 1.62567 183 225 199
-0.250028 -0.739875 1.70483 176 223 195
-0.244431 -0.750103 1.7284 186 226 201
-0.221388 -0.705518 1.62567 191 225 199
-0.216839 -0.718664 1.65596 178 217 187
-0.208166 -0.718664 1.65596 180 217 190
-0.216263 -0.779079 1.79517 180 223 196
-0.199166 -0.750103 1.7284 174 222 194
-0.195565 -0.771614 1.77797 179 224 198
-0.175694 -0.72787 1.67717 175 222 194
-0.169662 -0.739875 1.70483 161 215 183
-0.160732 -0.739875 1.70483 179 225 201
-0.154377 -0.752425 1.73375 186 228 206
-0.147309 -0.762846 1.75776 167 219 190
-0.136882 -0.756108 1.74224 161 213 183
-0.131638 -0.779079 1.79517 158 211 180
-0.109296 -0.696608 1.60514 155 213 181
-0.105416 -0.72787 1.67717 196 233 212
-0.0966315 -0.72787 1.67717 166 219 188
-0.0861295 -0.713641 1.64438 175 223 193
-0.0787006 -0.724542 1.6695 179 225 195
-0.0693886 -0.718664 1.65596 172 222 189
-0.062507 -0.739875 1.70483 170 219 185
-0.0520414 -0.718664 1.65596 185 228 199
-0.0446478 -0.739875 1.70483 174 223 190
-0.0380149 -0.787449 1.81445 164 216 178
-0.0276204 -0.762846 1.75776 196 231 205
-0.0171717 -0.711395 1.63921 179 224 195
-0.00867357 -0.718664 1.65596 166 215 182
0 -0.690184 1.59033 182 225 199
0.00950373 -0.787449 1.81445 193 231 208
0.0175694 -0.72787 1.67717 189 227 200
0.0243381 -0.672191 1.54887 163 214 177
0.0340596 -0.705518 1.62567 157 212 174
0.0416492 -0.690184 1.59033 178 224 194
0.0527081 -0.72787 1.67717 206 238 219
0.0602907 -0.713641 1.64438 192 233 208
0.0702774 -0.72787 1.67717 196 229 202
0.0803661 -0.739875 1.70483 179 222 190
0.0878468 -0.72787 1.67717 169 221 188
0.0961896 -0.724542 1.6695 191 231 206
0.108972 -0.752425 1.73375 171 221 188
0.114201 -0.72787 1.67717 168 218 184
0.119209 -0.705518 1.62567 179 225 195
0.138102 -0.762846 1.75776 204 236 215
0.132342 -0.685338 1.57917 177 224 191
0.14934 -0.72787 1.67717 171 221 185
0.160732 -0.739875 1.70483 188 228 201
0.169662 -0.739875 1.70483 189 229 202
0.184136 -0.762846 1.75776 198 233 210
0.187521 -0.739875 1.70483 181 225 199
0.19645 -0.739875 1.70483 199 234 214
0.20538 -0.739875 1.70483 161 221 190
0.21431 -0.739875 1.70483 184 231 204
0.223239 -0.739875 1.70483 189 230 203
0.236107 -0.752425 1.73375 184 228 199
0.237186 -0.72787 1.67717 184 228 200
0.25982 -0.768851 1.7716 187 230 202
0.251534 -0.718664 1.65596 193 233 208
0.282082 -0.779079 1.79517 173 225 193
0.263962 -0.705518 1.62567 167 218 184
0.289696 -0.750103 1.7284 166 216 182
0.303824 -0.762846 1.75776 176 223 194
0.303605 -0.739875 1.70483 186 230 203
0.322238 -0.762846 1.75776 201 236 213
0.310066 -0.713641 1.64438 187 230 201
0.335998 -0.752425 1.73375 183 227 196
0.333818 -0.72787 1.67717 168 219 177
0.343611 -0.730012 1.68211 191 231 199
0.357183 -0.739875 1.70483 210 243 221
0.366112 -0.739875 1.70483 184 232 204
0.394914 -0.779079 1.79517 175 226 194
0.370357 -0.713641 1.64438 172 225 192
0.392901 -0.739875 1.70483 187 231 205
0.427668 -0.787449 1.81445 183 229 203
0.419772 -0.756108 1.74224 189 233 209
0.41969 -0.739875 1.70483 195 235 213
0.428619 -0.739875 1.70483 174 223 195
0.397522 -0.672191 1.54887 168 220 189
0.463964 -0.768851 1.7716 190 229 206
0.469547 -0.762846 1.75776 169 220 190
0.494194 -0.787449 1.81445 198 233 211
0.465588 -0.72787 1.67717 189 228 202
0.459805 -0.705518 1.62567 186 230 202
0.499457 -0.752425 1.73375 182 231 204
0.476835 -0.705518 1.62567 206 240 219
0.517619 -0.752425 1.73375 166 224 189
0.533994 -0.762846 1.75776 204 241 220
0.538404 -0.756108 1.74224 186 234 209
0.535774 -0.739875 1.70483 179 227 197
0.533415 -0.724542 1.6695 198 237 214
0.563024 -0.752425 1.73375 196 236 213
0.608499 -0.80029 1.84404 170 224 191
0.53311 -0.690184 1.59033 201 235 211
0.580422 -0.739875 1.70483 181 227 196
0.599348 -0.752425 1.73375 207 239 216
0.611408 -0.756108 1.74224 191 231 204
0.61751 -0.752425 1.73375 178 226 193
0.658785 -0.791084 1.82283 206 238 215
0.635672 -0.752425 1.73375 201 236 211
0.680732 -0.794413 1.8305 181 226 196
0.695427 -0.80029 1.84404 186 229 200
0.734448 -0.833616 1.92083 176 225 193
0.686666 -0.768851 1.7716 165 219 187
0.684411 -0.756108 1.74224 166 218 188
0.714607 -0.779079 1.79517 198 233 209
0.774692 -0.833616 1.92083 211 244 225
0.744713 -0.791084 1.82283 201 237 215
0.705436 -0.739875 1.70483 190 232 205
0.730039 -0.756108 1.74224 184 224 194
0.723295 -0.739875 1.70483 171 220 186
0.782904 -0.791084 1.82283 193 233 207
0.706737 -0.705518 1.62567 192 232 207
0.789828 -0.779079 1.79517 192 232 205
0.834477 -0.813437 1.87433 191 231 202
0.745927 -0.718664 1.65596 205 238 213
0.840308 -0.80029 1.84404 184 228 198
0.810198 -0.762846 1.75776 166 220 188
0.699246 -0.65098 1.5 191 231 206
0.749686 -0.690184 1.59033 189 229 205
0.774856 -0.705518 1.62567 188 230 204
0.82152 -0.739875 1.70483 194 233 206
0.856232 -0.762846 1.75776 172 224 190
0.800401 -0.705518 1.62567 178 227 195
0.848309 -0.739875 1.70483 205 239 215
0.902661 -0.779079 1.79517 189 232 203
0.936895 -0.80029 1.84404 169 222 184
0.921467 -0.779079 1.79517 175 222 182
0.956213 -0.80029 1.84404 196 233 206
0.851491 -0.705518 1.62567 217 247 231
1.05803 -0.867974 2 176 229 202
0.959077 -0.779079 1.79517 190 232 202
0.919745 -0.739875 1.70483 211 241 218
0.66262 -0.522882 1.20483 188 231 207
0.555206 -0.433987 1 168 219 186
0.955464 -0.739875 1.70483 174 221 183
0.681552 -0.522882 1.20483 216 245 227
0.85638 -0.65098 1.5 185 232 204
0.576158 -0.433987 1 199 236 209
1.16279 -0.867974 2 187 231 201
1.17327 -0.867974 2 198 235 210
0.591871 -0.433987 1 206 236 213
0.597109 -0.433987 1 196 232 206
0.301173 -0.216993 0.5 188 229 200
0.303792 -0.216993 0.5 174 223 192
0.180885 -0.128099 0.295167 178 227 196
0.183977 -0.128099 0.295167 205 243 222
-0.463514 -0.316188 0.737451 156 194 160
-0.488665 -0.336146 0.784 153 186 152
-0.476895 -0.33083 0.771599 147 174 131
-0.464373 -0.324897 0.757762 153 171 126
-0.428245 -0.302203 0.704833 150 161 113
-0.452562 -0.32214 0.751332 141 161 118
-0.448627 -0.32214 0.751332 124 148 112
-0.41717 -0.302203 0.704833 114 130 108
-0.4378 -0.319979 0.746293 115 124 101
-0.426599 -0.314601 0.73375 107 116 91
-0.440117 -0.327521 0.763883 96 102 83
-0.453977 -0.340934 0.795167 93 97 88
-0.468107 -0.354802 0.82751 92 93 87
-0.4133 -0.316188 0.737451 91 88 84
-0.447092 -0.345267 0.805271 86 82 80
-0.455104 -0.354802 0.82751 82 80 79
-0.433152 -0.340934 0.795167 84 80 81
-0.418258 -0.332407 0.775279 84 79 79
-0.454755 -0.364957 0.851194 83 77 78
-0.435291 -0.352795 0.822829 80 72 77
-0.437975 -0.35852 0.836183 80 73 78
-0.422328 -0.349203 0.814453 74 68 73
-0.445498 -0.372121 0.867904 76 71 73
-0.398324 -0.336146 0.784 75 69 72
-0.40953 -0.349203 0.814453 73 64 68
-0.395668 -0.340934 0.795167 78 70 73
-0.396478 -0.345267 0.805271 75 66 69
-0.419304 -0.369071 0.860791 72 61 65
-0.383173 -0.340934 0.795167 75 65 67
-0.443062 -0.398554 0.929553 75 63 67
-0.412163 -0.374878 0.874334 71 58 64
-0.397583 -0.365681 0.852883 73 61 65
-0.389041 -0.36189 0.844042 72 58 62
-0.38462 -0.36189 0.844042 69 55 59
-0.368421 -0.350679 0.817894 70 57 60
-0.41202 -0.396793 0.925446 70 54 60
-0.42443 -0.41361 0.964669 71 56 62
-0.38344 -0.378166 0.882004 70 54 60
-0.37882 -0.378166 0.882004 71 55 61
-0.407403 -0.411721 0.960263 70 54 61
-0.374969 -0.38368 0.894863 69 54 59
-0.378869 -0.392577 0.915615 72 59 62
-0.391234 -0.410588 0.957621 74 62 63
-0.40331 -0.428758 1 77 65 67
-0.364481 -0.392577 0.915615 70 58 62
-0.357348 -0.390027 0.909666 75 64 67
-0.371171 -0.410588 0.957621 76 65 68
-0.362121 -0.406064 0.947071 74 62 68
-0.343054 -0.390027 0.909666 74 66 71
-0.355002 -0.409294 0.954604 76 67 73
-0.335706 -0.392577 0.915615 75 66 71
-0.343744 -0.407803 0.951125 75 68 72
-0.35617 -0.428758 1 74 66 72
-0.350932 -0.428758 1 77 68 74
-0.345695 -0.428758 1 76 70 74
-0.340457 -0.428758 1 72 66 73
-0.335219 -0.428758 1 74 69 82
-0.309043 -0.401553 0.936549 73 68 80
-0.324743 -0.428758 1 76 73 86
-0.260222 -0.349203 0.814453 79 77 89
-0.334208 -0.455963 1.06345 76 75 87
-0.35205 -0.488445 1.13921 77 78 89
-0.303792 -0.428758 1 81 83 92
-0.325524 -0.46749 1.09033 77 80 88
-0.293317 -0.428758 1 81 85 93
-0.333007 -0.495627 1.15596 81 87 92
-0.305233 -0.462702 1.07917 82 85 90
-0.30679 -0.473836 1.10514 84 89 95
-0.352759 -0.555313 1.29517 85 90 101
-0.233559 -0.374878 0.874334 88 93 103
-0.325329 -0.53262 1.24224 92 95 103
-0.279837 -0.46749 1.09033 99 105 108
-0.251414 -0.428758 1 89 107 108
-0.277112 -0.482638 1.12567 94 116 118
-0.323832 -0.576269 1.34404 98 121 121
-0.305272 -0.555313 1.29517 102 124 123
-0.19452 -0.36189 0.844042 107 128 124
-0.291704 -0.555313 1.29517 112 132 128
-0.265048 -0.516582 1.20483 119 147 140
-0.288632 -0.576269 1.34404 117 150 142
-0.242187 -0.495627 1.15596 123 158 149
-0.204274 -0.428758 1 123 160 152
-0.298554 -0.643137 1.5 126 165 163
-0.290698 -0.643137 1.5 132 170 167
-0.253433 -0.576269 1.34404 141 177 166
-0.251947 -0.589257 1.37433 148 183 171
-0.25104 -0.604406 1.40967 144 186 171
-0.294676 -0.730961 1.70483 166 202 188
-0.294618 -0.753655 1.75776 163 201 185
-0.263962 -0.697018 1.62567 169 206 188
-0.24677 -0.673342 1.57045 178 212 193
-0.258957 -0.730961 1.70483 181 221 197
-0.241163 -0.705043 1.64438 181 223 197
-0.234186 -0.710006 1.65596 184 222 196
-0.225513 -0.710006 1.65596 192 224 199
-0.208246 -0.681869 1.59033 171 212 181
-0.208166 -0.710006 1.65596 172 218 193
-0.208219 -0.741066 1.7284 186 227 206
-0.187328 -0.697018 1.62567 167 219 189
-0.182145 -0.710006 1.65596 164 218 186
-0.173471 -0.710006 1.65596 184 227 202
-0.161783 -0.697018 1.62567 181 226 203
-0.158914 -0.722692 1.68555 160 214 187
-0.161563 -0.777961 1.81445 176 222 197
-0.136239 -0.697018 1.62567 165 217 188
-0.130104 -0.710006 1.65596 174 221 192
-0.120581 -0.705043 1.64438 174 222 195
-0.108288 -0.681869 1.59033 176 224 196
-0.104083 -0.710006 1.65596 185 228 203
-0.093664 -0.697018 1.62567 193 229 205
-0.0832985 -0.681869 1.59033 166 216 185
-0.0817293 -0.74336 1.73375 172 220 193
-0.0714365 -0.730961 1.70483 176 222 190
-0.0596043 -0.697018 1.62567 200 234 212
-0.0520414 -0.710006 1.65596 195 232 208
-0.0433679 -0.710006 1.65596 186 228 201
-0.0346943 -0.710006 1.65596 169 219 186
-0.0260207 -0.710006 1.65596 183 226 196
-0.0170298 -0.697018 1.62567 190 228 202
-0.00878468 -0.719101 1.67717 171 218 186
0 -0.677081 1.57917 162 214 180
0.00878468 -0.719101 1.67717 198 231 207
0.0170298 -0.697018 1.62567 167 216 181
0.0258389 -0.705043 1.64438 165 215 182
0.0343434 -0.702824 1.63921 159 213 176
0.0430648 -0.705043 1.64438 167 219 183
0.0543181 -0.741066 1.7284 189 232 204
0.062507 -0.730961 1.70483 165 222 187
0.0699561 -0.715812 1.6695 189 229 201
0.0744422 -0.677081 1.57917 165 217 179
0.0878468 -0.719101 1.67717 183 227 198
0.0954093 -0.710006 1.65596 193 231 206
0.102179 -0.697018 1.62567 173 221 190
0.118053 -0.74336 1.73375 172 220 188
0.123347 -0.721217 1.68211 178 224 196
0.127724 -0.697018 1.62567 206 237 217
0.136239 -0.697018 1.62567 179 225 196
0.140613 -0.677081 1.57917 177 224 192
0.158589 -0.721217 1.68211 179 225 195
0.172007 -0.741066 1.7284 188 229 203
0.181621 -0.74336 1.73375 196 232 209
0.190702 -0.74336 1.73375 176 225 195
0.189485 -0.705043 1.64438 192 232 208
0.20538 -0.730961 1.70483 181 230 204
0.217945 -0.74336 1.73375 203 241 222
0.212873 -0.697018 1.62567 173 225 193
0.232169 -0.730961 1.70483 190 230 204
0.245188 -0.74336 1.73375 188 231 204
0.238417 -0.697018 1.62567 176 224 194
0.258957 -0.730961 1.70483 175 226 195
0.27159 -0.741066 1.7284 200 236 213
0.268881 -0.710006 1.65596 181 226 196
0.285746 -0.730961 1.70483 183 225 194
0.298749 -0.741066 1.7284 188 227 198
0.29284 -0.705043 1.64438 175 224 192
0.317836 -0.74336 1.73375 179 226 196
0.321464 -0.730961 1.70483 184 229 200
0.320922 -0.710006 1.65596 180 226 195
0.327292 -0.705043 1.64438 160 218 178
0.357208 -0.749756 1.74867 171 224 186
0.351387 -0.719101 1.67717 209 242 220
0.366112 -0.730961 1.70483 186 233 205
0.386686 -0.753655 1.75776 186 232 205
0.399009 -0.759588 1.7716 177 227 196
0.392901 -0.730961 1.70483 185 230 202
0.40183 -0.730961 1.70483 174 225 194
0.416438 -0.741066 1.7284 196 235 212
0.441928 -0.769693 1.79517 182 230 204
0.456179 -0.777961 1.81445 185 227 200
0.430449 -0.719101 1.67717 183 227 199
0.446478 -0.730961 1.70483 166 218 185
0.461703 -0.741066 1.7284 185 227 198
0.456803 -0.719101 1.67717 192 230 204
0.473267 -0.730961 1.70483 180 222 191
0.497167 -0.753655 1.75776 165 217 178
0.491126 -0.730961 1.70483 170 222 187
0.500056 -0.730961 1.70483 202 237 215
0.490938 -0.705043 1.64438 167 224 191
0.538198 -0.759588 1.7716 186 233 207
0.496035 -0.688215 1.60514 196 237 214
0.556757 -0.759588 1.7716 177 227 197
0.544704 -0.730961 1.70483 189 233 209
0.505858 -0.667883 1.55772 202 239 218
0.584594 -0.759588 1.7716 202 237 216
0.589235 -0.753655 1.75776 205 236 215
0.559842 -0.705043 1.64438 178 225 192
0.589351 -0.730961 1.70483 184 227 196
0.577068 -0.705043 1.64438 188 230 201
0.61751 -0.74336 1.73375 186 229 199
0.629659 -0.746999 1.74224 185 229 202
0.665261 -0.777961 1.81445 184 227 199
0.667593 -0.769693 1.79517 186 226 196
0.668108 -0.759588 1.7716 184 226 196
0.686399 -0.769693 1.79517 193 231 206
0.660788 -0.730961 1.70483 162 217 184
0.669717 -0.730961 1.70483 157 210 177
0.678647 -0.730961 1.70483 167 218 183
0.714504 -0.759588 1.7716 203 240 218
0.696506 -0.730961 1.70483 198 237 213
0.827572 -0.857516 2 184 230 201
0.693886 -0.710006 1.65596 193 231 205
0.739164 -0.746999 1.74224 205 236 214
0.698222 -0.697018 1.62567 198 234 209
0.719906 -0.710006 1.65596 174 223 189
0.773371 -0.753655 1.75776 207 237 216
0.799231 -0.769693 1.79517 174 224 189
0.707408 -0.673342 1.57045 205 238 214
0.863467 -0.812438 1.89486 194 234 208
0.810198 -0.753655 1.75776 195 232 210
0.836842 -0.769693 1.79517 189 230 206
0.664519 -0.604406 1.40967 192 232 208
0.774856 -0.697018 1.62567 203 237 213
0.86505 -0.769693 1.79517 205 239 217
0.774676 -0.681869 1.59033 186 232 204
0.922834 -0.803636 1.87433 200 237 213
0.917578 -0.790648 1.84404 197 236 211
0.857238 -0.730961 1.70483 189 232 205
0.952286 -0.803636 1.87433 173 224 189
0.921467 -0.769693 1.79517 167 216 175
0.884027 -0.730961 1.70483 183 227 196
0.965871 -0.790648 1.84404 203 240 220
0.901886 -0.730961 1.70483 179 230 203
0.734245 -0.589257 1.37433 178 225 190
0.741444 -0.589257 1.37433 207 241 218
1.08946 -0.857516 2 200 239 214
0.549969 -0.428758 1 192 234 209
0.83281 -0.643137 1.5 192 229 203
0.955464 -0.730961 1.70483 171 221 181
0.732653 -0.555313 1.29517 191 234 204
0.28546 -0.214379 0.5 216 248 227
0.694174 -0.516582 1.20483 184 235 205
0.581395 -0.428758 1 193 233 204
0.586633 -0.428758 1 191 231 204
0.174701 -0.126555 0.295167 189 229 200
0.474801 -0.340934 0.795167 181 225 194
0.424554 -0.302203 0.704833 172 221 187
0.483131 -0.340934 0.795167 167 219 187
0.431937 -0.302203 0.704833 166 218 185
0.182431 -0.126555 0.295167 180 223 192
0.311649 -0.214379 0.5 199 240 223
-0.433709 -0.292248 0.69003 176 209 179
-0.459652 -0.312332 0.737451 171 207 172
-0.42648 -0.292248 0.69003 168 202 164
-0.507116 -0.350475 0.82751 163 198 149
-0.428245 -0.298517 0.704833 162 192 143
-0.452562 -0.318211 0.751332 154 185 146
-0.448627 -0.318211 0.751332 134 166 128
-0.456687 -0.326795 0.771599 133 160 125
-0.4378 -0.316077 0.746293 127 149 118
-0.48111 -0.350475 0.82751 115 135 107
-0.432885 -0.318211 0.751332 109 127 106
-0.436116 -0.323527 0.763883 104 117 100
-0.415069 -0.310765 0.73375 101 108 90
-0.463773 -0.350475 0.82751 100 100 83
-0.464254 -0.354148 0.836183 92 88 82
-0.420112 -0.323527 0.763883 91 92 88
-0.45077 -0.350475 0.82751 86 83 80
-0.446436 -0.350475 0.82751 84 80 79
-0.435126 -0.344945 0.814453 83 77 77
-0.43086 -0.344945 0.814453 84 77 78
-0.416492 -0.336777 0.795167 84 78 80
-0.437671 -0.357476 0.844042 78 73 74
-0.413349 -0.341056 0.805271 77 72 73
-0.424836 -0.354148 0.836183 78 73 74
-0.420456 -0.354148 0.836183 75 67 69
-0.395668 -0.336777 0.795167 78 70 71
-0.400998 -0.344945 0.814453 75 66 68
-0.440943 -0.383385 0.905214 73 63 67
-0.421322 -0.370306 0.874334 78 67 69
-0.410287 -0.36457 0.860791 72 61 63
-0.409131 -0.367583 0.867904 72 60 63
-0.417153 -0.379001 0.894863 71 58 62
-0.389041 -0.357476 0.844042 69 55 60
-0.405016 -0.376433 0.8888 73 60 62
-0.384182 -0.361221 0.852883 73 60 62
-0.430309 -0.409352 0.966525 72 58 61
-0.39105 -0.376433 0.8888 69 54 60
-0.402326 -0.391954 0.925446 69 52 59
-0.384343 -0.379001 0.894863 72 56 62
-0.424261 -0.423529 1 73 58 63
-0.366367 -0.370306 0.874334 69 55 60
-0.382937 -0.391954 0.925446 75 62 65
-0.379767 -0.393693 0.929553 72 61 63
-0.419337 -0.440359 1.03974 72 60 63
-0.362113 -0.38527 0.909666 74 62 66
-0.359685 -0.38779 0.915615 76 65 68
-0.370002 -0.404303 0.954604 76 64 68
-0.366155 -0.405581 0.957621 75 63 68
-0.340473 -0.382371 0.90282 75 66 71
-0.371884 -0.423529 1 75 65 71
-0.366646 -0.423529 1 74 65 70
-0.379072 -0.444229 1.04887 74 67 72
-0.373578 -0.444229 1.04887 73 65 71
-0.333781 -0.40283 0.951125 74 67 72
-0.327397 -0.401112 0.947071 74 68 73
-0.360106 -0.447974 1.05772 72 66 74
-0.335219 -0.423529 1 76 70 82
-0.329981 -0.423529 1 76 70 83
-0.365553 -0.476753 1.12567 74 72 83
-0.319506 -0.423529 1 76 74 85
-0.336407 -0.453366 1.07045 75 73 84
-0.30903 -0.423529 1 74 75 85
-0.341968 -0.476753 1.12567 72 74 84
-0.317498 -0.450403 1.06345 76 77 87
-0.293317 -0.423529 1 77 79 87
-0.288079 -0.423529 1 78 81 87
-0.308391 -0.461789 1.09033 81 82 87
-0.30679 -0.468058 1.10514 85 84 89
-0.320621 -0.498567 1.17717 82 85 90
-0.288275 -0.457059 1.07917 87 88 96
-0.285547 -0.461789 1.09033 86 86 95
-0.332407 -0.548541 1.29517 96 99 104
-0.325623 -0.548541 1.29517 89 100 102
-0.277112 -0.476753 1.12567 90 105 107
-0.240939 -0.423529 1 91 112 115
-0.316792 -0.569241 1.34404 93 115 118
-0.254693 -0.468058 1.10514 96 119 119
-0.279783 -0.526124 1.24224 107 127 125
-0.28492 -0.548541 1.29517 109 133 129
-0.288632 -0.569241 1.34404 106 138 131
-0.242187 -0.489582 1.15596 108 144 135
-0.204274 -0.423529 1 113 149 140
-0.273542 -0.582071 1.37433 118 152 151
-0.251001 -0.548541 1.29517 124 157 156
-0.282841 -0.635294 1.5 130 167 155
-0.274984 -0.635294 1.5 136 176 163
-0.267128 -0.635294 1.5 133 180 166
-0.271447 -0.66513 1.57045 142 188 174
-0.251414 -0.635294 1.5 155 197 182
-0.243558 -0.635294 1.5 154 196 179
-0.235701 -0.635294 1.5 167 204 189
-0.249776 -0.696445 1.64438 167 206 187
-0.250028 -0.722047 1.70483 176 211 190
-0.247298 -0.740612 1.74867 181 215 192
-0.229074 -0.712421 1.68211 184 217 196
-0.232816 -0.753021 1.77797 186 219 200
-0.21431 -0.722047 1.70483 176 221 201
-0.199492 -0.701347 1.65596 181 226 207
-0.19645 -0.722047 1.70483 200 233 213
-0.173698 -0.668824 1.57917 187 228 202
-0.18106 -0.732028 1.7284 157 214 180
-0.166909 -0.710331 1.67717 187 226 205
-0.155033 -0.696445 1.64438 182 225 202
-0.14934 -0.710331 1.67717 169 221 195
-0.145296 -0.734294 1.73375 178 226 202
-0.120789 -0.651136 1.53741 171 222 192
-0.116618 -0.673553 1.59033 173 222 193
-0.105023 -0.653243 1.54238 179 224 196
-0.11851 -0.798565 1.8855 166 218 184
-0.104541 -0.768474 1.81445 199 231 208
-0.0827135 -0.668824 1.57917 164 216 186
-0.0756664 -0.679823 1.60514 195 231 211
-0.0689036 -0.696445 1.64438 161 217 182
-0.062507 -0.722047 1.70483 187 229 203
-0.0493541 -0.66513 1.57045 173 222 191
-0.0416492 -0.673553 1.59033 175 222 190
-0.0372505 -0.753021 1.77797 196 231 207
-0.0267887 -0.722047 1.70483 187 227 200
-0.0172259 -0.696445 1.64438 168 215 180
-0.00867357 -0.701347 1.65596 174 218 186
0 -0.696445 1.64438 183 224 196
0.00827135 -0.668824 1.57917 185 225 195
0.0186252 -0.753021 1.77797 162 214 176
0.0241578 -0.651136 1.53741 196 230 207
0.0351387 -0.710331 1.67717 180 224 195
0.0439234 -0.710331 1.67717 157 213 167
0.0506348 -0.68239 1.6112 205 236 211
0.0633711 -0.732028 1.7284 194 233 206
0.0702774 -0.710331 1.67717 180 227 194
0.0730142 -0.655994 1.54887 176 223 190
0.0878468 -0.710331 1.67717 188 229 202
0.0982252 -0.722047 1.70483 171 221 189
0.103355 -0.696445 1.64438 179 223 194
0.114537 -0.712421 1.68211 184 226 199
0.125014 -0.722047 1.70483 203 236 213
0.138102 -0.744464 1.75776 185 229 201
0.137807 -0.696445 1.64438 185 228 200
0.161563 -0.768474 1.81445 180 226 196
0.158589 -0.712421 1.68211 183 227 198
0.160344 -0.68239 1.6112 181 226 199
0.175694 -0.710331 1.67717 167 219 186
0.195565 -0.753021 1.77797 167 221 185
0.19645 -0.722047 1.70483 162 217 181
0.199492 -0.701347 1.65596 202 237 214
0.210832 -0.710331 1.67717 193 235 212
0.227026 -0.734294 1.73375 183 227 198
0.235378 -0.732028 1.7284 195 230 204
0.229902 -0.688517 1.62567 174 221 187
0.253484 -0.732028 1.7284 202 234 212
0.258957 -0.722047 1.70483 186 231 203
0.276204 -0.744464 1.75776 182 229 200
0.276817 -0.722047 1.70483 187 230 204
0.277554 -0.701347 1.65596 199 232 209
0.286228 -0.701347 1.65596 196 231 205
0.299558 -0.712421 1.68211 207 238 217
0.307464 -0.710331 1.67717 173 224 193
0.331445 -0.744464 1.75776 198 234 210
0.334961 -0.732028 1.7284 202 234 216
0.339324 -0.722047 1.70483 174 224 194
0.342602 -0.710331 1.67717 188 231 202
0.340596 -0.688517 1.62567 189 233 205
0.360172 -0.710331 1.67717 186 232 203
0.370042 -0.712421 1.68211 207 240 222
0.395892 -0.744464 1.75776 179 226 198
0.37897 -0.696445 1.64438 173 224 191
0.390311 -0.701347 1.65596 180 225 194
0.423513 -0.744464 1.75776 194 230 206
0.407658 -0.701347 1.65596 196 234 211
0.416331 -0.701347 1.65596 189 231 206
0.422035 -0.696445 1.64438 188 228 202
0.420369 -0.679823 1.60514 185 226 198
0.467118 -0.740612 1.74867 179 224 191
0.464337 -0.722047 1.70483 197 234 209
0.503698 -0.768474 1.81445 191 232 207
0.488862 -0.732028 1.7284 192 231 204
0.497915 -0.732028 1.7284 182 227 196
0.506968 -0.732028 1.7284 194 232 206
0.554002 -0.785908 1.85562 197 232 210
0.533994 -0.744464 1.75776 167 219 184
0.543201 -0.744464 1.75776 170 221 187
0.556757 -0.750324 1.7716 202 235 213
0.553943 -0.734294 1.73375 185 228 202
0.582969 -0.760306 1.79517 175 225 198
