ply
format ascii 1.0
element vertex 1273
property float x
property float y
property float z
property uchar red
property uchar green
property uchar blue
end_header
0.145139 0.0713295 0.426305 51 27 50
0.224972 0.108889 0.650783 50 25 49
0.241471 0.11513 0.688083 50 26 49
0.311412 0.146294 0.874334 51 26 48
0.379072 0.175498 1.04887 49 24 48
0.408626 0.186478 1.1145 49 24 48
0.46535 0.209373 1.25133 50 26 49
0.460855 0.204471 1.22203 49 24 48
0.520311 0.227688 1.36079 46 21 44
0.510812 0.22051 1.31789 45 20 44
0.561578 0.239193 1.42955 47 23 45
0.571851 0.240364 1.43655 47 22 45
0.573037 0.237734 1.42083 47 22 45
0.626498 0.256581 1.53348 48 23 45
0.644561 0.260637 1.55772 50 25 46
0.681192 0.272007 1.62567 49 23 45
0.650594 0.256581 1.53348 48 21 43
0.671501 0.261597 1.56345 47 20 42
0.67969 0.261597 1.56345 48 20 42
0.703826 0.267662 1.5997 47 19 42
0.667819 0.25098 1.5 49 20 41
0.757705 0.28145 1.68211 47 19 39
0.734205 0.269586 1.6112 47 18 37
0.749312 0.272007 1.62567 44 15 31
0.716683 0.257239 1.53741 43 15 29
0.792947 0.28145 1.68211 39 13 26
0.762478 0.267662 1.5997 40 13 28
0.810569 0.28145 1.68211 42 14 30
0.806642 0.277075 1.65596 42 15 31
0.809617 0.275139 1.64438 41 14 29
0.791335 0.266095 1.59033 45 15 33
0.817431 0.272007 1.62567 46 17 36
0.825946 0.272007 1.62567 47 17 36
0.769956 0.25098 1.5 49 18 38
0.824655 0.266095 1.59033 49 19 40
0.908103 0.290092 1.73375 48 19 39
0.869908 0.275139 1.64438 49 20 40
0.878521 0.275139 1.64438 53 29 46
0.96848 0.300368 1.79517 54 31 47
0.965045 0.296424 1.7716 55 31 48
0.874634 0.266095 1.59033 55 32 48
0.931176 0.280625 1.67717 56 34 50
0.976427 0.291512 1.74224 54 31 48
0.888373 0.262768 1.57045 55 32 49
0.896599 0.262768 1.57045 55 32 49
0.904825 0.262768 1.57045 55 32 49
1.02195 0.294109 1.75776 54 31 48
1.08178 0.308546 1.84404 53 30 48
1.04037 0.294109 1.75776 53 30 48
0.949603 0.266095 1.59033 53 30 48
0.957932 0.266095 1.59033 53 30 49
1.03583 0.285253 1.70483 52 29 48
1.04476 0.285253 1.70483 53 31 49
1.05369 0.285253 1.70483 53 31 49
1.06262 0.285253 1.70483 53 28 47
-0.541038 0.148529 0.860791 174 218 185
-0.501924 0.138949 0.805271 171 217 184
-0.536417 0.149756 0.867904 171 217 184
-0.475108 0.133774 0.775279 171 217 185
-0.48927 0.138949 0.805271 171 217 185
-0.513731 0.147164 0.852883 169 216 184
-0.518233 0.149756 0.867904 172 217 185
-0.470636 0.137205 0.795167 171 216 184
-0.466471 0.137205 0.795167 169 215 183
-0.468181 0.138949 0.805271 167 216 182
-0.495951 0.148529 0.860791 167 216 181
-0.436116 0.131807 0.763883 166 216 180
-0.443494 0.135278 0.784 164 213 176
-0.482425 0.148529 0.860791 166 212 179
-0.447092 0.138949 0.805271 155 203 167
-0.497839 0.156194 0.905214 125 182 138
-0.472774 0.149756 0.867904 164 207 179
-0.451115 0.144282 0.836183 171 213 188
-0.455657 0.147164 0.852883 130 195 159
-0.45119 0.147164 0.852883 160 212 187
-0.437975 0.144282 0.836183 183 224 204
-0.433596 0.144282 0.836183 148 208 178
-0.429216 0.144282 0.836183 151 206 180
-0.398324 0.135278 0.784 139 201 174
-0.394217 0.135278 0.784 141 202 176
-0.428322 0.148529 0.860791 178 217 196
-0.391503 0.137205 0.795167 153 207 174
-0.359224 0.127246 0.737451 149 206 170
-0.406724 0.145639 0.844042 147 203 167
-0.394424 0.142786 0.82751 143 199 163
-0.332259 0.121618 0.704833 145 192 154
-0.350244 0.129642 0.751332 136 178 136
-0.366513 0.137205 0.795167 137 177 133
-0.295653 0.111951 0.648805 138 175 128
-0.308805 0.11829 0.685547 133 168 119
-0.330454 0.128072 0.742238 118 152 112
-0.301623 0.11829 0.685547 114 136 108
-0.25664 0.101862 0.590334 120 141 111
-0.263927 0.106031 0.614498 105 126 95
-0.234587 0.0954074 0.552929 92 113 81
-0.222205 0.0915014 0.530292 96 110 83
-0.172726 0.0720269 0.417429 92 101 82
-0.17054 0.0720269 0.417429 88 95 80
-0.190499 0.0815015 0.472338 87 94 81
-0.180965 0.0784415 0.454604 87 94 82
-0.160931 0.0706874 0.409665 86 92 82
-0.1281 0.0570272 0.330499 87 94 83
-0.116723 0.0526743 0.305271 86 93 81
-0.095332 0.0436184 0.252789 88 94 82
-0.0934662 0.0433671 0.251332 82 91 79
-0.0921497 0.0433671 0.251332 86 95 82
-0.0863421 0.0412228 0.238905 86 92 80
-0.0805107 0.0390039 0.226046 83 87 79
-0.0807309 0.0396944 0.230047 82 84 78
-0.0727922 0.0363333 0.210568 82 83 77
-0.0712738 0.0361227 0.209348 81 81 76
-0.0679097 0.0349555 0.202583 81 81 76
-0.0682334 0.0356796 0.20678 78 76 75
-0.0648373 0.0344506 0.199657 75 72 72
-0.0644432 0.0348026 0.201697 76 72 73
-0.0630051 0.034593 0.200482 74 69 71
-0.0627382 0.0350303 0.203016 75 71 73
-0.0598966 0.0340203 0.197163 73 69 71
-0.0599583 0.0346528 0.200829 71 65 69
-0.0577087 0.0339482 0.196745 70 64 70
-0.0568631 0.034059 0.197387 70 65 69
-0.0563873 0.0343995 0.199361 70 64 68
-0.0533382 0.0331533 0.192138 68 62 67
-0.0544497 0.034495 0.199914 68 61 67
-0.0527468 0.0340714 0.197459 67 60 66
-0.0512118 0.0337415 0.195547 65 57 64
-0.0503449 0.0338472 0.19616 67 60 66
-0.0501046 0.0343875 0.199291 64 56 63
-0.0487863 0.0341951 0.198176 65 56 63
-0.0480559 0.0344154 0.199453 66 57 64
-0.0462355 0.0338476 0.196162 64 54 61
-0.0447711 0.0335204 0.194266 62 53 60
-0.0441027 0.0337879 0.195816 64 54 61
-0.0420047 0.0329467 0.190941 63 52 60
-0.0411475 0.0330616 0.191607 63 51 58
-0.040831 0.0336275 0.194886 63 50 58
-0.0395771 0.0334305 0.193745 60 45 55
-0.0376762 0.0326623 0.189293 60 45 55
-0.0357374 0.0318189 0.184405 60 45 53
-0.0363587 0.0332713 0.192822 58 40 49
-0.0349953 0.0329386 0.190894 57 37 47
-0.0336342 0.0325886 0.188866 57 36 47
-0.032367 0.0323112 0.187258 55 34 46
-0.0314201 0.0323461 0.18746 56 37 48
-0.0309988 0.0329418 0.190913 57 38 48
-0.0303729 0.0333525 0.193293 57 37 49
-0.0286319 0.0325249 0.188497 56 36 48
-0.027268 0.0320818 0.185929 55 35 48
-0.0266409 0.0325049 0.18838 58 41 54
-0.0254031 0.0321867 0.186537 59 43 54
-0.0247025 0.0325511 0.188648 59 41 53
-0.0235888 0.0323786 0.187649 59 42 55
-0.0227902 0.0326426 0.189179 60 45 57
-0.0218523 0.0327218 0.189638 61 47 58
-0.0209107 0.032803 0.190108 60 46 57
-0.0192424 0.0316952 0.183688 58 43 56
-0.0189905 0.0329266 0.190825 60 45 58
-0.0174054 0.0318548 0.184613 57 42 57
-0.016864 0.0326794 0.189392 58 44 58
-0.0154975 0.0319084 0.184923 57 43 58
-0.0142692 0.0313381 0.181619 57 44 59
-0.0134757 0.0317092 0.183769 58 44 59
-0.0123408 0.0312727 0.181239 56 43 58
-0.0117755 0.0323266 0.187348 57 45 60
-0.0108094 0.0323722 0.187612 57 43 59
-0.00980592 0.0323037 0.187215 56 42 59
-0.00905289 0.0331366 0.192042 58 45 61
-0.00791062 0.032575 0.188787 57 42 60
-0.0068242 0.0321157 0.186125 57 42 59
-0.00588891 0.0323331 0.187385 56 42 60
-0.00482806 0.0318102 0.184355 56 43 60
-0.00389257 0.0320583 0.185793 57 44 61
-0.0029196 0.0320602 0.185803 57 42 61
-0.00193248 0.031831 0.184475 56 41 60
-0.000973329 0.0320644 0.185828 55 39 59
0 0.0324644 0.188146 55 38 59
0.000937936 0.0308985 0.179071 54 37 58
0.0019141 0.0315281 0.18272 54 36 58
0.00292976 0.0321718 0.18645 53 33 56
0.00399068 0.0328663 0.190475 54 34 56
0.00473595 0.0312033 0.180838 52 31 55
0.00574327 0.0315335 0.182751 54 34 56
0.00677839 0.0319001 0.184876 53 30 55
0.00732891 0.0301796 0.174904 51 27 53
0.00820079 0.0300177 0.173966 50 24 52
0.00910135 0.0299826 0.173763 50 24 51
0.0100366 0.030058 0.1742 48 22 50
0.0109316 0.03001 0.173922 47 21 50
0.0120833 0.0306201 0.177458 48 24 52
0.0129814 0.0305462 0.177029 49 22 49
0.0132754 0.0291554 0.168969 48 20 48
0.0141759 0.0291874 0.169154 48 20 48
0.0151459 0.0293502 0.170098 51 26 50
0.0160922 0.0294515 0.170685 49 21 47
0.0165288 0.0286583 0.166088 49 20 45
0.0176113 0.0290085 0.168117 45 17 40
0.0185387 0.029082 0.168543 43 16 39
0.0196944 0.0294907 0.170912 43 16 39
0.0205128 0.0293806 0.170274 45 17 42
0.0214218 0.0294041 0.17041 44 17 40
0.0220594 0.0290682 0.168464 45 18 42
0.0227034 0.0287662 0.166713 44 17 41
0.0239915 0.0292724 0.169647 46 19 45
0.0241912 0.0284619 0.164949 51 25 49
0.0250822 0.0284926 0.165127 53 28 51
0.0255217 0.0280254 0.16242 54 31 53
0.026812 0.0284926 0.165127 54 30 51
0.0281443 0.0289737 0.167916 55 33 54
0.0283154 0.0282665 0.163817 54 32 53
0.0296815 0.0287588 0.166671 55 33 54
0.0303433 0.02856 0.165518 54 31 52
0.0305633 0.027968 0.162088 54 30 52
0.0321301 0.0286071 0.165791 53 29 51
0.0332384 0.0288151 0.166997 53 29 52
0.0343224 0.0289919 0.168021 52 29 52
0.0351338 0.0289354 0.167694 51 29 52
0.034695 0.0278771 0.16156 53 33 54
0.0366561 0.0287515 0.166628 54 34 55
0.0357114 0.0273591 0.158559 54 34 54
0.0392276 0.02937 0.170212 54 34 55
0.0394809 0.0289027 0.167505 54 35 55
0.0413806 0.0296349 0.171748 54 34 55
0.0407017 0.0285285 0.165335 54 34 55
0.0438904 0.0301226 0.174574 54 34 55
0.0430365 0.0289337 0.167684 54 33 54
0.0440904 0.0290494 0.168355 54 34 55
0.0435223 0.0281129 0.162927 52 33 54
0.0460435 0.0291695 0.16905 53 33 54
0.0466892 0.0290205 0.168187 51 29 52
0.0480487 0.0293124 0.169879 52 31 53
0.0503623 0.0301652 0.174821 53 32 54
0.0497616 0.0292732 0.169651 53 33 54
0.0518674 0.0299767 0.173728 52 31 53
0.0529611 0.030081 0.174333 51 28 51
0.0567346 0.0316781 0.183589 51 29 52
0.0620989 0.0340955 0.197599 50 28 51
0.0675975 0.0365061 0.211569 50 27 50
0.0810305 0.0430547 0.249522 50 26 49
0.112117 0.0586268 0.339769 49 26 49
0.137328 0.0706874 0.409665 51 27 50
0.226712 0.114901 0.665905 50 26 49
0.254933 0.127246 0.737451 51 26 50
0.303772 0.149361 0.865614 51 28 50
0.373578 0.180982 1.04887 50 24 47
0.396529 0.189317 1.09718 50 24 48
0.448054 0.210861 1.22203 50 25 49
0.470897 0.21849 1.26625 49 24 48
0.479547 0.219413 1.2716 50 25 48
0.487615 0.220048 1.27528 49 25 47
0.595894 0.265278 1.53741 47 22 45
0.561578 0.246668 1.42955 46 22 45
0.597109 0.258824 1.5 46 21 44
0.620051 0.265278 1.53741 47 23 44
0.636402 0.268782 1.55772 48 24 44
0.646934 0.269772 1.56345 48 23 45
0.67031 0.276026 1.5997 48 22 44
0.648128 0.263597 1.52766 50 23 45
0.698222 0.280507 1.62567 48 20 42
0.701882 0.27858 1.6145 48 20 43
0.740084 0.290246 1.68211 50 24 45
0.712205 0.276026 1.5997 48 20 40
0.738382 0.282844 1.63921 48 18 38
0.715634 0.270979 1.57045 45 16 34
0.775326 0.290246 1.68211 42 14 28
0.751083 0.278011 1.6112 41 13 27
0.803661 0.294167 1.70483 40 14 27
0.801758 0.290246 1.68211 40 13 27
0.808191 0.289394 1.67717 41 14 29
0.844536 0.299157 1.73375 43 15 32
0.839379 0.294167 1.70483 44 16 34
0.823989 0.285734 1.65596 47 18 38
0.857238 0.294167 1.70483 47 18 37
0.815516 0.276965 1.60514 51 21 41
0.902266 0.3033 1.75776 51 20 40
0.832331 0.276965 1.60514 51 23 43
0.8159 0.268782 1.55772 54 29 46
0.860006 0.280507 1.62567 54 30 47
0.801383 0.258824 1.5 54 30 47
0.919745 0.294167 1.70483 54 31 46
0.817096 0.258824 1.5 55 32 48
0.974324 0.305688 1.7716 53 29 46
0.882964 0.274411 1.59033 53 28 46
0.873013 0.268782 1.55772 54 31 48
0.888373 0.270979 1.57045 54 31 48
1.0528 0.318188 1.84404 54 31 48
1.0343 0.309754 1.79517 54 31 48
1.02195 0.3033 1.75776 53 31 48
1.11159 0.326957 1.89486 53 31 49
0.988129 0.288071 1.6695 52 31 49
1.01797 0.294167 1.70483 53 33 49
0.997461 0.285734 1.65596 53 31 50
0.966262 0.274411 1.59033 54 33 50
1.22564 0.345098 2 54 32 49
1.10952 0.309754 1.79517 52 30 47
1.06262 0.294167 1.70483 54 32 49
-0.541038 0.15303 0.860791 173 218 185
-0.5316 0.151624 0.852883 173 218 185
-0.516811 0.148655 0.836183 171 217 184
-0.493488 0.143159 0.805271 172 217 185
-0.483131 0.141363 0.795167 170 217 184
-0.492656 0.145403 0.817894 172 217 185
-0.474801 0.141363 0.795167 171 216 184
-0.494912 0.148655 0.836183 172 216 185
-0.485445 0.147113 0.82751 171 216 184
-0.504595 0.154294 0.867904 168 216 182
-0.490422 0.151323 0.851194 166 216 180
-0.466952 0.145403 0.817894 165 215 179
-0.468107 0.147113 0.82751 165 214 177
-0.482425 0.15303 0.860791 162 208 171
-0.417144 0.13357 0.751332 138 191 146
-0.459874 0.148655 0.836183 169 211 183
-0.459775 0.150052 0.844042 167 213 186
-0.446436 0.147113 0.82751 157 206 177
-0.424822 0.141363 0.795167 128 194 157
-0.414749 0.139378 0.784 144 207 179
-0.433433 0.147113 0.82751 168 218 194
-0.450044 0.154294 0.867904 151 208 180
-0.392104 0.135801 0.763883 157 209 185
-0.433321 0.151624 0.852883 135 199 171
-0.428854 0.151624 0.852883 125 193 163
-0.359278 0.128362 0.722035 160 211 185
-0.391503 0.141363 0.795167 151 207 177
-0.393188 0.143498 0.807177 148 203 171
-0.406724 0.150052 0.844042 144 198 164
-0.392193 0.146281 0.822829 165 208 181
-0.397883 0.150052 0.844042 156 203 175
-0.353241 0.134713 0.757762 163 206 180
-0.332805 0.128362 0.722035 168 208 181
-0.321184 0.125304 0.704833 156 202 167
-0.295477 0.116615 0.655958 149 198 163
-0.283278 0.113116 0.636275 134 183 144
-0.279945 0.113116 0.636275 128 180 140
-0.272 0.111229 0.625666 132 183 144
-0.247405 0.102405 0.576031 146 186 146
-0.192871 0.0808185 0.454604 116 164 121
-0.19049 0.0808185 0.454604 108 156 112
-0.188109 0.0808185 0.454604 115 136 100
-0.152933 0.0665483 0.374334 115 133 100
-0.154066 0.0679118 0.382004 104 120 85
-0.126545 0.0565145 0.317894 101 111 81
-0.132064 0.0597658 0.336183 93 102 78
-0.104671 0.048009 0.270051 89 96 79
-0.085924 0.0399503 0.224721 92 100 83
-0.0922325 0.0434791 0.24457 91 99 82
-0.0864609 0.0413323 0.232494 87 96 83
-0.0818108 0.0396681 0.223133 88 98 85
-0.0755933 0.0371846 0.209163 88 95 83
-0.0744978 0.0371846 0.209163 89 96 85
-0.0730933 0.0370281 0.208283 90 96 86
-0.0710634 0.0365453 0.205567 87 92 82
-0.0688715 0.0359629 0.202291 86 91 81
-0.0688549 0.036516 0.205403 84 86 79
-0.0646663 0.034839 0.19597 83 84 79
-0.0638168 0.0349359 0.196515 83 85 80
-0.0641348 0.0356856 0.200731 84 86 80
-0.0620603 0.0351068 0.197476 79 78 76
-0.0607611 0.0349544 0.196619 77 76 74
-0.059626 0.0348929 0.196272 76 74 73
-0.0594517 0.0354012 0.199132 75 72 73
-0.0577415 0.0349969 0.196857 76 73 75
-0.056637 0.0349516 0.196603 74 70 72
-0.0560728 0.0352442 0.198248 72 68 69
-0.0547787 0.0350804 0.197327 72 67 70
-0.0537452 0.0350804 0.197327 71 65 69
-0.0517459 0.0344378 0.193712 70 65 68
-0.051635 0.0350512 0.197163 69 62 68
-0.0505199 0.0349942 0.196842 71 65 69
-0.0503073 0.0355728 0.200097 70 63 67
-0.0494172 0.0356869 0.200739 67 59 65
-0.0478549 0.03531 0.198619 68 59 66
-0.0450412 0.0339724 0.191095 65 57 63
-0.0453307 0.0349678 0.196694 66 57 64
-0.0435648 0.0343871 0.193428 66 57 63
-0.0433734 0.0350512 0.197163 64 55 60
-0.0418979 0.0346847 0.195101 65 54 60
-0.0399916 0.0339342 0.19088 63 51 58
-0.0397885 0.0346276 0.19478 63 51 57
-0.0379399 0.0338876 0.190618 61 47 55
-0.0372446 0.0341657 0.192182 63 50 56
-0.0359823 0.0339247 0.190826 61 45 53
-0.0342398 0.0332041 0.186773 61 44 52
-0.0335827 0.0335248 0.188577 59 41 51
-0.0332043 0.0341515 0.192102 57 39 49
-0.0319255 0.0338623 0.190475 58 41 51
-0.0313185 0.0342901 0.192882 58 40 51
-0.0292918 0.0331401 0.186413 57 38 50
-0.0279202 0.0326775 0.183811 56 39 50
-0.0274671 0.0332953 0.187286 59 43 54
-0.0268849 0.0337967 0.190106 59 44 55
-0.0260561 0.0340145 0.191332 60 46 56
-0.0247911 0.0336578 0.189325 61 46 56
-0.0238286 0.033699 0.189557 60 44 55
-0.0229119 0.0338113 0.190189 60 46 57
-0.0215235 0.0332062 0.186785 61 48 58
-0.0206139 0.0333172 0.18741 60 46 57
-0.0195029 0.0330978 0.186175 59 45 57
-0.0187819 0.0335517 0.188728 60 46 58
-0.0175034 0.0330049 0.185653 59 44 58
-0.0164933 0.0329296 0.185229 58 44 58
-0.0154149 0.0327002 0.183938 60 47 60
-0.0143767 0.0325309 0.182986 59 45 59
-0.0135281 0.0327973 0.184485 58 45 59
-0.012302 0.0321189 0.180669 56 43 58
-0.0117429 0.0332142 0.18683 57 43 58
-0.0106227 0.0327772 0.184372 56 42 58
-0.009844 0.0334119 0.187942 56 42 59
-0.00869375 0.0327864 0.184423 58 44 60
-0.00769305 0.0326391 0.183595 58 43 59
-0.00674276 0.032694 0.183904 57 42 59
-0.00571858 0.0323494 0.181965 61 50 63
-0.00487809 0.0331138 0.186265 56 41 60
-0.00388743 0.0329862 0.185547 56 40 59
-0.00301232 0.0340807 0.191704 57 40 59
-0.00196054 0.0332717 0.187153 56 38 58
-0.000957767 0.0325079 0.182857 55 38 58
0 0.0337018 0.189573 55 37 58
0.000951427 0.0322927 0.181646 55 36 57
0.00193706 0.0328733 0.184912 54 35 56
0.00288062 0.0325907 0.183323 53 32 55
0.00384324 0.0326111 0.183438 53 31 55
0.00481697 0.0326989 0.183931 52 30 54
0.00560093 0.0316838 0.178222 52 28 53
0.0067779 0.0328644 0.184862 52 29 53
0.00748279 0.031747 0.178577 50 24 50
0.00823248 0.0310468 0.174638 49 21 49
0.00931028 0.0316003 0.177752 49 21 50
0.0102245 0.0315486 0.177461 49 21 49
0.0111081 0.0314187 0.17673 47 20 49
0.0119453 0.0311876 0.17543 49 24 50
0.0128241 0.0310906 0.174885 48 20 47
0.0136084 0.0307924 0.173207 47 19 46
0.0144466 0.030646 0.172384 46 19 44
0.0150086 0.0299655 0.168556 46 19 44
0.0158291 0.0298477 0.167893 45 17 40
0.0171354 0.0306104 0.172183 45 17 40
0.0176525 0.0299575 0.168511 44 16 39
0.0182094 0.029431 0.165549 44 16 39
0.0197701 0.030501 0.171568 45 17 41
0.020158 0.0297474 0.167329 46 17 41
0.0213931 0.0302546 0.170182 45 17 41
0.0216229 0.0293564 0.16513 48 20 46
0.0232973 0.0304131 0.171074 50 23 49
0.023355 0.0293592 0.165146 52 26 50
0.0245909 0.0298089 0.167675 53 29 52
0.0255483 0.0299014 0.168196 54 32 54
0.0262941 0.0297486 0.167336 55 34 55
0.0268947 0.0294466 0.165637 55 34 54
0.0282247 0.029937 0.168395 55 34 54
0.0289885 0.0298154 0.167712 55 34 54
0.029506 0.0294551 0.165685 55 35 55
0.0300315 0.0291231 0.163817 54 33 54
0.0319613 0.0301336 0.169501 54 31 53
0.0319408 0.0293004 0.164815 53 30 52
0.0328041 0.0293004 0.164815 53 31 54
0.03389 0.0294942 0.165905 52 29 53
0.0346087 0.0293666 0.165187 52 31 54
0.0360822 0.0298702 0.16802 53 34 55
0.0357911 0.0289237 0.162696 54 34 55
0.0379812 0.0299798 0.168636 55 36 56
0.0383698 0.0295982 0.16649 54 34 56
0.0398007 0.0300197 0.168861 55 36 56
0.0417665 0.0308177 0.173349 54 35 55
0.0421302 0.0304246 0.171138 54 33 54
0.0423385 0.029938 0.168401 54 33 54
0.0442212 0.0306312 0.1723 53 32 54
0.0437397 0.0296917 0.167016 52 31 54
0.0467171 0.031091 0.174887 52 33 54
0.0461024 0.0300918 0.169267 51 30 52
0.0463611 0.0296897 0.167005 52 32 54
0.0479038 0.0301096 0.169367 53 33 54
0.0490876 0.0302927 0.170396 52 31 53
0.0502619 0.0304635 0.171357 52 31 53
0.0541337 0.0322346 0.181319 51 29 52
0.0548137 0.0320767 0.180432 51 29 52
0.0582759 0.0335248 0.188577 51 29 52
0.0717789 0.0406045 0.2284 52 30 53
0.0861291 0.0479235 0.26957 50 28 51
0.126635 0.0693251 0.389953 49 26 49
0.148863 0.0802001 0.451125 50 27 49
0.218155 0.115695 0.650783 49 26 49
0.266109 0.138955 0.781624 48 24 48
0.295782 0.152109 0.855615 51 28 50
0.365804 0.185312 1.04238 50 27 50
0.35617 0.177778 1 51 28 50
0.417773 0.205504 1.15596 49 25 48
0.498928 0.241918 1.36079 50 26 49
0.481651 0.230252 1.29517 51 27 50
0.518291 0.244326 1.37433 50 27 50
0.589742 0.274201 1.54238 49 25 47
0.6087 0.27919 1.57045 47 23 46
0.603946 0.273316 1.53741 47 24 46
0.597109 0.266667 1.5 46 22 44
0.630556 0.277947 1.56345 48 24 45
0.600446 0.261281 1.46971 49 24 45
0.63453 0.272618 1.53348 48 23 45
0.65272 0.276927 1.55772 50 25 46
0.663312 0.277947 1.56345 53 28 48
0.708161 0.293121 1.64881 50 23 44
0.712625 0.291415 1.63921 49 21 43
0.703826 0.28439 1.5997 51 23 44
0.737253 0.294393 1.65596 53 25 44
0.725766 0.286435 1.6112 49 19 38
0.764267 0.298164 1.67717 44 15 30
0.737341 0.28439 1.5997 43 15 29
0.74572 0.28439 1.5997 42 14 29
0.749686 0.282726 1.59033 42 15 28
0.738255 0.275355 1.54887 43 16 31
0.810569 0.299041 1.68211 41 14 29
0.769236 0.280741 1.57917 44 17 33
0.853617 0.308222 1.73375 48 19 38
0.798701 0.285358 1.60514 48 19 38
0.843329 0.298164 1.67717 50 20 41
0.807995 0.282726 1.59033 53 26 44
0.875097 0.303081 1.70483 54 28 46
0.824655 0.282726 1.59033 54 28 47
0.878468 0.298164 1.67717 55 33 49
0.901886 0.303081 1.70483 55 33 49
0.926265 0.308222 1.73375 55 33 48
0.900684 0.2968 1.6695 55 34 49
0.928675 0.303081 1.70483 53 30 46
0.918173 0.2968 1.6695 55 33 49
0.871922 0.27919 1.57045 54 32 48
0.976427 0.309731 1.74224 55 34 50
1.08026 0.339496 1.90967 55 34 50
0.973323 0.303081 1.70483 54 32 49
0.93664 0.289007 1.62567 53 32 49
0.872093 0.266667 1.5 54 34 50
1.12027 0.339496 1.90967 54 33 50
1.00904 0.303081 1.70483 54 33 50
1.01797 0.303081 1.70483 54 34 50
0.979214 0.289007 1.62567 53 31 49
1.03583 0.303081 1.70483 52 30 48
1.04476 0.303081 1.70483 54 34 50
1.10952 0.319141 1.79517 54 33 50
1.01327 0.289007 1.62567 54 34 51
-0.514075 0.14968 0.817894 173 218 185
-0.540962 0.158832 0.867904 173 218 184
-0.491461 0.145521 0.795167 173 218 185
-0.487296 0.145521 0.795167 170 217 183
-0.49694 0.14968 0.817894 170 217 184
-0.518494 0.15753 0.860791 173 218 186
-0.494113 0.15144 0.82751 173 217 185
-0.489779 0.15144 0.82751 170 215 183
-0.504969 0.15753 0.860791 173 216 185
-0.469289 0.147719 0.807177 169 216 183
-0.458142 0.145521 0.795167 168 216 181
-0.477393 0.153027 0.836183 165 215 179
-0.462668 0.14968 0.817894 164 212 177
-0.458384 0.14968 0.817894 149 200 162
-0.481866 0.158832 0.867904 136 192 150
-0.495139 0.164762 0.900304 179 218 194
-0.45077 0.15144 0.82751 177 219 195
-0.479501 0.162656 0.8888 151 205 173
-0.463682 0.158832 0.867904 125 194 155
-0.470191 0.162656 0.8888 176 218 198
-0.471561 0.164762 0.900304 181 221 198
-0.442256 0.156083 0.852883 173 217 191
-0.40243 0.143477 0.784 151 206 179
-0.4101 0.147719 0.807177 152 205 178
-0.394217 0.143477 0.784 140 199 169
-0.419987 0.154465 0.844042 145 204 176
-0.407427 0.15144 0.82751 147 206 176
-0.359224 0.134958 0.737451 147 202 170
-0.355361 0.134958 0.737451 145 196 166
-0.356845 0.137011 0.748668 176 214 196
-0.374843 0.145521 0.795167 137 195 168
-0.32076 0.125924 0.688083 140 195 166
-0.332805 0.132137 0.722035 171 218 195
-0.298912 0.120045 0.655958 140 205 170
-0.262419 0.106614 0.582571 155 205 176
-0.265872 0.109288 0.59718 140 194 157
-0.241491 0.100448 0.548874 154 203 174
-0.227614 0.0958163 0.523568 146 206 179
-0.173011 0.0737188 0.40282 165 214 192
-0.184289 0.0794937 0.434376 129 188 153
-0.192861 0.0842311 0.460263 139 184 150
-0.157638 0.0697191 0.380965 144 183 148
-0.155643 0.0697191 0.380965 126 174 129
-0.1302 0.0590798 0.322829 126 170 122
-0.114585 0.0526784 0.28785 114 152 108
-0.108526 0.050558 0.276263 124 135 103
-0.0779663 0.0368123 0.201153 108 118 91
-0.085447 0.0408971 0.223473 102 112 87
-0.0845198 0.0410151 0.224118 96 108 83
-0.0834085 0.0410459 0.224287 92 105 83
-0.0762471 0.0380578 0.207959 89 100 80
-0.0749352 0.037945 0.207342 88 96 79
-0.0685805 0.0352379 0.19255 90 98 85
-0.0705526 0.0367923 0.201043 91 98 86
-0.0678491 0.0359185 0.196269 91 99 86
-0.0681206 0.036617 0.200086 90 100 86
-0.0688271 0.0375749 0.20532 91 95 86
-0.0657722 0.0364771 0.199321 90 95 87
-0.0635303 0.035802 0.195632 88 93 84
-0.0646517 0.0370312 0.202349 86 91 82
-0.0608137 0.0354134 0.193509 84 90 82
-0.059251 0.0350883 0.191732 82 88 81
-0.0606451 0.036533 0.199627 84 87 81
-0.0598695 0.0366985 0.200531 82 84 79
-0.0582482 0.0363423 0.198585 78 78 76
-0.0563474 0.0357956 0.195597 78 77 74
-0.0548228 0.035472 0.193829 76 75 74
-0.0547331 0.0360821 0.197163 77 76 74
-0.0545329 0.0366415 0.20022 76 74 74
-0.0521004 0.0356935 0.195039 72 68 69
-0.0509301 0.0355896 0.194472 72 68 70
-0.0504921 0.0360036 0.196734 72 68 70
-0.0491262 0.0357594 0.1954 71 65 68
-0.0474068 0.035242 0.192572 70 64 68
-0.0474168 0.0360157 0.1968 71 65 69
-0.0464027 0.0360287 0.196871 67 60 65
-0.0444838 0.0353238 0.193019 68 60 65
-0.0438453 0.0356264 0.194673 66 58 64
-0.0424185 0.0352878 0.192822 66 60 64
-0.0406897 0.0346752 0.189475 68 60 64
-0.0397975 0.0347627 0.189953 64 56 60
-0.0395259 0.0354108 0.193495 66 57 61
-0.0377067 0.0346699 0.189446 65 55 60
-0.0358855 0.0338871 0.185169 64 52 57
-0.035473 0.0344281 0.188125 63 51 56
-0.0346335 0.0345737 0.188921 62 47 54
-0.0343497 0.0352989 0.192883 59 42 51
-0.0324801 0.0343892 0.187912 58 42 52
-0.031327 0.0342048 0.186905 59 43 51
-0.0310733 0.0350222 0.191372 57 39 50
-0.0295675 0.0344359 0.188168 58 41 52
-0.0286269 0.03449 0.188463 58 43 53
-0.0275715 0.0344049 0.187998 59 44 55
-0.026283 0.0340117 0.18585 60 46 56
-0.0260839 0.0350524 0.191536 60 47 56
-0.0245322 0.0342858 0.187348 62 49 58
-0.0239494 0.0348659 0.190517 62 49 59
-0.0225192 0.0342093 0.186929 62 50 59
-0.021235 0.0337247 0.184281 61 49 59
-0.0203501 0.0338583 0.185011 59 45 57
-0.0194596 0.0339955 0.185761 60 47 57
-0.018583 0.0341727 0.18673 60 47 58
-0.0171871 0.0333616 0.182297 59 46 58
-0.0166493 0.0342188 0.186981 58 44 58
-0.0156526 0.034181 0.186775 59 46 59
-0.0145953 0.033997 0.185769 57 43 58
-0.0133777 0.0333865 0.182434 58 45 59
-0.0127162 0.0341768 0.186752 59 46 60
-0.0116899 0.0340367 0.185986 57 43 58
-0.0108961 0.0346096 0.189117 57 43 58
-0.00969583 0.0338769 0.185113 56 40 57
-0.00870958 0.0338121 0.184759 57 42 59
-0.00779909 0.0340621 0.186125 57 41 58
-0.00670257 0.033455 0.182808 56 40 58
-0.00574327 0.0334446 0.182751 57 41 58
-0.00493968 0.0345181 0.188617 57 41 58
-0.00390601 0.0341186 0.186434 57 39 58
-0.00292981 0.0341222 0.186453 55 36 56
-0.00190023 0.0331966 0.181396 54 35 56
-0.000997598 0.0348557 0.190461 54 37 57
0 0.034444 0.188212 51 29 54
0.000971025 0.0339272 0.185388 53 32 55
0.00198396 0.0346595 0.189389 51 30 53
0.00287206 0.0334495 0.182778 51 27 53
0.0038627 0.0337403 0.184367 51 28 52
0.0047403 0.0331249 0.181004 49 26 51
0.00574585 0.0334596 0.182833 51 26 51
0.0065323 0.0326051 0.178164 51 24 49
0.00752993 0.0328866 0.179702 49 20 47
0.00843196 0.0327344 0.17887 49 20 48
0.00927195 0.0323958 0.17702 48 20 47
0.0102252 0.0324785 0.177472 48 21 48
0.0108926 0.0317154 0.173302 49 21 48
0.0123998 0.0333266 0.182106 49 20 47
0.0129166 0.0322357 0.176145 47 19 44
0.0138971 0.0323706 0.176882 47 19 44
0.0148596 0.0324492 0.177312 48 19 43
0.0153495 0.0315473 0.172384 47 18 42
0.0158991 0.0308616 0.168636 45 17 39
0.0168769 0.0310354 0.169586 45 17 40
0.017476 0.0305302 0.166826 43 16 38
0.0181231 0.0301531 0.164765 44 17 40
0.0200193 0.031794 0.173731 44 17 39
0.0200848 0.0305111 0.166721 47 18 42
0.021327 0.0310482 0.169656 47 18 42
0.0219624 0.0306943 0.167722 48 20 46
0.0225553 0.0303106 0.165626 55 31 53
0.0240139 0.0310754 0.169805 54 31 53
0.0245639 0.0306519 0.167491 55 33 54
0.0256016 0.0308452 0.168547 56 35 56
0.0267154 0.0311142 0.170017 55 35 55
0.0275102 0.0310063 0.169428 56 35 56
0.0277889 0.0303417 0.165796 55 35 55
0.0287806 0.0304722 0.166509 55 35 55
0.0287098 0.0295033 0.161214 53 33 53
0.0307895 0.0307364 0.167952 54 32 53
0.031753 0.0308177 0.168397 51 28 51
0.0332088 0.0313595 0.171357 51 28 52
0.0339608 0.0312257 0.170626 53 31 54
0.0343722 0.0307936 0.168265 54 35 56
0.0347202 0.0303277 0.165719 50 29 53
0.0351797 0.0299796 0.163817 52 33 55
0.0373072 0.0310357 0.169588 53 32 54
0.038176 0.0310198 0.169501 55 36 56
0.0386657 0.0307038 0.167774 54 34 55
0.0396213 0.0307634 0.1681 54 35 56
0.0404472 0.030722 0.167874 54 35 55
0.0421657 0.0313458 0.171282 53 34 55
0.0429746 0.0312816 0.170931 54 34 55
0.0420599 0.0299909 0.163879 53 33 55
0.0458506 0.03204 0.175076 51 31 54
0.0448707 0.0307405 0.167975 51 32 54
0.0457594 0.0307465 0.168007 52 33 54
0.0451515 0.0297656 0.162648 51 30 53
0.0503739 0.0325934 0.1781 51 30 52
0.0502814 0.031942 0.17454 51 29 52
0.0515015 0.0321329 0.175583 52 32 54
0.0551355 0.0337967 0.184675 51 31 53
0.0568344 0.0342374 0.187083 51 29 52
0.0681762 0.0403737 0.220613 51 29 52
0.0842272 0.0490477 0.268011 51 30 52
0.107412 0.0615236 0.336183 51 29 51
0.1465 0.0825589 0.451125 51 29 51
0.200857 0.111395 0.608693 50 28 50
0.254016 0.138675 0.757762 50 28 50
0.280138 0.150583 0.822829 51 28 50
0.395608 0.20943 1.14438 50 27 50
0.427567 0.222971 1.21838 51 29 51
0.429125 0.220492 1.20483 51 28 50
0.435436 0.220492 1.20483 53 31 52
0.489906 0.24453 1.33618 52 29 51
0.528384 0.260022 1.42083 50 26 49
0.528085 0.256265 1.4003 53 30 52
0.549278 0.262898 1.43655 53 32 51
0.593137 0.280053 1.53029 50 28 48
0.602402 0.280636 1.53348 48 25 46
0.647133 0.297507 1.62567 49 27 47
0.617183 0.280053 1.53029 49 28 47
0.638745 0.286122 1.56345 49 25 45
0.63453 0.280636 1.53348 52 28 48
0.676513 0.295464 1.6145 50 26 45
0.705894 0.304489 1.66382 50 22 42
0.742347 0.316309 1.7284 52 25 44
0.695447 0.292755 1.5997 49 20 40
0.674691 0.280636 1.53348 47 18 37
0.712205 0.292755 1.5997 45 16 34
0.757705 0.307836 1.68211 46 17 33
0.754601 0.303051 1.65596 43 15 29
0.796665 0.316309 1.7284 42 14 29
0.784137 0.307836 1.68211 42 15 29
0.766342 0.297507 1.62567 45 17 33
0.774856 0.297507 1.62567 43 15 31
0.766346 0.291042 1.59033 43 16 31
0.813239 0.30553 1.6695 48 19 38
0.82576 0.306933 1.67717 51 22 41
0.862698 0.317288 1.73375 51 22 41
0.839473 0.30553 1.6695 54 26 44
0.852114 0.306933 1.67717 55 30 47
0.823923 0.293751 1.60514 54 29 46
0.884027 0.311996 1.70483 55 35 50
0.874451 0.30553 1.6695 55 34 50
0.849145 0.293751 1.60514 55 34 49
0.86852 0.297507 1.62567 55 37 52
0.919745 0.311996 1.70483 57 40 54
0.928675 0.311996 1.70483 55 37 52
0.974324 0.324214 1.7716 54 36 51
0.926918 0.30553 1.6695 56 39 53
0.873013 0.285072 1.55772 55 36 51
0.994334 0.321682 1.75776 54 36 51
1.00354 0.321682 1.75776 53 33 50
0.864236 0.27451 1.5 54 34 50
0.905649 0.285072 1.55772 54 35 51
1.03116 0.321682 1.75776 54 34 50
0.887806 0.27451 1.5 53 33 49
1.04957 0.321682 1.75776 54 33 50
0.780139 0.237024 1.29517 53 33 50
1.03583 0.311996 1.70483 54 35 51
0.996244 0.297507 1.62567 54 34 50
0.871258 0.257978 1.40967 54 33 51
1.06262 0.311996 1.70483 55 37 53
-0.484978 0.145242 0.771599 175 219 185
-0.459652 0.138814 0.737451 172 217 184
-0.491461 0.149679 0.795167 172 218 184
-0.522666 0.160543 0.852883 174 218 186
-0.508051 0.157399 0.836183 172 217 185
-0.539018 0.168445 0.894863 172 217 185
-0.474801 0.149679 0.795167 173 217 185
-0.513687 0.16337 0.867904 173 217 185
-0.485445 0.155767 0.82751 172 216 184
-0.520269 0.168445 0.894863 168 215 182
-0.465061 0.151939 0.807177 165 215 179
-0.453977 0.149679 0.795167 167 213 179
-0.462668 0.153957 0.817894 156 208 170
-0.486412 0.16337 0.867904 147 201 166
-0.459439 0.155767 0.82751 127 192 153
-0.437317 0.149679 0.795167 149 205 172
-0.464592 0.160543 0.852883 135 201 163
-0.422962 0.147576 0.784 129 198 160
-0.446735 0.157399 0.836183 119 194 155
-0.442355 0.157399 0.836183 150 207 178
-0.433433 0.155767 0.82751 144 201 168
-0.384881 0.139715 0.742238 161 209 180
-0.408163 0.149679 0.795167 168 212 190
-0.45465 0.168445 0.894863 151 201 175
-0.443497 0.166024 0.882004 165 209 187
-0.390111 0.147576 0.784 146 203 176
-0.36992 0.141427 0.751332 173 216 194
-0.375858 0.145242 0.771599 161 209 182
-0.331572 0.129522 0.688083 152 205 175
-0.328896 0.129888 0.69003 153 206 179
-0.324364 0.129522 0.688083 138 198 169
-0.291663 0.117772 0.625666 127 191 157
-0.302348 0.123474 0.655958 174 220 197
-0.26249 0.108429 0.576031 164 215 188
-0.256958 0.107378 0.570447 143 203 169
-0.222606 0.0941176 0.5 149 204 171
-0.210333 0.0899871 0.478056 137 199 163
-0.186743 0.0808571 0.429553 149 207 181
-0.20694 0.0906947 0.481816 153 209 185
-0.158816 0.0704629 0.374334 133 191 159
-0.151869 0.0682232 0.362436 151 199 171
-0.122136 0.0555609 0.295167 157 202 175
-0.104522 0.0481579 0.255839 148 197 161
-0.0949753 0.0443274 0.23549 153 196 160
-0.0949924 0.0449188 0.238631 139 185 144
-0.0935178 0.0448111 0.238059 144 181 140
-0.086245 0.0418846 0.222512 146 178 137
-0.0833901 0.0410529 0.218094 131 165 122
-0.0760641 0.0379664 0.201697 135 164 129
-0.0755558 0.0382439 0.203171 115 146 116
-0.0769389 0.0395003 0.209845 118 147 117
-0.0731188 0.0380831 0.202316 108 122 95
-0.0739813 0.039099 0.207713 109 117 92
-0.0698565 0.0374701 0.19906 100 113 89
-0.0709806 0.0386499 0.205327 97 111 88
-0.0676634 0.0374105 0.198743 90 102 86
-0.0683624 0.0383875 0.203934 99 104 89
-0.0642346 0.0366421 0.194661 92 97 85
-0.0624182 0.0361803 0.192208 91 97 86
-0.0640581 0.0377395 0.200491 92 98 87
-0.0630569 0.0377689 0.200647 91 98 86
-0.0619474 0.0377332 0.200457 86 94 82
-0.0598444 0.0370807 0.196991 89 96 84
-0.0591101 0.0372683 0.197988 87 93 83
-0.0580944 0.037282 0.19806 85 90 81
-0.0575715 0.0376181 0.199846 87 89 82
-0.0542038 0.0360735 0.19164 81 83 78
-0.0537524 0.0364481 0.19363 84 86 81
-0.0531624 0.0367412 0.195188 82 85 78
-0.0512814 0.0361362 0.191974 80 82 76
-0.0506399 0.0363978 0.193363 79 81 75
-0.0493961 0.0362284 0.192464 81 81 77
-0.0489959 0.0366835 0.194881 77 76 73
-0.0486128 0.0371711 0.197471 76 73 73
-0.0461489 0.0360542 0.191538 72 68 71
-0.0462239 0.0369153 0.196112 74 69 72
-0.0443943 0.0362599 0.192631 72 66 69
-0.0436749 0.0365019 0.193916 72 67 69
-0.0421198 0.0360404 0.191465 69 64 66
-0.0409437 0.0358886 0.190658 71 65 67
-0.0399763 0.0359165 0.190807 67 60 63
-0.0392872 0.0362025 0.192326 69 60 63
-0.0380626 0.0359971 0.191235 67 58 61
-0.0373922 0.0363188 0.192944 66 55 59
-0.034912 0.0348517 0.18515 65 55 58
-0.0347809 0.0357129 0.189725 62 48 55
-0.0338416 0.0357704 0.19003 63 50 57
-0.0340928 0.037128 0.197243 60 44 53
-0.031116 0.0349451 0.185646 59 44 53
-0.0312989 0.0362844 0.192761 61 46 54
-0.0292964 0.035095 0.186442 59 44 54
-0.0290049 0.035944 0.190952 58 43 53
-0.0268834 0.0345047 0.183306 60 47 56
-0.0269415 0.03586 0.190506 61 50 57
-0.0258128 0.0356792 0.189546 62 51 58
-0.0244246 0.0351107 0.186526 62 50 58
-0.0231077 0.0346017 0.183822 61 49 58
-0.02271 0.0354848 0.188513 61 49 58
-0.021782 0.0355818 0.189028 61 49 59
-0.020589 0.0352345 0.187183 61 49 58
-0.0195658 0.0351576 0.186775 61 49 59
-0.0183985 0.0348001 0.184876 60 47 57
-0.017336 0.0346122 0.183877 58 44 57
-0.0166543 0.0352071 0.187038 59 46 58
-0.0160007 0.0359394 0.190928 60 46 59
-0.0146802 0.0351717 0.18685 60 46 60
-0.0137619 0.0353267 0.187673 57 44 59
-0.0126421 0.0349484 0.185663 57 43 58
-0.011856 0.0355066 0.188629 58 45 59
-0.0108843 0.0355598 0.188911 57 42 57
-0.00981831 0.0352849 0.187451 58 45 59
-0.00879463 0.0351178 0.186563 57 41 58
-0.0080406 0.0361203 0.191889 57 41 58
-0.00689213 0.0353841 0.187978 57 40 57
-0.00587838 0.0352094 0.18705 56 39 57
-0.00484934 0.034855 0.185167 56 38 56
-0.00391206 0.0351478 0.186722 54 35 55
-0.00289018 0.0346223 0.183931 54 35 56
-0.00195091 0.0350558 0.186234 53 33 54
-0.00098 0.0352191 0.187102 53 33 54
0 0.035234 0.187181 52 30 53
0.000993429 0.0357018 0.189666 50 27 51
0.00197331 0.0354583 0.188372 50 26 51
0.00295543 0.0354039 0.188083 50 25 50
0.00389931 0.0350332 0.186114 52 28 52
0.00493464 0.0354681 0.188424 51 25 49
0.00585007 0.0350398 0.186149 49 22 48
0.00635718 0.0326377 0.173388 48 20 45
0.00742389 0.0333498 0.177171 50 21 48
0.00851461 0.0339997 0.180623 49 20 47
0.00927185 0.0333211 0.177018 49 20 47
0.010474 0.0342192 0.18179 48 19 46
0.0111167 0.0332927 0.176867 48 20 46
0.0118373 0.0327238 0.173845 48 20 46
0.0127509 0.0327316 0.173886 49 20 46
0.0138511 0.0331852 0.176296 48 19 44
0.0143577 0.032249 0.171323 46 17 41
0.0154168 0.0325911 0.17314 44 16 38
0.0159393 0.0318235 0.169063 44 16 39
0.0171712 0.0324787 0.172543 45 18 41
0.017907 0.032177 0.17094 44 17 39
0.0184238 0.0315291 0.167498 47 19 42
0.0195698 0.031968 0.16983 45 17 40
0.0207501 0.0324224 0.172244 49 20 45
0.0214167 0.0320696 0.17037 49 21 46
0.0218231 0.031371 0.166659 51 24 48
0.0224549 0.0310378 0.164888 47 21 46
0.0239385 0.031863 0.169272 54 34 54
0.0244131 0.0313341 0.166463 54 34 55
0.0256424 0.031777 0.168815 54 35 55
0.0264305 0.0316618 0.168203 56 37 56
0.0266492 0.0308941 0.164125 54 36 56
0.0278927 0.0313251 0.166415 55 36 56
0.0287352 0.0312934 0.166246 54 36 56
0.0286626 0.0302962 0.160949 55 36 55
0.0295579 0.0303499 0.161234 51 29 52
0.0308807 0.0308274 0.163771 52 31 53
0.0323393 0.0314109 0.166871 49 26 50
0.0331423 0.0313438 0.166514 51 30 54
0.0330944 0.030496 0.16201 51 30 53
0.0349037 0.0313591 0.166595 52 34 55
0.036288 0.0318077 0.168978 51 30 53
0.0358124 0.0306434 0.162793 53 33 55
0.0388 0.0324277 0.172272 54 35 56
0.0386397 0.0315598 0.167661 54 35 56
0.0402197 0.0321202 0.170639 52 32 55
0.0418758 0.0327158 0.173803 53 34 55
0.04086 0.031243 0.165979 52 33 54
0.0433826 0.0324808 0.172554 54 36 56
0.0437308 0.0320733 0.17039 53 33 55
0.0433596 0.0311651 0.165564 52 32 54
0.0456743 0.032185 0.170983 52 33 54
0.0463456 0.0320301 0.17016 51 31 53
0.046444 0.0314924 0.167304 51 32 54
0.0499639 0.0332518 0.17665 52 32 53
0.0496548 0.0324452 0.172365 51 30 52
0.055351 0.0355214 0.188707 49 29 52
0.0589089 0.0371415 0.197314 51 32 53
0.0671564 0.0416114 0.22106 52 31 53
0.0811354 0.0494209 0.262549 50 29 51
0.120256 0.0720293 0.382655 50 30 51
0.154257 0.0908797 0.482798 49 27 50
0.20926 0.121296 0.644385 50 28 50
0.250047 0.142638 0.757762 50 29 51
0.318835 0.179035 0.951125 52 31 52
0.340457 0.188235 1 51 30 52
0.422451 0.23003 1.22203 51 30 52
0.405663 0.217592 1.15596 53 33 53
0.489497 0.258698 1.37433 52 31 52
0.482907 0.251517 1.33618 51 29 51
0.509198 0.261421 1.3888 52 30 52
0.516472 0.261421 1.3888 53 32 53
0.543916 0.271489 1.44228 53 32 53
0.573539 0.282353 1.5 53 32 51
0.542754 0.263587 1.4003 52 30 49
0.602402 0.288654 1.53348 49 26 46
0.610434 0.288654 1.53348 49 27 47
0.630556 0.294297 1.56345 51 30 49
0.653553 0.301119 1.5997 50 27 47
0.682252 0.310363 1.64881 52 29 47
0.658054 0.295613 1.57045 49 25 44
0.699525 0.310363 1.64881 53 26 45
0.687068 0.301119 1.5997 50 21 41
0.73277 0.317279 1.68555 47 19 38
0.687879 0.294297 1.56345 44 16 33
0.696068 0.294297 1.56345 43 15 31
0.745927 0.31171 1.65596 43 16 31
0.776872 0.32091 1.70483 43 16 31
0.737341 0.301119 1.5997 43 16 31
0.808212 0.326353 1.73375 45 17 33
0.775165 0.309531 1.64438 45 17 34
0.781312 0.308557 1.63921 46 18 36
0.783371 0.306008 1.62567 48 19 38
0.769236 0.297255 1.57917 48 20 39
0.738529 0.282353 1.5 51 26 43
0.823989 0.31171 1.65596 55 31 47
0.807108 0.302143 1.60514 53 28 46
0.825946 0.306008 1.62567 55 34 49
0.909369 0.333478 1.7716 57 38 52
0.884027 0.32091 1.70483 56 37 52
0.912549 0.327951 1.74224 56 39 53
0.860006 0.306008 1.62567 56 38 52
0.946486 0.333478 1.7716 57 40 54
0.887134 0.309531 1.64438 56 41 54
0.88555 0.306008 1.62567 58 42 55
0.851832 0.291553 1.54887 56 39 53
0.90258 0.306008 1.62567 55 38 52
0.935662 0.314259 1.6695 55 37 52
0.944407 0.314259 1.6695 57 41 55
0.945419 0.31171 1.65596 56 38 54
0.904825 0.295613 1.57045 56 38 53
0.962766 0.31171 1.65596 54 36 52
0.97144 0.31171 1.65596 55 37 52
1.04037 0.330873 1.75776 55 36 51
0.937727 0.295613 1.57045 54 35 50
0.945953 0.295613 1.57045 54 34 51
0.911376 0.282353 1.5 55 36 52
1.13007 0.347114 1.84404 54 35 52
0.871258 0.265349 1.40967 53 33 51
0.807275 0.243796 1.29517 55 39 54
-0.492772 0.151676 0.784 173 218 185
-0.549751 0.170636 0.882004 172 218 184
-0.497706 0.155791 0.805271 173 218 184
-0.468125 0.147784 0.763883 173 218 185
-0.471048 0.149989 0.775279 173 218 185
-0.492656 0.158233 0.817894 172 217 184
-0.468133 0.151676 0.784 172 217 185
-0.489779 0.160093 0.82751 173 217 185
-0.504969 0.166532 0.860791 171 216 183
-0.48111 0.160093 0.82751 168 215 182
-0.495951 0.166532 0.860791 168 216 184
-0.447601 0.151676 0.784 153 206 169
-0.455528 0.155791 0.805271 131 192 150
-0.498123 0.171951 0.8888 163 208 181
-0.417144 0.145356 0.751332 139 197 168
-0.420112 0.147784 0.763883 174 216 195
-0.455494 0.161771 0.836183 169 217 191
-0.451115 0.161771 0.836183 147 207 175
-0.436964 0.158233 0.817894 144 206 174
-0.437767 0.160093 0.82751 143 204 174
-0.433433 0.160093 0.82751 142 199 166
-0.382399 0.14267 0.737451 155 205 175
-0.40243 0.151676 0.784 182 218 199
-0.4101 0.15616 0.807177 144 200 172
-0.389832 0.149989 0.775279 166 211 188
-0.373856 0.145356 0.751332 131 194 162
-0.379899 0.149277 0.771599 151 208 181
-0.335176 0.133119 0.688083 176 218 197
-0.339643 0.13636 0.704833 166 214 189
-0.298217 0.121044 0.625666 151 206 178
-0.29494 0.121044 0.625666 140 199 169
-0.300389 0.124665 0.644385 126 192 158
-0.249996 0.104931 0.542379 141 200 169
-0.237199 0.100704 0.520529 181 219 199
-0.206136 0.0885333 0.457621 135 198 163
-0.19691 0.0855661 0.442284 147 204 170
-0.199529 0.0877361 0.453501 134 197 159
-0.170568 0.075905 0.392347 147 205 173
-0.140965 0.0634966 0.328209 149 206 176
-0.10663 0.0486237 0.251332 163 209 184
-0.0994977 0.0459383 0.237451 162 210 183
-0.09608 0.0449218 0.232197 156 208 179
-0.0921393 0.0436317 0.225529 162 209 181
-0.095476 0.0457989 0.236731 161 206 177
-0.087916 0.0427273 0.220854 159 206 175
-0.0809226 0.0398529 0.205997 151 200 166
-0.077509 0.0386876 0.199973 154 199 166
-0.0801873 0.0405727 0.209717 161 207 181
-0.0750985 0.0385257 0.199136 135 194 162
-0.0768835 0.0399969 0.206741 114 174 138
-0.0755201 0.0398489 0.205976 140 184 157
-0.0719068 0.0384922 0.198963 141 177 139
-0.0711976 0.038673 0.199898 130 165 121
-0.0705526 0.0388947 0.201043 119 156 115
-0.0692376 0.0387481 0.200286 113 144 105
-0.0673745 0.0382855 0.197894 107 134 100
-0.0676686 0.0390534 0.201864 118 136 103
-0.0645312 0.0378339 0.19556 105 117 91
-0.0650109 0.0387299 0.200192 98 109 92
-0.0625257 0.03786 0.195695 97 114 90
-0.0633533 0.0390005 0.20159 94 108 83
-0.060903 0.0381275 0.197078 98 107 84
-0.0609762 0.0388315 0.200717 97 105 85
-0.0585365 0.0379318 0.196066 94 102 86
-0.05687 0.03751 0.193886 94 101 88
-0.0563801 0.037863 0.195711 94 101 87
-0.0565676 0.0386924 0.199998 91 98 85
-0.0533104 0.0371525 0.192038 89 95 82
-0.0528449 0.0375363 0.194022 87 93 81
-0.051236 0.0371071 0.191803 88 93 82
-0.0503588 0.0372012 0.19229 84 89 79
-0.0491424 0.0370435 0.191475 83 86 77
-0.0483174 0.0371804 0.192182 83 86 78
-0.0479012 0.0376444 0.194581 80 80 77
-0.0466479 0.0374564 0.193609 78 77 75
-0.0453615 0.0372329 0.192454 79 78 75
-0.0445977 0.0374379 0.193513 77 74 72
-0.0432016 0.0371093 0.191815 76 72 72
-0.0417518 0.0367179 0.189792 75 72 72
-0.0403332 0.0363354 0.187815 73 70 71
-0.0404517 0.0373533 0.193076 75 69 70
-0.0384479 0.0364133 0.188217 72 65 66
-0.0381368 0.0370691 0.191607 72 64 65
-0.0366909 0.0366276 0.189325 70 61 63
-0.0355978 0.0365235 0.188787 67 57 59
-0.0349825 0.0369177 0.190825 66 56 58
-0.0332807 0.0361547 0.186881 64 53 56
-0.033649 0.0376626 0.194675 63 50 56
-0.0315321 0.0363961 0.188128 62 49 56
-0.0319802 0.038104 0.196957 61 48 55
-0.0300581 0.0370077 0.19129 62 49 56
-0.0286501 0.0364905 0.188617 61 48 56
-0.0275774 0.0363787 0.188038 62 50 57
-0.027222 0.0372399 0.19249 63 53 59
-0.0250492 0.0355855 0.183938 64 55 60
-0.0243398 0.0359608 0.185878 62 51 58
-0.0232966 0.0358536 0.185324 63 52 59
-0.0227883 0.0365962 0.189163 62 50 58
-0.0216959 0.0364257 0.188281 61 49 58
-0.0201943 0.035519 0.183595 62 52 60
-0.0196555 0.0362999 0.187631 62 52 60
-0.0187228 0.0363973 0.188135 59 46 57
-0.0177277 0.0363774 0.188032 60 47 58
-0.0167052 0.0362957 0.187609 58 46 57
-0.0152187 0.0351325 0.181597 59 45 58
-0.0144405 0.0355584 0.183799 58 43 57
-0.013671 0.0360682 0.186434 58 44 58
-0.0128105 0.0363978 0.188137 58 45 59
-0.0117242 0.0360873 0.186532 58 44 59
-0.0109382 0.0367286 0.189847 58 43 58
-0.00970644 0.0358519 0.185315 58 44 58
-0.00863025 0.0354187 0.183076 57 41 57
-0.00781047 0.0360611 0.186397 58 42 58
-0.00685278 0.0361593 0.186905 55 38 56
-0.00586278 0.0360914 0.186554 54 36 55
-0.00490455 0.036231 0.187275 54 35 55
-0.00395294 0.0365016 0.188674 55 36 55
-0.00295067 0.0363288 0.18778 54 34 55
-0.00193925 0.0358142 0.185121 53 34 54
-0.000943418 0.0348462 0.180117 51 30 52
0 0.0353691 0.18282 52 28 52
0.000992772 0.0366692 0.18954 53 30 53
0.00193033 0.0356496 0.18427 52 28 51
0.00289203 0.0356068 0.184049 51 27 50
0.00378165 0.0349199 0.180498 49 22 47
0.00473428 0.0349732 0.180774 49 21 46
0.00569023 0.0350292 0.181063 49 21 46
0.00642428 0.0338983 0.175218 50 20 46
0.00752993 0.0347658 0.179702 48 19 45
0.00824882 0.0338533 0.174985 49 20 47
0.00960516 0.0354778 0.183382 49 20 46
0.0102259 0.0343367 0.177484 49 20 46
0.0110373 0.0339731 0.175604 49 20 46
0.0118196 0.0335823 0.173584 49 22 47
0.0130255 0.0343653 0.177631 51 23 47
0.0135889 0.0334614 0.172959 48 19 43
0.014562 0.0336165 0.173761 47 18 41
0.0155836 0.0338587 0.175013 46 17 40
0.0162676 0.0333812 0.172545 45 17 40
0.0170195 0.033086 0.171019 46 18 42
0.0181632 0.0335439 0.173386 47 19 43
0.0185227 0.032579 0.168398 48 21 46
0.0194248 0.0326127 0.168572 45 19 43
0.0203004 0.0326008 0.168511 52 29 51
0.0209686 0.0322707 0.166805 52 29 51
0.0222684 0.0329003 0.170059 55 33 54
0.0227106 0.0322632 0.166766 55 35 56
0.0236078 0.0322956 0.166933 56 38 57
0.0245642 0.0324039 0.167493 56 37 57
0.025157 0.0320414 0.16562 55 36 56
0.025898 0.0318857 0.164815 55 37 57
0.0275349 0.0328075 0.169579 54 36 57
0.0276595 0.0319262 0.165024 56 38 58
0.0292294 0.0327158 0.169105 55 37 56
0.0292241 0.0317479 0.164102 54 34 55
0.030259 0.0319329 0.165059 52 31 53
0.0308438 0.0316459 0.163575 50 29 52
0.0321045 0.0320491 0.165659 52 33 54
0.0331452 0.0322173 0.166528 48 25 51
0.0335043 0.0317313 0.164016 49 30 54
0.0345564 0.0319095 0.164938 50 33 55
0.0353224 0.0318213 0.164482 51 30 54
0.0369677 0.0325106 0.168045 53 33 55
0.037639 0.0323311 0.167117 53 35 56
0.0373875 0.0313852 0.162228 54 36 57
0.0408947 0.0335665 0.173503 52 32 55
0.0414998 0.0333227 0.172242 52 33 55
0.0415985 0.0326912 0.168978 53 34 55
0.0429458 0.033047 0.170817 54 35 55
0.0446329 0.0336443 0.173905 53 34 55
0.0443907 0.0327924 0.169501 54 36 56
0.0445758 0.0322835 0.166871 54 35 55
0.047757 0.0339223 0.175342 53 33 54
0.0460894 0.0321201 0.166026 52 32 54
0.0496622 0.0339691 0.175583 53 33 54
0.0525568 0.0352954 0.182439 52 31 53
0.0559979 0.0369348 0.190913 51 32 53
0.0716714 0.0464433 0.240061 51 32 54
0.082282 0.0523997 0.27085 52 33 54
0.112986 0.0707331 0.365614 51 31 53
0.168889 0.103969 0.537405 51 31 52
0.20269 0.122731 0.634386 50 30 51
0.262126 0.15616 0.807177 50 28 50
0.315001 0.184682 0.954604 51 30 52
0.365501 0.210941 1.09033 50 29 51
0.420039 0.238686 1.23375 51 31 52
0.416504 0.233092 1.20483 52 30 52
0.471668 0.260024 1.34404 53 32 53
0.454216 0.246721 1.27528 53 32 52
0.51918 0.277921 1.43655 51 28 51
0.562242 0.296672 1.53348 50 28 50
0.56909 0.296057 1.53029 52 32 53
0.595537 0.305512 1.57917 52 31 51
0.573539 0.290196 1.5 52 32 51
0.581395 0.290196 1.5 52 31 50
0.614178 0.302472 1.56345 53 31 50
0.620084 0.301362 1.55772 51 29 49
0.671035 0.321889 1.66382 52 32 50
0.649728 0.307673 1.59033 51 28 48
0.672678 0.314508 1.62567 52 27 47
0.686867 0.317128 1.63921 52 27 46
0.678689 0.309484 1.5997 51 22 43
0.687068 0.309484 1.5997 47 19 38
0.701882 0.312347 1.6145 49 20 39
0.741598 0.326093 1.68555 45 16 34
0.750427 0.326093 1.68555 44 16 33
0.757705 0.325427 1.68211 43 16 32
0.728963 0.309484 1.5997 44 17 34
0.776913 0.326093 1.68555 46 18 35
0.716683 0.297433 1.53741 45 18 34
0.775165 0.318129 1.64438 47 19 36
0.847448 0.343972 1.77797 47 19 38
0.82152 0.329824 1.70483 49 22 41
0.806642 0.320368 1.65596 52 27 45
0.853617 0.335418 1.73375 55 34 49
0.834545 0.324472 1.67717 54 32 48
0.826843 0.318129 1.64438 57 37 51
0.912064 0.3473 1.79517 57 40 54
0.875097 0.329824 1.70483 57 41 54
0.899022 0.335418 1.73375 56 41 54
0.892957 0.329824 1.70483 57 41 55
0.921674 0.33706 1.74224 57 42 55
0.89194 0.322988 1.6695 56 40 54
0.919745 0.329824 1.70483 58 43 56
0.928675 0.329824 1.70483 57 41 54
0.958176 0.33706 1.74224 58 43 56
0.90258 0.314508 1.62567 57 41 55
0.911095 0.314508 1.62567 57 42 55
0.936746 0.320368 1.65596 57 41 55
0.973323 0.329824 1.70483 55 37 52
1.01275 0.340064 1.75776 55 37 52
1.0437 0.3473 1.79517 54 36 52
0.97144 0.320368 1.65596 56 38 54
1.09143 0.356756 1.84404 55 38 52
1.04957 0.340064 1.75776 55 37 52
1.11075 0.356756 1.84404 55 37 53
1.03583 0.329824 1.70483 55 36 52
1.04476 0.329824 1.70483 55 37 53
0.849421 0.265884 1.37433 55 38 54
1.11892 0.3473 1.79517 58 43 56
-0.484978 0.153311 0.771599 173 218 184
-0.468303 0.149284 0.751332 172 218 184
-0.536417 0.172446 0.867904 173 218 184
-0.494656 0.16038 0.807177 172 217 184
-0.518198 0.169462 0.852883 170 216 183
-0.498448 0.16442 0.82751 171 217 184
-0.468133 0.155775 0.784 172 217 184
-0.45212 0.151778 0.763883 171 216 183
-0.472399 0.160002 0.805271 171 216 183
-0.455814 0.155775 0.784 170 216 184
-0.471236 0.16251 0.817894 171 217 187
-0.472442 0.16442 0.82751 146 202 167
-0.502778 0.176598 0.8888 161 210 180
-0.45131 0.160002 0.805271 153 207 176
-0.459439 0.16442 0.82751 138 197 165
-0.443922 0.16038 0.807177 153 206 180
-0.439694 0.16038 0.807177 180 222 203
-0.482772 0.177803 0.894863 155 210 182
