ply
format ascii 1.0
element vertex 1221
property float x
property float y
property float z
property uchar red
property uchar green
property uchar blue
end_header
0.0830361 0.00285837 0.182221 60 47 60
0.0844235 0.00287311 0.183161 60 47 59
0.0832626 0.00280176 0.178612 60 48 60
0.0849052 0.00282529 0.180112 60 47 60
0.0863618 0.00284218 0.181189 60 47 60
0.0886914 0.00288712 0.184054 61 48 60
0.0888611 0.00286154 0.182423 61 49 61
0.0888623 0.00283114 0.180485 61 49 61
0.0920443 0.00290165 0.18498 60 49 60
0.0906751 0.00282871 0.18033 60 49 61
0.0916421 0.0028294 0.180374 60 49 61
0.0940615 0.00287446 0.183247 59 48 60
0.0948504 0.00286929 0.182918 61 51 61
0.0971858 0.00291054 0.185547 60 50 61
0.0990719 0.00293765 0.187275 58 48 59
0.0971152 0.0028514 0.181777 60 50 60
0.101741 0.00295822 0.188586 58 48 59
0.100325 0.002889 0.184174 58 47 59
0.101869 0.00290551 0.185226 60 50 61
0.0983665 0.00277915 0.177171 60 51 62
0.105911 0.00296435 0.188977 60 52 62
0.106176 0.00294423 0.187695 63 55 64
0.104657 0.00287549 0.183313 63 56 65
0.106453 0.00289824 0.184763 62 55 63
0.110573 0.0029833 0.190185 61 54 63
0.109216 0.00292039 0.186175 63 57 66
0.112275 0.00297561 0.189695 63 56 64
0.116062 0.00304899 0.194373 65 59 66
0.114464 0.00298087 0.19003 62 56 65
0.116141 0.00299847 0.191153 62 57 65
0.112781 0.00288683 0.184036 62 58 65
0.115481 0.00293089 0.186844 63 59 65
0.116858 0.00294091 0.187483 63 59 65
-0.138761 0.00461738 0.220768 161 184 141
-0.136714 0.00458751 0.21934 153 174 125
-0.140762 0.00476336 0.227748 146 171 122
-0.140347 0.00478991 0.229018 127 157 104
-0.134369 0.00462542 0.221153 123 150 96
-0.137576 0.004777 0.2284 119 137 89
-0.138044 0.00483527 0.231187 107 124 84
-0.126858 0.0044828 0.214334 95 110 79
-0.12555 0.00447618 0.214018 88 100 70
-0.127805 0.00459765 0.219825 89 95 73
-0.125252 0.00454675 0.217392 85 93 72
-0.124986 0.00457873 0.218921 82 90 72
-0.123981 0.00458398 0.219171 77 80 66
-0.123449 0.00460696 0.22027 76 80 65
-0.120429 0.00453664 0.216908 74 79 62
-0.123495 0.00469646 0.22455 74 75 61
-0.119696 0.00459575 0.219734 74 66 60
-0.117457 0.00455358 0.217718 73 64 60
-0.115026 0.00450303 0.215301 71 64 58
-0.11767 0.00465214 0.222431 70 63 57
-0.111323 0.00444522 0.212537 69 60 55
-0.112005 0.00451765 0.216 68 58 54
-0.112043 0.00456527 0.218277 68 56 52
-0.108027 0.00444704 0.212624 66 52 49
-0.106649 0.00443603 0.212098 64 46 44
-0.105141 0.00441935 0.2113 64 47 44
-0.108393 0.00460451 0.220153 65 48 45
-0.104132 0.00447105 0.213772 65 50 47
-0.104798 0.00454858 0.217479 62 42 40
-0.0996498 0.00437265 0.209067 62 43 41
-0.0972349 0.0043141 0.206268 62 44 41
-0.0997154 0.00447386 0.213906 62 46 43
-0.100511 0.0045608 0.218063 60 42 40
-0.0984697 0.00451953 0.21609 57 39 38
-0.0973379 0.00451953 0.21609 60 42 42
-0.0943735 0.00443344 0.211974 56 39 38
-0.0943015 0.0044828 0.214334 59 42 42
-0.0905284 0.00435529 0.208237 57 41 41
-0.0910476 0.00443368 0.211985 59 44 44
-0.0919224 0.00453154 0.216664 59 44 46
-0.0897524 0.00447988 0.214194 62 49 50
-0.0889139 0.0044942 0.214879 62 49 52
-0.0871084 0.00445939 0.213215 61 48 51
-0.0861042 0.00446523 0.213494 62 51 55
-0.0830762 0.00436489 0.208696 62 50 55
-0.082617 0.00439864 0.21031 62 51 56
-0.0831733 0.00448809 0.214587 63 54 59
-0.0788062 0.0043107 0.206105 60 51 57
-0.0762979 0.00423146 0.202316 62 55 60
-0.0774485 0.00435576 0.20826 61 54 60
-0.0757549 0.00432138 0.206616 61 53 60
-0.074847 0.00433147 0.207098 62 56 62
-0.0756386 0.00444165 0.212366 62 56 62
-0.0698607 0.00416359 0.199072 61 54 62
-0.072676 0.00439701 0.210232 62 55 62
-0.0700691 0.00430451 0.205809 62 55 63
-0.0698138 0.00435583 0.208263 62 55 63
-0.0694806 0.00440386 0.210559 63 55 63
-0.0659109 0.00424498 0.202963 61 53 62
-0.0660231 0.00432191 0.206641 62 54 63
-0.0638323 0.00424815 0.203114 61 53 63
-0.0625269 0.0042318 0.202333 60 52 62
-0.0609948 0.00419928 0.200778 60 50 61
-0.0610313 0.00427551 0.204423 61 51 62
-0.0602008 0.00429264 0.205242 60 50 62
-0.058422 0.00424154 0.202799 60 49 61
-0.0554057 0.00409704 0.19589 59 48 61
-0.0559753 0.00421726 0.201638 58 47 60
-0.0544056 0.00417783 0.199752 60 48 61
-0.0537042 0.00420483 0.201043 58 45 59
-0.0514937 0.00411239 0.196624 57 44 58
-0.0510491 0.00416008 0.198904 58 44 58
-0.049926 0.00415332 0.198581 58 43 57
-0.0495191 0.00420712 0.201153 58 42 56
-0.0488226 0.00423812 0.202635 56 40 53
-0.0462948 0.00410799 0.196413 57 38 53
-0.045266 0.00410799 0.196413 55 37 52
-0.0447335 0.00415407 0.198617 58 40 55
-0.0440256 0.00418568 0.200128 58 40 53
-0.0415841 0.00404998 0.19364 57 39 53
-0.0420827 0.00420101 0.200861 56 37 51
-0.0400808 0.00410376 0.196211 57 39 52
-0.0391635 0.00411536 0.196765 57 38 51
-0.0382782 0.00413105 0.197516 56 36 50
-0.0364513 0.00404315 0.193313 55 36 49
-0.0359981 0.00410697 0.196365 56 37 50
-0.0345518 0.0040579 0.194018 53 34 49
-0.033966 0.00410999 0.196509 54 37 53
-0.0326573 0.00407512 0.194842 58 45 59
-0.0318585 0.00410368 0.196207 61 51 64
-0.030448 0.00405273 0.193771 61 52 65
-0.0291565 0.00401464 0.19195 62 53 67
-0.0281057 0.00400817 0.19164 62 53 67
-0.0275313 0.00407167 0.194677 63 55 68
-0.0262844 0.00403678 0.193008 62 53 68
-0.024814 0.00396339 0.189499 62 53 68
-0.0245303 0.00408133 0.195139 63 53 68
-0.0225079 0.00390767 0.186835 62 53 68
-0.022079 0.00400743 0.191605 62 53 68
-0.0207298 0.00394172 0.188463 61 52 68
-0.0198443 0.00396201 0.189434 61 53 69
-0.0185893 0.00390679 0.186793 62 53 69
-0.0177639 0.00394072 0.188416 61 52 68
-0.016777 0.00394072 0.188416 60 51 68
-0.0162236 0.00404891 0.193588 60 52 69
-0.0145854 0.00388272 0.185642 61 53 69
-0.0138011 0.00393636 0.188207 61 53 69
-0.0131134 0.00402793 0.192586 62 54 71
-0.0120139 0.00399771 0.191141 62 56 71
-0.0109785 0.0039853 0.190547 61 54 70
-0.00971858 0.00388072 0.185547 62 54 71
-0.00904348 0.00401239 0.191842 62 54 71
-0.00798484 0.00398553 0.190558 62 54 71
-0.00702266 0.00400602 0.191538 63 55 71
-0.00603514 0.00401648 0.192038 62 53 70
-0.00506548 0.0040454 0.19342 62 54 70
-0.0039336 0.00392681 0.187751 62 53 70
-0.00297348 0.0039578 0.189232 61 52 70
-0.00199144 0.00397601 0.190103 62 53 69
-0.00102742 0.00410259 0.196155 61 52 68
0 0.00395658 0.189174 61 52 68
0.000980975 0.00391713 0.187288 61 52 69
0.00194663 0.00388655 0.185826 60 52 69
0.00301273 0.00401005 0.19173 60 51 68
0.00397548 0.00396862 0.18975 59 51 68
0.00484477 0.00386912 0.184993 60 51 68
0.00599397 0.00398908 0.190728 60 51 68
0.0068196 0.00389019 0.186 59 50 67
0.00776738 0.00387699 0.185369 59 49 67
0.00863379 0.00383062 0.183152 60 50 68
0.00994985 0.00397307 0.189963 59 50 67
0.0107969 0.00391938 0.187395 57 48 66
0.0117668 0.00391549 0.18721 58 49 65
0.0128531 0.00394798 0.188763 58 48 66
0.0137203 0.00391332 0.187106 59 49 66
0.0146389 0.00389696 0.186323 59 50 66
0.0157528 0.00393141 0.187971 59 50 66
0.0167474 0.00393377 0.188083 59 49 65
0.0178907 0.00396885 0.189761 59 49 65
0.0183341 0.00385315 0.184229 58 47 64
0.0194832 0.00388991 0.185986 60 50 66
0.0208056 0.00395614 0.189153 60 50 66
0.0217226 0.00394275 0.188513 58 47 64
0.0224284 0.00389386 0.186175 59 47 64
0.023123 0.00384718 0.183943 58 46 63
0.0248566 0.0039702 0.189825 59 47 63
0.0247061 0.00379438 0.181419 57 46 62
0.0259339 0.00383544 0.183382 57 44 61
0.0275783 0.00393296 0.188045 57 44 61
0.0282924 0.00389566 0.186261 56 44 61
0.0291557 0.00388072 0.185547 56 43 60
0.0299988 0.00386414 0.184754 57 43 61
0.030471 0.00380231 0.181798 58 44 62
0.032313 0.00390996 0.186945 59 44 62
0.0327203 0.0038428 0.183734 56 40 59
0.0337297 0.00384817 0.183991 57 41 60
0.0343474 0.0038098 0.182156 56 41 60
0.0358929 0.00387362 0.185208 56 41 59
0.0360087 0.00378385 0.180915 54 37 56
0.0368213 0.00377003 0.180255 56 38 57
0.0385807 0.00385142 0.184146 57 38 56
0.0391278 0.00381076 0.182202 56 36 54
0.0404558 0.00384629 0.183901 54 34 52
0.0410793 0.00381473 0.182392 54 34 52
0.0419355 0.00380574 0.181962 55 34 53
0.0433873 0.00384999 0.184078 53 30 47
0.0435875 0.00378367 0.180907 53 27 46
0.044367 0.0037694 0.180224 50 22 42
0.0462576 0.00384815 0.18399 47 19 39
0.0457755 0.00373033 0.178356 47 19 40
0.0476531 0.00380567 0.181958 48 20 41
0.0487635 0.00381799 0.182548 47 20 40
0.050651 0.00388951 0.185967 50 24 43
0.0506076 0.00381285 0.182302 51 25 45
0.0525992 0.00388951 0.185967 53 29 47
0.0534765 0.00388249 0.185631 53 31 49
0.0531073 0.00378683 0.181058 55 35 51
0.0557775 0.00390746 0.186825 57 38 53
0.0552764 0.00380559 0.181955 59 40 55
0.0573661 0.00388251 0.185633 60 40 56
0.0577 0.00384003 0.183601 60 41 55
0.0589034 0.00385585 0.184358 60 43 56
0.0587974 0.00378683 0.181058 60 42 56
0.060223 0.00381708 0.182504 59 42 56
0.062766 0.0039161 0.187239 59 42 56
0.0643861 0.00395539 0.189117 59 43 57
0.0648422 0.00392305 0.187571 60 44 57
0.0659405 0.00392995 0.187901 59 43 57
0.0675459 0.00396643 0.189645 59 43 56
0.0680939 0.00394066 0.188413 58 43 57
0.0682733 0.0038946 0.186211 58 42 56
0.0702154 0.00394897 0.18881 60 44 59
0.071544 0.00396781 0.189711 58 42 56
0.0707547 0.00387028 0.185048 58 42 56
0.0716276 0.00386508 0.184799 59 44 57
0.0735444 0.0039156 0.187215 59 44 58
0.0735241 0.00386301 0.1847 58 42 56
0.0740368 0.00383943 0.183573 58 43 56
0.0763018 0.00390616 0.186763 60 44 57
0.0767768 0.00388072 0.185547 59 44 57
0.0748421 0.00373565 0.178611 58 44 57
0.0798472 0.00393627 0.188203 59 45 58
0.0802105 0.00390596 0.186754 60 46 59
0.0798766 0.00384283 0.183735 60 47 60
0.0801471 0.00380994 0.182163 59 45 59
0.0817879 0.0038422 0.183705 59 45 58
0.0846452 0.00393019 0.187912 59 46 59
0.0834969 0.00383231 0.183233 60 47 60
0.0853372 0.00387227 0.185143 60 47 60
0.0869274 0.00390011 0.186474 59 46 58
0.0872698 0.00387197 0.185128 60 48 60
0.087879 0.00385615 0.184372 60 47 60
0.087845 0.00381276 0.182297 61 48 60
0.0897886 0.00385521 0.184327 60 48 60
0.0912428 0.00387597 0.18532 61 49 61
0.0900684 0.00378581 0.181009 61 49 61
0.0911452 0.00379116 0.181265 61 49 61
0.0940219 0.0038705 0.185058 61 49 61
0.0956971 0.00389927 0.186434 60 48 60
0.0972945 0.00392431 0.187631 61 50 61
0.0946307 0.0037787 0.180669 60 49 60
0.100757 0.00398351 0.190461 60 50 60
0.0958764 0.00375337 0.179458 59 48 59
0.100431 0.00389351 0.186159 59 49 60
0.100023 0.00384042 0.18362 60 49 60
0.10251 0.00389842 0.186393 59 48 60
0.104467 0.00393535 0.188159 60 51 61
0.107503 0.00401188 0.191818 61 52 63
0.105281 0.00389258 0.186114 61 53 63
0.109527 0.00401239 0.191842 63 56 65
0.11139 0.00404356 0.193333 62 54 63
0.110865 0.00398825 0.190688 61 53 63
0.110784 0.00394976 0.188848 63 56 65
0.114384 0.00404202 0.193259 62 55 64
0.112806 0.00395128 0.188921 63 57 64
0.113422 0.00393832 0.188301 63 56 65
0.111946 0.00385356 0.184248 63 60 67
0.117962 0.00402593 0.19249 62 58 65
0.121445 0.00410966 0.196493 62 58 65
0.1162 0.00389913 0.186427 64 60 66
-0.136564 0.00568035 0.217273 168 209 176
-0.132511 0.00555807 0.212596 166 204 164
-0.134109 0.00567279 0.216984 157 194 147
-0.133826 0.00570917 0.218376 150 186 135
-0.133024 0.00572388 0.218938 142 181 124
-0.136633 0.00593032 0.226835 135 168 107
-0.134941 0.00590827 0.225991 122 156 99
-0.131542 0.00581041 0.222248 111 140 97
-0.130729 0.00582603 0.222845 105 126 87
-0.122105 0.00549073 0.21002 101 113 75
-0.130104 0.0059036 0.225813 91 102 67
-0.122773 0.00562209 0.215045 90 100 72
-0.119167 0.00550748 0.210661 87 93 72
-0.121792 0.00568141 0.217314 79 85 64
-0.121817 0.00573619 0.219409 81 87 67
-0.118167 0.00561731 0.214862 79 85 68
-0.118822 0.00570274 0.21813 78 80 64
-0.116739 0.00565716 0.216386 77 74 60
-0.114942 0.00562467 0.215144 77 72 63
-0.112769 0.00557301 0.213168 77 73 64
-0.113751 0.00567772 0.217173 70 65 58
-0.110945 0.00559361 0.213956 71 61 58
-0.109252 0.00556445 0.21284 73 62 58
-0.109122 0.00561514 0.214779 70 58 54
-0.107997 0.00561514 0.214779 68 53 49
-0.10562 0.00554938 0.212264 69 54 51
-0.10207 0.00541987 0.20731 66 51 47
-0.103899 0.00557631 0.213294 66 51 48
-0.102624 0.00556779 0.212968 62 45 43
-0.103466 0.00567514 0.217074 62 45 42
-0.101183 0.00561156 0.214642 60 43 40
-0.101381 0.00568573 0.217479 60 43 40
-0.0983185 0.00557664 0.213306 62 46 44
-0.100156 0.00574614 0.21979 59 42 40
-0.0984198 0.00571221 0.218492 61 45 44
-0.0938656 0.00551198 0.210833 60 45 43
-0.0948682 0.00563717 0.215622 57 39 40
-0.091995 0.0055323 0.211611 59 44 45
-0.0919252 0.00559553 0.214029 62 49 49
-0.0888121 0.00547277 0.209334 60 46 48
-0.0878354 0.00548024 0.209619 61 49 51
-0.0893085 0.00564268 0.215833 63 52 54
-0.0886123 0.00567047 0.216896 61 49 52
-0.0853918 0.00553535 0.211727 61 49 53
-0.0836738 0.00549536 0.210197 60 48 53
-0.0840125 0.00559117 0.213862 60 49 54
-0.0824854 0.00556372 0.212812 63 54 59
-0.0798484 0.00545963 0.208831 63 55 60
-0.0790974 0.0054834 0.20974 61 55 59
-0.0788565 0.00554369 0.212046 61 54 59
-0.0766311 0.0054642 0.209006 62 55 61
-0.0764355 0.00552925 0.211494 64 57 63
-0.0733085 0.00538103 0.205824 66 61 66
-0.0750587 0.00559173 0.213884 61 54 61
-0.070986 0.00536845 0.205343 62 55 62
-0.0683649 0.00524977 0.200804 62 55 62
-0.0704878 0.00549735 0.210274 61 53 61
-0.06902 0.00546833 0.209163 62 54 62
-0.0686812 0.00552925 0.211494 61 53 62
-0.06675 0.00546187 0.208917 61 52 62
-0.0654792 0.00544718 0.208355 60 52 61
-0.062253 0.00526658 0.201447 60 52 62
-0.0610867 0.00525701 0.201081 60 49 60
-0.0617769 0.00540967 0.20692 58 46 59
-0.0594726 0.00530089 0.202759 60 50 61
-0.0579679 0.00526072 0.201222 60 49 61
-0.0574883 0.00531381 0.203253 60 49 61
-0.0554605 0.0052231 0.199783 59 47 60
-0.0552655 0.00530482 0.202909 56 43 57
-0.0521935 0.00510818 0.195388 59 45 59
-0.0522802 0.005219 0.199627 60 47 60
-0.0509662 0.00519165 0.198581 58 43 57
-0.0501966 0.00521979 0.199657 58 43 56
-0.0486237 0.00516381 0.197516 59 44 56
-0.0480184 0.00521038 0.199297 58 42 54
-0.0471576 0.00523069 0.200074 56 38 51
-0.0447711 0.00507885 0.194266 54 35 49
-0.0448211 0.00520276 0.199006 57 39 53
-0.0446616 0.00530769 0.203019 55 37 50
-0.041793 0.00508791 0.194613 58 40 53
-0.0404983 0.00505355 0.193298 56 37 51
-0.039234 0.00502132 0.192066 58 39 51
-0.0390235 0.00512582 0.196062 57 38 51
-0.0384846 0.00519165 0.198581 55 35 49
-0.0368634 0.00511108 0.195499 58 39 52
-0.0353617 0.00504295 0.192893 54 34 48
-0.0339498 0.00498401 0.190638 54 37 50
-0.0327277 0.00495018 0.189344 58 43 56
-0.0323416 0.00504466 0.192958 59 46 60
-0.0316184 0.00509094 0.194729 60 51 63
-0.0305394 0.00508112 0.194353 62 53 65
-0.0289828 0.00498841 0.190807 61 51 66
-0.0277116 0.00493996 0.188954 62 53 67
-0.0272953 0.00504597 0.193008 63 55 68
-0.0264972 0.00508682 0.194571 63 54 68
-0.0248242 0.00495628 0.189578 63 54 68
-0.0235732 0.00490262 0.187525 63 54 68
-0.0227659 0.00494058 0.188977 61 51 67
-0.0219149 0.00497207 0.190182 62 54 69
-0.0205179 0.00487677 0.186537 61 53 68
-0.0197478 0.00492844 0.188513 62 53 69
-0.0190012 0.00499169 0.190932 61 52 68
-0.0176574 0.00489637 0.187286 60 52 68
-0.0168551 0.00494884 0.189293 60 52 69
-0.0159936 0.00498937 0.190843 59 50 68
-0.0147282 0.00490092 0.18746 60 52 68
-0.0141177 0.00503333 0.192525 62 54 70
-0.0128997 0.00495285 0.189446 60 53 70
-0.0118085 0.00491171 0.187873 62 55 71
-0.0111273 0.00504913 0.193129 62 55 71
-0.0100677 0.00502515 0.192212 62 56 72
-0.00901155 0.00499778 0.191165 62 54 71
-0.00801725 0.00500214 0.191332 62 55 71
-0.00697566 0.00497402 0.190256 62 54 71
-0.00589228 0.00490176 0.187492 63 56 71
-0.00490182 0.00489336 0.187171 62 53 69
-0.00389931 0.00486573 0.186114 62 53 70
-0.00295992 0.00492469 0.188369 62 53 70
-0.00200207 0.00499653 0.191117 62 53 69
-0.000990759 0.00494525 0.189156 60 51 68
0 0.0048116 0.184044 61 52 69
0.00101149 0.00504872 0.193113 62 54 70
0.00200914 0.00501419 0.191793 61 53 69
0.0029478 0.00490452 0.187598 60 51 68
0.00394141 0.00491826 0.188123 59 50 68
0.0049309 0.00492239 0.188281 60 51 68
0.00593296 0.00493561 0.188787 60 50 68
0.00695212 0.00495723 0.189614 59 49 67
0.00794562 0.00495745 0.189622 59 49 67
0.00872176 0.00483706 0.185018 60 51 68
0.00964953 0.00481644 0.184229 58 49 66
0.0109837 0.00498396 0.190636 58 49 66
0.0116953 0.00486462 0.186072 58 49 66
0.012717 0.0048827 0.186763 58 48 65
0.0137837 0.00491427 0.187971 59 49 66
0.0145444 0.00483976 0.185121 59 50 66
0.0157244 0.00490539 0.187631 59 49 65
0.0167002 0.00490335 0.187553 59 48 65
0.018036 0.00500136 0.191302 59 48 65
0.0186758 0.00490621 0.187662 59 48 65
0.0197272 0.0049233 0.188316 60 48 65
0.021031 0.00499873 0.191201 60 48 65
0.021496 0.00487702 0.186546 59 48 65
0.0216274 0.00469349 0.179526 59 48 64
0.0234501 0.00487702 0.186546 57 46 63
0.0247073 0.00493293 0.188685 58 47 63
0.0251069 0.00481992 0.184362 56 45 62
0.0260342 0.00481283 0.184091 57 45 62
0.0274234 0.00488858 0.186988 57 44 61
0.0277894 0.00478301 0.18295 56 43 61
0.0285653 0.00475267 0.18179 57 45 62
0.0297386 0.00478827 0.183152 56 43 61
0.0310107 0.00483706 0.185018 56 42 61
0.0313423 0.00474064 0.181329 56 42 60
0.0320189 0.00470054 0.179796 57 43 60
0.0331604 0.00472903 0.180885 55 40 59
0.0346934 0.00481022 0.183991 56 41 59
0.0351939 0.00474773 0.1816 57 41 59
0.0364556 0.00478851 0.183161 56 38 57
0.0376961 0.00482449 0.184537 57 39 57
0.0375183 0.0046817 0.179075 54 34 53
0.0395069 0.00480961 0.183967 55 36 53
0.0391567 0.00465347 0.177995 53 33 50
0.0409824 0.00475718 0.181962 53 32 51
0.0413654 0.0046925 0.179488 51 28 48
0.0433091 0.00480382 0.183746 52 26 45
0.0432566 0.00469369 0.179534 50 22 42
0.04379 0.00465047 0.17788 44 17 36
0.0459809 0.00478141 0.182889 46 19 39
0.047621 0.00485091 0.185547 47 20 40
0.0473524 0.00472707 0.18081 48 21 42
0.0486854 0.00476484 0.182255 48 21 42
0.0501189 0.00481081 0.184014 50 23 44
0.0502038 0.00472804 0.180847 51 26 46
0.0511006 0.00472337 0.180669 53 29 48
0.0528464 0.00479593 0.183444 55 33 50
0.0532664 0.00474773 0.1816 56 35 52
0.0553959 0.00485091 0.185547 58 39 54
0.0567862 0.00488692 0.186925 59 40 55
0.0569949 0.00482174 0.184432 60 41 56
0.058365 0.00485536 0.185717 59 41 55
0.0601293 0.00492012 0.188195 60 43 57
0.06053 0.00487303 0.186393 59 42 56
0.0618698 0.00490183 0.187495 58 41 55
0.0614837 0.00479512 0.183413 59 41 56
0.0619477 0.00475699 0.181955 59 43 57
0.0644394 0.00487335 0.186406 59 43 57
0.0654729 0.0048776 0.186568 59 42 56
0.0662404 0.00486221 0.18598 58 41 55
0.0670582 0.00485091 0.185547 58 42 56
0.0691918 0.00493374 0.188716 58 43 57
0.0713728 0.00501758 0.191922 57 42 56
0.0698781 0.00484428 0.185294 57 42 56
0.0715539 0.0048925 0.187138 57 42 56
0.0726725 0.00490183 0.187495 54 39 54
0.0732587 0.00487549 0.186487 57 42 56
0.0744095 0.00488692 0.186925 58 43 57
0.0737369 0.00477985 0.182829 57 42 56
0.0748262 0.00478827 0.183152 57 42 55
0.0742853 0.00469349 0.179526 58 43 56
0.0787946 0.00491617 0.188043 57 43 56
0.0771445 0.00475379 0.181832 58 44 57
0.0799398 0.00486597 0.186123 59 44 58
0.0807056 0.0048534 0.185642 60 46 59
0.0798458 0.00474453 0.181478 59 45 59
0.0826079 0.00485091 0.185547 60 46 60
0.0857373 0.00497612 0.190337 58 46 59
0.0850184 0.00487768 0.186571 59 46 59
0.085001 0.00482127 0.184413 58 45 58
0.0852113 0.00477889 0.182793 60 47 59
0.0871096 0.00483107 0.184788 59 45 58
0.0867061 0.00475585 0.181911 59 45 58
0.0888796 0.00482208 0.184445 59 44 57
0.0894317 0.00479986 0.183595 60 47 60
0.0884712 0.00469779 0.179691 60 47 60
0.0919103 0.00482904 0.184711 59 46 60
0.0911301 0.00473817 0.181235 60 48 61
0.0927131 0.00477078 0.182482 60 48 61
0.095175 0.00484749 0.185416 59 47 60
0.0969178 0.00488639 0.186905 59 47 59
0.101455 0.00506399 0.193698 59 49 60
0.100287 0.00495615 0.189573 60 49 60
0.0969023 0.00474191 0.181378 60 49 60
0.103381 0.00500985 0.191627 58 47 59
0.101982 0.0048945 0.187215 59 48 59
0.101071 0.0048046 0.183776 60 50 61
0.107689 0.0050709 0.193962 60 50 61
0.104422 0.00487112 0.18632 61 52 63
0.107235 0.00495601 0.189567 61 53 63
0.107849 0.00493865 0.188903 64 56 65
0.106904 0.00485091 0.185547 62 54 63
0.106031 0.00476793 0.182373 60 51 62
0.107733 0.0048012 0.183646 62 54 63
0.111903 0.0049429 0.189066 62 55 63
0.109725 0.00480419 0.18376 63 56 64
0.116954 0.00507619 0.194164 62 56 64
0.116629 0.00501843 0.191955 63 58 66
0.119704 0.00510671 0.195332 62 57 65
0.115431 0.0048827 0.186763 63 59 66
0.11829 0.00496158 0.18978 66 63 70
-0.143289 0.00715207 0.227972 171 217 179
-0.140599 0.0070768 0.225573 164 212 168
-0.140206 0.00711682 0.226849 168 210 167
-0.130433 0.00667734 0.21284 163 205 162
-0.127907 0.00660445 0.210517 162 205 159
-0.12952 0.00674589 0.215025 160 205 154
-0.136182 0.00715513 0.22807 160 200 144
-0.134432 0.00712568 0.227131 147 182 129
-0.131829 0.00705006 0.224721 132 161 115
-0.129714 0.00699946 0.223108 125 142 98
-0.128289 0.0069855 0.222663 122 136 94
-0.123689 0.0067968 0.216648 106 122 83
-0.124831 0.00692307 0.220673 98 113 72
-0.120583 0.00674997 0.215155 96 108 69
-0.123478 0.00697724 0.2224 87 96 68
-0.122405 0.00698249 0.222567 82 89 71
-0.115012 0.00662387 0.211136 83 87 65
-0.113469 0.00659846 0.210326 84 83 64
-0.117075 0.00687487 0.219136 82 80 68
-0.112373 0.0066641 0.212418 80 82 70
-0.111897 0.00670222 0.213633 80 82 70
-0.107682 0.00651489 0.207662 74 70 63
-0.110062 0.00672684 0.214418 75 70 64
-0.110645 0.00683223 0.217777 77 67 62
-0.111948 0.00698465 0.222636 76 66 61
-0.105786 0.00666968 0.212596 73 62 58
-0.103909 0.00662106 0.211046 70 58 53
-0.104446 0.00672684 0.214418 70 59 54
-0.101725 0.0066228 0.211102 66 53 50
-0.100365 0.00660605 0.210568 65 51 48
-0.0985054 0.00655569 0.208963 64 49 45
-0.100789 0.00678307 0.21621 64 48 45
-0.0969207 0.00659683 0.210274 61 46 43
-0.0975439 0.00671556 0.214058 60 43 42
-0.0975924 0.00679703 0.216655 62 46 45
-0.0950167 0.00669549 0.213419 61 46 45
-0.0935856 0.00667315 0.212707 58 40 41
-0.0936352 0.00675713 0.215383 62 48 48
-0.0904168 0.00660445 0.210517 58 46 46
-0.0922991 0.00682517 0.217552 61 48 49
-0.0908281 0.00680035 0.216761 61 49 51
-0.089863 0.00681326 0.217173 61 51 53
-0.0832699 0.00639432 0.203819 62 52 54
-0.0862329 0.00670785 0.213813 62 51 55
-0.0858134 0.00676305 0.215572 62 50 54
-0.0836642 0.00668159 0.212976 62 51 56
-0.0814226 0.00659044 0.21007 62 53 59
-0.0805258 0.00660714 0.210603 62 55 59
-0.0794064 0.00660578 0.210559 64 59 62
-0.0790176 0.00666602 0.212479 62 55 61
-0.0779693 0.00667155 0.212656 62 55 62
-0.0754821 0.00655233 0.208856 63 56 63
-0.0764491 0.00673387 0.214642 62 56 62
-0.074261 0.00663876 0.211611 62 55 62
-0.070268 0.00637697 0.203266 62 56 62
-0.0711395 0.0065554 0.208953 61 53 60
-0.0693424 0.00648963 0.206857 62 54 61
-0.0698743 0.00664321 0.211752 60 52 61
-0.0677654 0.00654662 0.208674 61 53 62
-0.0661903 0.00649928 0.207165 62 54 62
-0.0656466 0.00655334 0.208888 60 52 61
-0.0637062 0.00646742 0.206149 60 51 60
-0.0624855 0.00645286 0.205685 58 48 59
-0.0610273 0.00641284 0.204409 58 46 59
-0.0599606 0.00641327 0.204423 60 49 61
-0.059008 0.00642613 0.204833 60 49 61
-0.0571527 0.00633934 0.202067 59 47 59
-0.0567547 0.00641397 0.204445 59 47 59
-0.0536513 0.00617986 0.196983 58 45 58
-0.0531235 0.00623904 0.198869 59 46 58
-0.0522882 0.00626375 0.199657 59 45 57
-0.0521026 0.0063689 0.203009 57 42 55
-0.050578 0.00631134 0.201174 59 44 56
-0.0487982 0.00621881 0.198224 56 39 52
-0.048026 0.00625346 0.199329 56 39 52
-0.046982 0.00625346 0.199329 55 37 50
-0.0448645 0.00610732 0.194671 56 38 51
-0.0441027 0.00614325 0.195816 57 40 53
-0.0433161 0.00617733 0.196902 57 39 52
-0.0422847 0.00617733 0.196902 58 39 52
-0.0416273 0.00623333 0.198687 56 37 50
-0.0391641 0.00601485 0.191723 55 36 49
-0.0382821 0.00603411 0.192337 56 37 49
-0.0376005 0.00608685 0.194018 55 36 49
-0.0360484 0.0059977 0.191177 54 35 49
-0.0346265 0.00592573 0.188883 54 35 49
-0.0334071 0.00588519 0.18759 60 44 56
-0.0338713 0.00614778 0.195961 61 48 59
-0.0320466 0.00599837 0.191198 61 49 63
-0.0313303 0.00605347 0.192954 61 52 64
-0.0293992 0.0058697 0.187097 63 54 66
-0.0293939 0.00607101 0.193513 62 53 66
-0.0274625 0.00587466 0.187255 62 54 67
-0.0274195 0.00608271 0.193886 64 56 68
-0.0256722 0.00591413 0.188513 63 54 69
-0.0246848 0.00591413 0.188513 62 53 68
-0.0245509 0.00612713 0.195302 63 53 68
-0.0223886 0.00583042 0.185845 62 53 68
-0.0216781 0.00590201 0.188127 61 52 67
-0.0208771 0.00595459 0.189802 62 53 68
-0.0194886 0.00583648 0.186038 61 53 68
-0.0187092 0.00589799 0.187998 60 52 68
-0.0181794 0.00604933 0.192822 61 53 69
-0.0164874 0.00580903 0.185163 60 52 69
-0.0163362 0.00611549 0.194931 60 53 69
-0.0149531 0.00597094 0.190324 60 53 69
-0.0137766 0.00589406 0.187873 61 53 69
-0.0130056 0.00599223 0.191002 61 53 70
-0.0119394 0.00595938 0.189955 61 55 71
-0.0109136 0.0059426 0.18942 62 55 71
-0.00979088 0.00586439 0.186927 63 57 72
-0.00918196 0.00611075 0.19478 63 56 72
-0.0080259 0.00600904 0.191538 63 56 72
-0.00701655 0.00600381 0.191372 61 54 70
-0.00594697 0.0059367 0.189232 63 56 70
-0.00498438 0.00597094 0.190324 61 52 69
-0.00396141 0.00593186 0.189078 61 52 69
-0.00294698 0.0058838 0.187546 62 53 70
-0.0019807 0.00593186 0.189078 62 53 69
-0.000987727 0.00591614 0.188577 61 53 69
0 0.00605119 0.192882 61 53 69
0.000996474 0.00596853 0.190247 60 52 69
0.00194274 0.00581816 0.185454 60 52 68
0.00297374 0.00593722 0.189249 59 51 68
0.00391051 0.00585564 0.186649 59 51 68
0.00493696 0.00591413 0.188513 58 49 66
0.00588163 0.00587148 0.187153 59 50 67
0.00691726 0.00591885 0.188663 59 48 66
0.00773777 0.00579331 0.184662 59 49 67
0.00864311 0.00575213 0.183349 59 49 67
0.0098832 0.00591969 0.18869 59 50 67
0.0107969 0.00587907 0.187395 59 50 66
0.0117933 0.00588646 0.187631 59 50 66
0.0126693 0.0058373 0.186064 56 47 65
0.0137947 0.00590183 0.188121 58 48 66
0.0145577 0.00581301 0.18529 59 48 66
0.0155135 0.00580751 0.185114 58 48 65
0.0166533 0.00586748 0.187026 60 49 66
0.0176004 0.00585667 0.186681 58 48 65
0.0186252 0.00587148 0.187153 59 49 65
0.019608 0.00587226 0.187178 59 48 65
0.0203584 0.00580666 0.185087 58 47 64
0.021274 0.00579199 0.18462 59 47 64
0.0227987 0.00593722 0.189249 59 47 65
0.022892 0.00571313 0.182106 57 45 63
0.0243813 0.00584141 0.186195 58 47 64
0.0254207 0.00585619 0.186666 57 45 62
0.0262402 0.00582109 0.185547 57 45 62
0.026995 0.00577467 0.184068 57 44 62
0.0285274 0.00589203 0.187809 55 43 60
0.029212 0.00583233 0.185905 56 43 60
0.029879 0.00577306 0.184016 56 42 60
0.0301058 0.00563509 0.179619 57 44 61
0.0314219 0.00570321 0.18179 55 40 59
0.032996 0.00581277 0.185282 55 40 58
0.0333558 0.00570827 0.181951 56 39 59
0.0354869 0.00590427 0.188199 55 39 58
0.0352118 0.00570018 0.181693 56 39 58
0.0367053 0.00578557 0.184415 57 39 58
0.036722 0.0056398 0.179768 55 36 55
0.0375348 0.0056205 0.179154 58 38 57
0.0383626 0.00560435 0.178639 54 35 53
0.0394274 0.00562277 0.179226 53 31 50
0.0403864 0.00562559 0.179316 50 25 46
0.0411045 0.00559549 0.178356 48 23 44
0.0417315 0.0055546 0.177053 51 25 44
0.0427442 0.00556571 0.177407 47 19 39
0.0450461 0.00574065 0.182983 46 18 39
0.045238 0.005645 0.179934 45 18 37
0.0466345 0.0057005 0.181703 44 17 38
0.0483679 0.00579413 0.184688 46 19 40
0.0486318 0.00571152 0.182055 49 22 43
0.0499645 0.00575519 0.183447 49 24 44
0.0502846 0.00568277 0.181138 52 28 48
0.0526265 0.0058373 0.186064 54 32 50
0.0521704 0.0056815 0.181098 55 33 51
0.0545245 0.00583183 0.18589 55 35 52
0.0551394 0.00579413 0.184688 55 36 52
0.0564203 0.00582651 0.18572 57 39 54
0.0569383 0.00578034 0.184248 59 40 56
0.0593672 0.00592647 0.188906 59 41 56
0.0597489 0.0058668 0.187004 60 43 57
0.0600052 0.00579693 0.184777 59 42 56
0.0608888 0.00578893 0.184522 59 42 56
0.0609104 0.0057005 0.181703 59 41 56
0.063318 0.00583466 0.18598 58 41 56
0.0633721 0.00575116 0.183318 60 43 58
0.066243 0.00592197 0.188763 57 40 55
0.0676831 0.00596173 0.19003 58 42 56
0.0682291 0.00592273 0.188787 56 40 55
0.0681575 0.00583199 0.185895 56 39 54
0.069611 0.00587247 0.187185 56 39 54
0.0704324 0.00585924 0.186763 55 39 54
0.0702883 0.00576715 0.183828 56 40 55
0.0738109 0.00597434 0.190432 55 41 55
0.0726492 0.00580191 0.184936 56 41 56
0.0725123 0.00571478 0.182159 57 42 56
0.0732941 0.00570137 0.181731 56 41 55
0.0755047 0.00579803 0.184812 56 41 55
0.078483 0.00595045 0.189671 57 41 56
0.0775902 0.00580923 0.185169 57 43 57
0.076094 0.00562687 0.179356 58 43 57
0.0769243 0.0056189 0.179102 56 41 56
0.0780626 0.00563334 0.179563 58 43 57
0.080812 0.00576233 0.183674 58 44 58
0.0835037 0.00588421 0.187559 57 44 57
0.0836711 0.00582745 0.18575 57 44 56
0.0831788 0.00572657 0.182534 58 44 58
0.0874391 0.00595147 0.189703 57 44 57
0.0859373 0.00578353 0.18435 59 45 58
0.0846436 0.00563317 0.179557 59 45 58
0.0879505 0.00578893 0.184522 58 44 58
0.0889071 0.00578829 0.184502 57 43 56
0.0904405 0.0058248 0.185666 61 49 61
0.0903331 0.00575599 0.183472 59 46 59
0.0924512 0.00582895 0.185798 59 46 60
0.0924512 0.00576823 0.183862 60 48 61
0.0913692 0.00564195 0.179837 59 47 60
0.0931829 0.00569523 0.181535 60 49 61
0.0981405 0.00593765 0.189263 59 47 60
0.0941418 0.00563876 0.179735 59 48 60
0.0992165 0.00588388 0.187549 57 45 57
0.0980999 0.00576063 0.18362 58 47 59
0.0974312 0.00566581 0.180598 58 47 59
0.105518 0.00607706 0.193706 60 48 60
0.103173 0.00588542 0.187598 60 48 60
0.106018 0.00599066 0.190952 60 50 61
0.104453 0.00584707 0.186375 60 50 61
0.106555 0.00590952 0.188366 62 52 63
0.106193 0.0058354 0.186003 62 53 63
0.104603 0.00569575 0.181552 63 54 64
0.111034 0.00599146 0.190978 62 53 63
0.111364 0.00595566 0.189837 62 53 63
0.105089 0.0055703 0.177553 62 54 64
0.111797 0.0058739 0.187231 62 55 64
0.116366 0.00606082 0.193189 63 57 65
0.114035 0.00588817 0.187686 62 55 64
0.117802 0.00603068 0.192228 63 59 66
0.119046 0.00604276 0.192613 62 57 65
0.123327 0.00620746 0.197863 64 60 66
-0.139786 0.00814011 0.2224 167 216 176
-0.137966 0.00810163 0.221348 166 216 172
-0.130419 0.00772336 0.211013 177 221 182
-0.141802 0.00846922 0.231391 169 215 174
-0.14059 0.00846922 0.231391 173 214 175
-0.135155 0.00821266 0.224381 171 213 172
-0.129859 0.00796002 0.217479 165 207 160
-0.129502 0.00800837 0.2188 160 203 157
-0.123598 0.00771157 0.210691 157 197 147
-0.126619 0.00797123 0.217785 142 184 141
-0.126374 0.00802813 0.21934 140 177 134
-0.123932 0.00794519 0.217074 125 157 113
-0.122521 0.00792746 0.21659 114 138 94
-0.122582 0.00800556 0.218723 108 125 82
-0.125516 0.00827452 0.226072 98 110 74
-0.11308 0.00752567 0.205612 95 106 76
-0.120075 0.008068 0.220429 89 99 71
-0.11798 0.00800419 0.218686 91 92 70
-0.115533 0.00791506 0.216251 84 86 66
-0.116555 0.0080641 0.220323 80 84 67
-0.11484 0.00802491 0.219252 78 82 67
-0.113312 0.00799817 0.218521 82 86 72
-0.111293 0.00793582 0.216818 79 81 68
-0.111526 0.00803439 0.219511 81 81 69
-0.109217 0.00795003 0.217206 77 77 65
-0.106299 0.00781903 0.213627 75 74 63
-0.107874 0.00801928 0.219098 75 68 60
-0.107003 0.00804008 0.219667 75 66 60
-0.105372 0.00800361 0.21867 71 60 57
-0.105208 0.00807892 0.220728 72 61 58
-0.100498 0.00780305 0.213191 68 56 52
-0.104654 0.00821704 0.224501 67 55 51
-0.100798 0.00800419 0.218686 61 49 44
-0.0967933 0.00777453 0.212411 61 48 44
-0.0966994 0.0078573 0.214673 60 45 44
-0.0980225 0.00805851 0.22017 62 47 46
-0.0965591 0.00803271 0.219465 60 44 45
-0.0937388 0.00789204 0.215622 65 53 53
-0.0941686 0.00802491 0.219252 63 52 52
-0.0931301 0.00803439 0.219511 63 52 53
-0.0923085 0.00806305 0.220294 62 51 53
-0.086791 0.00767707 0.209749 63 53 55
-0.0870616 0.00779974 0.2131 63 54 56
-0.0842465 0.00764556 0.208888 62 51 55
-0.0850886 0.00782359 0.213752 62 52 56
-0.0828226 0.00771677 0.210833 60 50 53
-0.0800141 0.00755584 0.206436 60 53 57
-0.0811881 0.00777173 0.212335 63 57 61
-0.0768453 0.00745818 0.203768 63 57 61
-0.0783495 0.00771127 0.210683 63 57 62
-0.0778749 0.00777406 0.212398 63 56 61
-0.074227 0.00751729 0.205383 63 57 62
-0.0745381 0.0076598 0.209277 63 56 62
-0.0736415 0.00768062 0.209845 62 55 62
-0.0715697 0.00757763 0.207032 62 55 62
-0.0702781 0.00755535 0.206423 60 53 60
-0.0683213 0.00745975 0.203811 61 54 61
-0.0685741 0.0076062 0.207812 61 53 61
-0.068406 0.00770994 0.210646 60 52 61
-0.0658936 0.00754851 0.206236 61 52 61
-0.0648038 0.0075474 0.206206 60 52 60
-0.0617998 0.00731953 0.19998 60 51 60
-0.062994 0.00758961 0.207359 60 50 61
-0.0612782 0.00751241 0.20525 59 48 59
-0.0599621 0.00748233 0.204428 60 49 60
-0.0586639 0.00745343 0.203638 60 49 61
-0.056963 0.00737135 0.201396 58 46 58
-0.055289 0.00728972 0.199166 59 46 59
-0.0544857 0.00732195 0.200046 57 44 57
-0.0547165 0.00749715 0.204833 58 44 57
-0.0533576 0.00745718 0.203741 60 46 58
-0.0510752 0.00728387 0.199006 59 44 56
-0.0492802 0.00717429 0.196012 56 39 53
-0.0491727 0.00731095 0.199746 55 38 52
-0.049089 0.00745718 0.203741 56 39 52
-0.0460347 0.00714859 0.19531 55 37 51
-0.0448777 0.00712732 0.194729 56 38 52
-0.044583 0.00724518 0.197949 56 38 51
-0.04266 0.00709774 0.19392 57 39 51
-0.0420514 0.00716713 0.195816 58 39 52
-0.0398667 0.00696464 0.190284 56 37 50
-0.0401122 0.0071872 0.196365 53 34 47
-0.0381531 0.00701607 0.191689 54 34 48
-0.0378659 0.00715146 0.195388 56 37 49
-0.0362921 0.00704462 0.192469 56 37 52
-0.0347723 0.00694246 0.189678 60 44 57
-0.0341507 0.00701889 0.191766 58 43 56
-0.0329937 0.00698659 0.190884 60 48 60
-0.0317947 0.00694309 0.189695 59 48 62
-0.0317265 0.00715169 0.195394 61 51 64
-0.0299228 0.00696995 0.190429 62 53 66
-0.0286501 0.00690362 0.188617 62 54 67
-0.0279834 0.00698377 0.190807 62 53 66
-0.0271709 0.00703216 0.192129 62 53 67
-0.0259846 0.00698377 0.190807 62 54 68
-0.0254781 0.00712155 0.194571 62 54 68
-0.0238589 0.00694683 0.189797 62 54 68
-0.0228836 0.00695254 0.189953 62 53 68
-0.0220751 0.00701178 0.191572 62 53 68
-0.0211887 0.00705073 0.192636 62 54 68
-0.0200431 0.00700299 0.191332 61 53 68
-0.0193429 0.00711402 0.194365 61 53 69
-0.0178525 0.00693067 0.189356 61 53 69
-0.017088 0.00702409 0.191908 61 54 70
-0.0162253 0.00708634 0.193609 60 52 69
-0.0147471 0.0068701 0.187701 60 52 68
-0.0139402 0.00695808 0.190105 60 54 70
-0.0129911 0.00698315 0.19079 61 55 71
-0.0117374 0.00683502 0.186742 62 55 71
-0.0109841 0.00697782 0.190644 62 55 71
-0.00992146 0.00693304 0.18942 62 55 71
-0.00895094 0.00694983 0.189879 62 55 71
-0.00795652 0.00694994 0.189882 62 56 71
-0.00711374 0.00710146 0.194022 62 55 71
-0.0059905 0.00697686 0.190618 63 56 71
-0.0049041 0.00685389 0.187258 62 54 70
-0.00382947 0.00669001 0.182781 62 54 70
-0.00303083 0.00705973 0.192882 62 53 70
-0.00194172 0.0067843 0.185357 61 53 69
-0.000981879 0.00686129 0.18746 61 53 69
0 0.00698197 0.190757 61 52 69
0.000981121 0.00685599 0.187316 61 52 69
0.0019505 0.00681498 0.186195 60 51 68
0.0029782 0.00693713 0.189532 59 51 68
0.00401171 0.00700838 0.191479 59 51 68
0.00491262 0.00686581 0.187584 59 50 67
0.00578075 0.00673257 0.183943 59 50 67
0.00682568 0.0068139 0.186165 60 51 67
0.00790038 0.0069009 0.188543 57 47 65
0.00868014 0.00673957 0.184135 60 50 67
0.00993928 0.00694549 0.189761 59 50 67
0.0109332 0.00694549 0.189761 59 51 66
0.0118002 0.00687155 0.187741 56 46 64
0.0126578 0.00680399 0.185895 57 47 65
0.0134426 0.00670969 0.183318 58 48 66
0.0147948 0.00689233 0.188308 58 48 65
0.0154638 0.00675375 0.184522 59 49 66
0.0166066 0.00682619 0.186501 59 48 65
0.0175941 0.00683035 0.186615 57 47 65
0.0181176 0.00666339 0.182053 59 48 65
0.0194947 0.00681137 0.186096 58 47 64
0.0202437 0.00673624 0.184044 59 48 65
0.0213373 0.00677743 0.185169 60 49 65
0.0224662 0.00682573 0.186489 57 46 63
0.0233364 0.0067947 0.185641 58 46 63
0.0236838 0.00662002 0.180868 56 44 62
0.0246255 0.00661849 0.180827 57 44 62
0.0265989 0.0068841 0.188083 57 44 62
0.0268439 0.0066994 0.183037 58 45 62
0.0280282 0.00675375 0.184522 57 44 61
0.0283351 0.00660011 0.180325 56 43 61
0.0294647 0.00664184 0.181465 55 41 60
0.0302628 0.00660856 0.180555 55 41 59
0.0311825 0.00660307 0.180405 55 40 59
0.0322806 0.00663454 0.181265 55 41 60
0.0336059 0.00670959 0.183316 55 39 59
0.0333594 0.00647535 0.176916 54 39 58
0.035805 0.00676224 0.184754 54 37 56
0.0371598 0.00683342 0.186699 56 38 57
0.0361914 0.00648469 0.177171 52 34 53
0.0375633 0.00656224 0.17929 56 37 55
0.0386352 0.00658487 0.179908 54 34 52
0.0402505 0.00669684 0.182967 52 30 49
0.0408114 0.00663225 0.181203 50 26 46
0.0419118 0.00665628 0.181859 48 22 43
0.0425183 0.00660255 0.180391 49 21 41
0.0424847 0.00645391 0.17633 46 18 38
0.0452438 0.00672681 0.183786 44 17 37
0.0452724 0.00659083 0.180071 46 18 38
0.0456608 0.00651172 0.177909 46 18 39
0.0478507 0.00668754 0.182713 47 19 41
0.0482324 0.00660871 0.180559 48 22 44
0.0485623 0.00652595 0.178298 51 28 48
0.0502549 0.00662599 0.181032 52 29 49
0.0513051 0.00663918 0.181392 57 36 53
0.0526358 0.00668754 0.182713 57 37 53
0.0545756 0.00681018 0.186064 58 39 54
0.0551394 0.00675982 0.184688 58 39 55
0.055632 0.00670262 0.183125 57 39 54
0.0567204 0.00671792 0.183543 59 41 56
0.057631 0.00671201 0.183382 56 38 54
0.0584278 0.00669326 0.182869 58 41 55
0.0583786 0.00657976 0.179768 60 43 57
0.0611133 0.00677865 0.185203 60 43 56
0.0622276 0.0067944 0.185633 60 42 56
0.063827 0.00686182 0.187475 59 42 56
0.0652543 0.00690897 0.188763 58 41 56
0.0654493 0.00682619 0.186501 58 41 56
0.0664904 0.00683279 0.186681 56 39 54
0.0665215 0.00673691 0.184062 55 39 54
0.0686396 0.00685212 0.18721 55 39 54
0.0709952 0.00698745 0.190907 55 40 55
0.0709448 0.00688551 0.188122 55 40 55
0.0715284 0.00684705 0.187071 55 40 55
0.0711169 0.00671567 0.183482 55 40 55
0.0730672 0.00680784 0.186 53 38 54
0.0729449 0.00670702 0.183245 55 40 55
0.0756601 0.00686632 0.187598 55 39 54
0.0756109 0.00677388 0.185072 57 42 56
0.0770152 0.00681236 0.186123 59 44 58
0.0781949 0.00683025 0.186612 57 42 56
0.0775002 0.00668599 0.182671 57 43 57
0.0796924 0.00679127 0.185547 58 42 57
0.0809649 0.00681658 0.186239 58 43 58
0.0810986 0.00674655 0.184325 58 44 58
0.0817803 0.00672322 0.183688 57 42 56
0.08306 0.00674903 0.184393 58 44 58
0.0851931 0.00684279 0.186955 58 45 58
0.0857259 0.00680734 0.185986 58 45 59
0.0860731 0.00675811 0.184641 57 43 57
0.087358 0.00678278 0.185315 58 44 58
0.0880484 0.00676127 0.184728 56 42 56
0.090659 0.00688606 0.188137 59 45 58
0.0905648 0.00680494 0.185921 57 43 58
0.0911675 0.00677735 0.185167 59 45 59
0.0915405 0.00673345 0.183967 57 44 58
0.0942493 0.00686048 0.187438 58 45 59
0.0914368 0.00658715 0.17997 57 44 59
0.0975433 0.00695536 0.19003 57 44 58
0.0952667 0.00672441 0.18372 58 45 58
0.099156 0.00692894 0.189309 56 44 57
0.0957223 0.00662277 0.180944 58 45 58
0.0976678 0.00669113 0.182811 59 48 60
0.0982449 0.00666532 0.182106 59 48 60
0.103039 0.00692334 0.189156 60 48 60
0.105018 0.0069891 0.190952 60 48 60
0.103606 0.00683012 0.186609 60 48 60
0.108221 0.00706768 0.193099 61 51 62
0.109737 0.00710033 0.193991 62 52 62
0.109909 0.00704621 0.192513 61 51 62
0.109261 0.00694099 0.189638 62 52 63
0.111913 0.00704538 0.19249 61 52 63
0.111218 0.00693914 0.189587 62 53 63
0.116073 0.00717797 0.196112 62 54 64
0.116177 0.00712136 0.194566 63 57 65
0.109574 0.00665819 0.181911 64 59 66
0.109426 0.00659191 0.1801 63 57 65
0.115262 0.0068841 0.188083 63 59 66
0.116351 0.00689024 0.188251 64 58 66
0.121114 0.00711204 0.194311 63 56 64
-0.139242 0.00926675 0.221533 177 221 186
-0.146448 0.00982825 0.234957 175 221 181
-0.153338 0.0103779 0.248096 174 221 180
-0.151886 0.0103674 0.247847 173 218 177
-0.146637 0.0100955 0.241345 174 217 178
-0.139202 0.00966694 0.2311 172 213 177
-0.137641 0.00964233 0.230512 169 212 170
-0.137812 0.00973979 0.232842 167 210 166
-0.131475 0.00937489 0.224118 163 208 160
-0.133596 0.00961194 0.229785 156 199 155
-0.134677 0.00977778 0.23375 155 194 149
-0.132386 0.00969962 0.231882 158 191 148
-0.129666 0.00958832 0.229221 143 172 122
-0.123149 0.0091915 0.219734 132 160 105
-0.122344 0.00921755 0.220357 127 153 104
-0.119864 0.00911672 0.217947 112 132 92
-0.11804 0.00906432 0.216694 110 127 89
-0.122452 0.0094944 0.226975 101 108 70
-0.116455 0.00911797 0.217976 93 100 65
-0.117726 0.00930878 0.222538 91 100 71
-0.116297 0.00928772 0.222035 90 98 76
-0.109473 0.00883108 0.211118 85 91 74
-0.106044 0.00864173 0.206591 81 85 69
-0.105871 0.00871652 0.208379 79 83 66
-0.107773 0.0089656 0.214334 77 83 65
-0.10748 0.00903531 0.216 77 81 63
-0.110242 0.0093661 0.223908 77 78 65
-0.103585 0.00889512 0.212649 77 78 65
-0.105956 0.00919768 0.219882 74 70 62
-0.101461 0.00890429 0.212868 72 64 60
-0.102853 0.00912675 0.218186 70 63 57
-0.0971863 0.00872077 0.208481 70 62 55
-0.098792 0.0089656 0.214334 68 61 53
-0.101298 0.00929868 0.222297 67 58 54
-0.102214 0.00949186 0.226915 65 53 52
-0.0925417 0.00869477 0.207859 67 56 55
-0.0971004 0.0092317 0.220695 65 53 52
-0.0949361 0.00913467 0.218376 65 55 55
-0.0907534 0.00883871 0.2113 65 56 56
-0.0943059 0.0092981 0.222283 64 55 54
-0.089105 0.00889512 0.212649 64 56 56
-0.0871547 0.00881057 0.210628 63 54 55
-0.0875657 0.0089656 0.214334 62 53 54
-0.0868497 0.00900777 0.215342 63 54 57
-0.0866286 0.00910307 0.21762 61 51 55
-0.084238 0.00896988 0.214436 64 57 60
-0.0859188 0.0092725 0.221671 63 57 60
-0.0775582 0.00848486 0.202841 63 58 61
-0.0784655 0.00870334 0.208064 61 55 59
-0.0783414 0.00881197 0.210661 63 58 62
-0.0755707 0.00862175 0.206114 63 57 62
-0.0763521 0.00883715 0.211263 62 55 61
-0.0720501 0.00846186 0.202291 62 56 62
-0.0727434 0.00867079 0.207286 62 55 61
-0.0726053 0.00878545 0.210027 63 57 63
-0.0691708 0.00849864 0.203171 62 55 62
-0.0705927 0.00880886 0.210587 61 54 61
-0.0670982 0.00850571 0.20334 62 54 61
-0.0674493 0.00868812 0.2077 61 52 61
-0.067388 0.00882252 0.210913 61 52 61
-0.0638056 0.00849273 0.203029 60 51 60
-0.0634336 0.00858632 0.205267 58 49 59
-0.061715 0.00849772 0.203149 60 49 60
-0.0598161 0.00838076 0.200352 60 48 59
-0.0597305 0.00851821 0.203638 60 48 59
-0.0586723 0.00851943 0.203668 58 45 57
-0.0566535 0.00837864 0.200302 60 47 59
-0.0565538 0.00852169 0.203722 59 46 59
-0.0537123 0.00824917 0.197207 59 46 59
-0.0540405 0.00846231 0.202302 58 44 57
-0.0538316 0.00859819 0.20555 59 44 56
-0.0507246 0.00826728 0.19764 59 43 56
-0.0504992 0.00840202 0.200861 57 40 53
-0.0490779 0.00833926 0.199361 56 39 53
-0.0464748 0.00806863 0.192891 57 39 53
-0.0472654 0.00838824 0.200531 55 36 50
-0.0450242 0.0081721 0.195364 57 39 52
-0.0441916 0.00820751 0.196211 57 39 51
-0.0423889 0.00806014 0.192688 58 39 51
-0.0416576 0.00811429 0.193982 57 38 51
-0.0417618 0.00833794 0.199329 57 39 51
-0.0403299 0.00825853 0.197431 55 35 49
-0.0379971 0.00798559 0.190905 53 33 47
-0.0382731 0.00826098 0.197489 55 37 49
-0.0364278 0.00808109 0.193189 53 35 49
-0.0352819 0.00805052 0.192458 57 41 55
-0.0347857 0.00817074 0.195332 59 45 58
-0.0329346 0.00797036 0.190541 62 51 63
-0.0312285 0.00779364 0.186317 63 54 66
-0.0314277 0.00809637 0.193554 63 55 67
-0.0302784 0.0080603 0.192692 61 53 66
-0.0292598 0.00805775 0.192631 62 54 67
-0.0271222 0.00773582 0.184934 61 53 66
-0.0276506 0.00817863 0.19552 62 53 66
-0.0259103 0.00795864 0.190261 61 52 67
-0.0252823 0.00807638 0.193076 62 54 68
-0.0240644 0.00800762 0.191432 61 53 68
-0.0232745 0.00808151 0.193199 61 54 68
-0.0221469 0.00803954 0.192195 62 54 69
-0.0210641 0.00801056 0.191502 60 52 67
-0.0200358 0.00800048 0.191262 61 53 68
-0.0190244 0.00799645 0.191165 61 53 68
-0.0180231 0.00799645 0.191165 61 53 68
-0.0165821 0.0077899 0.186227 59 51 67
-0.0159318 0.00795216 0.190106 59 51 67
-0.0151885 0.00808654 0.193319 61 54 69
-0.0140076 0.00799054 0.191024 59 53 68
-0.0128717 0.00790738 0.189036 60 53 69
-0.0122097 0.00812576 0.194256 63 56 71
-0.0110019 0.00798755 0.190952 62 54 70
-0.0100092 0.00799351 0.191095 63 56 72
-0.0089046 0.00790154 0.188896 62 56 71
-0.00791622 0.00790256 0.188921 61 55 70
-0.00699404 0.0079794 0.190757 62 56 71
-0.00603181 0.00802854 0.191932 62 56 70
-0.00503262 0.00803829 0.192165 62 55 70
-0.00396782 0.00792194 0.189384 63 55 70
-0.00289477 0.00770607 0.184223 62 53 69
-0.00198768 0.007937 0.189744 62 54 69
-0.00098216 0.00784373 0.187514 61 53 69
0 0.00782828 0.187145 60 51 68
0.000975717 0.00779227 0.186284 60 51 68
0.00198033 0.00790764 0.189042 61 52 69
0.0029653 0.00789382 0.188712 59 50 67
0.00394796 0.0078823 0.188436 59 50 67
0.00489646 0.00782082 0.186966 59 50 67
0.00596776 0.00794328 0.189894 59 49 66
0.00681887 0.00777954 0.18598 59 49 66
0.00795429 0.00794056 0.189829 59 50 67
0.00874672 0.00776145 0.185547 58 49 66
0.00962218 0.00768446 0.183707 59 49 66
0.0109096 0.00792058 0.189351 58 50 66
0.0116459 0.00775052 0.185286 55 46 64
0.0133242 0.00818538 0.195682 57 48 65
0.0138523 0.00790197 0.188906 58 48 66
0.0146517 0.00780078 0.186487 57 47 65
0.0153629 0.00766821 0.183318 59 50 66
0.0163027 0.00765862 0.183089 58 48 65
0.0178059 0.00790009 0.188861 59 49 65
0.0186025 0.00781912 0.186926 58 47 65
0.0195358 0.00780084 0.186489 59 48 65
0.0205439 0.00781273 0.186773 58 47 65
0.0210423 0.00763853 0.182609 58 47 64
0.0224099 0.00778131 0.186022 60 48 64
0.0228152 0.00759196 0.181495 59 47 63
0.024173 0.00772203 0.184605 57 45 62
0.0252941 0.00776938 0.185737 57 45 62
0.0257535 0.00761751 0.182106 57 45 62
0.0258465 0.00737198 0.176236 57 44 61
0.028101 0.00773861 0.185001 57 44 61
0.0294121 0.00782968 0.187178 55 42 60
0.0300541 0.00774251 0.185094 55 41 60
0.03013 0.0075195 0.179763 55 42 60
0.032349 0.00782864 0.187153 55 42 59
0.0317565 0.00745923 0.178322 55 40 59
0.0330867 0.00754963 0.180483 55 40 59
0.0342581 0.00759978 0.181682 55 39 58
0.0343845 0.00742167 0.177424 55 38 57
0.0372089 0.00781993 0.186945 55 37 56
0.0370936 0.00759582 0.181588 56 39 57
0.0386943 0.00772551 0.184688 56 38 55
0.0387602 0.00754991 0.18049 55 35 53
0.0399725 0.00760066 0.181703 50 26 46
0.0403962 0.00750261 0.179359 50 25 45
0.0408592 0.00741613 0.177292 48 21 42
0.0422699 0.00750169 0.179337 47 19 39
0.0443845 0.00770573 0.184215 46 19 39
0.0447694 0.00760718 0.181859 46 19 39
0.0466278 0.00775789 0.185462 44 18 37
0.0466729 0.00760692 0.181853 46 19 39
0.0467876 0.0074731 0.178654 48 21 43
0.0484266 0.00758322 0.181286 52 28 48
0.0494457 0.0075939 0.181542 49 25 45
0.0507377 0.00764531 0.182771 54 32 51
0.0512515 0.00757971 0.181203 57 38 54
0.0513947 0.00746269 0.178405 58 39 55
0.0551025 0.00785821 0.18786 55 38 53
0.0553191 0.00775068 0.18529 60 42 57
0.05571 0.00767087 0.183382 59 41 56
0.0564997 0.00764776 0.182829 58 39 55
0.0572461 0.00761965 0.182157 60 44 59
0.0589558 0.00771857 0.184522 59 42 57
0.0594369 0.00765605 0.183027 59 43 56
0.0603435 0.00764944 0.182869 59 42 56
0.0613341 0.00765354 0.182967 60 42 56
0.0646745 0.0079462 0.189964 58 40 55
0.0637513 0.00771409 0.184415 57 41 56
0.0663798 0.00791227 0.189153 57 40 55
0.0663066 0.00778731 0.186165 57 40 55
0.066649 0.00771409 0.184415 58 42 57
0.066922 0.00763503 0.182525 56 41 55
0.0696998 0.00783995 0.187424 56 40 56
0.071348 0.00791388 0.189191 55 39 55
0.0724177 0.00792249 0.189397 54 38 54
0.0718115 0.00775001 0.185274 54 39 54
0.0729626 0.00776925 0.185734 54 39 54
0.0762595 0.00801346 0.191572 54 38 54
0.073673 0.00764113 0.182671 55 39 54
0.0752885 0.00770857 0.184283 56 40 55
0.0768175 0.00776557 0.185646 56 40 54
0.079152 0.00790154 0.188896 57 42 56
0.0779259 0.0076831 0.183674 58 43 57
0.0796924 0.00776145 0.185547 56 41 56
0.0815938 0.0078509 0.187686 57 41 57
0.0809909 0.00770011 0.184081 57 43 57
0.0817137 0.00767743 0.183539 59 44 58
0.0837262 0.00777505 0.185872 59 44 58
0.0824767 0.00757097 0.180994 58 44 58
0.0854188 0.00775194 0.18532 59 46 60
0.0858924 0.00770734 0.184254 57 43 57
0.0852147 0.00756157 0.180769 55 41 56
0.0873196 0.0076632 0.183198 57 44 58
0.0889169 0.00771857 0.184522 59 45 59
0.0893045 0.00766885 0.183334 58 43 58
0.0916851 0.00778952 0.186218 60 46 60
0.0934378 0.00785487 0.18778 60 47 60
0.094231 0.00783903 0.187402 56 42 58
0.0944201 0.00777379 0.185842 57 44 59
0.0961024 0.00783156 0.187223 57 44 58
0.0967075 0.00780126 0.186499 58 44 58
0.0954887 0.00762591 0.182307 57 44 57
0.0987226 0.00780612 0.186615 57 44 57
0.0979358 0.00766798 0.183313 59 46 58
0.10147 0.00786754 0.188083 58 46 58
0.10637 0.00816818 0.195271 58 46 59
0.101565 0.00772497 0.184675 57 45 57
0.104037 0.00783833 0.187385 60 47 60
0.0989 0.00738164 0.176467 58 47 59
