ply
format ascii 1.0
element vertex 1289
property float x
property float y
property float z
property uchar red
property uchar green
property uchar blue
end_header
0.981738 0.646829 1.87433 55 43 56
1.00242 0.653913 1.89486 56 45 57
0.849644 0.548821 1.59033 57 48 58
0.847245 0.541958 1.57045 57 47 58
1.02101 0.646829 1.87433 54 44 55
0.937604 0.588334 1.70483 54 43 54
0.946534 0.588334 1.70483 54 43 54
1.12089 0.690196 2 55 46 56
0.964393 0.588334 1.70483 52 41 53
0.928125 0.561014 1.62567 52 41 54
0.864236 0.517647 1.5 53 42 55
1.0437 0.619509 1.79517 53 41 55
0.759788 0.44696 1.29517 53 42 56
1.18374 0.690196 2 55 43 56
1.01797 0.588334 1.70483 55 44 56
0.90352 0.517647 1.5 54 42 56
1.09072 0.619509 1.79517 56 43 56
1.04476 0.588334 1.70483 55 41 56
0.92709 0.517647 1.5 53 40 54
-0.134472 0.0749508 0.213945 142 208 173
-0.129158 0.0725937 0.207217 134 203 167
-0.133624 0.0757406 0.2162 159 212 184
-0.129691 0.0741394 0.211629 148 208 178
-0.128973 0.0743646 0.212272 170 217 195
-0.124629 0.0724849 0.206906 155 211 184
-0.127981 0.0750869 0.214334 152 209 180
-0.124349 0.0736015 0.210094 149 206 178
-0.120777 0.0721258 0.205882 148 205 177
-0.117887 0.0710343 0.202766 143 203 174
-0.11861 0.0721199 0.205865 168 217 196
-0.118728 0.0728534 0.207959 159 214 189
-0.116473 0.072132 0.205899 148 207 176
-0.11071 0.0692034 0.19754 151 208 179
-0.118913 0.0750326 0.214179 148 206 177
-0.109252 0.0695932 0.198652 154 210 181
-0.109898 0.0706775 0.201747 151 206 175
-0.109963 0.0714061 0.203827 143 202 171
-0.106796 0.0700296 0.199898 133 200 168
-0.104739 0.0693604 0.197988 161 213 189
-0.100808 0.0674251 0.192464 162 213 187
-0.102237 0.0690715 0.197163 156 209 178
-0.105141 0.0717584 0.204833 159 210 181
-0.101163 0.0697552 0.199115 146 203 170
-0.102996 0.0717584 0.204833 161 211 183
-0.0971236 0.0683795 0.195188 161 211 186
-0.0923552 0.065714 0.187579 167 214 189
-0.0940173 0.067616 0.193008 155 207 178
-0.0918006 0.0667394 0.190506 140 202 169
-0.0926574 0.0681026 0.194397 145 205 170
-0.0965585 0.0717584 0.204833 141 204 165
-0.0927631 0.0697124 0.198992 145 206 171
-0.08692 0.0660635 0.188577 143 209 179
-0.0909814 0.0699452 0.199657 156 213 188
-0.0941745 0.0732419 0.209067 171 220 199
-0.0905079 0.0712184 0.203291 142 202 171
-0.0916602 0.0729838 0.208331 154 208 179
-0.0943701 0.0760468 0.217074 132 200 164
-0.0899713 0.0733863 0.20948 144 206 175
-0.0931828 0.0769441 0.219635 171 217 196
-0.100634 0.084136 0.240164 148 206 178
-0.0991767 0.0839667 0.239681 151 206 177
-0.117418 0.100685 0.287404 154 207 179
-0.119044 0.103405 0.295167 167 213 189
-0.117498 0.103405 0.295167 162 210 183
-0.121161 0.108051 0.308428 147 202 168
-0.145091 0.131139 0.374334 164 213 186
-0.126369 0.115783 0.330499 161 214 188
-0.177137 0.164551 0.469708 170 218 194
-0.232675 0.219188 0.625666 165 215 189
-0.315605 0.301558 0.860791 147 205 171
-0.361408 0.350327 1 156 208 177
-0.35617 0.350327 1 144 201 168
-0.413107 0.412395 1.17717 180 221 199
-0.429435 0.435189 1.24224 150 208 179
-0.410193 0.422085 1.20483 171 217 195
-0.434165 0.453732 1.29517 163 214 189
-0.371449 0.394351 1.12567 161 212 186
-0.411206 0.443601 1.26625 138 200 168
-0.425102 0.466109 1.3305 159 213 187
-0.407029 0.453732 1.29517 153 209 181
-0.463545 0.52549 1.5 166 214 189
-0.423748 0.488658 1.39486 150 207 177
-0.397226 0.466109 1.3305 148 204 175
-0.379894 0.453732 1.29517 153 206 178
-0.409312 0.497756 1.42083 144 202 172
-0.424261 0.52549 1.5 157 211 183
-0.344849 0.435189 1.24224 162 215 189
-0.383944 0.493844 1.40967 153 213 185
-0.400691 0.52549 1.5 170 219 195
-0.359924 0.481466 1.37433 165 214 191
-0.374101 0.510644 1.45762 148 206 177
-0.35441 0.493844 1.40967 169 215 191
-0.347026 0.493844 1.40967 155 208 179
-0.351197 0.510644 1.45762 144 203 170
-0.353551 0.52549 1.5 138 200 167
-0.335928 0.510644 1.45762 145 205 175
-0.370357 0.576072 1.64438 164 213 188
-0.302336 0.481466 1.37433 151 207 175
-0.331225 0.540337 1.54238 160 210 177
-0.302176 0.505271 1.44228 155 207 177
-0.280741 0.481466 1.37433 156 207 181
-0.269817 0.474908 1.35562 144 201 165
-0.266344 0.481466 1.37433 148 202 168
-0.273625 0.508368 1.45113 145 205 177
-0.242505 0.463422 1.32283 155 210 186
-0.25104 0.493844 1.40967 166 214 192
-0.229973 0.466109 1.3305 137 200 168
-0.217082 0.453732 1.29517 170 215 193
-0.137048 0.29569 0.844042 169 214 192
-0.0463808 0.103405 0.295167 145 199 178
-0.0418139 0.0964377 0.275279 136 191 169
-0.0316782 0.0756707 0.216 109 155 135
-0.0289675 0.0717584 0.204833 83 114 105
-0.029739 0.0765029 0.218376 70 88 91
-0.0282346 0.0755381 0.215622 63 73 77
-0.0260939 0.0727197 0.207577 66 71 76
-0.0233 0.0677568 0.19341 62 62 71
-0.0229815 0.0698684 0.199438 62 59 72
-0.0217494 0.0692712 0.197733 60 57 70
-0.0201585 0.0674143 0.192433 60 56 70
-0.0188396 0.0663199 0.189309 58 53 68
-0.0177186 0.0658388 0.187935 57 52 67
-0.0166358 0.0654516 0.18683 56 50 66
-0.0154728 0.0646806 0.184629 57 51 67
-0.0147062 0.0655744 0.187181 57 52 67
-0.0134818 0.0644086 0.183853 57 51 67
-0.0130705 0.067247 0.191955 56 51 67
-0.0117219 0.0653343 0.186495 56 50 66
-0.0103171 0.0627321 0.179067 56 51 67
-0.0097323 0.0650939 0.185809 54 48 66
-0.00843039 0.0626513 0.178837 55 49 67
-0.00738566 0.0617482 0.176259 55 49 67
-0.00658921 0.0629594 0.179716 56 49 67
-0.00564155 0.0628886 0.179514 55 46 65
-0.00468224 0.0626338 0.178787 55 47 65
-0.00367819 0.0615033 0.17556 55 48 66
-0.00276962 0.0617482 0.176259 55 47 65
-0.00185985 0.0621975 0.177541 56 48 66
-0.000935793 0.0625899 0.178662 59 51 68
0 0.0606088 0.173006 54 44 64
0.000931015 0.0622704 0.177749 54 45 65
0.00184762 0.0617885 0.176374 54 45 65
0.00279681 0.0623543 0.177989 53 43 64
0.00367633 0.0614722 0.175471 55 45 65
0.00477396 0.0638607 0.182289 53 43 64
0.00558957 0.0623091 0.17786 54 42 64
0.00647797 0.0618965 0.176682 52 40 62
0.00758621 0.0634249 0.181045 53 41 63
0.00827358 0.061486 0.17551 53 41 63
0.00926435 0.061964 0.176875 53 41 62
0.0104149 0.0633265 0.180764 52 39 61
0.0113892 0.0634801 0.181203 51 38 60
0.0128493 0.0661092 0.188707 52 40 61
0.0140478 0.0671127 0.191572 51 38 60
0.0159936 0.071315 0.203567 53 41 62
0.0165527 0.069195 0.197516 52 39 60
0.0205051 0.0806746 0.230284 52 39 60
0.0226105 0.084016 0.239822 51 36 59
0.0230228 0.0810457 0.231343 51 37 59
0.0303954 0.101649 0.290155 51 37 59
0.0331464 0.10557 0.301348 52 38 59
0.0369849 0.112442 0.320962 52 39 59
0.0475689 0.138331 0.394863 50 36 58
0.0628536 0.175163 0.5 51 36 58
0.0735147 0.196679 0.561417 51 36 57
0.0824092 0.211996 0.605137 51 36 57
0.112453 0.278568 0.795167 50 34 56
0.126949 0.303248 0.865614 51 35 56
0.151896 0.350327 1 49 33 55
0.148817 0.331784 0.947071 51 34 56
0.162372 0.350327 1 50 33 55
0.178244 0.372555 1.06345 49 32 55
0.196909 0.399095 1.13921 48 30 54
0.217626 0.428111 1.22203 49 32 54
0.225194 0.430342 1.2284 48 31 54
0.244218 0.453732 1.29517 49 32 55
0.270322 0.488658 1.39486 49 32 54
0.273542 0.481466 1.37433 50 35 55
0.292021 0.500811 1.42955 49 33 54
0.284017 0.474908 1.35562 49 33 54
0.322124 0.52549 1.5 48 32 54
0.319229 0.508368 1.45113 48 32 54
0.347383 0.540337 1.54238 49 33 54
0.356958 0.542612 1.54887 49 32 54
0.362368 0.538594 1.53741 49 32 53
0.37042 0.538594 1.53741 48 30 52
0.379697 0.540337 1.54238 48 32 53
0.408716 0.569514 1.62567 48 31 53
0.394578 0.538594 1.53741 48 30 52
0.425745 0.569514 1.62567 47 28 51
0.400691 0.52549 1.5 47 26 50
0.43011 0.553225 1.57917 47 26 49
0.441482 0.557137 1.59033 45 24 47
0.465099 0.576072 1.64438 44 21 45
0.464152 0.564446 1.6112 44 21 44
0.439975 0.52549 1.5 42 19 42
0.471467 0.553225 1.57917 41 18 41
0.493865 0.569514 1.62567 39 17 39
0.485315 0.55017 1.57045 43 20 44
0.542024 0.604216 1.72472 40 19 43
0.537442 0.589287 1.68211 45 25 48
0.523226 0.564446 1.6112 49 32 51
0.515909 0.547719 1.56345 50 35 53
0.56222 0.587558 1.67717 52 38 55
0.548544 0.564446 1.6112 52 38 55
0.579789 0.587558 1.67717 53 39 55
0.570499 0.569514 1.62567 53 39 55
0.562452 0.553225 1.57917 53 39 55
0.626591 0.607379 1.73375 53 38 55
0.596043 0.569514 1.62567 50 34 52
0.642764 0.605505 1.7284 51 37 54
0.670509 0.622869 1.77797 50 36 52
0.643169 0.589287 1.68211 51 36 52
0.650066 0.587558 1.67717 51 36 53
0.650518 0.580127 1.65596 49 35 52
0.654584 0.576072 1.64438 47 32 49
0.647368 0.562322 1.60514 44 26 47
0.67181 0.576072 1.64438 44 26 48
0.672678 0.569514 1.62567 46 27 48
0.714365 0.597249 1.70483 45 25 47
0.680998 0.562322 1.60514 42 23 44
0.698222 0.569514 1.62567 44 25 47
0.753725 0.607379 1.73375 46 27 48
0.750084 0.597249 1.70483 44 26 47
0.723767 0.569514 1.62567 44 25 47
0.784792 0.610353 1.74224 47 30 49
0.760772 0.584871 1.6695 49 32 50
0.785802 0.597249 1.70483 49 32 49
0.778261 0.584871 1.6695 50 35 51
0.803661 0.597249 1.70483 54 39 54
0.886926 0.651885 1.86079 53 38 52
0.82152 0.597249 1.70483 51 38 52
0.730673 0.52549 1.5 51 38 51
0.800401 0.569514 1.62567 53 42 54
0.781439 0.55017 1.57045 54 44 56
0.876047 0.610353 1.74224 55 45 56
0.825946 0.569514 1.62567 54 42 54
0.875097 0.597249 1.70483 55 43 56
0.911473 0.615791 1.75776 54 42 55
0.874451 0.584871 1.6695 54 42 55
0.841314 0.557137 1.59033 55 46 57
0.939093 0.615791 1.75776 55 45 56
0.96848 0.628895 1.79517 55 45 56
0.866304 0.557137 1.59033 55 45 56
1.01416 0.646017 1.84404 56 47 57
1.02382 0.646017 1.84404 55 45 56
1.05046 0.656629 1.87433 55 46 56
0.899623 0.557137 1.59033 54 44 55
0.945419 0.580127 1.65596 53 42 55
1.06246 0.646017 1.84404 54 43 56
0.991182 0.597249 1.70483 53 43 56
1.17327 0.700654 2 53 42 56
0.962184 0.569514 1.62567 53 41 55
0.895663 0.52549 1.5 54 43 56
1.20469 0.700654 2 54 41 55
1.09072 0.628895 1.79517 55 42 56
0.919233 0.52549 1.5 55 42 56
0.61806 0.350327 1 54 42 56
0.934947 0.52549 1.5 53 44 57
-0.137257 0.0776447 0.218376 146 208 173
-0.142066 0.0810403 0.227926 142 205 170
-0.134313 0.0772672 0.217314 141 204 168
-0.128482 0.0745442 0.209656 137 203 168
-0.135295 0.0791741 0.222677 144 206 177
-0.126774 0.0748325 0.210466 161 213 189
-0.116819 0.069561 0.19564 159 211 186
-0.120577 0.0724344 0.203722 161 211 186
-0.114957 0.0696749 0.195961 148 204 175
-0.115179 0.0704385 0.198108 141 202 171
-0.122528 0.0756139 0.212664 144 207 178
-0.119503 0.0744234 0.209316 154 212 185
-0.111998 0.0703956 0.197988 153 209 179
-0.109645 0.069561 0.19564 156 210 181
-0.115 0.0736466 0.207131 142 204 171
-0.108204 0.0699539 0.196745 155 210 181
-0.110963 0.0724274 0.203702 148 205 174
-0.109906 0.0724344 0.203722 137 200 166
-0.10764 0.071636 0.201476 147 208 178
-0.10026 0.0673855 0.189522 157 212 185
-0.106715 0.0724412 0.203741 141 202 167
-0.106214 0.0728294 0.204833 161 211 182
-0.0972823 0.0673855 0.189522 156 210 179
-0.101807 0.0712466 0.200381 148 205 171
-0.102996 0.0728294 0.204833 152 205 176
-0.0990691 0.0707903 0.199098 158 207 182
-0.0979207 0.070714 0.198883 171 214 193
-0.100389 0.0732759 0.206088 143 201 169
-0.0987042 0.0728294 0.204833 154 207 177
-0.100966 0.0753167 0.211828 157 209 178
-0.101694 0.0767031 0.215727 163 213 183
-0.0986259 0.0752246 0.211569 157 210 179
-0.0898987 0.0693473 0.195039 138 202 168
-0.10013 0.0781277 0.219734 170 214 191
-0.102883 0.0812091 0.2284 181 220 200
-0.109371 0.087346 0.245661 148 207 179
-0.110204 0.089059 0.250478 183 224 205
-0.115151 0.0941777 0.264875 147 208 179
-0.120957 0.100133 0.281624 161 213 187
-0.125228 0.104948 0.295167 173 218 195
-0.137234 0.116448 0.32751 177 218 197
-0.13154 0.113029 0.317894 154 208 180
-0.130784 0.11382 0.32012 169 214 191
-0.0921163 0.0812091 0.2284 185 221 201
-0.124165 0.110904 0.311917 164 210 185
-0.155116 0.140396 0.394863 135 199 167
-0.180823 0.165875 0.466525 171 219 197
-0.123437 0.114784 0.322829 150 212 183
-0.188561 0.177778 0.5 143 206 173
-0.313885 0.300104 0.844042 156 212 184
-0.392475 0.380603 1.07045 153 209 179
-0.428466 0.421528 1.18555 149 204 172
-0.376727 0.376077 1.05772 148 205 171
-0.405663 0.411007 1.15596 153 208 176
-0.447732 0.460504 1.29517 149 206 173
-0.457588 0.477881 1.34404 154 208 178
-0.434165 0.460504 1.29517 137 202 168
-0.460279 0.495951 1.39486 156 210 185
-0.411206 0.450222 1.26625 148 206 179
-0.401862 0.447204 1.25776 159 212 187
-0.431909 0.488652 1.37433 153 209 181
-0.435629 0.501214 1.40967 149 206 177
-0.455688 0.533333 1.5 153 208 180
-0.378044 0.450222 1.26625 152 207 180
-0.409136 0.495951 1.39486 165 211 186
-0.409312 0.505185 1.42083 151 207 176
-0.398711 0.501214 1.40967 148 207 177
-0.391328 0.501214 1.40967 150 209 181
-0.397006 0.518265 1.45762 145 210 180
-0.410683 0.546633 1.53741 159 215 188
-0.359924 0.488652 1.37433 143 204 173
-0.352726 0.488652 1.37433 145 205 174
-0.377121 0.533333 1.5 152 209 180
-0.379697 0.548401 1.54238 149 208 178
-0.342334 0.505185 1.42083 165 207 179
-0.353551 0.533333 1.5 159 207 180
-0.335928 0.518265 1.45762 165 214 191
-0.305319 0.481997 1.35562 168 215 193
-0.329981 0.533333 1.5 149 206 174
-0.346005 0.572871 1.6112 160 211 179
-0.304028 0.515956 1.45113 160 209 181
-0.297754 0.518265 1.45762 153 206 178
-0.263291 0.470339 1.32283 159 211 182
-0.262716 0.481997 1.35562 164 214 187
-0.249433 0.470339 1.32283 142 201 170
-0.242505 0.470339 1.32283 149 208 179
-0.235576 0.470339 1.32283 183 223 203
-0.204919 0.421528 1.18555 130 197 161
-0.167609 0.355556 1 138 199 165
-0.0958536 0.209897 0.590334 161 209 186
-0.0418369 0.0946666 0.26625 147 199 177
-0.0418139 0.0978771 0.275279 146 192 178
-0.0314338 0.0762076 0.214334 108 138 127
-0.0332515 0.0836 0.235125 75 104 94
-0.0306031 0.0799007 0.224721 70 80 78
-0.0263663 0.0715925 0.201354 67 72 72
-0.0252864 0.071521 0.201153 63 67 72
-0.023738 0.0700607 0.197046 63 62 71
-0.0221459 0.0683329 0.192186 62 59 72
-0.0216166 0.069876 0.196526 60 57 70
-0.0195239 0.0662668 0.186375 59 55 69
-0.0192239 0.0686826 0.19317 58 53 69
-0.0180891 0.0682188 0.191865 57 53 68
-0.016493 0.0658582 0.185226 57 53 68
-0.0155112 0.0658088 0.185087 58 52 68
-0.0145546 0.0658669 0.185251 57 52 67
-0.013564 0.0657687 0.184974 58 54 69
-0.012711 0.0663734 0.186675 59 54 69
-0.0114206 0.0646049 0.181701 58 53 68
-0.0101856 0.0628567 0.176784 56 51 67
-0.00973948 0.0661142 0.185946 54 48 66
-0.00845937 0.063805 0.179451 54 49 66
-0.00744737 0.0631934 0.177731 56 50 67
-0.00657069 0.0637194 0.179211 56 49 67
-0.00546861 0.0618707 0.174011 54 46 65
-0.00471307 0.0639872 0.179964 55 46 65
-0.00380571 0.0645854 0.181646 55 47 66
-0.00276609 0.0625899 0.176034 56 48 66
-0.00180772 0.0613564 0.172565 54 47 65
-0.00093002 0.0631322 0.177559 57 49 67
0 0.0653305 0.183742 56 49 66
0.000925858 0.0628497 0.176765 54 46 65
0.00180522 0.0612714 0.172326 54 46 65
0.00280106 0.0633812 0.17826 56 47 67
0.0037458 0.0635687 0.178787 54 44 65
0.00463993 0.0629942 0.177171 55 47 66
0.00555981 0.0629024 0.176913 54 44 65
0.00643501 0.0624037 0.17551 54 44 65
0.00731091 0.0620355 0.174475 53 42 63
0.00857161 0.0646515 0.181832 53 41 62
0.00941732 0.0639273 0.179796 53 41 62
0.010461 0.0645563 0.181564 51 38 61
0.0111038 0.0628129 0.176661 51 39 61
0.0139473 0.0728294 0.204833 52 41 62
0.0166124 0.0805498 0.226546 51 39 60
0.0181176 0.0819914 0.230601 50 36 59
0.0221147 0.0938252 0.263883 51 38 59
0.0242588 0.0968677 0.27244 52 39 60
0.0306844 0.115719 0.32546 51 36 60
0.0326627 0.116696 0.328209 51 37 59
0.0429149 0.145659 0.409665 51 36 59
0.0527388 0.170479 0.479471 50 36 58
0.0549 0.169398 0.476432 51 36 58
0.066611 0.196597 0.552929 50 35 58
0.0786506 0.222459 0.625666 50 34 57
0.0980343 0.266193 0.748668 51 36 57
0.108288 0.282726 0.795167 50 35 57
0.126552 0.318174 0.894863 51 36 57
0.137353 0.332995 0.936549 51 36 56
0.160663 0.376077 1.05772 50 34 56
0.167104 0.378116 1.06345 48 31 55
0.184975 0.405052 1.13921 50 33 55
0.225274 0.477881 1.34404 49 31 55
0.228647 0.470339 1.32283 49 32 55
0.226453 0.452124 1.2716 49 32 55
0.230577 0.447204 1.25776 48 31 54
0.267913 0.505185 1.42083 49 33 55
0.275355 0.505185 1.42083 49 32 55
0.284533 0.508286 1.42955 49 32 55
0.287958 0.501214 1.40967 49 33 54
0.314268 0.533333 1.5 48 32 54
0.305123 0.505185 1.42083 48 31 54
0.329981 0.533333 1.5 48 32 54
0.347383 0.548401 1.54238 49 33 55
0.36394 0.561482 1.57917 48 31 54
0.353551 0.533333 1.5 48 30 52
0.361408 0.533333 1.5 50 33 54
0.386607 0.558381 1.57045 49 33 54
0.387776 0.548401 1.54238 48 31 52
0.375378 0.520034 1.46259 48 29 53
0.392835 0.533333 1.5 47 29 52
0.43926 0.58467 1.64438 47 26 50
0.395236 0.515956 1.45113 46 25 48
0.426789 0.546633 1.53741 48 26 49
0.434841 0.546633 1.53741 44 20 45
0.464152 0.572871 1.6112 41 18 41
0.452405 0.548401 1.54238 41 18 41
0.481031 0.572871 1.6112 41 18 41
0.503067 0.588785 1.65596 41 19 42
0.502379 0.578015 1.62567 40 18 42
0.496281 0.561482 1.57917 41 19 45
0.508121 0.565452 1.59033 47 29 51
0.546253 0.598082 1.68211 51 36 54
0.562563 0.606163 1.70483 51 36 54
0.544954 0.578015 1.62567 51 36 54
0.572684 0.598082 1.68211 52 38 55
0.572456 0.588785 1.65596 52 37 55
0.623946 0.632165 1.77797 53 38 55
0.589803 0.588785 1.65596 53 38 55
0.55563 0.546633 1.53741 51 35 54
0.602907 0.58467 1.64438 51 35 53
0.596924 0.570715 1.60514 49 36 53
0.613073 0.578015 1.62567 50 36 52
0.621588 0.578015 1.62567 49 32 50
0.671996 0.616444 1.73375 47 29 49
0.645971 0.58467 1.64438 46 28 48
0.633068 0.565452 1.59033 46 29 48
0.641398 0.565452 1.59033 44 26 47
0.70832 0.616444 1.73375 44 25 47
0.705436 0.606163 1.70483 42 22 46
0.742342 0.629902 1.7716 42 23 46
0.773356 0.648117 1.82283 42 21 45
0.754957 0.624982 1.75776 45 26 48
0.652106 0.533333 1.5 45 27 49
0.766541 0.619462 1.74224 44 26 49
0.743283 0.593601 1.6695 50 36 54
0.767943 0.606163 1.70483 54 43 57
0.818037 0.638282 1.79517 55 41 56
0.691389 0.533333 1.5 50 35 51
0.812168 0.619462 1.74224 52 38 53
0.859285 0.648117 1.82283 52 37 52
0.79575 0.593601 1.6695 56 43 56
0.746367 0.550711 1.54887 56 46 57
0.83045 0.606163 1.70483 56 46 57
0.897475 0.648117 1.82283 55 45 57
0.874646 0.624982 1.75776 55 46 58
0.832663 0.588785 1.65596 53 43 56
0.866168 0.606163 1.70483 54 44 56
0.85001 0.588785 1.65596 54 43 56
0.911473 0.624982 1.75776 55 45 57
0.940272 0.638282 1.79517 55 44 56
0.949675 0.638282 1.79517 54 43 55
0.849644 0.565452 1.59033 57 47 58
1.01119 0.66643 1.87433 57 48 58
0.88555 0.578015 1.62567 56 47 58
0.894065 0.578015 1.62567 55 46 57
0.946534 0.606163 1.70483 55 45 56
0.891294 0.565452 1.59033 54 44 55
0.702712 0.441685 1.24224 53 43 55
0.928125 0.578015 1.62567 54 44 56
0.93664 0.578015 1.62567 53 43 56
1.0437 0.638282 1.79517 54 45 57
0.759788 0.460504 1.29517 53 44 56
0.766572 0.460504 1.29517 53 42 55
1.04957 0.624982 1.75776 54 43 55
0.732037 0.428385 1.20483 55 41 55
0.793707 0.460504 1.29517 55 43 57
0.61806 0.355556 1 53 42 56
1.06262 0.606163 1.70483 53 44 58
-0.145255 0.0833774 0.2311 167 213 187
-0.131137 0.0759064 0.210393 149 207 174
-0.139932 0.0816833 0.226405 165 212 184
-0.137588 0.0810018 0.224516 165 212 185
-0.132188 0.0784935 0.217563 142 203 172
-0.12338 0.0739004 0.204833 145 205 174
-0.122307 0.0739004 0.204833 137 200 170
-0.123363 0.0751981 0.208429 146 205 177
-0.118768 0.0730434 0.202457 158 210 183
-0.120502 0.0747771 0.207263 156 209 182
-0.122232 0.0765404 0.21215 153 209 180
-0.118385 0.0748119 0.207359 158 210 183
-0.11514 0.0734346 0.203541 157 210 180
-0.107517 0.0692137 0.191842 166 216 189
-0.120176 0.078093 0.216453 147 207 174
-0.113371 0.0743721 0.20614 144 206 172
-0.112983 0.0748303 0.20741 148 206 175
-0.112648 0.075333 0.208803 151 206 176
-0.115031 0.0776809 0.215311 165 215 190
-0.10836 0.0739004 0.204833 156 211 184
-0.103102 0.0710176 0.196842 142 203 170
-0.0998532 0.0694746 0.192565 161 212 183
-0.107934 0.0758635 0.210274 149 207 174
-0.104792 0.0744143 0.206257 144 204 170
-0.112877 0.0809905 0.224485 143 199 166
-0.108996 0.079029 0.219048 145 199 168
-0.109097 0.0799433 0.221582 136 195 160
-0.106946 0.0792101 0.21955 157 211 183
-0.103733 0.0776654 0.215268 152 209 178
-0.10216 0.0773283 0.214334 148 207 173
-0.101823 0.0779295 0.216 160 211 180
-0.122107 0.0945043 0.261941 155 209 177
-0.110598 0.0865694 0.239948 138 202 167
-0.12589 0.0996715 0.276263 143 204 171
-0.126132 0.101024 0.280012 136 196 162
-0.123199 0.0998361 0.27672 129 197 164
-0.121116 0.0993165 0.275279 169 218 197
-0.14771 0.122583 0.339769 174 220 200
-0.137491 0.115494 0.32012 150 207 177
-0.148159 0.125992 0.349217 149 207 177
-0.123682 0.106492 0.295167 150 207 178
-0.136756 0.119239 0.330499 147 206 177
-0.14348 0.126705 0.351194 145 205 176
-0.135586 0.121289 0.336183 151 208 180
-0.167522 0.15183 0.420833 143 200 169
-0.139698 0.1283 0.355615 143 203 173
-0.208297 0.193887 0.537405 184 227 209
-0.19118 0.180392 0.5 161 218 194
-0.265807 0.254293 0.704833 150 208 179
-0.371884 0.360784 1 147 209 179
-0.450388 0.443188 1.2284 165 216 190
-0.48993 0.489085 1.35562 168 216 191
-0.473884 0.480023 1.3305 163 214 187
-0.466915 0.480023 1.3305 161 211 183
-0.482197 0.503245 1.39486 151 207 176
-0.450366 0.477256 1.32283 156 209 180
-0.460703 0.495838 1.37433 143 201 168
-0.465163 0.508585 1.40967 180 217 197
-0.502987 0.55881 1.54887 174 216 197
-0.460818 0.520353 1.44228 157 209 185
-0.43836 0.503245 1.39486 163 212 188
-0.463545 0.541176 1.5 153 208 181
-0.428245 0.508585 1.40967 158 210 184
-0.435179 0.525887 1.45762 164 214 186
-0.427544 0.525887 1.45762 161 212 184
-0.444327 0.556466 1.54238 150 206 174
-0.410438 0.523543 1.45113 161 212 184
-0.416405 0.541176 1.5 179 222 201
-0.408548 0.541176 1.5 157 215 190
-0.400691 0.541176 1.5 176 222 200
-0.369177 0.508585 1.40967 164 213 189
-0.384978 0.541176 1.5 146 203 173
-0.366467 0.525887 1.45762 173 216 195
-0.338329 0.495838 1.37433 154 209 181
-0.351197 0.525887 1.45762 162 206 176
-0.332259 0.508585 1.40967 156 205 173
-0.324876 0.508585 1.40967 185 222 201
-0.337838 0.541176 1.5 160 208 183
-0.329981 0.541176 1.5 169 212 189
-0.349111 0.586515 1.62567 162 210 182
-0.322105 0.554672 1.53741 156 207 178
-0.306411 0.541176 1.5 147 203 174
-0.291109 0.527681 1.46259 168 215 190
-0.282485 0.525887 1.45762 170 216 191
-0.223548 0.427727 1.18555 130 195 160
-0.251947 0.495838 1.37433 144 204 172
-0.221224 0.44818 1.24224 166 214 189
-0.218868 0.456843 1.26625 135 200 165
-0.167609 0.360784 1 129 192 152
-0.07325 0.162759 0.451125 117 183 144
-0.0426775 0.0979888 0.271599 134 186 161
-0.0391531 0.0929965 0.257762 140 185 169
-0.0378029 0.0929965 0.257762 90 123 115
-0.0275386 0.070255 0.194729 76 94 90
-0.0289308 0.0766455 0.212441 70 80 78
-0.0278025 0.0766025 0.212322 66 72 70
-0.0251989 0.0723219 0.200457 61 64 70
-0.0230211 0.068944 0.191095 60 59 69
-0.0211525 0.0662275 0.183565 60 57 70
-0.0210546 0.0690601 0.191417 59 56 70
-0.02029 0.0698796 0.193688 59 55 69
-0.0191091 0.0692766 0.192017 57 53 68
-0.017445 0.0667571 0.185033 57 53 68
-0.016275 0.0659434 0.182778 57 53 68
-0.0154593 0.0665531 0.184468 58 53 69
-0.0143075 0.065701 0.182106 58 53 68
-0.0134472 0.0661613 0.183382 58 53 69
-0.0127604 0.0676117 0.187402 57 53 68
-0.0110979 0.0637028 0.176567 58 54 69
-0.0105716 0.0661981 0.183484 56 51 67
-0.00917614 0.0632061 0.175191 56 51 67
-0.00863025 0.0660511 0.183076 54 48 66
-0.00762057 0.065614 0.181865 54 47 66
-0.00655891 0.0645406 0.17889 54 47 66
-0.00573306 0.0658164 0.182426 54 46 65
-0.00464497 0.0639899 0.177363 55 46 66
-0.00383045 0.0659612 0.182827 54 46 65
-0.0027345 0.0627849 0.174023 55 47 66
-0.00189566 0.0652873 0.180959 55 47 66
-0.000920388 0.0633972 0.17572 53 44 64
0 0.0632374 0.175278 55 46 66
0.000950022 0.0654384 0.181378 54 45 65
0.00187258 0.0644925 0.178756 55 47 66
0.00287861 0.0660938 0.183195 53 44 65
0.00380224 0.0654755 0.181481 53 42 64
0.00455373 0.0627331 0.17388 52 43 64
0.0057535 0.0660511 0.183076 53 43 64
0.00672676 0.0661922 0.183467 53 42 63
0.00765611 0.06592 0.182713 53 42 63
0.00871833 0.0667252 0.184945 51 40 62
0.00952706 0.0656233 0.181891 52 40 62
0.0115509 0.0723309 0.200482 53 41 62
0.0139857 0.0802789 0.222512 52 41 62
0.0160529 0.0850568 0.235755 51 40 61
0.0182719 0.0898989 0.249176 51 39 61
0.0227629 0.104529 0.289726 51 38 60
0.0293356 0.126292 0.350047 51 38 59
0.0385762 0.156304 0.433233 52 39 61
0.0436136 0.166897 0.462595 50 36 59
0.0475753 0.172475 0.478056 51 38 59
0.061841 0.212983 0.590334 51 37 60
0.0649331 0.212983 0.590334 54 41 61
0.0680251 0.212983 0.590334 53 39 60
0.0770051 0.230617 0.639209 52 37 59
0.111314 0.319475 0.885502 52 38 59
0.119116 0.328193 0.909666 51 36 57
0.119069 0.315446 0.874334 51 36 57
0.14142 0.360784 1 52 37 57
0.146658 0.360784 1 50 35 55
0.170984 0.406123 1.12567 50 35 56
0.18932 0.434685 1.20483 50 35 56
0.205603 0.456843 1.26625 50 34 56
0.217082 0.467276 1.29517 50 35 56
0.223866 0.467276 1.29517 50 35 56
0.236942 0.480023 1.3305 48 32 55
0.248515 0.489085 1.35562 48 32 54
0.265807 0.508585 1.40967 48 31 54
0.275355 0.512614 1.42083 48 32 54
0.290119 0.525887 1.45762 49 31 54
0.306411 0.541176 1.5 49 32 54
0.306431 0.527681 1.46259 49 32 54
0.330157 0.554672 1.53741 47 29 53
0.329981 0.541176 1.5 48 33 54
0.320007 0.512614 1.42083 48 30 53
0.33798 0.529099 1.46652 49 31 54
0.353551 0.541176 1.5 49 31 53
0.361408 0.541176 1.5 49 32 54
0.400201 0.586515 1.62567 51 35 55
0.377121 0.541176 1.5 51 34 54
0.430449 0.605097 1.67717 49 30 53
0.402631 0.554672 1.53741 47 25 51
0.455408 0.615077 1.70483 47 26 49
0.451026 0.597444 1.65596 47 26 48
0.428169 0.556466 1.54238 45 20 46
0.455713 0.581296 1.6112 43 19 43
0.477046 0.597444 1.65596 41 18 42
0.450946 0.554672 1.53741 41 18 41
0.490938 0.593268 1.64438 41 18 42
0.511011 0.606877 1.68211 41 18 43
0.502379 0.586515 1.62567 41 18 44
0.483157 0.554672 1.53741 44 23 48
0.544704 0.615077 1.70483 50 33 54
0.537761 0.597444 1.65596 50 34 54
0.527869 0.577145 1.5997 52 37 55
0.571492 0.615077 1.70483 53 38 56
0.553469 0.586515 1.62567 53 38 56
0.561984 0.586515 1.62567 52 36 55
0.590305 0.606877 1.68211 52 37 55
0.597358 0.605097 1.67717 53 37 55
0.587529 0.586515 1.62567 51 35 53
0.602907 0.593268 1.64438 51 34 52
0.611519 0.593268 1.64438 49 31 51
0.676996 0.647668 1.79517 51 35 51
0.628745 0.593268 1.64438 46 26 46
0.650066 0.605097 1.67717 46 27 48
0.669717 0.615077 1.70483 44 25 47
0.678647 0.615077 1.70483 43 24 47
0.663197 0.593268 1.64438 41 22 44
0.685205 0.605097 1.67717 41 21 44
0.717401 0.62551 1.73375 41 20 44
0.689036 0.593268 1.64438 44 24 47
0.751621 0.639165 1.7716 46 28 50
0.74829 0.628572 1.74224 48 31 51
0.697812 0.579108 1.60514 47 32 51
0.779459 0.639165 1.7716 45 27 49
0.775666 0.628572 1.74224 51 39 54
0.723035 0.579108 1.60514 54 42 56
0.760772 0.60233 1.6695 53 41 56
0.816576 0.639165 1.7716 56 44 56
0.726151 0.561999 1.55772 52 38 53
0.749686 0.573768 1.59033 52 38 53
0.855647 0.647668 1.79517 53 40 54
0.82152 0.615077 1.70483 56 47 58
0.862973 0.639165 1.7716 54 43 56
0.865439 0.634173 1.75776 52 41 54
0.848309 0.615077 1.70483 52 41 55
0.857238 0.615077 1.70483 53 44 56
0.866168 0.615077 1.70483 54 43 56
0.723587 0.508585 1.40967 57 47 59
0.777813 0.541176 1.5 55 45 57
0.981738 0.67623 1.87433 56 45 57
0.841314 0.573768 1.59033 55 44 56
0.801383 0.541176 1.5 55 45 57
0.857974 0.573768 1.59033 55 45 57
1.00451 0.665301 1.84404 54 45 56
0.937604 0.615077 1.70483 54 45 57
1.11041 0.721569 2 54 44 56
1.05046 0.67623 1.87433 54 45 56
0.848523 0.541176 1.5 54 44 56
1.00354 0.634173 1.75776 53 43 56
0.864236 0.541176 1.5 53 42 56
0.872093 0.541176 1.5 53 43 56
0.87995 0.541176 1.5 54 43 56
1.06251 0.647668 1.79517 54 43 55
0.773356 0.467276 1.29517 54 42 55
1.08131 0.647668 1.79517 54 42 56
0.607584 0.360784 1 54 41 56
0.306411 0.180392 0.5 54 42 56
0.92709 0.541176 1.5 53 42 56
0.623298 0.360784 1 53 44 57
-0.139557 0.0812675 0.222035 143 204 169
-0.133313 0.0782842 0.213884 140 203 169
-0.128412 0.0760452 0.207766 150 206 175
-0.123736 0.0739026 0.201913 159 210 182
-0.134675 0.0811289 0.221656 151 207 178
-0.131715 0.0800361 0.21867 147 206 175
-0.131929 0.0808692 0.220946 141 204 172
-0.123635 0.0764556 0.208888 158 212 186
-0.129614 0.0808692 0.220946 144 206 175
-0.120651 0.0759546 0.207519 157 211 184
-0.121151 0.076963 0.210274 153 209 181
-0.116943 0.0749715 0.204833 149 206 174
-0.120009 0.0776496 0.21215 147 206 172
-0.113933 0.0744073 0.203291 161 214 185
-0.118088 0.077848 0.212692 148 208 176
-0.117877 0.078449 0.214334 149 207 177
-0.109827 0.0737947 0.201618 148 206 175
-0.114966 0.0779974 0.2131 165 213 188
-0.113032 0.0774371 0.211569 161 212 186
-0.119459 0.0826504 0.225813 154 210 183
-0.117558 0.0821488 0.224442 149 208 176
-0.115921 0.0818228 0.223551 160 212 182
-0.109252 0.0779023 0.21284 159 212 183
-0.110714 0.0797587 0.217912 150 207 174
-0.119703 0.0871326 0.238059 154 206 176
-0.106037 0.0779974 0.2131 151 203 172
-0.119266 0.0886622 0.242238 132 194 156
-0.134093 0.100756 0.275279 169 215 190
-0.121617 0.0923752 0.252382 153 211 181
-0.133871 0.1028 0.280864 144 205 170
-0.11262 0.0874423 0.238905 160 212 181
-0.128997 0.101283 0.27672 139 204 169
-0.146526 0.116353 0.317894 141 204 171
-0.117459 0.0943443 0.257762 147 205 174
-0.150493 0.122283 0.334095 150 205 174
-0.137316 0.112889 0.308428 143 203 170
-0.143519 0.119392 0.326197 163 213 189
-0.162737 0.137011 0.374334 163 212 188
-0.165573 0.141099 0.385502 188 224 205
-0.199279 0.171919 0.469708 156 210 181
-0.176339 0.15403 0.420833 147 207 176
-0.14929 0.132054 0.360791 157 211 182
-0.129875 0.116353 0.317894 161 214 186
-0.159252 0.144525 0.394863 167 216 191
-0.179581 0.165118 0.451125 147 203 171
-0.215617 0.200895 0.548874 134 201 167
-0.234549 0.221488 0.605137 166 219 196
-0.239229 0.229002 0.625666 167 220 198
-0.424513 0.412008 1.12567 149 211 183
-0.423653 0.416965 1.13921 139 206 173
-0.549969 0.54902 1.5 151 210 181
-0.559775 0.566908 1.54887 165 216 191
-0.496809 0.510538 1.39486 172 218 194
-0.509247 0.531131 1.45113 151 207 177
-0.501646 0.531131 1.45113 168 215 190
-0.452977 0.48698 1.3305 168 214 189
-0.472547 0.515956 1.40967 143 200 167
-0.511099 0.566908 1.54887 154 207 179
-0.464238 0.523235 1.42955 154 209 183
-0.425102 0.48698 1.3305 165 214 192
-0.456042 0.531131 1.45113 162 212 189
-0.435629 0.515956 1.40967 151 207 179
-0.423748 0.510538 1.39486 152 207 180
-0.43324 0.531131 1.45113 174 219 196
-0.429003 0.535329 1.46259 161 213 185
-0.444327 0.564531 1.54238 148 205 171
-0.398711 0.515956 1.40967 151 206 175
-0.40464 0.533508 1.45762 169 216 192
-0.42186 0.566908 1.54887 139 204 171
-0.387636 0.531131 1.45113 156 212 185
-0.405634 0.566908 1.54887 173 218 195
-0.372434 0.531131 1.45113 147 204 174
-0.377121 0.54902 1.5 170 215 192
-0.379697 0.564531 1.54238 164 211 186
-0.361408 0.54902 1.5 145 199 165
-0.332259 0.515956 1.40967 154 205 172
-0.324876 0.515956 1.40967 182 220 197
-0.328293 0.533508 1.45762 141 199 168
-0.319229 0.531131 1.45113 179 216 195
-0.302725 0.515956 1.40967 166 210 186
-0.314268 0.54902 1.5 169 211 188
-0.280741 0.503024 1.37433 160 210 183
-0.290119 0.533508 1.45762 141 203 169
-0.273191 0.515956 1.40967 142 203 168
-0.263016 0.510538 1.39486 151 203 171
-0.274984 0.54902 1.5 146 203 171
-0.235576 0.484173 1.32283 147 206 176
-0.223866 0.474048 1.29517 137 200 166
-0.118137 0.257978 0.704833 158 204 173
-0.0641146 0.144525 0.394863 139 191 156
-0.0610937 0.142306 0.3888 114 176 146
-0.0404423 0.0974509 0.26625 109 163 139
-0.0368599 0.0919907 0.251332 73 118 105
-0.0345872 0.0895157 0.24457 74 81 86
-0.0296169 0.0796002 0.217479 71 74 80
-0.0266456 0.0744788 0.203487 64 69 70
-0.0237974 0.0692894 0.189309 61 64 71
-0.0236109 0.0717354 0.195991 61 61 71
-0.0233277 0.0740966 0.202442 61 59 72
-0.021582 0.0718158 0.196211 60 58 71
-0.0198111 0.0692193 0.189117 59 56 70
-0.018828 0.0692464 0.189191 58 54 69
-0.0185694 0.0720899 0.19696 56 53 68
-0.0162915 0.0669667 0.182963 56 52 67
-0.0155629 0.06797 0.185704 58 53 69
-0.0143422 0.0668149 0.182548 58 54 69
-0.0137357 0.0685599 0.187316 59 55 70
-0.0123765 0.0665276 0.181763 60 56 71
-0.0111487 0.0649222 0.177377 58 54 69
-0.0104874 0.0666228 0.182023 58 53 68
-0.00923739 0.0645502 0.17636 57 52 68
-0.00826564 0.0641773 0.175342 54 48 67
-0.00746642 0.0652184 0.178186 55 48 67
-0.00659189 0.0658052 0.179789 54 47 65
-0.00574363 0.0668934 0.182762 54 46 65
-0.0047085 0.0658052 0.179789 54 45 65
-0.0038785 0.0677566 0.185121 54 45 65
-0.00271292 0.0631923 0.17265 54 45 65
-0.00186931 0.0653129 0.178444 55 47 66
-0.000946647 0.0661509 0.180734 54 46 66
0 0.0654272 0.178756 56 47 66
0.000929233 0.0649341 0.177409 55 47 66
0.00181198 0.0633098 0.172971 55 46 66
0.00268459 0.0625323 0.170847 54 45 65
0.0037 0.0646382 0.176601 54 45 65
0.00489351 0.068391 0.186854 54 45 65
0.00570034 0.0663892 0.181385 52 43 64
0.00666426 0.0665276 0.181763 54 43 64
0.00784897 0.0685599 0.187316 53 42 63
0.00931867 0.0723535 0.19768 53 41 62
0.0115787 0.080911 0.22106 52 41 62
0.0122076 0.0775508 0.21188 52 41 62
0.0176698 0.102896 0.281126 54 44 63
0.0200983 0.108035 0.295167 53 42 62
0.0270761 0.135147 0.369241 54 43 62
0.0310232 0.144525 0.394863 50 38 59
0.0419024 0.183007 0.5 52 39 60
0.038678 0.158987 0.434376 51 38 60
0.0570525 0.221488 0.605137 50 37 59
0.0666275 0.245046 0.669501 51 37 59
0.0759188 0.265257 0.724721 49 34 58
0.0973996 0.324105 0.885502 51 37 59
0.0916283 0.291042 0.795167 51 36 59
0.10005 0.303973 0.830499 52 38 59
0.133683 0.389237 1.06345 52 36 58
0.130945 0.366013 1 51 36 57
0.155141 0.416965 1.13921 52 38 58
0.163476 0.423096 1.15596 52 36 57
0.155964 0.389237 1.06345 49 33 55
0.177643 0.428053 1.1695 49 33 55
0.207861 0.484173 1.32283 48 32 55
0.195631 0.440985 1.20483 50 35 56
0.212235 0.463464 1.26625 49 35 56
0.24005 0.508319 1.3888 49 34 55
0.241415 0.496173 1.35562 49 34 55
0.246394 0.491937 1.34404 48 32 55
0.255616 0.496173 1.35562 49 33 55
0.273191 0.515956 1.40967 49 33 55
0.298554 0.54902 1.5 48 31 55
0.29877 0.535329 1.46259 49 33 55
0.314268 0.54902 1.5 48 31 54
0.295138 0.503024 1.37433 48 31 54
0.329981 0.54902 1.5 47 30 54
0.302712 0.491937 1.34404 49 32 54
0.371322 0.58972 1.6112 48 30 53
0.370156 0.574804 1.57045 49 31 53
0.378381 0.574804 1.57045 48 29 52
0.386607 0.574804 1.57045 48 30 53
0.403554 0.587501 1.60514 49 31 53
0.413518 0.58972 1.6112 50 31 53
0.430648 0.601866 1.64438 48 25 51
0.43426 0.595015 1.62567 47 25 49
0.433152 0.582083 1.59033 47 26 49
0.438382 0.577996 1.57917 48 25 48
0.436248 0.564531 1.54238 44 19 44
0.46832 0.595015 1.62567 40 17 40
0.48572 0.606102 1.65596 40 17 40
0.494394 0.606102 1.65596 40 17 41
0.48947 0.58972 1.6112 42 19 44
0.526844 0.623991 1.70483 41 19 44
0.506348 0.58972 1.6112 47 29 51
0.519409 0.595015 1.62567 50 33 54
0.512824 0.577996 1.57917 52 36 55
0.521095 0.577996 1.57917 53 37 56
0.549494 0.599972 1.63921 53 38 56
0.563782 0.606102 1.65596 52 37 55
0.561984 0.595015 1.62567 52 37 55
0.554181 0.577996 1.57917 51 35 54
0.579014 0.595015 1.62567 51 35 54
0.594294 0.601866 1.64438 49 33 52
0.635672 0.634575 1.73375 50 33 52
0.633999 0.623991 1.70483 47 28 49
0.629605 0.611059 1.6695 49 31 50
0.608079 0.582083 1.59033 47 26 48
0.630103 0.595015 1.62567 45 26 47
0.705204 0.657055 1.79517 44 23 46
0.714607 0.657055 1.79517 41 20 44
0.673327 0.611059 1.6695 41 22 45
0.636402 0.570144 1.55772 40 20 44
0.664183 0.587501 1.60514 42 22 46
0.67259 0.587501 1.60514 45 26 49
0.723295 0.623991 1.70483 48 32 52
0.706262 0.601866 1.64438 51 37 55
0.682731 0.574804 1.57045 52 39 56
0.715252 0.595015 1.62567 54 41 57
0.799231 0.657055 1.79517 54 43 57
0.808634 0.657055 1.79517 54 43 57
0.740797 0.595015 1.62567 55 43 58
0.785802 0.623991 1.70483 57 47 59
0.794731 0.623991 1.70483 55 42 57
0.803661 0.623991 1.70483 54 41 55
0.830419 0.637682 1.74224 54 43 56
0.804495 0.611059 1.6695 53 43 57
0.856232 0.643364 1.75776 53 43 56
0.857796 0.637682 1.74224 53 42 56
0.808916 0.595015 1.62567 53 43 56
0.91657 0.667179 1.82283 52 43 56
0.848217 0.611059 1.6695 54 45 57
0.875097 0.623991 1.70483 56 46 58
0.911473 0.643364 1.75776 54 44 57
0.832985 0.582083 1.59033 55 44 57
0.745738 0.515956 1.40967 55 45 57
0.849644 0.582083 1.59033 55 44 57
1.07899 0.732026 2 55 45 57
0.957507 0.643364 1.75776 54 45 58
0.987286 0.657055 1.79517 53 43 57
0.90258 0.595015 1.62567 54 44 57
0.911095 0.595015 1.62567 54 43 56
0.964393 0.623991 1.70483 53 44 56
0.85638 0.54902 1.5 54 44 57
0.864236 0.54902 1.5 53 43 56
1.0437 0.657055 1.79517 53 42 56
1.17327 0.732026 2 55 46 57
1.00904 0.623991 1.70483 54 42 55
1.19422 0.732026 2 54 43 56
0.301173 0.183007 0.5 54 42 56
0.911376 0.54902 1.5 54 42 56
0.612822 0.366013 1 53 41 55
0.800491 0.474048 1.29517 54 43 57
1.86989 1.09804 3 53 43 57
-0.134226 0.0792798 0.213553 145 206 173
-0.136113 0.0810702 0.218376 146 206 176
-0.136686 0.0821012 0.221153 150 207 178
-0.134237 0.0813197 0.219048 154 208 181
-0.132074 0.0806988 0.217375 151 206 177
-0.12714 0.0783595 0.211074 148 205 175
-0.133323 0.082891 0.22328 153 209 181
-0.123985 0.0777676 0.20948 152 210 181
-0.12752 0.0806988 0.217375 145 208 178
-0.136104 0.0869076 0.2341 143 207 175
-0.132979 0.0856837 0.230803 150 208 178
-0.125482 0.0815951 0.21979 147 206 175
-0.120942 0.079371 0.213799 153 209 181
-0.115856 0.0767438 0.206722 152 210 181
-0.109193 0.0730127 0.196671 149 208 177
-0.124318 0.0839176 0.226046 136 198 163
-0.113938 0.0776502 0.209163 140 198 163
-0.120832 0.0831483 0.223973 176 220 198
-0.12303 0.085491 0.230284 150 209 179
-0.120277 0.084405 0.227359 158 212 184
-0.12023 0.0852161 0.229543 154 209 179
-0.127713 0.0914342 0.246293 164 214 186
-0.135452 0.0979645 0.263883 159 212 186
-0.134574 0.0983326 0.264875 160 212 186
-0.15186 0.11212 0.302012 153 205 175
-0.135827 0.101337 0.272969 155 205 175
-0.162722 0.122695 0.330499 137 196 160
-0.14378 0.109578 0.295167 172 216 191
-0.163727 0.126137 0.339769 170 217 193
-0.146413 0.114037 0.307178 139 205 170
-0.176462 0.138968 0.374334 183 223 203
-0.165775 0.132019 0.355615 161 213 187
-0.18567 0.149544 0.40282 168 215 191
-0.179934 0.14659 0.394863 157 209 181
-0.173649 0.143114 0.385502 150 207 176
-0.185845 0.154967 0.417429 158 212 183
-0.176124 0.14861 0.400304 159 212 185
-0.186743 0.159468 0.429553 151 206 178
-0.21475 0.185621 0.5 166 213 189
-0.194151 0.169888 0.457621 168 215 191
-0.17166 0.152085 0.409665 144 206 175
-0.239651 0.215011 0.579167 150 209 177
-0.167368 0.152085 0.409665 149 208 176
-0.224933 0.207047 0.557716 165 217 192
-0.218492 0.203765 0.548874 160 215 190
-0.196417 0.185621 0.5 143 207 176
-0.293706 0.281313 0.757762 147 210 181
-0.289737 0.281313 0.757762 138 207 178
-0.416771 0.410273 1.10514 153 213 185
-0.53965 0.538718 1.45113 153 211 183
-0.497031 0.503261 1.35562 149 210 181
-0.504115 0.517832 1.39486 148 209 180
-0.534255 0.556863 1.5 156 212 184
-0.563294 0.595894 1.60514 136 204 170
-0.491174 0.527473 1.42083 166 214 190
-0.510685 0.556863 1.5 166 213 190
-0.486445 0.538718 1.45113 167 215 190
-0.447328 0.503261 1.35562 159 211 182
-0.468372 0.535436 1.44228 136 203 169
-0.479258 0.556863 1.5 168 215 194
-0.458083 0.54113 1.45762 171 216 194
-0.497909 0.598145 1.6112 151 207 177
-0.499551 0.610464 1.64438 146 205 175
-0.420862 0.523327 1.40967 155 211 184
-0.452405 0.572595 1.54238 149 207 178
-0.432118 0.556863 1.5 162 211 187
-0.436248 0.572595 1.54238 165 213 188
-0.441482 0.590399 1.59033 147 207 177
-0.420091 0.572595 1.54238 157 212 185
-0.400691 0.556863 1.5 156 212 185
-0.405634 0.575007 1.54887 147 207 175
-0.384978 0.556863 1.5 143 203 169
-0.397025 0.586253 1.57917 150 207 176
-0.379697 0.572595 1.54238 156 208 179
-0.371619 0.572595 1.54238 150 204 169
-0.36354 0.572595 1.54238 145 202 167
-0.345695 0.556863 1.5 144 201 169
-0.317492 0.523327 1.40967 143 201 169
-0.291006 0.491089 1.32283 145 198 167
-0.313024 0.54113 1.45762 140 194 160
-0.314268 0.556863 1.5 146 200 169
-0.284934 0.517832 1.39486 155 207 177
-0.277628 0.517832 1.39486 174 217 193
-0.290698 0.556863 1.5 145 203 169
-0.282841 0.556863 1.5 160 207 177
-0.264404 0.535436 1.44228 151 204 174
-0.248404 0.517832 1.39486 141 201 171
-0.199804 0.42914 1.15596 130 195 163
-0.118137 0.261663 0.704833 128 190 157
-0.0577419 0.132019 0.355615 140 192 161
-0.0463808 0.109578 0.295167 116 175 145
-0.0358652 0.0876564 0.236117 95 150 123
-0.027212 0.0688829 0.185547 69 116 102
-0.0337017 0.08847 0.238308 73 77 82
-0.0286357 0.0780624 0.210274 68 70 76
-0.0269862 0.0765086 0.206088 64 67 71
-0.0257489 0.0760425 0.204833 59 61 70
-0.0233271 0.0718854 0.193635 61 60 72
-0.0223689 0.072066 0.194121 57 55 69
-0.0210473 0.0710372 0.19135 58 56 69
-0.0201607 0.0714469 0.192454 57 54 69
-0.0184653 0.0688829 0.185547 59 56 71
-0.0177538 0.0699079 0.188308 60 57 72
-0.0167857 0.0699838 0.188513 60 56 71
-0.015339 0.0679492 0.183032 59 54 69
-0.0141287 0.0667605 0.17983 57 53 68
-0.0133214 0.0674421 0.181666 58 54 69
-0.0121074 0.0660109 0.177811 57 54 69
-0.0115803 0.0683983 0.184242 58 54 69
-0.0101006 0.0650825 0.17531 57 52 68
-0.00931223 0.0660028 0.177789 55 49 66
-0.00832243 0.0655415 0.176547 57 52 69
-0.00757301 0.0670945 0.18073 54 48 66
-0.00666426 0.067478 0.181763 54 46 66
-0.00548236 0.0647627 0.174449 54 47 66
-0.0047669 0.0675732 0.182019 53 44 65
-0.00377477 0.0668866 0.18017 53 45 65
-0.00272126 0.0642921 0.173181 55 46 66
-0.00187258 0.0663619 0.178756 53 45 65
-0.000932946 0.0661249 0.178118 54 46 66
0 0.0632174 0.170286 54 46 66
0.000936086 0.0663474 0.178718 54 46 65
0.00197204 0.0698867 0.188251 53 45 64
0.00276969 0.0654363 0.176263 53 44 64
0.00386769 0.068533 0.184605 54 45 65
0.00476089 0.067488 0.18179 53 44 64
0.00602759 0.0712034 0.191798 55 46 66
0.00725913 0.0735013 0.197988 53 42 63
0.00865566 0.0766865 0.206567 53 41 62
0.00976419 0.0768957 0.207131 53 42 62
0.0140522 0.0995982 0.268284 53 42 62
0.0159171 0.10256 0.276263 51 40 62
0.0242302 0.143114 0.385502 53 42 63
0.0272572 0.14861 0.400304 55 45 63
0.0314988 0.159468 0.429553 55 45 63
0.0431234 0.203765 0.548874 55 45 63
0.0507133 0.224652 0.605137 52 40 60
0.0596141 0.248547 0.669501 51 37 59
0.0686738 0.270413 0.7284 50 37 59
0.064128 0.239223 0.644385 50 37 59
0.0793801 0.281313 0.757762 51 36 59
0.109994 0.371242 1 51 35 58
0.102038 0.328735 0.885502 52 38 60
0.120469 0.371242 1 51 37 59
0.134563 0.397395 1.07045 51 36 58
0.139253 0.394798 1.06345 52 37 57
0.159266 0.434168 1.1695 51 34 56
0.167661 0.440125 1.18555 53 38 58
0.169531 0.42914 1.15596 51 37 57
0.175586 0.42914 1.15596 52 38 57
0.215954 0.51021 1.37433 49 34 55
0.225502 0.515581 1.3888 50 36 56
0.233792 0.517832 1.39486 48 32 55
0.259271 0.556863 1.5 49 33 55
0.244748 0.51021 1.37433 47 30 54
0.266024 0.538718 1.45113 48 32 54
0.289894 0.570749 1.53741 48 31 54
0.283449 0.542976 1.46259 49 34 55
0.273542 0.51021 1.37433 48 32 55
0.306411 0.556863 1.5 48 32 54
0.295342 0.523327 1.40967 48 31 54
0.341524 0.590399 1.59033 48 30 54
0.329981 0.556863 1.5 49 32 55
0.337838 0.556863 1.5 49 32 54
0.337074 0.542976 1.46259 49 31 54
0.36354 0.572595 1.54238 48 30 53
0.352396 0.542976 1.46259 48 30 53
0.400201 0.603515 1.62567 47 29 52
0.387776 0.572595 1.54238 47 28 51
0.403058 0.583015 1.57045 47 25 50
0.413568 0.586253 1.57917 46 23 49
0.421839 0.586253 1.57917 48 26 49
0.408548 0.556863 1.5 46 25 48
0.428169 0.572595 1.54238 46 22 46
0.459805 0.603515 1.62567 40 17 39
0.446198 0.575007 1.54887 41 17 41
0.463196 0.586253 1.57917 38 15 39
0.471467 0.586253 1.57917 41 18 44
0.467052 0.570749 1.53741 41 18 44
0.491461 0.590399 1.59033 45 21 48
0.520414 0.614761 1.65596 49 32 53
0.504553 0.586253 1.57917 51 34 54
0.499262 0.570749 1.53741 53 36 56
0.57034 0.641654 1.7284 53 37 55
0.586187 0.649179 1.74867 53 36 55
0.527325 0.575007 1.54887 54 38 56
0.533192 0.572595 1.54238 50 34 53
0.577068 0.610464 1.64438 53 37 55
0.607211 0.632905 1.70483 51 33 52
0.574759 0.590399 1.59033 50 32 51
0.565507 0.572595 1.54238 49 30 49
0.633999 0.632905 1.70483 48 28 48
0.599749 0.590399 1.59033 45 24 46
0.662915 0.643641 1.73375 44 22 45
0.650066 0.622636 1.67717 45 23 46
0.669717 0.632905 1.70483 45 24 47
0.693537 0.646792 1.74224 41 21 45
0.67642 0.622636 1.67717 45 26 49
0.696506 0.632905 1.70483 44 26 49
0.664183 0.595894 1.60514 45 26 49
0.714365 0.632905 1.70483 43 27 49
0.708305 0.619789 1.6695 49 36 55
0.744644 0.643641 1.73375 50 37 54
0.801673 0.684585 1.84404 52 39 55
0.779459 0.657692 1.7716 55 43 57
0.723767 0.603515 1.62567 57 47 59
0.767943 0.632905 1.70483 54 44 57
0.715634 0.583015 1.57045 55 44 58
0.803043 0.646792 1.74224 55 45 57
0.836842 0.666441 1.79517 54 43 57
0.756664 0.595894 1.60514 56 46 58
0.812591 0.632905 1.70483 54 44 57
0.82152 0.632905 1.70483 53 42 56
0.84867 0.646792 1.74224 54 44 57
0.815316 0.614761 1.65596 54 44 57
0.746386 0.556863 1.5 53 43 56
0.832663 0.614761 1.65596 54 45 57
0.848217 0.619789 1.6695 54 45 57
0.902266 0.652555 1.75776 51 41 56
0.911473 0.652555 1.75776 54 45 58
0.892957 0.632905 1.70483 53 42 56
0.97553 0.684585 1.84404 54 44 57
0.910816 0.632905 1.70483 54 44 57
0.9483 0.652555 1.75776 54 45 57
1.00451 0.684585 1.84404 54 45 58
0.894065 0.603515 1.62567 53 43 57
0.996688 0.666441 1.79517 55 45 57
0.911095 0.603515 1.62567 54 43 57
1.01549 0.666441 1.79517 53 43 56
1.0249 0.666441 1.79517 54 44 57
1.15232 0.742484 2 52 42 56
0.991182 0.632905 1.70483 52 40 55
0.586633 0.371242 1 54 43 56
1.06251 0.666441 1.79517 54 43 56
1.01797 0.632905 1.70483 54 42 56
0.911376 0.556863 1.5 54 42 56
1.23612 0.742484 2 53 41 55
0.934947 0.556863 1.5 54 44 57
-0.138873 0.0831798 0.220946 153 211 181
-0.134842 0.0814444 0.216337 143 205 175
-0.125417 0.0763938 0.202921 148 207 178
-0.134545 0.082654 0.21955 145 205 174
-0.13756 0.0852348 0.226405 147 205 175
-0.138799 0.0867502 0.23043 148 206 175
-0.131095 0.082654 0.21955 170 215 191
-0.131997 0.0839593 0.223017 159 212 186
-0.120162 0.0771135 0.204833 144 206 176
-0.131927 0.0854267 0.226915 150 209 180
-0.122779 0.0802259 0.2131 152 209 180
-0.122172 0.0805617 0.213992 147 206 176
-0.132871 0.088428 0.234887 161 214 188
-0.114797 0.0771135 0.204833 148 208 179
-0.122344 0.0829579 0.220357 150 208 179
-0.140978 0.0965037 0.256338 143 202 167
-0.133225 0.0920733 0.24457 139 197 161
-0.14523 0.101345 0.269197 160 213 186
-0.161352 0.113699 0.302012 161 213 187
-0.163979 0.116694 0.30997 146 208 176
-0.154603 0.111122 0.295167 137 202 167
-0.190774 0.138505 0.367904 147 204 174
-0.178679 0.131048 0.348097 172 219 198
-0.166397 0.123298 0.32751 165 217 195
-0.166184 0.124423 0.330499 146 202 172
-0.166243 0.125777 0.334095 154 205 175
-0.171938 0.13147 0.349217 150 204 173
-0.167588 0.129522 0.344042 154 207 178
-0.171363 0.133879 0.355615 170 215 192
-0.225135 0.177821 0.472338 139 203 170
-0.181726 0.14513 0.385502 164 214 189
-0.203503 0.164348 0.436549 146 205 174
-0.201217 0.164348 0.436549 148 204 173
-0.244889 0.202317 0.537405 139 201 168
-0.208376 0.174153 0.462595 133 199 162
-0.222606 0.188235 0.5 157 213 183
-0.238633 0.20419 0.542379 152 209 180
-0.235792 0.20419 0.542379 149 206 175
-0.141949 0.124423 0.330499 149 205 176
-0.212131 0.188235 0.5 153 209 181
-0.233696 0.209964 0.557716 154 210 181
-0.206893 0.188235 0.5 169 216 188
-0.204274 0.188235 0.5 141 204 167
-0.284266 0.265349 0.704833 158 213 186
-0.227079 0.214756 0.570447 159 214 189
-0.276883 0.265349 0.704833 168 214 192
-0.346846 0.33689 0.894863 159 209 184
-0.474981 0.467666 1.24224 158 211 183
-0.488435 0.487592 1.29517 160 212 183
-0.557825 0.564706 1.5 158 212 184
-0.532049 0.546306 1.45113 173 218 197
-0.562971 0.586434 1.55772 150 208 181
-0.516848 0.546306 1.45113 158 212 185
-0.494697 0.530698 1.40967 148 208 178
-0.503892 0.548752 1.45762 152 209 179
-0.54648 0.604287 1.60514 142 201 169
-0.517035 0.58066 1.54238 186 224 205
-0.536439 0.612015 1.62567 158 212 183
-0.521258 0.604287 1.60514 140 204 172
-0.492799 0.58066 1.54238 151 208 184
-0.431909 0.517396 1.37433 155 210 183
-0.508164 0.619062 1.64438 162 212 186
-0.431638 0.534902 1.42083 147 206 174
-0.462423 0.583106 1.54887 173 218 196
-0.470813 0.604287 1.60514 153 208 182
-0.473712 0.619062 1.64438 168 214 193
-0.412275 0.548752 1.45762 161 215 191
-0.416405 0.564706 1.5 135 205 174
-0.42186 0.583106 1.54887 161 216 190
-0.412012 0.58066 1.54238 165 217 191
-0.3653 0.525125 1.39486 162 214 187
-0.408163 0.598714 1.59033 161 212 184
-0.397025 0.59451 1.57917 149 206 174
