ply
format ascii 1.0
element vertex 1231
property float x
property float y
property float z
property uchar red
property uchar green
property uchar blue
end_header
-0.323068 -0.405919 1.06345 121 157 159
-0.319587 -0.408589 1.07045 124 160 161
-0.31398 -0.408589 1.07045 128 165 165
-0.306358 -0.405919 1.06345 129 164 166
-0.282841 -0.381699 1 141 173 174
-0.326786 -0.449325 1.17717 145 181 179
-0.338343 -0.474161 1.24224 151 189 179
-0.288275 -0.411917 1.07917 157 199 186
-0.289424 -0.42183 1.10514 154 200 188
-0.302123 -0.449325 1.17717 163 206 190
-0.337911 -0.51302 1.34404 172 211 194
-0.296601 -0.459884 1.20483 170 211 190
-0.323832 -0.51302 1.34404 179 216 191
-0.28398 -0.459884 1.20483 189 223 198
-0.271294 -0.449325 1.17717 182 223 194
-0.279783 -0.474161 1.24224 190 227 199
-0.314484 -0.54566 1.42955 194 229 202
-0.26677 -0.474161 1.24224 191 228 197
-0.263516 -0.480087 1.25776 187 228 195
-0.256928 -0.480087 1.25776 190 228 200
-0.298554 -0.572549 1.5 190 228 198
-0.290698 -0.572549 1.5 190 228 196
-0.296124 -0.599438 1.57045 190 229 196
-0.26207 -0.54566 1.42955 189 229 195
-0.310267 -0.665011 1.74224 190 229 196
-0.269247 -0.594579 1.55772 187 228 193
-0.269036 -0.61268 1.60514 193 232 201
-0.256412 -0.602767 1.57917 197 233 207
-0.274775 -0.667466 1.74867 165 220 182
-0.256028 -0.643372 1.68555 180 224 194
-0.250028 -0.650734 1.70483 173 222 190
-0.246388 -0.665011 1.74224 170 222 190
-0.224539 -0.629348 1.64881 174 224 194
-0.225492 -0.657299 1.72203 164 218 187
-0.211885 -0.643372 1.68555 194 231 211
-0.214631 -0.680045 1.78162 173 222 192
-0.198742 -0.658325 1.72472 184 227 197
-0.185021 -0.642059 1.68211 186 226 196
-0.180393 -0.657299 1.72203 176 221 187
-0.156288 -0.599438 1.57045 163 214 178
-0.154545 -0.625685 1.63921 158 212 172
-0.150085 -0.643372 1.68555 190 228 199
-0.136239 -0.620516 1.62567 199 233 208
-0.127724 -0.620516 1.62567 181 226 193
-0.125014 -0.650734 1.70483 179 224 195
-0.114771 -0.643372 1.68555 180 225 193
-0.111015 -0.674176 1.76625 170 220 183
-0.0958621 -0.635078 1.66382 163 216 180
-0.0858584 -0.625685 1.63921 186 226 198
-0.0766342 -0.620516 1.62567 175 222 188
-0.0681193 -0.620516 1.62567 182 226 197
-0.0633711 -0.659729 1.7284 169 222 190
-0.0579523 -0.70387 1.84404 202 236 213
-0.0462563 -0.674176 1.76625 187 229 200
-0.0361349 -0.658325 1.72472 170 221 185
-0.0267887 -0.650734 1.70483 177 224 193
-0.0178591 -0.650734 1.70483 194 229 204
-0.00871474 -0.635078 1.66382 180 223 192
0 -0.643372 1.68555 182 225 194
0.00871474 -0.635078 1.66382 174 220 187
0.0176571 -0.643372 1.68555 169 217 183
0.0273765 -0.665011 1.74224 172 219 187
0.0333194 -0.60703 1.59033 179 224 194
0.0441428 -0.643372 1.68555 192 230 204
0.0542024 -0.658325 1.72472 173 222 188
0.0610031 -0.635078 1.66382 180 224 192
0.0675131 -0.614994 1.6112 195 230 204
0.0744422 -0.602767 1.57917 193 229 202
0.0818904 -0.596768 1.56345 190 229 202
0.0993711 -0.658325 1.72472 199 234 211
0.105943 -0.643372 1.68555 171 222 191
0.116084 -0.650734 1.70483 191 230 206
0.128228 -0.667466 1.74867 180 225 194
0.133943 -0.650734 1.70483 183 229 199
0.142873 -0.650734 1.70483 204 237 215
0.146814 -0.629348 1.64881 182 228 201
0.148062 -0.599438 1.57045 171 222 188
0.163131 -0.625685 1.63921 171 220 184
0.170298 -0.620516 1.62567 170 219 186
0.181358 -0.629348 1.64881 184 228 200
0.208566 -0.690864 1.80997 180 226 196
0.212779 -0.674176 1.76625 191 230 203
0.209154 -0.635078 1.66382 184 226 199
0.231281 -0.674176 1.76625 197 233 209
0.238138 -0.667466 1.74867 178 225 194
0.234186 -0.632078 1.65596 193 228 201
0.244013 -0.635078 1.66382 195 229 204
0.261978 -0.658325 1.72472 199 233 209
0.264857 -0.643372 1.68555 174 221 187
0.270157 -0.635078 1.66382 197 232 206
0.282514 -0.643372 1.68555 191 228 201
0.294676 -0.650734 1.70483 167 218 179
0.300171 -0.643372 1.68555 187 230 203
0.316181 -0.658325 1.72472 182 229 201
0.328517 -0.665011 1.74224 180 225 195
0.334248 -0.658325 1.72472 189 230 203
0.348048 -0.667466 1.74867 188 228 201
0.352316 -0.658325 1.72472 184 226 198
0.342819 -0.624565 1.63628 190 232 206
0.366112 -0.650734 1.70483 189 233 206
0.375042 -0.650734 1.70483 187 230 200
0.397804 -0.674176 1.76625 167 220 184
0.397484 -0.658325 1.72472 187 229 201
0.407385 -0.659729 1.7284 183 225 197
0.425558 -0.674176 1.76625 179 222 189
0.396639 -0.614994 1.6112 164 213 173
0.451331 -0.685214 1.79517 182 219 187
0.432599 -0.643372 1.68555 193 227 202
0.451687 -0.658325 1.72472 196 231 205
0.43426 -0.620516 1.62567 201 235 211
0.445665 -0.624565 1.63628 192 232 207
0.473267 -0.650734 1.70483 189 231 205
0.494595 -0.667466 1.74867 197 233 209
0.48557 -0.643372 1.68555 176 221 190
0.500056 -0.650734 1.70483 193 229 204
0.520153 -0.665011 1.74224 197 232 208
0.536573 -0.674176 1.76625 177 223 191
0.519821 -0.642059 1.68211 174 217 184
0.54955 -0.667466 1.74867 172 219 185
0.552234 -0.659729 1.7284 188 229 199
0.561287 -0.659729 1.7284 194 232 205
0.60403 -0.6987 1.8305 203 235 215
0.596008 -0.678648 1.77797 189 229 201
0.60532 -0.678648 1.77797 171 220 186
0.597499 -0.659729 1.7284 165 216 179
0.598281 -0.650734 1.70483 201 234 211
0.646254 -0.692575 1.81445 201 235 211
0.642571 -0.678648 1.77797 190 231 199
0.644476 -0.670937 1.75776 213 241 220
0.644753 -0.661771 1.73375 183 224 195
0.684269 -0.692575 1.81445 194 230 204
0.699908 -0.6987 1.8305 170 220 181
0.630103 -0.620516 1.62567 194 233 204
0.69051 -0.670937 1.75776 206 239 218
0.707759 -0.678648 1.77797 183 228 199
0.708924 -0.670937 1.75776 207 237 218
0.70832 -0.661771 1.73375 179 224 196
0.680423 -0.627661 1.64438 211 239 219
0.760299 -0.692575 1.81445 209 237 215
0.782356 -0.70387 1.84404 196 231 205
0.771023 -0.685214 1.79517 175 221 187
0.753725 -0.661771 1.73375 209 238 214
0.779459 -0.676218 1.7716 189 230 201
0.788738 -0.676218 1.7716 185 228 197
0.853542 -0.723268 1.89486 188 227 196
0.793917 -0.665011 1.74224 197 234 208
0.827439 -0.685214 1.79517 178 225 193
0.757827 -0.620516 1.62567 204 238 216
0.803661 -0.650734 1.70483 207 236 215
0.812591 -0.650734 1.70483 186 224 195
0.87838 -0.695773 1.82283 211 238 220
0.806642 -0.632078 1.65596 179 225 197
0.897475 -0.695773 1.82283 177 221 187
0.848309 -0.650734 1.70483 203 233 208
0.902661 -0.685214 1.79517 190 230 203
0.866168 -0.650734 1.70483 199 234 212
0.946554 -0.70387 1.84404 179 225 198
0.824655 -0.60703 1.59033 192 232 207
0.981738 -0.715432 1.87433 211 243 223
0.901886 -0.650734 1.70483 190 233 206
0.985189 -0.70387 1.84404 206 238 215
0.9483 -0.670937 1.75776 205 235 211
0.902051 -0.632078 1.65596 191 229 202
0.874634 -0.60703 1.59033 176 225 194
0.946534 -0.650734 1.70483 205 239 217
0.911095 -0.620516 1.62567 184 231 201
1.04314 -0.70387 1.84404 214 243 224
0.907953 -0.60703 1.59033 185 230 201
0.93664 -0.620516 1.62567 181 225 193
0.945155 -0.620516 1.62567 174 223 185
0.706795 -0.459884 1.20483 180 228 196
0.766572 -0.494364 1.29517 192 233 206
1.19422 -0.763399 2 202 239 216
0.424554 -0.269034 0.704833 202 238 215
0.303792 -0.19085 0.5 185 233 206
0.383422 -0.238816 0.625666 186 233 207
0.30903 -0.19085 0.5 204 241 220
0.495626 -0.303515 0.795167 197 236 216
-0.461188 -0.276235 0.73375 192 223 189
-0.415057 -0.250694 0.665905 192 224 190
-0.485589 -0.29578 0.785666 189 222 187
-0.449658 -0.276235 0.73375 192 224 190
-0.464124 -0.28758 0.763883 194 225 191
-0.449527 -0.280957 0.746293 195 226 193
-0.449497 -0.283403 0.752789 193 225 191
-0.460455 -0.292881 0.777965 192 224 190
-0.460898 -0.29578 0.785666 193 225 192
-0.478389 -0.309771 0.822829 193 225 191
-0.458142 -0.299357 0.795167 195 226 193
-0.448552 -0.29578 0.785666 193 225 192
-0.454745 -0.30264 0.803887 192 224 190
-0.490015 -0.329161 0.874334 191 224 189
-0.465011 -0.315311 0.837546 192 224 193
-0.422532 -0.289236 0.768284 179 216 185
-0.427977 -0.29578 0.785666 181 214 185
-0.424527 -0.296245 0.7869 168 200 165
-0.424822 -0.299357 0.795167 143 164 135
-0.439348 -0.312658 0.830499 131 147 123
-0.434998 -0.312658 0.830499 116 129 125
-0.426671 -0.309771 0.822829 111 123 121
-0.440276 -0.32291 0.85773 106 115 111
-0.428829 -0.317757 0.844042 104 110 108
-0.447708 -0.335202 0.89038 101 107 111
-0.426799 -0.32291 0.85773 102 109 112
-0.435979 -0.333365 0.885502 102 110 112
-0.428746 -0.33136 0.880174 97 107 113
-0.436202 -0.340786 0.905214 96 107 113
-0.431461 -0.340786 0.905214 97 108 113
-0.430729 -0.343989 0.91372 98 108 114
-0.412789 -0.333365 0.885502 98 107 116
-0.403003 -0.329161 0.874334 94 103 112
-0.410258 -0.338938 0.900304 93 101 111
-0.420375 -0.351335 0.933233 100 105 113
-0.430309 -0.363868 0.966525 95 109 112
-0.398271 -0.340786 0.905214 91 110 112
-0.391396 -0.338938 0.900304 91 108 116
-0.415122 -0.363868 0.966525 92 105 115
-0.424261 -0.376471 1 92 105 115
-0.404219 -0.363169 0.964669 98 108 117
-0.399934 -0.363868 0.966525 91 98 108
-0.422983 -0.389772 1.03533 93 95 106
-0.387284 -0.361511 0.960263 87 93 108
-0.385412 -0.364497 0.968195 88 97 113
-0.375002 -0.35938 0.954604 88 97 114
-0.387597 -0.376471 1 91 97 113
-0.401047 -0.39487 1.04887 92 103 115
-0.391228 -0.390552 1.03741 89 102 116
-0.371884 -0.376471 1 89 104 117
-0.38329 -0.393561 1.0454 88 106 118
-0.361408 -0.376471 1 90 107 119
-0.35617 -0.376471 1 90 107 118
-0.350932 -0.376471 1 95 111 122
-0.361388 -0.393561 1.0454 96 111 124
-0.358477 -0.396397 1.05293 93 103 119
-0.354566 -0.398199 1.05772 105 113 128
-0.362049 -0.413056 1.09718 98 113 127
-0.341932 -0.396397 1.05293 104 124 134
-0.319506 -0.376471 1 99 123 131
-0.336407 -0.402992 1.07045 98 123 133
-0.30903 -0.376471 1 97 129 137
-0.355285 -0.440283 1.1695 105 137 144
-0.336072 -0.42378 1.12567 104 132 139
-0.293317 -0.376471 1 118 147 153
-0.353876 -0.462457 1.2284 117 148 153
-0.308391 -0.410479 1.09033 127 158 161
-0.277603 -0.376471 1 128 166 165
-0.314843 -0.435184 1.15596 143 179 177
-0.288275 -0.406275 1.07917 141 182 179
-0.315533 -0.453584 1.20483 152 190 183
-0.332407 -0.487592 1.29517 153 194 181
-0.295958 -0.44317 1.17717 153 198 182
-0.289792 -0.44317 1.17717 161 205 185
-0.344435 -0.538185 1.42955 162 207 178
-0.305272 -0.487592 1.29517 172 212 182
-0.345695 -0.564706 1.5 171 213 183
-0.337838 -0.564706 1.5 175 217 192
-0.329981 -0.564706 1.5 178 218 195
-0.288632 -0.505992 1.34404 186 223 202
-0.333194 -0.598714 1.59033 186 225 204
-0.306411 -0.564706 1.5 184 224 200
-0.284533 -0.538185 1.42955 188 226 195
-0.277045 -0.538185 1.42955 192 228 199
-0.296124 -0.591227 1.57045 185 228 195
-0.287899 -0.591227 1.57045 186 227 194
-0.324619 -0.686241 1.82283 190 229 197
-0.294676 -0.641819 1.70483 192 230 199
-0.300887 -0.675828 1.79517 182 227 192
-0.266161 -0.617114 1.63921 181 226 195
-0.260207 -0.62342 1.65596 159 217 182
-0.268286 -0.664941 1.76625 159 214 176
-0.244846 -0.628518 1.6695 189 228 202
-0.241098 -0.641819 1.70483 170 222 191
-0.237263 -0.655901 1.74224 169 222 191
-0.223239 -0.641819 1.70483 167 219 190
-0.207267 -0.620727 1.64881 199 232 213
-0.203057 -0.634559 1.68555 152 213 178
-0.192379 -0.628518 1.6695 184 226 197
-0.183635 -0.628518 1.6695 187 228 199
-0.176571 -0.634559 1.68555 183 226 197
-0.174024 -0.658322 1.74867 175 221 191
-0.15545 -0.620727 1.64881 179 223 193
-0.143465 -0.606569 1.6112 180 224 190
-0.146008 -0.655901 1.74224 164 217 178
-0.130721 -0.626378 1.66382 192 229 203
-0.120905 -0.620727 1.64881 185 225 197
-0.116084 -0.641819 1.70483 181 223 192
-0.104577 -0.626378 1.66382 182 224 192
-0.0958621 -0.626378 1.66382 196 231 205
-0.0948025 -0.6814 1.80997 182 225 194
-0.077725 -0.620727 1.64881 177 224 192
-0.0690889 -0.620727 1.64881 177 224 195
-0.0633711 -0.650692 1.7284 175 223 193
-0.0535774 -0.641819 1.70483 174 223 191
-0.0414459 -0.595791 1.58257 178 224 193
-0.0335155 -0.602238 1.5997 202 235 211
-0.0264857 -0.634559 1.68555 180 222 190
-0.0171717 -0.617114 1.63921 192 227 201
-0.00863611 -0.620727 1.64881 187 226 197
0 -0.664941 1.76625 177 223 190
0.00805261 -0.578788 1.53741 184 225 195
0.0174295 -0.626378 1.66382 177 221 190
0.0249895 -0.598714 1.59033 182 224 197
0.0361349 -0.649307 1.72472 162 218 184
0.0446478 -0.641819 1.70483 209 239 220
0.0529713 -0.634559 1.68555 180 225 196
0.0610031 -0.626378 1.66382 186 226 197
0.0686867 -0.617114 1.63921 184 225 194
0.0737013 -0.588593 1.56345 174 220 186
0.0818904 -0.588593 1.56345 165 218 183
0.0944443 -0.617114 1.63921 184 228 199
0.107155 -0.641819 1.70483 182 225 197
0.114771 -0.634559 1.68555 184 224 199
0.122006 -0.626378 1.66382 190 228 202
0.132428 -0.634559 1.68555 179 226 194
0.146547 -0.658322 1.74867 183 229 199
0.15864 -0.670729 1.78162 194 233 207
0.162954 -0.650692 1.7284 182 227 198
0.159199 -0.602238 1.5997 189 229 201
0.180675 -0.649307 1.72472 175 224 192
0.17197 -0.588593 1.56345 188 230 204
0.180159 -0.588593 1.56345 198 235 211
0.197121 -0.61601 1.63628 186 228 199
0.202539 -0.606569 1.6112 184 226 196
0.209472 -0.602238 1.5997 208 239 219
0.226583 -0.626378 1.66382 183 228 201
0.233175 -0.620727 1.64881 177 223 192
0.244846 -0.628518 1.6695 181 221 190
0.246932 -0.612015 1.62567 191 229 203
0.261442 -0.626378 1.66382 195 231 205
0.266161 -0.617114 1.63921 166 218 181
0.28908 -0.649307 1.72472 201 234 212
0.294676 -0.641819 1.70483 202 235 213
0.289507 -0.612015 1.62567 205 237 217
0.316181 -0.649307 1.72472 191 231 206
0.335944 -0.670729 1.78162 182 228 200
0.330394 -0.641819 1.70483 185 228 200
0.323566 -0.612015 1.62567 204 235 213
0.326776 -0.602238 1.5997 180 226 193
0.357183 -0.641819 1.70483 206 241 219
0.361971 -0.634559 1.68555 192 235 210
0.370042 -0.633263 1.68211 198 234 210
0.376014 -0.628518 1.6695 177 225 196
0.392901 -0.641819 1.70483 174 225 195
0.392163 -0.626378 1.66382 165 221 186
0.41076 -0.641819 1.70483 191 228 200
0.409593 -0.626378 1.66382 181 221 188
0.422905 -0.633263 1.68211 179 218 186
0.432599 -0.634559 1.68555 172 217 182
0.421957 -0.606569 1.6112 173 219 185
0.46072 -0.649307 1.72472 175 222 190
0.474525 -0.655901 1.74224 188 230 202
0.44819 -0.607811 1.6145 203 235 212
0.488862 -0.650692 1.7284 189 228 202
0.496855 -0.649307 1.72472 193 230 205
0.52258 -0.670729 1.78162 184 227 199
0.489393 -0.617114 1.63921 190 230 201
0.549855 -0.6814 1.80997 185 225 193
0.545824 -0.664941 1.76625 205 234 211
0.555075 -0.664941 1.76625 197 232 207
0.578295 -0.6814 1.80997 169 221 186
0.573578 -0.664941 1.76625 193 233 207
0.57034 -0.650692 1.7284 172 223 192
0.584031 -0.655901 1.74224 182 227 198
0.598442 -0.661746 1.75776 199 233 210
0.581495 -0.633263 1.68211 182 225 197
0.588574 -0.631406 1.67717 179 221 191
0.651969 -0.689129 1.8305 173 224 193
0.642571 -0.669352 1.77797 187 230 200
0.633711 -0.650692 1.7284 190 232 204
0.673098 -0.6814 1.80997 184 225 196
0.662889 -0.661746 1.75776 205 235 212
0.651858 -0.641819 1.70483 171 222 187
0.689134 -0.669352 1.77797 176 227 194
0.744368 -0.71336 1.89486 190 233 206
0.6696 -0.633263 1.68211 165 222 186
0.667865 -0.62342 1.65596 188 231 205
0.770318 -0.709836 1.8855 181 226 200
0.705436 -0.641819 1.70483 186 228 201
0.760299 -0.683088 1.81445 178 226 195
0.77661 -0.689129 1.8305 173 224 190
0.698222 -0.612015 1.62567 172 220 184
0.764164 -0.661746 1.75776 182 223 193
0.789828 -0.675828 1.79517 187 225 199
0.714627 -0.604287 1.60514 167 215 179
0.808634 -0.675828 1.79517 168 218 177
0.749327 -0.619062 1.64438 212 241 220
0.799131 -0.652706 1.73375 201 236 216
0.766553 -0.619062 1.64438 179 224 195
0.846245 -0.675828 1.79517 178 221 188
0.855647 -0.675828 1.79517 179 220 188
0.82152 -0.641819 1.70483 201 236 215
0.83045 -0.641819 1.70483 194 232 208
0.907919 -0.694227 1.84404 184 225 195
0.955788 -0.723137 1.92083 193 229 202
0.91657 -0.686241 1.82283 201 234 211
0.952286 -0.705632 1.87433 194 231 207
0.875097 -0.641819 1.70483 176 223 189
0.911473 -0.661746 1.75776 193 233 206
0.785669 -0.564706 1.5 201 239 216
0.949675 -0.675828 1.79517 178 229 199
0.985189 -0.694227 1.84404 182 228 197
1.02227 -0.71336 1.89486 183 225 194
0.817096 -0.564706 1.5 193 231 204
0.894065 -0.612015 1.62567 203 236 212
0.996688 -0.675828 1.79517 206 239 217
0.955464 -0.641819 1.70483 178 228 197
0.91961 -0.612015 1.62567 189 233 205
0.687863 -0.453584 1.20483 200 236 214
0.864236 -0.564706 1.5 197 233 207
0.700484 -0.453584 1.20483 182 225 191
0.706795 -0.453584 1.20483 207 239 216
0.591871 -0.376471 1 179 228 200
0.474801 -0.299357 0.795167 166 223 192
0.424554 -0.265349 0.704833 194 234 211
0.22744 -0.140926 0.374334 197 236 215
0.487296 -0.299357 0.795167 180 230 204
0.212638 -0.129522 0.344042 200 237 217
0.150986 -0.0911954 0.242238 164 224 197
-0.499791 -0.295199 0.795167 193 224 188
-0.507647 -0.302359 0.814453 191 223 188
-0.443999 -0.266691 0.718376 192 224 189
-0.457345 -0.277055 0.746293 193 225 191
-0.428245 -0.261663 0.704833 192 224 189
-0.468605 -0.288813 0.777965 193 225 191
-0.455324 -0.28309 0.762549 194 225 191
-0.465013 -0.291672 0.785666 194 225 191
-0.45638 -0.288813 0.777965 194 225 191
-0.456783 -0.291672 0.785666 192 224 190
-0.463166 -0.298437 0.803887 191 224 190
-0.458955 -0.298437 0.803887 191 224 189
-0.440081 -0.288813 0.777965 194 225 192
-0.459189 -0.30417 0.819331 192 224 190
-0.441482 -0.295199 0.795167 196 225 196
-0.45253 -0.305468 0.822829 177 213 187
-0.456237 -0.310932 0.837546 170 205 174
-0.433692 -0.298437 0.803887 156 188 152
-0.443698 -0.308316 0.830499 133 155 124
-0.439348 -0.308316 0.830499 120 133 121
-0.463808 -0.328735 0.885502 108 120 122
-0.44138 -0.315999 0.851194 104 116 113
-0.436922 -0.315999 0.851194 101 110 106
-0.428829 -0.313344 0.844042 101 109 107
-0.421142 -0.310932 0.837546 96 103 106
-0.443045 -0.330546 0.89038 97 104 106
-0.435979 -0.328735 0.885502 99 105 108
-0.443112 -0.337706 0.909666 91 101 104
-0.426703 -0.328735 0.885502 92 103 108
-0.433582 -0.337706 0.909666 88 98 105
-0.401254 -0.315999 0.851194 96 106 109
-0.421978 -0.336053 0.905214 94 102 106
-0.392338 -0.315999 0.851194 90 93 103
-0.428143 -0.348801 0.939552 92 96 106
-0.393844 -0.324589 0.874334 95 100 108
-0.430309 -0.358814 0.966525 94 102 108
-0.412058 -0.347686 0.936549 92 101 108
-0.38903 -0.332211 0.894863 93 101 110
-0.415122 -0.358814 0.966525 98 104 114
-0.397342 -0.347686 0.936549 92 98 109
-0.389505 -0.345089 0.929553 94 98 108
-0.399166 -0.358125 0.964669 95 98 108
-0.394113 -0.358125 0.964669 94 95 105
-0.388224 -0.357356 0.962595 90 90 104
-0.398072 -0.371242 1 84 89 106
-0.379684 -0.358814 0.966525 87 91 109
-0.387597 -0.371242 1 84 87 105
-0.382359 -0.371242 1 88 92 107
-0.391228 -0.385128 1.03741 86 94 114
-0.357973 -0.357356 0.962595 85 93 112
-0.351108 -0.355509 0.957621 87 95 110
-0.345002 -0.354389 0.954604 85 92 108
-0.35617 -0.371242 1 92 99 114
-0.368084 -0.389386 1.04887 88 100 114
-0.345695 -0.371242 1 88 100 114
-0.323817 -0.353098 0.951125 87 97 112
-0.367795 -0.407319 1.09718 90 100 115
-0.344961 -0.388095 1.0454 92 103 117
-0.324743 -0.371242 1 96 111 118
-0.359657 -0.417894 1.12567 96 115 122
-0.334208 -0.394798 1.06345 97 116 126
-0.328638 -0.394798 1.06345 98 117 128
-0.303792 -0.371242 1 100 120 128
-0.345116 -0.42914 1.15596 102 122 130
-0.311928 -0.394798 1.06345 100 125 134
-0.310885 -0.400632 1.07917 103 131 138
-0.326952 -0.42914 1.15596 111 144 144
-0.277603 -0.371242 1 123 159 158
-0.322902 -0.440125 1.18555 122 160 158
-0.314455 -0.437015 1.17717 132 166 163
-0.308289 -0.437015 1.17717 135 169 160
-0.302123 -0.437015 1.17717 145 179 166
-0.277847 -0.410273 1.10514 145 186 174
-0.338329 -0.51021 1.37433 142 188 175
-0.33113 -0.51021 1.37433 145 189 173
-0.28398 -0.447284 1.20483 158 195 179
-0.277669 -0.447284 1.20483 159 200 183
-0.271359 -0.447284 1.20483 161 207 188
-0.310109 -0.523327 1.40967 166 209 192
-0.278137 -0.48082 1.29517 171 211 194
-0.278755 -0.493937 1.3305 177 216 197
-0.292021 -0.53071 1.42955 185 221 204
-0.310042 -0.578289 1.55772 184 222 200
-0.273191 -0.523327 1.40967 183 224 196
-0.244218 -0.48082 1.29517 189 231 205
-0.303575 -0.614761 1.65596 184 229 200
-0.294901 -0.614761 1.65596 188 225 196
-0.280992 -0.603515 1.62567 209 237 214
-0.272477 -0.603515 1.62567 211 240 219
-0.258225 -0.590399 1.59033 206 238 217
-0.249895 -0.590399 1.59033 173 222 194
-0.253591 -0.619789 1.6695 168 218 186
-0.241811 -0.612106 1.64881 184 226 198
-0.251958 -0.661413 1.78162 176 225 195
-0.230153 -0.62741 1.69003 156 215 180
-0.231281 -0.655706 1.76625 183 227 200
-0.204358 -0.603515 1.62567 191 230 206
-0.19863 -0.612106 1.64881 157 214 179
-0.198433 -0.639291 1.72203 173 222 190
-0.187521 -0.632905 1.70483 172 221 190
-0.176571 -0.625746 1.68555 169 220 187
-0.167742 -0.625746 1.68555 196 231 208
-0.158914 -0.625746 1.68555 180 224 193
-0.151803 -0.632905 1.70483 184 226 193
-0.139912 -0.619789 1.6695 180 223 190
-0.132158 -0.624468 1.68211 177 220 188
-0.120202 -0.608543 1.63921 181 222 192
-0.112269 -0.612106 1.64881 175 217 184
-0.107155 -0.632905 1.70483 167 214 175
-0.093664 -0.603515 1.62567 188 227 197
-0.0845641 -0.599369 1.6145 176 222 189
-0.077725 -0.612106 1.64881 170 219 184
-0.0681193 -0.603515 1.62567 174 223 191
-0.0632361 -0.640288 1.72472 182 227 197
-0.0542024 -0.640288 1.72472 184 225 195
-0.0446478 -0.632905 1.70483 171 219 185
-0.0361349 -0.640288 1.72472 181 223 193
-0.0261442 -0.617679 1.66382 182 224 194
-0.0176571 -0.625746 1.68555 169 216 180
-0.00851491 -0.603515 1.62567 201 234 211
0 -0.632905 1.70483 182 226 197
0.00960662 -0.680893 1.8341 182 225 194
0.0178591 -0.632905 1.70483 177 220 190
0.0255447 -0.603515 1.62567 171 219 191
0.0353142 -0.625746 1.68555 171 224 197
0.0441428 -0.625746 1.68555 182 229 204
0.0518166 -0.612106 1.64881 185 228 199
0.0610031 -0.617679 1.66382 186 226 197
0.0690889 -0.612106 1.64881 186 226 198
0.0803661 -0.632905 1.70483 199 232 210
0.0892957 -0.632905 1.70483 200 233 210
0.0958621 -0.617679 1.66382 185 225 198
0.10303 -0.608543 1.63921 186 227 201
0.108925 -0.593874 1.5997 178 222 194
0.125014 -0.632905 1.70483 168 218 185
0.132428 -0.625746 1.68555 187 230 201
0.139436 -0.617679 1.66382 191 232 205
0.139837 -0.583015 1.57045 197 234 211
0.160732 -0.632905 1.70483 194 233 210
0.163131 -0.608543 1.63921 202 236 214
0.178591 -0.632905 1.70483 187 230 203
0.185021 -0.624468 1.68211 177 226 195
0.19645 -0.632905 1.70483 184 229 200
0.207776 -0.640288 1.72472 168 219 183
0.209154 -0.617679 1.66382 176 222 189
0.225843 -0.640288 1.72472 203 237 215
0.242626 -0.661413 1.78162 196 235 212
0.235298 -0.617679 1.66382 171 221 189
0.240404 -0.608543 1.63921 204 232 211
0.253591 -0.619789 1.6695 190 226 199
0.249895 -0.590399 1.59033 179 223 190
0.280046 -0.640288 1.72472 187 228 198
0.29604 -0.655706 1.76625 175 222 189
0.286228 -0.614761 1.65596 204 235 213
0.283215 -0.590399 1.59033 196 233 208
0.308999 -0.625746 1.68555 187 230 204
0.3109 -0.612106 1.64881 178 226 195
0.337643 -0.646792 1.74224 178 225 193
0.323566 -0.603515 1.62567 186 226 196
0.360799 -0.655706 1.76625 174 221 183
0.327561 -0.580418 1.56345 199 238 214
0.379302 -0.655706 1.76625 195 237 215
0.380226 -0.641654 1.7284 187 231 205
0.378853 -0.624468 1.68211 200 236 214
0.392901 -0.632905 1.70483 202 236 215
0.416307 -0.655706 1.76625 171 224 192
0.397261 -0.612106 1.64881 183 229 199
0.405897 -0.612106 1.64881 195 233 208
0.432944 -0.639291 1.72203 202 235 213
0.442653 -0.640288 1.72472 193 229 204
0.446478 -0.632905 1.70483 183 225 195
0.450256 -0.625746 1.68555 198 232 207
0.478754 -0.652555 1.75776 182 225 194
0.466958 -0.624468 1.68211 178 224 193
0.482197 -0.632905 1.70483 184 226 198
0.491126 -0.632905 1.70483 195 233 208
0.530894 -0.671936 1.80997 184 229 199
0.520153 -0.646792 1.74224 185 227 196
0.529278 -0.646792 1.74224 176 223 188
0.53299 -0.640288 1.72472 202 235 211
0.54955 -0.649179 1.74867 179 225 196
0.564327 -0.655706 1.76625 172 222 191
0.540314 -0.617679 1.66382 186 228 201
0.582829 -0.655706 1.76625 185 228 201
0.59208 -0.655706 1.76625 174 223 192
0.588446 -0.641654 1.7284 205 237 216
0.614633 -0.660055 1.77797 207 237 217
0.606552 -0.641654 1.7284 193 229 203
0.649237 -0.67671 1.82283 189 229 200
0.592423 -0.608543 1.63921 190 231 204
0.62507 -0.632905 1.70483 196 233 209
0.633999 -0.632905 1.70483 175 222 189
0.684269 -0.673601 1.81445 187 226 198
0.626767 -0.608543 1.63921 162 218 181
0.669923 -0.641654 1.7284 207 239 218
0.681077 -0.643641 1.73375 193 234 209
0.688029 -0.641654 1.7284 169 222 186
0.67642 -0.622636 1.67717 207 238 217
0.676539 -0.614761 1.65596 199 234 212
0.742815 -0.666441 1.79517 188 229 203
0.736544 -0.652555 1.75776 198 234 209
0.745751 -0.652555 1.75776 195 232 207
0.720344 -0.622636 1.67717 194 230 204
0.780426 -0.666441 1.79517 182 222 194
0.723488 -0.610464 1.64438 198 229 206
0.807817 -0.673601 1.81445 175 217 186
0.808634 -0.666441 1.79517 175 221 185
0.840308 -0.684585 1.84404 187 230 201
0.827439 -0.666441 1.79517 193 233 210
0.825856 -0.657692 1.7716 185 227 200
0.846245 -0.666441 1.79517 179 219 188
0.855647 -0.666441 1.79517 198 231 207
0.839545 -0.646792 1.74224 208 239 220
0.856232 -0.652555 1.75776 185 226 197
0.839379 -0.632905 1.70483 173 220 185
0.791335 -0.590399 1.59033 174 221 185
0.883853 -0.652555 1.75776 207 236 213
0.962716 -0.703452 1.89486 192 229 202
0.921467 -0.666441 1.79517 171 219 184
0.971921 -0.695831 1.87433 197 234 208
1.04756 -0.742484 2 204 240 218
0.793526 -0.556863 1.5 190 234 206
1.00137 -0.695831 1.87433 191 233 205
0.857974 -0.590399 1.59033 201 233 207
0.88555 -0.603515 1.62567 190 230 201
0.824953 -0.556863 1.5 187 229 199
0.946534 -0.632905 1.70483 205 239 215
0.955464 -0.632905 1.70483 174 226 194
1.01549 -0.666441 1.79517 181 227 199
0.907953 -0.590399 1.59033 198 235 211
0.982252 -0.632905 1.70483 185 227 198
0.753004 -0.48082 1.29517 187 228 195
0.706795 -0.447284 1.20483 206 237 215
0.470636 -0.295199 0.795167 191 231 208
0.223518 -0.138968 0.374334 179 227 200
0.456435 -0.281313 0.757762 188 231 204
0.209034 -0.127723 0.344042 190 232 205
0.210836 -0.127723 0.344042 183 229 199
0.231361 -0.138968 0.374334 204 237 216
0.205999 -0.122695 0.330499 179 224 195
-0.493819 -0.287564 0.785666 191 224 188
-0.507647 -0.2981 0.814453 191 224 188
-0.45168 -0.267483 0.730803 192 224 189
-0.481474 -0.287564 0.785666 191 223 187
-0.466797 -0.281202 0.768284 192 224 189
-0.45344 -0.27553 0.752789 194 225 191
-0.469865 -0.288016 0.7869 194 225 191
-0.484938 -0.299886 0.819331 193 225 190
-0.45638 -0.284746 0.777965 192 225 189
-0.462306 -0.291042 0.795167 192 224 190
-0.453378 -0.288016 0.7869 192 224 191
-0.474148 -0.303973 0.830499 194 225 192
-0.454745 -0.294233 0.803887 189 223 187
-0.450534 -0.294233 0.803887 190 223 187
-0.441482 -0.291042 0.795167 193 224 194
-0.446529 -0.297172 0.811916 182 213 188
-0.437902 -0.294233 0.803887 166 197 169
-0.424527 -0.288016 0.7869 143 178 145
-0.424822 -0.291042 0.795167 129 151 116
-0.439348 -0.303973 0.830499 121 127 121
-0.434998 -0.303973 0.830499 111 121 121
-0.44138 -0.311548 0.851194 105 115 112
-0.443353 -0.316135 0.863725 95 105 101
-0.421948 -0.303973 0.830499 101 108 106
-0.447708 -0.325891 0.89038 95 103 104
-0.411108 -0.302399 0.826197 95 102 105
-0.419088 -0.311548 0.851194 91 98 102
-0.435901 -0.327532 0.894863 91 98 102
-0.440301 -0.334434 0.91372 90 98 103
-0.408828 -0.31394 0.85773 92 100 107
-0.426719 -0.33132 0.905214 89 98 101
-0.383573 -0.301166 0.822829 93 101 105
-0.403003 -0.320018 0.874334 92 98 106
-0.428143 -0.343888 0.939552 97 101 110
-0.409759 -0.332949 0.909666 93 97 106
-0.416963 -0.342789 0.936549 90 94 104
-0.410599 -0.341576 0.933233 89 95 104
-0.408458 -0.343888 0.939552 89 94 103
-0.415839 -0.354372 0.968195 89 93 103
-0.384047 -0.33132 0.905214 88 90 101
-0.419024 -0.366013 1 87 89 99
-0.413786 -0.366013 1 88 90 100
-0.393266 -0.352322 0.962595 86 87 98
-0.389061 -0.353081 0.964669 87 87 101
-0.383183 -0.352322 0.962595 87 92 104
-0.349152 -0.325312 0.8888 86 89 103
-0.387597 -0.366013 1 90 90 104
-0.396661 -0.379704 1.03741 86 84 99
-0.392107 -0.380557 1.03974 89 86 109
-0.357106 -0.351469 0.960263 88 90 110
-0.399766 -0.399077 1.09033 87 90 106
-0.391905 -0.396899 1.08438 85 84 105
-0.370323 -0.380557 1.03974 89 84 105
-0.380546 -0.396899 1.08438 88 87 106
-0.345695 -0.366013 1 84 88 105
-0.340457 -0.366013 1 89 92 108
-0.351603 -0.383902 1.04887 92 95 109
-0.347447 -0.385386 1.05293 93 96 110
-0.324743 -0.366013 1 93 94 109
-0.337946 -0.387138 1.05772 94 94 109
-0.332406 -0.387138 1.05772 89 98 112
-0.357226 -0.423096 1.15596 90 104 117
-0.325193 -0.391797 1.07045 91 107 116
-0.319587 -0.391797 1.07045 89 110 116
-0.339062 -0.423096 1.15596 97 116 126
-0.333007 -0.423096 1.15596 97 118 127
-0.326952 -0.423096 1.15596 99 131 131
-0.29958 -0.394989 1.07917 102 135 133
-0.320621 -0.43086 1.17717 108 137 133
-0.314455 -0.43086 1.17717 116 148 144
-0.321706 -0.449611 1.2284 124 160 154
-0.309223 -0.440985 1.20483 128 165 158
-0.337911 -0.491937 1.34404 130 168 162
-0.268415 -0.399077 1.09033 131 168 162
-0.312056 -0.474048 1.29517 137 172 165
-0.316792 -0.491937 1.34404 146 181 168
-0.332393 -0.527895 1.44228 150 187 174
-0.358183 -0.582083 1.59033 151 189 175
-0.349854 -0.582083 1.59033 160 194 182
-0.322124 -0.54902 1.5 159 196 183
-0.314268 -0.54902 1.5 156 195 180
-0.348253 -0.623991 1.70483 161 203 189
-0.298554 -0.54902 1.5 170 212 196
-0.30435 -0.574804 1.57045 173 217 196
-0.265807 -0.515956 1.40967 177 224 204
-0.306058 -0.611059 1.6695 181 225 204
-0.279673 -0.574804 1.57045 185 222 199
-0.277444 -0.587501 1.60514 196 227 207
-0.277554 -0.606102 1.65596 190 231 214
-0.27108 -0.611059 1.6695 203 238 224
-0.267887 -0.623991 1.70483 171 223 196
-0.253591 -0.611059 1.6695 182 226 200
-0.247199 -0.616932 1.68555 165 218 185
-0.241098 -0.623991 1.70483 156 215 178
-0.227357 -0.611059 1.6695 168 221 189
-0.223239 -0.623991 1.70483 168 219 187
-0.207267 -0.603484 1.64881 195 231 207
-0.201124 -0.611059 1.6695 173 222 194
-0.198742 -0.63127 1.72472 184 226 202
-0.183635 -0.611059 1.6695 176 222 194
-0.184136 -0.643364 1.75776 160 214 181
-0.171374 -0.630287 1.72203 202 233 211
-0.15545 -0.603484 1.64881 188 228 200
-0.140916 -0.579242 1.58257 186 227 196
-0.144848 -0.632617 1.7284 186 227 197
-0.124948 -0.582083 1.59033 182 224 192
-0.122006 -0.608979 1.66382 183 221 190
-0.111616 -0.599972 1.63921 191 225 198
-0.104577 -0.608979 1.66382 187 224 196
-0.0949972 -0.603484 1.64881 196 231 206
-0.0863611 -0.603484 1.64881 180 223 192
-0.0795765 -0.617861 1.68808 157 210 171
-0.0704842 -0.615673 1.68211 192 227 201
-0.0604527 -0.603484 1.64881 193 229 203
-0.0514229 -0.598898 1.63628 177 222 189
-0.0441428 -0.616932 1.68555 172 218 183
-0.0348589 -0.608979 1.66382 175 221 186
-0.0261442 -0.608979 1.66382 190 228 200
-0.0174295 -0.608979 1.66382 169 219 183
-0.00882855 -0.616932 1.68555 203 235 215
0 -0.595015 1.62567 189 230 208
0.00933178 -0.652098 1.78162 178 223 195
0.0176571 -0.616932 1.68555 174 222 192
0.0249895 -0.582083 1.59033 177 223 195
0.0345444 -0.603484 1.64881 202 236 216
0.0416492 -0.582083 1.59033 199 236 215
0.0491342 -0.572244 1.56345 184 227 200
0.0647588 -0.64647 1.76625 184 225 196
0.0681193 -0.595015 1.62567 162 214 180
0.0824325 -0.640035 1.74867 158 213 178
0.0892957 -0.623991 1.70483 172 218 188
0.0982252 -0.623991 1.70483 168 216 183
0.103633 -0.603484 1.64881 184 224 198
0.114771 -0.616932 1.68555 194 230 208
0.126472 -0.63127 1.72472 181 226 199
0.129542 -0.603484 1.64881 190 229 203
0.141257 -0.616932 1.68555 194 231 208
0.151803 -0.623991 1.70483 186 230 204
0.164259 -0.637682 1.74224 184 228 203
0.159199 -0.58551 1.5997 190 231 207
0.174295 -0.608979 1.66382 178 226 196
0.183009 -0.608979 1.66382 200 235 212
0.193832 -0.615673 1.68211 176 224 192
0.200439 -0.608979 1.66382 191 229 202
0.21431 -0.623991 1.70483 173 220 186
0.217868 -0.608979 1.66382 177 224 190
0.224539 -0.603484 1.64881 208 239 218
0.241098 -0.623991 1.70483 169 220 185
0.247199 -0.616932 1.68555 187 225 198
0.248989 -0.599972 1.63921 177 223 190
0.262335 -0.611059 1.6695 157 214 171
0.270157 -0.608979 1.66382 168 219 181
0.293093 -0.640035 1.74867 168 219 181
0.288569 -0.611059 1.6695 183 227 197
0.291396 -0.598898 1.63628 194 232 207
0.302264 -0.603484 1.64881 185 229 201
0.317828 -0.616932 1.68555 182 228 197
0.326656 -0.616932 1.68555 187 229 200
0.339324 -0.623991 1.70483 167 219 182
0.334848 -0.599972 1.63921 172 219 181
0.357183 -0.623991 1.70483 205 238 215
0.366112 -0.623991 1.70483 202 237 216
0.362716 -0.603484 1.64881 171 224 193
0.388451 -0.63127 1.72472 169 223 192
0.377777 -0.599972 1.63921 198 235 213
0.406518 -0.63127 1.72472 194 233 209
0.41076 -0.623991 1.70483 184 229 199
0.397451 -0.590927 1.6145 173 226 194
0.428619 -0.623991 1.70483 198 235 211
0.437549 -0.623991 1.70483 185 227 202
0.441428 -0.616932 1.68555 180 225 196
0.44597 -0.611059 1.6695 190 230 204
0.488941 -0.657055 1.79517 205 237 217
0.457714 -0.603484 1.64881 191 231 206
0.497167 -0.643364 1.75776 193 231 206
0.491126 -0.623991 1.70483 194 233 207
0.526552 -0.657055 1.79517 202 237 213
0.49674 -0.608979 1.66382 203 237 213
0.545358 -0.657055 1.79517 187 228 199
0.53299 -0.63127 1.72472 194 231 206
0.542024 -0.63127 1.72472 181 226 197
0.526802 -0.603484 1.64881 208 238 217
0.54737 -0.616932 1.68555 190 230 203
0.605217 -0.671303 1.8341 177 225 193
0.59208 -0.64647 1.76625 195 233 209
0.595346 -0.640035 1.74867 176 224 193
0.582684 -0.616932 1.68555 202 234 210
0.619834 -0.64647 1.76625 193 228 198
0.607211 -0.623991 1.70483 185 226 196
0.623328 -0.63127 1.72472 171 220 186
0.62507 -0.623991 1.70483 181 225 195
0.661196 -0.650759 1.77797 206 236 216
0.65946 -0.640035 1.74867 182 227 199
0.686399 -0.657055 1.79517 169 222 186
0.624496 -0.58972 1.6112 204 236 213
0.724404 -0.674943 1.84404 205 237 216
0.690158 -0.634575 1.73375 166 217 179
0.655648 -0.595015 1.62567 183 224 192
0.71813 -0.643364 1.75776 177 223 192
0.685212 -0.606102 1.65596 185 228 198
0.767022 -0.669986 1.8305 173 223 189
0.711559 -0.613867 1.67717 206 237 217
0.692009 -0.58972 1.6112 193 231 206
0.706737 -0.595015 1.62567 174 220 187
0.737913 -0.613867 1.67717 189 227 201
0.769506 -0.632617 1.7284 200 232 210
0.780969 -0.634575 1.73375 182 225 196
0.79005 -0.634575 1.73375 185 227 200
0.827439 -0.657055 1.79517 197 236 215
0.794731 -0.623991 1.70483 197 236 215
0.787006 -0.611059 1.6695 176 220 187
0.844414 -0.648428 1.7716 190 227 198
0.853693 -0.648428 1.7716 188 229 201
0.791886 -0.595015 1.62567 202 235 212
0.839379 -0.623991 1.70483 188 229 201
0.823989 -0.606102 1.65596 182 224 190
0.927237 -0.674943 1.84404 185 225 191
1.01613 -0.732026 2 188 226 197
0.875097 -0.623991 1.70483 170 217 183
0.930869 -0.657055 1.79517 203 235 213
0.940272 -0.657055 1.79517 199 236 211
0.949675 -0.657055 1.79517 185 230 200
0.801383 -0.54902 1.5 191 232 205
0.80924 -0.54902 1.5 200 234 209
0.817096 -0.54902 1.5 205 237 213
0.824953 -0.54902 1.5 203 236 213
0.90258 -0.595015 1.62567 212 242 222
0.840666 -0.54902 1.5 176 227 197
0.899623 -0.582083 1.59033 187 231 205
0.687863 -0.440985 1.20483 208 239 219
0.864236 -0.54902 1.5 200 235 209
0.581395 -0.366013 1 177 224 190
0.466471 -0.291042 0.795167 195 231 205
0.295935 -0.183007 0.5 183 228 201
0.373591 -0.229002 0.625666 183 228 201
0.225479 -0.137011 0.374334 191 232 207
0.156612 -0.0943443 0.257762 190 232 203
0.180885 -0.108035 0.295167 190 232 204
0.167865 -0.099409 0.271599 183 225 194
0.136113 -0.0799284 0.218376 179 223 186
-0.506142 -0.290529 0.805271 192 225 189
-0.48323 -0.279709 0.775279 192 224 189
-0.474845 -0.277185 0.768284 191 224 188
-0.447852 -0.263662 0.730803 192 224 189
-0.466797 -0.277185 0.768284 192 224 189
-0.473986 -0.283901 0.7869 195 226 191
-0.480008 -0.29003 0.803887 194 225 190
-0.470636 -0.286884 0.795167 192 225 190
-0.471587 -0.29003 0.803887 192 225 190
-0.462306 -0.286884 0.795167 193 225 192
-0.467792 -0.292927 0.811916 192 225 189
-0.463539 -0.292927 0.811916 195 226 192
-0.494595 -0.315446 0.874334 188 222 186
-0.441013 -0.283901 0.7869 191 223 189
-0.417953 -0.271594 0.752789 184 219 187
-0.446529 -0.292927 0.811916 179 213 187
-0.433152 -0.286884 0.795167 152 186 157
-0.442023 -0.295602 0.819331 138 175 145
-0.447463 -0.302173 0.837546 117 141 119
-0.443076 -0.302173 0.837546 116 119 114
-0.466363 -0.321235 0.89038 105 116 114
-0.447877 -0.311618 0.863725 102 113 109
-0.446185 -0.313609 0.869241 99 108 104
-0.449893 -0.319475 0.885502 98 106 104
-0.428005 -0.307098 0.851194 96 103 104
-0.429781 -0.311618 0.863725 99 105 108
-0.438381 -0.321235 0.89038 92 98 102
-0.440943 -0.326587 0.905214 94 98 101
-0.424136 -0.317553 0.880174 90 97 101
-0.416742 -0.315446 0.874334 89 96 102
-0.432477 -0.330994 0.917429 89 98 101
-0.424053 -0.328193 0.909666 90 99 102
-0.410399 -0.321235 0.89038 87 94 102
-0.416372 -0.329656 0.91372 88 91 101
-0.411586 -0.329656 0.91372 87 89 100
-0.400827 -0.324816 0.900304 85 88 99
-0.389598 -0.319475 0.885502 87 94 102
-0.39353 -0.326587 0.905214 84 90 99
-0.399243 -0.335368 0.929553 88 91 102
-0.424261 -0.360784 1 88 86 98
-0.392436 -0.337892 0.936549 87 84 95
-0.372533 -0.324816 0.900304 85 84 95
-0.363118 -0.320665 0.8888 86 86 96
-0.388224 -0.347289 0.962595 83 81 94
-0.398072 -0.360784 1 83 82 95
-0.392835 -0.360784 1 80 80 92
-0.387597 -0.360784 1 82 82 94
-0.366155 -0.345495 0.957621 83 81 96
-0.362136 -0.346448 0.960263 81 78 97
-0.371884 -0.360784 1 83 82 100
-0.366646 -0.360784 1 80 81 97
-0.376724 -0.376074 1.04238 87 86 107
-0.35617 -0.360784 1 89 86 107
-0.366863 -0.377162 1.0454 88 87 106
-0.363992 -0.37988 1.05293 85 86 104
-0.371212 -0.393376 1.09033 86 87 104
-0.335219 -0.360784 1 87 90 103
-0.364674 -0.398716 1.10514 89 93 105
-0.341932 -0.37988 1.05293 92 93 110
-0.336417 -0.37988 1.05293 84 84 102
-0.334208 -0.383676 1.06345 89 87 105
-0.344413 -0.402093 1.1145 89 90 107
-0.303792 -0.360784 1 87 90 108
-0.336072 -0.406123 1.12567 89 96 113
-0.330176 -0.406123 1.12567 91 98 115
-0.308373 -0.3862 1.07045 97 101 119
-0.300788 -0.383676 1.06345 93 109 120
-0.326786 -0.424705 1.17717 98 120 128
-0.328155 -0.434685 1.20483 98 122 122
-0.335983 -0.453781 1.25776 105 135 134
-0.315533 -0.434685 1.20483 100 134 135
-0.283636 -0.398716 1.10514 108 138 139
-0.316219 -0.453781 1.25776 111 144 144
-0.351922 -0.51576 1.42955 112 151 148
-0.33113 -0.495838 1.37433 120 160 152
-0.323932 -0.495838 1.37433 132 166 157
-0.324876 -0.508585 1.40967 136 172 164
-0.302712 -0.484909 1.34404 133 170 162
-0.310109 -0.508585 1.40967 140 171 163
-0.302725 -0.508585 1.40967 136 172 162
-0.287939 -0.495838 1.37433 145 181 173
-0.306411 -0.541176 1.5 138 183 173
-0.267513 -0.484909 1.34404 141 191 178
-0.290698 -0.541176 1.5 144 194 178
-0.282841 -0.541176 1.5 155 201 185
-0.303575 -0.597444 1.65596 155 201 184
-0.289507 -0.586515 1.62567 148 200 177
-0.299674 -0.62551 1.73375 180 219 202
-0.29604 -0.637235 1.76625 149 213 191
-0.273685 -0.608119 1.68555 173 225 208
-0.264857 -0.608119 1.68555 172 222 194
-0.26157 -0.621283 1.72203 156 212 179
-0.24286 -0.597444 1.65596 174 221 196
-0.243531 -0.621283 1.72203 188 229 206
-0.227357 -0.60233 1.6695 172 224 194
-0.218613 -0.60233 1.6695 156 215 180
-0.20606 -0.591401 1.63921 204 235 216
-0.187657 -0.561999 1.55772 171 222 197
-0.19645 -0.615077 1.70483 159 215 184
-0.174927 -0.573768 1.59033 161 212 179
-0.18251 -0.628572 1.74224 161 209 178
-0.169662 -0.615077 1.70483 153 209 176
-0.156865 -0.600279 1.66382 171 217 185
-0.146814 -0.594863 1.64881 190 228 200
-0.136239 -0.586515 1.62567 171 219 184
-0.130721 -0.600279 1.66382 184 224 193
-0.1236 -0.608119 1.68555 169 212 175
-0.110694 -0.586515 1.62567 200 229 207
-0.101477 -0.582486 1.6145 164 213 179
-0.0982252 -0.615077 1.70483 172 218 187
-0.0863611 -0.594863 1.64881 185 226 197
-0.079457 -0.608119 1.68555 175 220 188
-0.0730039 -0.628572 1.74224 165 214 180
-0.0612116 -0.60233 1.6695 193 229 204
-0.0481922 -0.553254 1.53348 194 230 203
-0.0425745 -0.586515 1.62567 177 221 190
-0.0373271 -0.642782 1.78162 174 219 185
-0.0264857 -0.608119 1.68555 190 228 201
-0.0172722 -0.594863 1.64881 173 221 187
-0.00874451 -0.60233 1.6695 159 212 175
0 -0.622252 1.72472 164 216 184
0.00857048 -0.590342 1.63628 183 226 200
0.0164514 -0.566592 1.57045 188 228 202
0.0264316 -0.606877 1.68211 161 216 180
0.0348589 -0.600279 1.66382 176 224 195
0.0441428 -0.608119 1.68555 197 233 209
0.0515151 -0.591401 1.63921 167 219 183
0.0610031 -0.600279 1.66382 197 231 205
0.0690889 -0.594863 1.64881 179 222 190
0.077725 -0.594863 1.64881 186 226 200
0.08159 -0.561999 1.55772 169 218 189
0.0921677 -0.577145 1.5997 175 219 190
0.108405 -0.622252 1.72472 169 217 184
0.114771 -0.608119 1.68555 184 226 199
0.120905 -0.594863 1.64881 179 224 196
0.124948 -0.573768 1.59033 165 216 182
0.134062 -0.577145 1.5997 167 215 180
0.151803 -0.615077 1.70483 172 218 187
0.160732 -0.615077 1.70483 161 217 183
0.159199 -0.577145 1.5997 181 227 200
0.170298 -0.586515 1.62567 175 224 195
0.190113 -0.62358 1.7284 181 226 196
0.186041 -0.582486 1.6145 171 221 186
0.19863 -0.594863 1.64881 163 214 176
0.21982 -0.630892 1.74867 160 212 176
0.214262 -0.590342 1.63628 189 228 199
0.224539 -0.594863 1.64881 199 235 210
0.243531 -0.621283 1.72203 170 222 189
0.238417 -0.586515 1.62567 183 227 199
0.252727 -0.600279 1.66382 177 225 193
0.255447 -0.586515 1.62567 193 230 204
0.27961 -0.621283 1.72203 192 230 203
0.282514 -0.608119 1.68555 183 226 195
0.284992 -0.594863 1.64881 188 230 201
0.299558 -0.606877 1.68211 187 230 203
0.322238 -0.634173 1.75776 196 233 209
0.328517 -0.628572 1.74224 178 227 195
0.323547 -0.60233 1.6695 178 226 194
0.335485 -0.608119 1.68555 171 221 186
0.355894 -0.628572 1.74224 175 221 186
0.357183 -0.615077 1.70483 176 224 195
0.35408 -0.594863 1.64881 181 226 200
0.38327 -0.628572 1.74224 185 228 203
0.371353 -0.594863 1.64881 184 227 200
0.392901 -0.615077 1.70483 168 218 185
0.388625 -0.594863 1.64881 194 231 203
0.402247 -0.60233 1.6695 195 233 206
0.423924 -0.621283 1.72203 198 235 210
0.433619 -0.622252 1.72472 186 229 202
0.414364 -0.582486 1.6145 188 230 202
0.450983 -0.621283 1.72203 181 227 198
0.471814 -0.637235 1.76625 202 236 215
0.459085 -0.608119 1.68555 200 235 213
0.461881 -0.600279 1.66382 183 227 198
0.482197 -0.615077 1.70483 185 228 199
0.496855 -0.622252 1.72472 185 229 200
0.494399 -0.608119 1.68555 183 228 199
0.527322 -0.637235 1.76625 176 226 195
0.523957 -0.622252 1.72472 205 237 215
0.53299 -0.622252 1.72472 179 223 189
0.507385 -0.582486 1.6145 190 232 203
0.544704 -0.615077 1.70483 199 235 210
0.573578 -0.637235 1.76625 189 231 203
0.577028 -0.630892 1.74867 168 221 188
0.565027 -0.608119 1.68555 190 230 208
0.606566 -0.642782 1.78162 176 225 197
0.614633 -0.641462 1.77797 178 222 188
0.598281 -0.615077 1.70483 173 217 179
0.622823 -0.630892 1.74867 169 216 177
0.635269 -0.634173 1.75776 175 220 183
0.647588 -0.637235 1.76625 169 216 178
0.625547 -0.606877 1.68211 183 225 193
0.670509 -0.641462 1.77797 206 238 216
0.651858 -0.615077 1.70483 194 234 207
0.651979 -0.606877 1.68211 166 220 183
0.66079 -0.606877 1.68211 206 237 216
0.696097 -0.630892 1.74867 200 233 209
0.717072 -0.641462 1.77797 190 228 199
0.71813 -0.634173 1.75776 189 230 201
0.685212 -0.597444 1.65596 174 222 188
0.686867 -0.591401 1.63921 191 230 204
0.769802 -0.654626 1.81445 172 224 192
0.744644 -0.62551 1.73375 188 229 202
0.772947 -0.641462 1.77797 207 237 215
0.737913 -0.605097 1.67717 188 227 201
0.814961 -0.660415 1.8305 206 236 215
0.780969 -0.62551 1.73375 197 231 208
0.749327 -0.593268 1.64438 198 232 206
0.75794 -0.593268 1.64438 212 243 224
0.836842 -0.647668 1.79517 190 234 210
0.766342 -0.586515 1.62567 205 236 214
0.79575 -0.60233 1.6695 193 230 202
0.839545 -0.628572 1.74224 184 226 197
0.702558 -0.520353 1.44228 210 238 219
0.839379 -0.615077 1.70483 195 232 208
0.848309 -0.615077 1.70483 190 231 203
0.817431 -0.586515 1.62567 214 243 222
0.866168 -0.615077 1.70483 190 229 202
0.980239 -0.688977 1.90967 179 223 193
0.824655 -0.573768 1.59033 194 231 206
0.867357 -0.597444 1.65596 184 229 201
0.964308 -0.657648 1.82283 202 238 216
0.910816 -0.615077 1.70483 204 238 219
0.857974 -0.573768 1.59033 205 238 216
1.02101 -0.67623 1.87433 200 235 211
1.03082 -0.67623 1.87433 166 220 184
0.946534 -0.615077 1.70483 203 237 215
0.891294 -0.573768 1.59033 183 229 204
0.777436 -0.495838 1.37433 203 237 215
0.85638 -0.541176 1.5 179 226 193
0.406095 -0.254293 0.704833 178 225 190
0.581395 -0.360784 1 206 238 214
0.413478 -0.254293 0.704833 212 240 224
0.242469 -0.147801 0.409665 189 230 206
0.223518 -0.135054 0.374334 192 231 206
0.225479 -0.135054 0.374334 199 234 212
0.193147 -0.114691 0.317894 180 228 202
0.139969 -0.0824033 0.2284 192 234 209
0.138891 -0.0810757 0.224721 191 231 204
0.117232 -0.0678576 0.188083 196 233 202
-0.461188 -0.260889 0.73375 191 224 188
-0.489704 -0.279348 0.785666 191 224 189
-0.468342 -0.269427 0.757762 191 224 189
-0.447852 -0.259841 0.730803 191 224 189
-0.499938 -0.292561 0.822829 194 225 190
-0.478966 -0.282726 0.795167 194 226 191
-0.474801 -0.282726 0.795167 194 226 190
-0.470636 -0.282726 0.795167 192 225 190
-0.466471 -0.282726 0.795167 194 226 193
-0.482848 -0.295288 0.830499 194 226 192
-0.478498 -0.295288 0.830499 191 225 189
-0.444156 -0.27661 0.777965 191 225 189
-0.459287 -0.288681 0.811916 191 224 188
-0.445647 -0.282726 0.795167 190 223 189
-0.454898 -0.291318 0.819331 179 216 182
-0.43277 -0.279787 0.7869 176 212 183
-0.485017 -0.316579 0.89038 160 192 166
-0.45185 -0.297794 0.837546 131 165 139
-0.450934 -0.300104 0.844042 113 133 121
-0.42527 -0.285827 0.803887 116 116 114
-0.455291 -0.309064 0.869241 108 116 114
-0.440785 -0.302239 0.850047 98 107 103
-0.412639 -0.285827 0.803887 97 106 101
-0.449893 -0.314845 0.885502 93 100 97
-0.417598 -0.295288 0.830499 95 102 103
-0.409432 -0.292561 0.822829 93 100 102
-0.415566 -0.300104 0.844042 95 100 103
-0.433717 -0.316579 0.89038 91 94 97
-0.403594 -0.297794 0.837546 88 95 98
-0.422065 -0.314845 0.885502 86 92 97
-0.404335 -0.304971 0.85773 85 91 95
-0.427672 -0.326197 0.917429 87 95 99
-0.435474 -0.335922 0.944781 85 93 100
-0.403513 -0.314845 0.885502 85 89 99
-0.409759 -0.323437 0.909666 85 84 96
-0.4183 -0.334063 0.939552 82 80 92
-0.384685 -0.310874 0.874334 83 87 96
-0.409646 -0.335034 0.942284 83 88 96
-0.38668 -0.320108 0.900304 83 84 94
-0.424261 -0.355556 1 85 81 92
-0.404997 -0.343653 0.966525 84 79 90
-0.399934 -0.343653 0.966525 83 80 91
-0.378089 -0.329048 0.925446 85 81 92
-0.388224 -0.342256 0.962595 82 77 91
-0.382254 -0.341427 0.960263 82 77 89
-0.379684 -0.343653 0.966525 81 79 89
-0.372195 -0.341427 0.960263 79 76 90
-0.382359 -0.355556 1 80 77 92
-0.377121 -0.355556 1 82 78 96
-0.357106 -0.341427 0.960263 84 81 99
-0.366646 -0.355556 1 81 81 95
-0.361408 -0.355556 1 81 81 97
-0.35617 -0.355556 1 82 81 98
-0.365804 -0.370623 1.04238 83 82 100
-0.374866 -0.385559 1.08438 80 80 97
-0.340457 -0.355556 1 81 82 97
-0.351603 -0.372933 1.04887 81 84 96
-0.329981 -0.355556 1 81 84 95
-0.341932 -0.374375 1.05293 83 86 98
-0.350555 -0.390108 1.09718 83 85 100
-0.347309 -0.392938 1.10514 84 81 99
-0.328638 -0.378116 1.06345 87 83 102
-0.346083 -0.405052 1.13921 85 82 101
-0.317498 -0.378116 1.06345 88 88 106
-0.330176 -0.400237 1.12567 88 88 107
-0.306358 -0.378116 1.06345 85 87 106
-0.347442 -0.436765 1.2284 92 97 110
-0.320898 -0.411007 1.15596 93 104 113
-0.320621 -0.41855 1.17717 93 111 114
-0.291258 -0.387674 1.09033 89 114 118
-0.348444 -0.473066 1.3305 93 118 122
-0.315271 -0.436765 1.2284 92 120 126
-0.302912 -0.428385 1.20483 99 127 132
-0.330871 -0.477881 1.34404 111 137 139
-0.312056 -0.460504 1.29517 114 139 137
-0.353551 -0.533333 1.5 125 151 144
-0.277669 -0.428385 1.20483 114 152 143
-0.321971 -0.508286 1.42955 119 157 148
-0.314484 -0.508286 1.42955 129 162 157
-0.322124 -0.533333 1.5 130 158 155
-0.260264 -0.441685 1.24224 128 156 156
-0.320801 -0.558381 1.57045 125 163 161
-0.298554 -0.533333 1.5 126 171 159
-0.30435 -0.558381 1.57045 125 178 165
-0.296124 -0.558381 1.57045 145 192 181
-0.298022 -0.578015 1.62567 147 195 184
-0.313031 -0.624982 1.75776 151 198 184
-0.277444 -0.570715 1.60514 168 212 199
-0.272477 -0.578015 1.62567 169 216 203
-0.270157 -0.591579 1.66382 178 218 204
-0.261442 -0.591579 1.66382 172 213 196
-0.256028 -0.599306 1.68555 167 210 190
-0.24286 -0.588785 1.65596 162 209 185
