ply
format ascii 1.0
element vertex 1222
property float x
property float y
property float z
property uchar red
property uchar green
property uchar blue
end_header
0.580422 -0.47245 1.70483 205 233 214
0.568455 -0.455699 1.64438 192 226 200
0.592403 -0.467809 1.68808 193 226 199
0.628243 -0.488815 1.76388 204 231 210
0.61614 -0.47245 1.70483 202 230 208
0.630626 -0.47665 1.71999 192 228 204
0.651291 -0.485336 1.75133 194 230 206
0.668108 -0.490953 1.7716 205 235 213
0.645454 -0.467809 1.68808 180 220 190
0.660788 -0.47245 1.70483 169 214 177
0.682531 -0.48149 1.73745 176 217 184
0.699717 -0.487118 1.75776 194 226 202
0.673327 -0.462659 1.6695 169 212 179
0.696506 -0.47245 1.70483 195 226 201
0.742815 -0.497484 1.79517 193 225 200
0.722699 -0.477962 1.72472 181 216 187
0.76162 -0.497484 1.79517 206 231 211
0.765206 -0.493731 1.78162 197 228 206
0.760211 -0.484598 1.74867 186 224 198
0.777105 -0.489471 1.76625 206 233 212
0.769506 -0.478982 1.7284 165 214 178
0.802533 -0.493731 1.78162 162 214 175
0.785935 -0.477962 1.72472 203 234 212
0.819511 -0.492717 1.77797 203 234 213
0.784137 -0.466152 1.68211 205 234 213
0.824325 -0.484598 1.74867 193 228 204
0.833484 -0.484598 1.74867 177 220 189
0.874344 -0.502829 1.81445 203 231 210
0.856232 -0.487118 1.75776 179 218 187
0.893351 -0.502829 1.81445 172 213 180
0.874646 -0.487118 1.75776 204 233 213
0.912358 -0.502829 1.81445 192 228 205
0.866168 -0.47245 1.70483 204 234 210
0.909369 -0.490953 1.7716 217 240 222
0.956213 -0.511029 1.84404 197 229 206
0.927928 -0.490953 1.7716 182 220 192
0.964308 -0.50515 1.82283 212 238 219
0.910816 -0.47245 1.70483 186 226 198
0.96848 -0.497484 1.79517 198 232 212
0.949051 -0.482816 1.74224 206 236 219
1.01416 -0.511029 1.84404 195 230 208
0.946534 -0.47245 1.70483 188 225 201
1.00609 -0.497484 1.79517 181 223 197
1.01549 -0.497484 1.79517 212 240 221
1.04069 -0.50515 1.82283 180 225 194
1.01275 -0.487118 1.75776 198 234 208
1.02195 -0.487118 1.75776 214 241 223
0.97144 -0.458906 1.65596 195 230 205
0.980114 -0.458906 1.65596 207 236 215
1.01797 -0.47245 1.70483 177 221 191
1.20469 -0.554248 2 208 237 217
1.03583 -0.47245 1.70483 203 234 213
1.04476 -0.47245 1.70483 185 224 196
1.23612 -0.554248 2 187 228 197
1.14939 -0.511029 1.84404 199 235 209
-0.464428 -0.200905 0.738905 194 222 189
-0.480936 -0.209794 0.771599 194 222 189
-0.506396 -0.222772 0.819331 194 222 189
-0.48223 -0.213954 0.7869 195 223 190
-0.487791 -0.218288 0.802837 195 222 190
-0.466329 -0.210498 0.774187 191 220 186
-0.479381 -0.218288 0.802837 197 225 192
-0.503118 -0.231124 0.850047 195 223 189
-0.491895 -0.227986 0.838506 195 223 190
-0.480347 -0.224639 0.826197 196 224 191
-0.483112 -0.227986 0.838506 197 224 191
-0.47872 -0.227986 0.838506 197 225 192
-0.470971 -0.226373 0.832572 196 225 191
-0.453943 -0.220227 0.80997 194 223 188
-0.490485 -0.2402 0.883428 195 223 190
-0.47606 -0.235356 0.865614 197 225 192
-0.489711 -0.244433 0.898997 196 224 191
-0.464391 -0.234045 0.860791 197 225 192
-0.471976 -0.2402 0.883428 198 225 193
-0.477608 -0.245473 0.90282 199 226 193
-0.470876 -0.244433 0.898997 198 225 193
-0.446356 -0.234045 0.860791 199 226 194
-0.453467 -0.2402 0.883428 197 225 192
-0.472275 -0.252741 0.929553 197 225 191
-0.442011 -0.23901 0.87905 198 225 192
-0.459758 -0.251223 0.923969 197 225 192
-0.447876 -0.247334 0.909666 197 226 192
-0.443112 -0.247334 0.909666 198 226 194
-0.447931 -0.252741 0.929553 199 226 194
-0.43032 -0.245473 0.90282 199 227 194
-0.436927 -0.252011 0.926867 198 226 194
-0.44338 -0.258607 0.951125 197 226 192
-0.428455 -0.252741 0.929553 196 225 192
-0.422363 -0.252011 0.926867 199 227 195
-0.417508 -0.252011 0.926867 200 227 196
-0.409967 -0.25037 0.920833 199 227 195
-0.451173 -0.278816 1.02545 198 226 193
-0.422711 -0.264374 0.972338 199 227 195
-0.417619 -0.264374 0.972338 198 227 195
-0.424261 -0.271895 1 198 227 195
-0.395885 -0.256882 0.944781 198 227 195
-0.441413 -0.290049 1.06677 197 226 193
-0.433244 -0.288331 1.06045 199 227 195
-0.430238 -0.290049 1.06677 198 227 195
-0.412137 -0.281502 1.03533 198 228 196
-0.392835 -0.271895 1 197 227 196
-0.387597 -0.271895 1 198 228 197
-0.395159 -0.280997 1.03348 199 227 195
-0.377121 -0.271895 1 198 227 195
-0.399609 -0.292166 1.07455 198 227 195
-0.38036 -0.282066 1.03741 197 227 194
-0.406825 -0.306063 1.12567 199 228 196
-0.371264 -0.283418 1.04238 198 227 195
-0.366863 -0.284238 1.0454 198 227 196
-0.411387 -0.323564 1.19003 198 228 196
-0.405154 -0.323564 1.19003 197 227 195
-0.387499 -0.3143 1.15596 197 227 195
-0.397572 -0.327588 1.20483 198 228 197
-0.391261 -0.327588 1.20483 196 227 195
-0.378789 -0.322345 1.18555 196 227 195
-0.36328 -0.3143 1.15596 198 228 198
-0.383889 -0.337759 1.24224 196 227 197
-0.366019 -0.327588 1.20483 196 227 196
-0.394936 -0.359671 1.32283 196 227 197
-0.379894 -0.35215 1.29517 196 227 196
-0.347087 -0.327588 1.20483 195 227 196
-0.37415 -0.359671 1.32283 193 227 195
-0.369351 -0.361756 1.3305 195 228 198
-0.328155 -0.327588 1.20483 193 227 196
-0.362122 -0.368586 1.35562 189 225 192
-0.348444 -0.361756 1.3305 191 226 194
-0.315271 -0.333996 1.2284 192 226 195
-0.377121 -0.407843 1.5 191 226 194
-0.357233 -0.394554 1.45113 197 228 199
-0.33113 -0.373675 1.37433 145 201 152
-0.3136 -0.361756 1.3305 168 211 175
-0.345695 -0.407843 1.5 176 213 182
-0.337838 -0.407843 1.5 174 212 185
-0.342678 -0.423536 1.55772 160 207 178
-0.353131 -0.447101 1.64438 190 224 203
-0.336295 -0.436429 1.60514 167 213 183
-0.37669 -0.501387 1.84404 170 216 186
-0.329596 -0.450247 1.65596 162 214 184
-0.317108 -0.444896 1.63628 188 226 205
-0.313292 -0.451753 1.66149 169 215 185
-0.298022 -0.442011 1.62567 157 209 175
-0.303605 -0.463536 1.70483 157 209 175
-0.283708 -0.446284 1.64138 192 227 205
-0.280545 -0.455099 1.6738 181 223 199
-0.265378 -0.444382 1.63439 184 225 202
-0.260207 -0.450247 1.65596 162 213 183
-0.263912 -0.472405 1.73745 190 226 203
-0.250028 -0.463536 1.70483 180 218 190
-0.229902 -0.442011 1.62567 206 233 213
-0.224808 -0.44884 1.65078 183 221 193
-0.215324 -0.447101 1.64438 180 220 190
-0.19894 -0.430294 1.58257 184 222 193
-0.201642 -0.455099 1.6738 178 219 187
-0.187328 -0.442011 1.62567 176 219 189
-0.177813 -0.439538 1.61657 175 220 189
-0.174051 -0.451753 1.66149 181 223 193
-0.160878 -0.439538 1.61657 167 214 177
-0.155636 -0.44884 1.65078 209 233 212
-0.14904 -0.455099 1.6738 183 222 193
-0.140273 -0.455099 1.6738 185 223 196
-0.136215 -0.471399 1.73375 187 223 197
-0.118542 -0.439538 1.61657 177 218 186
-0.113133 -0.451753 1.66149 178 217 187
-0.104431 -0.451753 1.66149 176 218 189
-0.091181 -0.430294 1.58257 185 223 197
-0.0842601 -0.437396 1.60869 174 218 188
-0.0752913 -0.434266 1.59718 167 216 185
-0.0674081 -0.437396 1.60869 179 222 196
-0.0613693 -0.455099 1.6738 182 225 201
-0.0516777 -0.447101 1.64438 181 224 199
-0.0446478 -0.463536 1.70483 189 226 201
-0.0340596 -0.442011 1.62567 172 217 184
-0.0270268 -0.467657 1.71999 199 231 207
-0.0177041 -0.459511 1.69003 190 227 200
-0.00870257 -0.451753 1.66149 169 216 182
0 -0.442011 1.62567 191 228 200
0.00876704 -0.455099 1.6738 187 226 198
0.0175341 -0.455099 1.6738 182 221 191
0.0261077 -0.451753 1.66149 179 218 185
0.0338691 -0.439538 1.61657 184 222 190
0.0425745 -0.442011 1.62567 186 223 193
0.0531122 -0.459511 1.69003 186 224 194
0.0599933 -0.444896 1.63628 187 222 192
0.0693886 -0.450247 1.65596 187 221 191
0.0770452 -0.444382 1.63439 169 209 172
0.0861295 -0.447101 1.64438 209 230 208
0.0954093 -0.450247 1.65596 203 230 207
0.104934 -0.45393 1.6695 184 221 190
0.111416 -0.444896 1.63628 173 218 184
0.12991 -0.48169 1.7716 196 230 204
0.129194 -0.447101 1.64438 166 214 177
0.140273 -0.455099 1.6738 199 230 206
0.150485 -0.459511 1.69003 189 225 197
0.159337 -0.459511 1.69003 197 230 206
0.162651 -0.444382 1.63439 182 222 192
0.17489 -0.45393 1.6695 176 220 186
0.182754 -0.451753 1.66149 170 217 183
0.192875 -0.455099 1.6738 187 225 200
0.203362 -0.458982 1.68808 177 219 189
0.208166 -0.450247 1.65596 172 217 185
0.219176 -0.455099 1.6738 179 221 194
0.230153 -0.459511 1.69003 214 242 225
0.234969 -0.451753 1.66149 187 227 202
0.238417 -0.442011 1.62567 195 229 204
0.249776 -0.447101 1.64438 183 227 199
0.263011 -0.455099 1.6738 173 219 189
0.267001 -0.447101 1.64438 184 223 193
0.272477 -0.442011 1.62567 187 225 198
0.287185 -0.451753 1.66149 194 229 205
0.306669 -0.468213 1.72203 165 216 182
0.309464 -0.458982 1.68808 195 231 209
0.321464 -0.463536 1.70483 194 230 211
0.320922 -0.450247 1.65596 187 227 204
0.333147 -0.455099 1.6738 201 234 212
0.341914 -0.455099 1.6738 210 238 220
0.348103 -0.451753 1.66149 187 226 200
0.354505 -0.44884 1.65078 181 221 192
0.365508 -0.451753 1.66149 211 237 220
0.366141 -0.442011 1.62567 195 229 208
0.376666 -0.444382 1.63439 180 219 192
0.391615 -0.451753 1.66149 192 225 202
0.401381 -0.452952 1.6659 200 231 212
0.429896 -0.474809 1.74629 174 218 189
0.435889 -0.471399 1.73375 199 231 207
0.441025 -0.467219 1.71838 180 222 191
0.455021 -0.472405 1.73745 188 225 200
0.451454 -0.459511 1.69003 211 235 218
0.468026 -0.467219 1.71838 198 229 208
0.486175 -0.476179 1.75133 176 218 189
0.47342 -0.455099 1.6738 176 218 187
0.499457 -0.471399 1.73375 194 227 201
0.504501 -0.467657 1.71999 189 222 196
0.517619 -0.471399 1.73375 208 233 213
0.522519 -0.467657 1.71999 182 219 191
0.53216 -0.468213 1.72203 174 215 183
0.526022 -0.455099 1.6738 194 226 201
0.544704 -0.463536 1.70483 180 216 188
0.57651 -0.48269 1.77528 175 212 181
0.572105 -0.471399 1.73375 169 210 177
0.56653 -0.459511 1.69003 194 227 203
0.585581 -0.467657 1.71999 189 228 203
0.589351 -0.463536 1.70483 179 221 193
0.592403 -0.458982 1.68808 168 211 179
0.601245 -0.458982 1.68808 166 208 175
0.632945 -0.476179 1.75133 167 211 181
0.631377 -0.468213 1.72203 168 215 182
0.633999 -0.463536 1.70483 174 217 185
0.662889 -0.477927 1.75776 198 228 204
0.645454 -0.458982 1.68808 193 226 201
0.673431 -0.472405 1.73745 183 220 193
0.676475 -0.468213 1.72203 190 223 198
0.714607 -0.488098 1.79517 190 223 198
0.687577 -0.463536 1.70483 183 219 192
0.723784 -0.48169 1.7716 205 231 210
0.737211 -0.484415 1.78162 196 225 202
0.742342 -0.48169 1.7716 168 210 175
0.745751 -0.477927 1.75776 187 221 194
0.723941 -0.458293 1.68555 177 217 189
0.806705 -0.504533 1.85562 181 220 194
0.78387 -0.484415 1.78162 182 220 191
0.775666 -0.473706 1.74224 194 228 203
0.795608 -0.480235 1.76625 177 221 188
0.796848 -0.475455 1.74867 188 227 199
0.775326 -0.457357 1.68211 184 225 199
0.823362 -0.480235 1.76625 175 219 185
0.803661 -0.463536 1.70483 192 228 200
0.812591 -0.463536 1.70483 213 239 221
0.832877 -0.469944 1.7284 194 230 208
0.883847 -0.493341 1.81445 175 219 190
0.875386 -0.483421 1.77797 194 225 201
0.870121 -0.475455 1.74867 198 228 204
0.883853 -0.477927 1.75776 193 228 202
0.912064 -0.488098 1.79517 180 221 185
0.939602 -0.497704 1.8305 211 237 216
0.918648 -0.48169 1.7716 192 228 204
0.965871 -0.501387 1.84404 180 222 193
1.02447 -0.526539 1.93655 181 217 185
0.9308 -0.473706 1.74224 210 235 215
0.939925 -0.473706 1.74224 202 234 214
0.874367 -0.436429 1.60514 196 231 209
0.958176 -0.473706 1.74224 195 229 206
1.01205 -0.495619 1.82283 201 232 210
1.02159 -0.495619 1.82283 188 227 201
1.08026 -0.519229 1.90967 192 229 204
1.07009 -0.509623 1.87433 190 228 203
1.07991 -0.509623 1.87433 175 222 190
1.0437 -0.488098 1.79517 194 230 203
0.87995 -0.407843 1.5 184 225 193
1.18374 -0.543791 2 214 240 220
0.949603 -0.432405 1.59033 195 232 206
1.11075 -0.501387 1.84404 185 227 199
0.911376 -0.407843 1.5 209 237 217
1.22564 -0.543791 2 180 222 190
1.05369 -0.463536 1.70483 203 235 211
1.06262 -0.463536 1.70483 204 236 212
-0.490266 -0.208003 0.780012 195 222 189
-0.500406 -0.21409 0.802837 194 222 189
-0.486939 -0.210093 0.78785 194 222 189
-0.478009 -0.208003 0.780012 193 221 188
-0.492125 -0.215992 0.80997 193 221 188
-0.46477 -0.20576 0.771599 192 221 187
-0.48761 -0.217765 0.816618 194 223 189
-0.458219 -0.20645 0.774187 193 222 188
-0.470487 -0.21387 0.802012 192 221 186
-0.453496 -0.208003 0.780012 196 224 190
-0.458142 -0.212045 0.795167 196 224 191
-0.453977 -0.212045 0.795167 196 224 191
-0.484006 -0.228164 0.855615 197 224 191
-0.441546 -0.210093 0.78785 197 224 191
-0.475043 -0.228164 0.855615 197 224 191
-0.454383 -0.220319 0.826197 197 225 192
-0.478845 -0.234413 0.87905 197 224 191
-0.471697 -0.233156 0.874334 197 225 192
-0.450934 -0.225078 0.844042 198 225 193
-0.465033 -0.234413 0.87905 198 226 192
-0.442092 -0.225078 0.844042 197 225 192
-0.448857 -0.23083 0.865614 198 225 192
-0.463421 -0.240752 0.90282 199 226 195
-0.474725 -0.249167 0.934376 197 226 193
-0.442011 -0.234413 0.87905 196 225 192
-0.452641 -0.242577 0.909666 197 225 192
-0.458897 -0.248547 0.93205 198 226 193
-0.441505 -0.241698 0.906367 199 227 193
-0.460002 -0.254561 0.954604 199 227 193
-0.455002 -0.254561 0.954604 197 226 192
-0.427263 -0.241698 0.906367 196 225 191
-0.429259 -0.245556 0.920833 199 227 194
-0.428455 -0.247881 0.929553 197 227 194
-0.423587 -0.247881 0.929553 198 227 194
-0.426608 -0.252552 0.947071 197 226 193
-0.445213 -0.266667 1 201 228 199
-0.452145 -0.274043 1.02766 198 227 194
-0.446763 -0.274043 1.02766 198 227 195
-0.429499 -0.266667 1 198 227 195
-0.424261 -0.266667 1 198 227 195
-0.430615 -0.274043 1.02766 197 227 195
-0.428405 -0.276088 1.03533 198 227 195
-0.408548 -0.266667 1 200 228 197
-0.42769 -0.282786 1.06045 198 227 195
-0.411398 -0.275593 1.03348 197 227 194
-0.406714 -0.276088 1.03533 198 227 196
-0.413475 -0.284471 1.06677 198 228 197
-0.424877 -0.29632 1.1112 198 227 195
-0.391228 -0.276641 1.03741 197 226 194
-0.403265 -0.289169 1.08438 197 227 195
-0.395672 -0.287778 1.07917 198 227 196
-0.391905 -0.289169 1.08438 198 227 195
-0.386225 -0.289169 1.08438 198 227 195
-0.380546 -0.289169 1.08438 197 227 195
-0.36259 -0.2797 1.04887 198 227 196
-0.371212 -0.290756 1.09033 197 227 195
-0.380268 -0.302503 1.13439 196 227 195
-0.377625 -0.305169 1.14438 196 227 195
-0.356302 -0.292581 1.09718 196 227 196
-0.369335 -0.308256 1.15596 197 228 197
-0.387728 -0.329 1.23375 195 226 195
-0.377645 -0.325876 1.22203 195 226 194
-0.408309 -0.358411 1.34404 195 227 197
-0.364844 -0.325876 1.22203 193 226 195
-0.379894 -0.345378 1.29517 194 227 196
-0.357862 -0.331263 1.24224 196 227 197
-0.37415 -0.352754 1.32283 194 227 196
-0.341008 -0.327573 1.2284 193 227 196
-0.369223 -0.361497 1.35562 193 226 196
-0.367123 -0.366489 1.37433 193 227 196
-0.348444 -0.3548 1.3305 191 226 195
-0.332407 -0.345378 1.29517 189 225 193
-0.334506 -0.3548 1.3305 193 225 194
-0.355056 -0.384609 1.44228 172 210 168
-0.361408 -0.4 1.5 157 199 156
-0.336947 -0.381214 1.42955 199 228 206
-0.345695 -0.4 1.5 202 230 212
-0.324839 -0.384609 1.44228 186 221 199
-0.361744 -0.438503 1.64438 167 215 189
-0.344703 -0.428037 1.60514 187 224 203
-0.324508 -0.413033 1.54887 182 222 198
-0.324864 -0.424089 1.59033 180 220 194
-0.312576 -0.418786 1.57045 172 219 192
-0.317108 -0.43634 1.63628 179 222 198
-0.310066 -0.438503 1.64438 173 217 188
-0.312535 -0.454622 1.70483 185 221 198
-0.301244 -0.451086 1.69157 170 214 186
-0.292117 -0.450675 1.69003 184 222 199
-0.28111 -0.447246 1.67717 165 215 188
-0.265378 -0.435836 1.63439 179 222 198
-0.265561 -0.450675 1.69003 169 216 188
-0.244354 -0.428985 1.60869 172 218 187
-0.247857 -0.450675 1.69003 165 212 178
-0.241098 -0.454622 1.70483 186 224 198
-0.232169 -0.454622 1.70483 166 213 182
-0.221046 -0.450156 1.68808 166 214 183
-0.208862 -0.443065 1.66149 173 218 188
-0.203597 -0.450675 1.69003 177 220 192
-0.190222 -0.440209 1.65078 201 231 211
-0.185893 -0.450675 1.69003 183 224 198
-0.172259 -0.438503 1.64438 172 219 189
-0.160094 -0.428985 1.60869 171 218 187
-0.159337 -0.450675 1.69003 179 220 191
-0.14904 -0.446347 1.6738 179 219 189
-0.137807 -0.438503 1.64438 171 215 183
-0.128557 -0.43634 1.63628 186 224 197
-0.125014 -0.454622 1.70483 181 222 193
-0.113133 -0.443065 1.66149 192 227 202
-0.105204 -0.446347 1.6738 175 218 188
-0.0947425 -0.438503 1.64438 188 224 198
-0.0870257 -0.443065 1.66149 189 226 201
-0.0762055 -0.431086 1.61657 179 222 193
-0.0696205 -0.443065 1.66149 180 221 195
-0.0602907 -0.438503 1.64438 174 218 191
-0.050556 -0.428985 1.60869 188 225 202
-0.0433679 -0.441589 1.65596 176 219 188
-0.0338691 -0.431086 1.61657 178 219 187
-0.0261077 -0.443065 1.66149 184 224 194
-0.0178591 -0.454622 1.70483 180 220 188
-0.00825493 -0.420275 1.57603 179 220 187
0 -0.438503 1.64438 193 227 202
0.00867357 -0.441589 1.65596 194 229 205
0.0173471 -0.441589 1.65596 188 226 200
0.0252221 -0.428037 1.60514 178 217 183
0.0338691 -0.431086 1.61657 198 227 200
0.0412746 -0.420275 1.57603 194 225 199
0.0516777 -0.438503 1.64438 174 219 187
0.0592709 -0.431086 1.61657 190 227 201
0.0701363 -0.446347 1.6738 185 220 191
0.0766342 -0.433511 1.62567 169 207 168
0.0822568 -0.418786 1.57045 202 227 202
0.0957282 -0.443065 1.66149 165 212 173
0.102179 -0.433511 1.62567 187 224 195
0.113971 -0.446347 1.6738 204 232 211
0.11712 -0.425915 1.59718 179 221 192
0.128557 -0.43634 1.63628 175 218 185
0.141633 -0.450675 1.69003 177 217 185
0.140334 -0.420275 1.57603 195 228 204
0.149937 -0.424089 1.59033 190 226 202
0.166574 -0.446347 1.6738 199 230 207
0.170298 -0.433511 1.62567 197 228 201
0.176555 -0.428037 1.60514 174 215 178
0.187328 -0.433511 1.62567 202 230 208
0.20538 -0.454622 1.70483 200 230 208
0.212204 -0.450156 1.68808 186 224 194
0.216839 -0.441589 1.65596 170 216 181
0.230153 -0.450675 1.69003 201 232 208
0.234186 -0.441589 1.65596 181 223 194
0.25225 -0.458663 1.71999 210 237 218
0.256413 -0.450156 1.68808 198 231 209
0.265561 -0.450675 1.69003 194 228 205
0.263962 -0.433511 1.62567 170 213 177
0.270953 -0.431086 1.61657 197 227 202
0.27942 -0.431086 1.61657 192 227 202
0.303605 -0.454622 1.70483 197 231 208
0.303575 -0.441589 1.65596 184 226 200
0.318673 -0.450675 1.69003 204 234 216
0.315052 -0.433511 1.62567 174 218 191
0.345816 -0.46332 1.73745 207 236 217
0.345229 -0.450675 1.69003 195 230 210
0.354081 -0.450675 1.69003 174 219 192
0.341524 -0.424089 1.59033 174 218 188
0.384162 -0.465678 1.74629 201 232 213
0.383971 -0.454622 1.70483 186 225 203
0.389489 -0.450675 1.69003 180 221 195
0.391615 -0.443065 1.66149 158 209 175
0.41076 -0.454622 1.70483 189 223 202
0.426083 -0.461547 1.7308 188 223 198
0.435889 -0.462333 1.73375 193 227 201
0.452704 -0.470369 1.76388 183 222 192
0.433679 -0.441589 1.65596 212 236 216
0.43926 -0.438503 1.64438 191 226 201
0.47563 -0.465678 1.74629 195 228 204
0.456486 -0.438503 1.64438 207 233 213
0.486027 -0.458234 1.71838 179 218 187
0.491126 -0.454622 1.70483 193 225 199
0.504501 -0.458663 1.71999 176 215 184
0.496046 -0.443065 1.66149 187 222 195
0.517915 -0.454622 1.70483 184 219 193
0.531528 -0.458663 1.71999 186 223 196
0.53051 -0.450156 1.68808 202 231 209
0.539974 -0.450675 1.69003 207 233 214
0.543556 -0.446347 1.6738 178 215 187
0.582048 -0.470369 1.76388 189 222 195
0.576572 -0.458663 1.71999 180 220 189
0.575382 -0.450675 1.69003 199 231 208
0.616719 -0.475733 1.784 204 232 211
0.587391 -0.446347 1.6738 186 220 194
0.612608 -0.458663 1.71999 168 211 181
0.603371 -0.4452 1.6695 208 234 218
0.642118 -0.467022 1.75133 199 231 208
0.658829 -0.472427 1.7716 190 226 200
0.648644 -0.458663 1.71999 180 217 184
0.651858 -0.454622 1.70483 194 226 202
0.681303 -0.468737 1.75776 202 230 211
0.69051 -0.468737 1.75776 181 220 191
0.697157 -0.467022 1.75133 207 233 213
0.687577 -0.454622 1.70483 184 221 195
0.727879 -0.4751 1.78162 187 223 197
0.682252 -0.439681 1.64881 175 214 182
0.721573 -0.459209 1.72203 172 212 178
0.730593 -0.459209 1.72203 195 225 201
0.754957 -0.468737 1.75776 182 221 195
0.774538 -0.4751 1.78162 207 233 216
0.740084 -0.448562 1.68211 202 233 213
0.767868 -0.459925 1.72472 200 233 212
0.776901 -0.459925 1.72472 203 234 213
0.787612 -0.460907 1.7284 213 239 220
0.785802 -0.454622 1.70483 207 234 214
0.828823 -0.474124 1.77797 184 222 190
0.803661 -0.454622 1.70483 180 220 184
0.878943 -0.491744 1.84404 213 240 221
0.856761 -0.474124 1.77797 198 233 214
0.84193 -0.460907 1.7284 178 222 195
0.815316 -0.441589 1.65596 184 220 193
0.870121 -0.466312 1.74867 182 221 191
0.894011 -0.474124 1.77797 181 221 189
0.952286 -0.499822 1.87433 176 219 182
0.889941 -0.462333 1.73375 203 233 210
0.930869 -0.478711 1.79517 189 227 202
0.927928 -0.472427 1.7716 204 233 214
1.02077 -0.514548 1.92955 180 217 185
0.86852 -0.433511 1.62567 208 235 213
1.04475 -0.516413 1.93655 211 238 221
0.965045 -0.472427 1.7716 177 222 195
1.0025 -0.486088 1.82283 179 223 196
1.0713 -0.514548 1.92955 185 225 197
1.00609 -0.478711 1.79517 195 230 206
0.985552 -0.464597 1.74224 196 231 207
0.928125 -0.433511 1.62567 207 236 217
0.982252 -0.454622 1.70483 180 224 194
1.0437 -0.478711 1.79517 203 235 212
0.95367 -0.433511 1.62567 185 227 196
1.00904 -0.454622 1.70483 203 234 209
0.895663 -0.4 1.5 210 240 219
1.0269 -0.454622 1.70483 179 226 196
1.13882 -0.499822 1.87433 194 227 201
0.996244 -0.433511 1.62567 180 220 188
0.92709 -0.4 1.5 199 231 208
0.934947 -0.4 1.5 190 228 200
-0.457826 -0.190432 0.7284 195 222 190
-0.460558 -0.193178 0.738905 195 223 190
-0.482094 -0.203925 0.780012 195 223 190
-0.482812 -0.205974 0.78785 195 223 191
-0.465561 -0.200327 0.76625 196 223 192
-0.478966 -0.207887 0.795167 195 223 189
-0.48364 -0.211757 0.80997 195 223 189
-0.475176 -0.209892 0.802837 195 223 189
-0.479055 -0.213495 0.816618 194 223 189
-0.494214 -0.222235 0.850047 196 224 190
-0.495951 -0.225043 0.860791 195 223 189
-0.485309 -0.222235 0.850047 196 224 190
-0.467365 -0.215999 0.826197 196 224 189
-0.492658 -0.229817 0.87905 197 224 190
-0.4497 -0.211757 0.80997 196 224 190
-0.480856 -0.228584 0.874334 197 224 190
-0.478845 -0.229817 0.87905 197 225 191
-0.474241 -0.229817 0.87905 196 224 191
-0.471976 -0.230962 0.883428 199 226 194
-0.465033 -0.229817 0.87905 198 226 193
-0.436084 -0.217666 0.832572 197 225 191
-0.46218 -0.233021 0.891307 196 224 190
-0.444323 -0.226304 0.865614 194 224 189
-0.439789 -0.226304 0.865614 198 226 194
-0.453964 -0.236031 0.90282 197 225 193
-0.441613 -0.232027 0.887504 197 227 192
-0.446252 -0.236959 0.906367 196 226 191
-0.439777 -0.236031 0.90282 199 227 193
-0.446636 -0.242318 0.926867 199 227 194
-0.441781 -0.242318 0.926867 197 226 192
-0.436927 -0.242318 0.926867 198 226 193
-0.433324 -0.24302 0.929553 199 227 194
-0.437501 -0.248151 0.949179 197 227 194
-0.433417 -0.24866 0.951125 197 226 193
-0.409759 -0.237821 0.909666 197 227 193
-0.420628 -0.247001 0.944781 198 228 196
-0.439975 -0.261438 1 196 227 195
-0.39884 -0.239851 0.917429 198 227 194
-0.44138 -0.26867 1.02766 197 227 194
-0.438464 -0.27019 1.03348 199 227 196
-0.392436 -0.244849 0.936549 198 227 195
-0.42632 -0.269357 1.03029 197 227 194
-0.420924 -0.269357 1.03029 198 227 195
-0.40331 -0.261438 1 199 228 196
-0.398072 -0.261438 1 199 227 196
-0.392835 -0.261438 1 198 227 196
-0.400572 -0.27019 1.03348 198 227 196
-0.409295 -0.279855 1.07045 199 228 197
-0.414719 -0.287502 1.0997 199 228 196
-0.385023 -0.270675 1.03533 198 228 196
-0.393981 -0.280929 1.07455 199 228 197
-0.394056 -0.285055 1.09033 198 228 195
-0.386225 -0.283499 1.08438 198 228 196
-0.392341 -0.292287 1.118 199 228 196
-0.361388 -0.273306 1.0454 197 227 195
-0.357096 -0.274216 1.04887 198 227 196
-0.370463 -0.288925 1.10514 198 228 197
-0.381444 -0.302211 1.15596 198 228 197
-0.379788 -0.305752 1.1695 196 227 196
-0.396902 -0.324768 1.24224 195 227 196
-0.384046 -0.319486 1.22203 196 227 196
-0.36637 -0.309947 1.18555 194 226 195
-0.377382 -0.324768 1.24224 195 227 196
-0.359708 -0.314989 1.20483 196 227 197
-0.364369 -0.324768 1.24224 196 228 198
-0.353876 -0.32115 1.2284 194 227 196
-0.366326 -0.338606 1.29517 193 226 195
-0.387218 -0.36467 1.39486 193 226 195
-0.352759 -0.338606 1.29517 190 225 193
-0.372606 -0.36467 1.39486 192 227 196
-0.355022 -0.354409 1.35562 190 226 194
-0.352726 -0.359303 1.37433 190 226 195
-0.362611 -0.377068 1.44228 182 216 183
-0.369265 -0.392157 1.5 144 189 138
-0.33113 -0.359303 1.37433 147 195 152
-0.370156 -0.410574 1.57045 183 221 196
-0.345695 -0.392157 1.5 195 230 215
-0.370357 -0.429904 1.64438 180 222 201
-0.342678 -0.407246 1.55772 148 206 173
-0.334519 -0.407246 1.55772 155 210 179
-0.32636 -0.407246 1.55772 190 226 204
-0.335905 -0.429904 1.64438 177 218 192
-0.326262 -0.428551 1.63921 174 218 190
-0.315052 -0.425011 1.62567 183 223 198
-0.304822 -0.422633 1.61657 174 217 189
-0.309821 -0.441838 1.69003 188 223 202
-0.285257 -0.418772 1.6018 174 216 190
-0.285333 -0.431577 1.65078 172 216 190
-0.283265 -0.441838 1.69003 194 229 209
-0.270496 -0.435531 1.6659 184 224 203
-0.26354 -0.438476 1.67717 181 221 198
-0.254756 -0.438476 1.67717 180 220 193
-0.243672 -0.434377 1.66149 180 220 192
-0.23255 -0.429904 1.64438 192 227 204
-0.222575 -0.42729 1.63439 173 219 189
-0.232464 -0.464125 1.77528 176 221 190
-0.206711 -0.429904 1.64438 183 223 195
-0.201642 -0.437595 1.6738 171 215 183
-0.191456 -0.434377 1.66149 172 215 189
-0.187521 -0.445708 1.70483 200 230 212
-0.178591 -0.445708 1.70483 174 218 189
-0.160094 -0.420573 1.60869 193 227 204
-0.157807 -0.437595 1.6738 188 224 200
-0.154707 -0.454236 1.73745 199 229 208
-0.137807 -0.429904 1.64438 185 223 197
-0.132628 -0.441329 1.68808 195 228 206
-0.123786 -0.441329 1.68808 182 223 194
-0.110694 -0.425011 1.62567 179 221 191
-0.103355 -0.429904 1.64438 178 220 189
-0.09314 -0.422633 1.61657 178 219 186
-0.0886011 -0.442241 1.69157 192 227 201
-0.0766342 -0.425011 1.62567 167 214 181
-0.0669256 -0.417563 1.59718 191 226 203
-0.0605252 -0.431577 1.65078 188 225 201
-0.0526022 -0.437595 1.6738 174 218 189
-0.0425745 -0.425011 1.62567 188 224 200
-0.0323779 -0.404025 1.5454 192 225 199
-0.0263011 -0.437595 1.6738 183 221 190
-0.0174051 -0.434377 1.66149 181 219 188
-0.00885203 -0.441838 1.69003 183 220 189
0 -0.429904 1.64438 175 218 186
0.00851491 -0.425011 1.62567 203 234 213
0.0166597 -0.415774 1.59033 179 222 193
0.0249895 -0.415774 1.59033 174 214 178
0.034978 -0.436471 1.6695 201 228 203
0.0442602 -0.441838 1.69003 204 233 210
0.0520414 -0.43293 1.65596 194 230 205
0.0613693 -0.437595 1.6738 172 220 188
0.0696205 -0.434377 1.66149 190 224 196
0.0756664 -0.419644 1.60514 175 213 179
0.0851491 -0.425011 1.62567 177 214 180
0.0957282 -0.434377 1.66149 161 212 174
0.0990591 -0.412034 1.57603 186 225 196
0.115076 -0.441838 1.69003 199 231 209
0.120581 -0.429904 1.64438 182 223 195
0.130104 -0.43293 1.65596 197 228 203
0.135476 -0.422633 1.61657 173 216 183
0.144753 -0.425011 1.62567 212 236 218
0.152411 -0.422633 1.61657 188 225 201
0.160878 -0.422633 1.61657 171 216 184
0.169345 -0.422633 1.61657 186 222 194
0.180872 -0.429904 1.64438 166 210 168
0.194745 -0.441838 1.69003 192 225 193
0.203597 -0.441838 1.69003 194 230 202
0.210409 -0.437595 1.6738 176 221 189
0.209143 -0.417563 1.59718 184 224 195
0.226267 -0.434377 1.66149 178 221 189
0.243531 -0.450205 1.72203 172 217 184
0.238417 -0.425011 1.62567 180 220 191
0.244354 -0.420573 1.60869 178 218 190
0.265255 -0.441329 1.68808 182 220 194
0.268881 -0.43293 1.65596 170 214 182
0.274255 -0.427784 1.63628 173 215 181
0.297017 -0.449249 1.71838 198 228 205
0.298679 -0.438476 1.67717 192 227 204
0.30459 -0.434377 1.66149 168 215 184
0.312249 -0.43293 1.65596 171 214 182
0.32438 -0.437595 1.6738 167 210 173
0.330698 -0.434377 1.66149 180 218 187
0.351767 -0.450205 1.72203 202 233 214
0.357183 -0.445708 1.70483 190 228 204
0.360172 -0.438476 1.67717 191 227 203
0.368216 -0.437595 1.6738 192 227 205
0.37421 -0.434377 1.66149 188 226 203
0.369925 -0.419644 1.60514 200 232 212
0.391615 -0.434377 1.66149 161 212 181
0.397737 -0.431577 1.65078 192 226 203
0.41288 -0.438476 1.67717 198 228 206
0.421665 -0.438476 1.67717 165 211 177
0.437549 -0.445708 1.70483 160 209 165
0.443005 -0.442241 1.69157 185 221 188
0.43926 -0.429904 1.64438 201 233 210
0.438152 -0.420573 1.60869 174 218 187
0.495244 -0.466405 1.784 187 223 196
0.486483 -0.44967 1.71999 196 227 204
0.499457 -0.453268 1.73375 188 223 199
0.504501 -0.44967 1.71999 197 227 206
0.499721 -0.437595 1.6738 183 219 194
0.509511 -0.438476 1.67717 171 212 179
0.535781 -0.453268 1.73375 178 217 186
0.52354 -0.435531 1.6659 173 217 185
0.544704 -0.445708 1.70483 188 224 200
0.558554 -0.44967 1.71999 180 220 192
0.582048 -0.461146 1.76388 183 219 191
0.582427 -0.454236 1.73745 173 214 182
0.575382 -0.441838 1.69003 179 218 186
0.584234 -0.441838 1.69003 190 224 197
0.614599 -0.457865 1.75133 192 225 203
0.607211 -0.445708 1.70483 177 218 193
0.61614 -0.445708 1.70483 193 228 207
0.637029 -0.454236 1.73745 204 234 215
0.628494 -0.441838 1.69003 189 226 201
0.631227 -0.437595 1.6738 181 217 188
0.66433 -0.454236 1.73745 210 235 217
0.673431 -0.454236 1.73745 200 230 211
0.657528 -0.437595 1.6738 172 216 183
0.705225 -0.463163 1.7716 209 236 218
0.733175 -0.475266 1.81789 198 230 213
0.738319 -0.472465 1.80718 187 225 200
0.713665 -0.450907 1.72472 195 229 204
0.746543 -0.465784 1.78162 207 235 213
0.723295 -0.445708 1.70483 201 232 210
0.732224 -0.445708 1.70483 174 219 190
0.760211 -0.457168 1.74867 194 228 207
0.76937 -0.457168 1.74867 189 227 204
0.786357 -0.461765 1.76625 196 232 211
0.802533 -0.465784 1.78162 202 234 214
0.766516 -0.439766 1.68211 182 223 198
0.806007 -0.457168 1.74867 196 228 204
0.815166 -0.457168 1.74867 172 214 180
0.853223 -0.473195 1.80997 168 213 175
0.872488 -0.478562 1.8305 195 230 205
0.842643 -0.457168 1.74867 207 237 220
0.83045 -0.445708 1.70483 178 221 195
0.875386 -0.464828 1.77797 192 225 203
0.902855 -0.474367 1.81445 207 235 216
0.902661 -0.469325 1.79517 208 236 215
0.88086 -0.453268 1.73375 206 234 211
0.889941 -0.453268 1.73375 184 223 192
0.842976 -0.425011 1.62567 198 231 209
0.92068 -0.459546 1.75776 196 230 208
0.949675 -0.469325 1.79517 191 226 200
0.985189 -0.482102 1.84404 201 231 208
0.983403 -0.476557 1.82283 210 238 221
0.88555 -0.425011 1.62567 180 224 199
0.918173 -0.436471 1.6695 202 234 213
0.926918 -0.436471 1.6695 208 238 217
0.976427 -0.455487 1.74224 215 241 224
1.03114 -0.476557 1.82283 187 226 200
0.945419 -0.43293 1.65596 209 237 218
0.982252 -0.445708 1.70483 184 225 198
0.991182 -0.445708 1.70483 194 231 208
1.06933 -0.476557 1.82283 202 235 214
1.00904 -0.445708 1.70483 175 222 189
1.01797 -0.445708 1.70483 208 238 216
0.979214 -0.425011 1.62567 205 237 218
1.03583 -0.445708 1.70483 180 220 192
0.919233 -0.392157 1.5 194 228 201
1.00476 -0.425011 1.62567 196 229 204
1.06262 -0.445708 1.70483 184 221 193
-0.484978 -0.197691 0.771599 195 222 189
-0.491065 -0.201854 0.78785 192 221 188
-0.478494 -0.198354 0.774187 194 222 190
-0.491996 -0.205694 0.802837 194 222 190
-0.492125 -0.207522 0.80997 193 221 188
-0.483089 -0.205483 0.802012 195 223 189
-0.513986 -0.220543 0.860791 195 223 190
-0.509477 -0.220543 0.860791 193 222 188
-0.488415 -0.213313 0.832572 188 219 182
-0.476355 -0.20992 0.819331 195 223 191
-0.46667 -0.207522 0.80997 197 224 192
-0.471692 -0.211679 0.826197 197 224 191
-0.445673 -0.201854 0.78785 197 223 189
-0.463037 -0.211679 0.826197 197 224 189
-0.454898 -0.20992 0.819331 196 224 190
-0.485858 -0.226342 0.883428 198 225 192
-0.412776 -0.194146 0.757762 200 225 193
-0.46895 -0.222708 0.869241 199 226 194
-0.469637 -0.225221 0.87905 196 224 190
-0.469505 -0.227387 0.887504 198 226 193
-0.453391 -0.221778 0.865614 198 226 193
-0.451193 -0.222932 0.870118 198 225 193
-0.457511 -0.228361 0.891307 200 226 195
-0.46217 -0.233065 0.909666 198 226 194
-0.457406 -0.233065 0.909666 196 225 192
-0.430721 -0.221778 0.865614 196 226 191
-0.447876 -0.233065 0.909666 197 226 192
-0.448552 -0.235926 0.920833 197 225 191
-0.436758 -0.23222 0.906367 197 225 191
-0.453344 -0.243687 0.951125 198 226 192
-0.438193 -0.23816 0.929553 198 226 193
-0.44149 -0.242648 0.947071 198 226 193
-0.448707 -0.249417 0.973489 197 227 194
-0.422363 -0.237472 0.926867 197 227 194
-0.45045 -0.256209 1 196 227 193
-0.420628 -0.242061 0.944781 195 227 194
-0.41568 -0.242061 0.944781 196 227 195
-0.411727 -0.242648 0.947071 197 226 193
-0.417619 -0.249122 0.972338 197 226 192
-0.448748 -0.270996 1.05772 199 227 195
-0.419024 -0.256209 1 198 227 194
-0.427638 -0.264786 1.03348 199 227 196
-0.408548 -0.256209 1 199 227 195
-0.40331 -0.256209 1 199 228 196
-0.410733 -0.264358 1.0318 198 227 195
-0.404735 -0.26397 1.03029 198 227 196
-0.402095 -0.265793 1.03741 198 228 197
-0.395159 -0.264786 1.03348 199 228 197
-0.403688 -0.274258 1.07045 198 228 196
-0.413237 -0.2847 1.1112 196 227 194
-0.382184 -0.267067 1.04238 197 227 195
-0.390019 -0.276492 1.07917 197 227 195
-0.400929 -0.288406 1.12567 198 228 196
-0.385036 -0.281107 1.09718 199 229 198
-0.392151 -0.29064 1.13439 196 227 195
-0.373542 -0.281107 1.09718 197 227 196
-0.409649 -0.313096 1.22203 197 227 195
-0.349026 -0.270996 1.05772 197 228 197
-0.365553 -0.288406 1.12567 195 227 195
-0.404574 -0.324425 1.26625 194 226 195
-0.36328 -0.296167 1.15596 194 226 195
-0.383889 -0.318273 1.24224 194 226 195
-0.371244 -0.313096 1.22203 194 227 196
-0.386678 -0.331834 1.29517 193 226 195
-0.397624 -0.347321 1.35562 194 227 195
-0.37311 -0.331834 1.29517 194 227 196
-0.358147 -0.324425 1.26625 192 226 194
-0.367222 -0.338921 1.32283 191 225 194
-0.362382 -0.340886 1.3305 192 226 196
-0.385274 -0.369526 1.44228 191 226 195
-0.339191 -0.331834 1.29517 191 226 195
-0.357994 -0.357377 1.39486 193 226 200
-0.389409 -0.396836 1.54887 164 207 167
-0.351922 -0.366265 1.42955 150 191 143
-0.349632 -0.371792 1.45113 164 206 171
-0.339948 -0.369526 1.44228 171 215 189
-0.358996 -0.399101 1.55772 164 216 194
-0.383971 -0.436794 1.70483 181 223 203
-0.345479 -0.402363 1.57045 171 216 192
-0.33262 -0.396836 1.54887 176 218 193
-0.324508 -0.396836 1.54887 179 219 195
-0.329126 -0.412804 1.6112 177 219 192
-0.323566 -0.41651 1.62567 174 217 190
-0.318679 -0.421306 1.64438 177 219 195
-0.324018 -0.440264 1.71838 172 215 190
-0.315018 -0.440264 1.71838 174 216 190
-0.303605 -0.436794 1.70483 173 216 190
-0.294676 -0.436794 1.70483 174 216 192
-0.277554 -0.424272 1.65596 182 222 202
-0.262485 -0.41418 1.61657 184 224 204
-0.258389 -0.421306 1.64438 194 227 207
-0.256709 -0.433001 1.69003 166 213 186
-0.24286 -0.424272 1.65596 188 224 202
-0.231136 -0.418745 1.63439 186 224 200
-0.227943 -0.428844 1.6738 176 220 192
-0.211682 -0.41418 1.61657 171 218 186
-0.208862 -0.42569 1.66149 180 220 191
-0.193798 -0.412162 1.60869 177 214 187
-0.189485 -0.421306 1.64438 177 215 187
-0.184478 -0.429707 1.67717 177 216 187
-0.176837 -0.432502 1.68808 162 211 177
-0.166909 -0.429707 1.67717 186 223 199
-0.160732 -0.436794 1.70483 175 216 188
-0.153152 -0.440677 1.71999 199 228 207
-0.136239 -0.41651 1.62567 177 220 193
-0.133943 -0.436794 1.70483 175 219 189
-0.122739 -0.428844 1.6738 180 222 193
-0.109538 -0.412162 1.60869 183 222 194
-0.104083 -0.424272 1.65596 189 225 197
-0.09314 -0.41418 1.61657 175 217 183
-0.0900894 -0.440677 1.71999 182 221 190
-0.0796683 -0.433001 1.69003 167 213 179
-0.0696205 -0.42569 1.66149 178 218 188
-0.062507 -0.436794 1.70483 187 223 198
-0.0508036 -0.41418 1.61657 187 223 197
-0.0435128 -0.42569 1.66149 178 219 189
-0.0342423 -0.418745 1.63439 183 222 192
-0.0258389 -0.421306 1.64438 191 225 199
-0.0175341 -0.428844 1.6738 178 219 188
-0.0083657 -0.409212 1.59718 169 213 178
0 -0.405469 1.58257 196 228 204
0.00885203 -0.433001 1.69003 199 232 209
0.0178591 -0.436794 1.70483 177 221 193
0.0248676 -0.405469 1.58257 162 210 172
0.0330197 -0.403794 1.57603 178 218 185
0.0433679 -0.424272 1.65596 179 222 192
0.0526022 -0.428844 1.6738 182 224 197
0.0605252 -0.422946 1.65078 181 224 196
0.0669256 -0.409212 1.59718 200 229 207
0.0775166 -0.421306 1.64438 198 228 207
0.0870257 -0.42569 1.66149 200 230 208
0.0924812 -0.411251 1.60514 181 224 197
0.0987081 -0.402363 1.57045 209 236 218
0.114944 -0.432502 1.68808 199 231 210
0.125014 -0.436794 1.70483 174 219 190
0.131506 -0.428844 1.6738 163 212 176
0.137807 -0.421306 1.64438 157 209 172
0.14699 -0.422946 1.65078 177 218 188
0.158124 -0.429707 1.67717 198 230 208
0.162651 -0.418745 1.63439 170 215 182
0.174513 -0.42682 1.6659 169 213 178
0.180872 -0.421306 1.64438 159 207 164
0.183257 -0.407458 1.59033 196 227 195
0.198098 -0.421306 1.64438 219 243 224
0.208862 -0.42569 1.66149 183 225 198
0.216839 -0.424272 1.65596 184 227 201
0.226267 -0.42569 1.66149 193 231 207
0.225874 -0.409212 1.59718 182 224 196
0.25225 -0.440677 1.71999 188 224 201
0.256709 -0.433001 1.69003 187 223 199
0.247648 -0.403794 1.57603 202 230 212
0.276817 -0.436794 1.70483 199 229 209
0.280545 -0.428844 1.6738 174 216 186
0.300314 -0.445151 1.73745 179 219 188
0.289507 -0.41651 1.62567 178 218 189
0.309821 -0.433001 1.69003 202 230 208
0.318673 -0.433001 1.69003 190 224 198
0.316742 -0.418745 1.63439 186 222 194
0.339324 -0.436794 1.70483 175 218 187
0.341914 -0.428844 1.6738 165 214 182
0.357183 -0.436794 1.70483 190 226 202
0.366112 -0.436794 1.70483 180 221 194
0.355625 -0.41418 1.61657 175 218 190
0.362318 -0.412162 1.60869 199 231 209
0.374656 -0.41651 1.62567 196 230 209
0.409519 -0.445151 1.73745 177 220 194
0.400318 -0.42569 1.66149 183 221 195
0.409021 -0.42569 1.66149 202 229 208
0.417723 -0.42569 1.66149 179 217 188
0.429585 -0.428844 1.6738 175 213 179
0.442602 -0.433001 1.69003 174 211 175
0.447119 -0.428844 1.6738 212 235 218
0.456803 -0.429707 1.67717 194 228 204
0.469158 -0.433001 1.69003 173 218 184
0.47342 -0.428844 1.6738 199 230 208
0.491126 -0.436794 1.70483 188 224 200
0.500056 -0.436794 1.70483 200 228 208
0.51351 -0.440677 1.71999 181 216 188
0.532041 -0.448707 1.75133 189 222 197
0.526844 -0.436794 1.70483 182 219 189
0.535774 -0.436794 1.70483 206 234 211
0.522195 -0.418745 1.63439 200 231 207
0.563024 -0.444203 1.73375 193 228 202
0.573326 -0.445151 1.73745 198 230 207
0.571492 -0.436794 1.70483 187 225 199
0.580422 -0.436794 1.70483 185 223 196
0.59459 -0.440677 1.71999 184 221 193
0.626063 -0.457077 1.784 171 215 184
0.623772 -0.448707 1.75133 203 232 213
0.621617 -0.440677 1.71999 198 229 210
0.630626 -0.440677 1.71999 203 232 214
0.633999 -0.436794 1.70483 181 222 197
0.637346 -0.433001 1.69003 170 215 181
0.658436 -0.441201 1.72203 190 225 198
0.708337 -0.468225 1.82751 204 233 210
0.682531 -0.445151 1.73745 183 223 192
0.714607 -0.459938 1.79517 210 237 218
0.694514 -0.441201 1.72203 204 234 218
0.715503 -0.448707 1.75133 184 227 203
0.733063 -0.4539 1.7716 204 235 215
0.746543 -0.456468 1.78162 195 229 204
0.731732 -0.441889 1.72472 201 231 208
0.732224 -0.436794 1.70483 186 223 196
0.780426 -0.459938 1.79517 169 211 181
0.796341 -0.463731 1.80997 173 214 185
0.775666 -0.446377 1.74224 166 215 183
0.738382 -0.41998 1.63921 204 233 213
0.776872 -0.436794 1.70483 181 222 193
0.806007 -0.448025 1.74867 196 227 202
0.865021 -0.475426 1.85562 194 225 200
0.824325 -0.448025 1.74867 190 225 201
0.855647 -0.459938 1.79517 203 234 213
0.856761 -0.455531 1.77797 190 228 203
0.874453 -0.459938 1.79517 205 231 211
0.82819 -0.430971 1.68211 179 218 192
0.884699 -0.455531 1.77797 174 222 195
0.843329 -0.429707 1.67717 194 231 209
0.888439 -0.448025 1.74867 184 223 194
0.912637 -0.455531 1.77797 181 220 187
0.956213 -0.47246 1.84404 210 234 214
0.912549 -0.446377 1.74224 180 221 193
0.917184 -0.444203 1.73375 175 218 189
0.896037 -0.429707 1.67717 186 225 202
0.900684 -0.427742 1.6695 192 229 207
0.928675 -0.436794 1.70483 185 225 199
0.987286 -0.459938 1.79517 180 223 194
1.01205 -0.467025 1.82283 195 232 207
0.955464 -0.436794 1.70483 189 230 204
1.03114 -0.467025 1.82283 197 231 208
1.0249 -0.459938 1.79517 192 227 202
1.07991 -0.480222 1.87433 187 225 198
0.91305 -0.402363 1.57045 177 222 191
1.09955 -0.480222 1.87433 195 231 208
0.980114 -0.424272 1.65596 194 231 205
1.07191 -0.459938 1.79517 184 226 197
0.780139 -0.331834 1.29517 203 235 215
0.987729 -0.41651 1.62567 179 219 192
0.793707 -0.331834 1.29517 189 226 200
1.05369 -0.436794 1.70483 192 228 204
1.06262 -0.436794 1.70483 198 229 206
-0.470565 -0.187901 0.748668 195 222 189
-0.500406 -0.201496 0.802837 194 222 188
-0.482094 -0.195768 0.780012 194 222 189
-0.500442 -0.204955 0.816618 193 222 188
-0.483131 -0.199571 0.795167 194 222 189
-0.474559 -0.197735 0.78785 194 223 189
-0.49479 -0.207973 0.828643 194 222 188
-0.489002 -0.207359 0.826197 194 222 188
-0.462179 -0.197735 0.78785 189 220 184
-0.448604 -0.193656 0.771599 195 222 191
-0.492969 -0.214743 0.855615 198 224 193
-0.504367 -0.221723 0.883428 197 224 190
-0.489662 -0.217252 0.865614 198 224 190
-0.449945 -0.201496 0.802837 197 224 189
-0.471952 -0.213345 0.850047 198 225 192
-0.441535 -0.201496 0.802837 195 223 189
-0.463047 -0.213345 0.850047 199 225 193
-0.455355 -0.211838 0.844042 200 227 196
-0.485994 -0.228308 0.909666 199 226 195
-0.467349 -0.221723 0.883428 197 225 193
-0.439192 -0.210449 0.838506 196 225 192
-0.455824 -0.220624 0.87905 198 226 192
-0.465242 -0.22748 0.906367 197 225 192
-0.474725 -0.23451 0.934376 196 225 193
-0.448174 -0.2237 0.891307 198 226 194
-0.451 -0.22748 0.906367 197 226 192
-0.468289 -0.238714 0.951125 196 226 192
-0.432316 -0.222746 0.887504 197 226 192
-0.449134 -0.233926 0.93205 197 226 192
-0.441781 -0.232625 0.926867 198 226 193
-0.448362 -0.238714 0.951125 198 225 192
-0.445002 -0.239587 0.954604 197 226 193
-0.414371 -0.225631 0.898997 197 227 193
-0.43253 -0.238225 0.949179 196 227 193
-0.439426 -0.244838 0.975527 197 227 194
-0.433881 -0.244593 0.974549 195 227 194
-0.416687 -0.237696 0.947071 197 227 195
-0.434737 -0.25098 1 197 226 192
-0.417079 -0.243723 0.971083 197 226 192
-0.424261 -0.25098 1 198 227 194
-0.431141 -0.258238 1.02892 198 227 194
-0.413786 -0.25098 1 198 227 195
-0.394872 -0.242579 0.966525 199 227 195
-0.391093 -0.243378 0.969708 198 227 194
-0.439925 -0.277368 1.10514 200 228 196
-0.41776 -0.266905 1.06345 199 228 197
-0.399924 -0.258963 1.0318 196 227 194
-0.395868 -0.259848 1.03533 196 227 194
-0.42162 -0.280595 1.118 197 227 195
-0.385023 -0.259848 1.03533 196 227 194
-0.395672 -0.27085 1.07917 196 227 194
-0.376724 -0.261617 1.04238 197 227 195
-0.372339 -0.262374 1.0454 197 227 195
-0.401602 -0.287218 1.14438 195 227 194
-0.374866 -0.272159 1.08438 197 228 196
-0.400776 -0.295447 1.17717 197 227 195
-0.392039 -0.293522 1.1695 197 227 196
-0.362049 -0.275371 1.09718 196 227 195
-0.406362 -0.31406 1.25133 196 227 196
-0.396902 -0.311777 1.24224 196 227 196
-0.372579 -0.297549 1.18555 195 227 196
-0.383889 -0.311777 1.24224 195 227 196
-0.366019 -0.302389 1.20483 194 227 196
-0.359708 -0.302389 1.20483 194 227 196
-0.371412 -0.317804 1.26625 193 226 195
-0.381079 -0.332004 1.32283 194 227 195
-0.37632 -0.333929 1.3305 192 226 194
-0.326786 -0.295447 1.17717 191 225 194
-0.383944 -0.353798 1.40967 192 226 195
-0.345975 -0.325062 1.29517 191 226 196
-0.329395 -0.315674 1.25776 191 226 195
-0.384978 -0.376471 1.5 189 224 196
-0.362611 -0.361985 1.44228 173 214 181
-0.381296 -0.388737 1.54887 172 212 178
-0.349632 -0.364204 1.45113 164 208 176
-0.339948 -0.361985 1.44228 190 223 202
-0.37897 -0.412708 1.64438 186 221 200
-0.353704 -0.394151 1.57045 172 215 192
-0.342678 -0.390956 1.55772 187 222 205
-0.322124 -0.376471 1.5 199 228 212
-0.365019 -0.437268 1.74224 187 223 204
-0.348253 -0.42788 1.70483 189 225 201
-0.339324 -0.42788 1.70483 177 219 192
-0.327525 -0.424164 1.69003 167 214 188
-0.314124 -0.418109 1.6659 195 228 210
-0.305398 -0.418109 1.6659 178 219 195
-0.301244 -0.424551 1.69157 173 217 191
-0.292117 -0.424164 1.69003 193 227 207
-0.28111 -0.420937 1.67717 172 218 192
-0.265378 -0.410199 1.63439 174 217 191
-0.255447 -0.40801 1.62567 173 216 190
-0.254244 -0.420092 1.6738 172 216 191
-0.245477 -0.420092 1.6738 180 220 197
-0.229902 -0.40801 1.62567 177 220 196
-0.236107 -0.435137 1.73375 181 222 199
-0.216839 -0.415613 1.65596 178 221 193
-0.208862 -0.417002 1.66149 183 222 194
-0.20538 -0.42788 1.70483 177 217 193
-0.191456 -0.417002 1.66149 181 219 194
-0.180872 -0.412708 1.64438 182 218 191
-0.180179 -0.431683 1.71999 171 213 181
-0.166574 -0.420092 1.6738 166 211 180
-0.155033 -0.412708 1.64438 169 213 183
-0.147944 -0.417002 1.66149 181 220 195
-0.140273 -0.420092 1.6738 188 227 204
-0.127724 -0.40801 1.62567 181 224 197
-0.117964 -0.40375 1.60869 161 213 178
-0.113971 -0.420092 1.6738 196 228 204
-0.109205 -0.436066 1.73745 182 221 192
-0.093664 -0.40801 1.62567 184 222 193
-0.0870257 -0.417002 1.66149 179 219 188
-0.0766342 -0.40801 1.62567 198 229 205
-0.0693886 -0.415613 1.65596 207 232 212
-0.060918 -0.417002 1.66149 189 223 197
-0.0513635 -0.410199 1.63439 188 222 196
-0.0438352 -0.420092 1.6738 187 221 194
-0.0323779 -0.387864 1.5454 173 218 187
-0.0261077 -0.417002 1.66149 192 227 204
-0.0175341 -0.420092 1.6738 176 218 188
-0.00861295 -0.412708 1.64438 177 218 188
0 -0.402858 1.60514 174 216 186
0.00840738 -0.402858 1.60514 200 232 211
0.0180393 -0.432197 1.72203 188 228 203
0.0262335 -0.419012 1.6695 185 223 194
0.0338691 -0.405728 1.61657 177 218 186
0.0438352 -0.420092 1.6738 197 230 206
0.052467 -0.419012 1.6695 187 225 201
0.060715 -0.415613 1.65596 169 213 183
0.0658054 -0.394151 1.57045 160 209 176
0.0771343 -0.410673 1.63628 168 213 182
0.0861295 -0.412708 1.64438 189 226 202
0.0920227 -0.400861 1.59718 165 215 184
0.100889 -0.402858 1.60514 185 224 200
0.114944 -0.423676 1.68808 200 230 209
0.11712 -0.400861 1.59718 170 215 184
0.129194 -0.412708 1.64438 180 223 195
0.137807 -0.412708 1.64438 191 228 203
0.147944 -0.417002 1.66149 192 228 203
0.155033 -0.412708 1.64438 186 223 196
0.158948 -0.400861 1.59718 189 224 198
0.171212 -0.410199 1.63439 178 219 187
0.173353 -0.395553 1.57603 168 210 173
0.19452 -0.423676 1.68808 163 210 171
0.194497 -0.405207 1.6145 201 232 208
0.206711 -0.412708 1.64438 201 232 210
0.215324 -0.412708 1.64438 203 235 214
0.223937 -0.412708 1.64438 184 227 200
0.241098 -0.42788 1.70483 206 235 215
0.247571 -0.423676 1.68808 188 226 203
0.249776 -0.412708 1.64438 182 221 197
0.267887 -0.42788 1.70483 172 216 190
0.271778 -0.420092 1.6738 187 225 201
0.283265 -0.424164 1.69003 183 223 196
0.301141 -0.437268 1.74224 184 223 196
0.29106 -0.410199 1.63439 182 223 195
0.303575 -0.415613 1.65596 190 228 203
0.315613 -0.420092 1.6738 208 236 217
0.316742 -0.410199 1.63439 185 222 196
0.339324 -0.42788 1.70483 189 225 200
0.3394 -0.417002 1.66149 191 226 202
0.338691 -0.405728 1.61657 180 218 190
0.369021 -0.431279 1.71838 192 226 203
0.365508 -0.417002 1.66149 202 232 214
0.380637 -0.424164 1.69003 189 226 203
0.392901 -0.42788 1.70483 194 228 205
0.397883 -0.423676 1.68808 204 233 213
0.400318 -0.417002 1.66149 185 223 197
0.406384 -0.414314 1.65078 174 215 184
0.432429 -0.431683 1.71999 192 224 199
0.448189 -0.438285 1.74629 203 229 208
0.435128 -0.417002 1.66149 171 212 178
0.459456 -0.431683 1.71999 197 226 203
0.464337 -0.42788 1.70483 188 224 196
0.473267 -0.42788 1.70483 196 228 202
0.462271 -0.410199 1.63439 208 233 214
0.486862 -0.424164 1.69003 167 212 179
0.517376 -0.4427 1.76388 208 232 214
0.51351 -0.431683 1.71999 185 220 193
0.5267 -0.435137 1.73375 201 229 208
0.539657 -0.438285 1.74629 200 230 208
0.531122 -0.424164 1.69003 185 226 195
0.539974 -0.424164 1.69003 212 238 218
0.54465 -0.420937 1.67717 187 226 199
0.548262 -0.417002 1.66149 207 235 217
0.556964 -0.417002 1.66149 198 230 209
0.575382 -0.424164 1.69003 175 218 189
0.609765 -0.4427 1.76388 188 224 198
0.592403 -0.423676 1.68808 180 218 190
0.596159 -0.420092 1.6738 185 221 195
0.604926 -0.420092 1.6738 178 217 180
0.614928 -0.420937 1.67717 203 231 207
0.64613 -0.436066 1.73745 185 222 198
0.672784 -0.447749 1.784 186 224 193
0.651858 -0.42788 1.70483 195 228 201
0.695801 -0.450552 1.79517 192 227 200
0.675671 -0.431683 1.71999 166 212 175
0.685495 -0.432197 1.72203 177 220 188
0.728853 -0.453566 1.80718 196 230 209
0.709832 -0.436066 1.73745 166 217 187
0.746996 -0.453088 1.80527 190 227 203
0.707347 -0.423676 1.68808 182 222 193
0.76162 -0.450552 1.79517 178 218 188
0.771023 -0.450552 1.79517 193 226 202
0.725794 -0.419012 1.6695 193 225 199
0.741598 -0.423039 1.68555 208 234 216
0.723767 -0.40801 1.62567 191 227 204
0.767943 -0.42788 1.70483 193 229 205
