ply
format ascii 1.0
element vertex 1246
property float x
property float y
property float z
property uchar red
property uchar green
property uchar blue
end_header
0.361232 -0.694831 1.68211 188 231 204
0.375042 -0.704219 1.70483 183 230 200
0.372964 -0.68403 1.65596 182 230 203
0.381637 -0.68403 1.65596 188 231 206
0.396474 -0.694831 1.68211 194 230 208
0.416438 -0.713954 1.7284 175 221 194
0.430481 -0.722326 1.74867 201 234 213
0.428619 -0.704219 1.70483 189 230 207
0.456318 -0.734428 1.77797 195 233 211
0.440526 -0.694831 1.68211 176 226 196
0.479539 -0.741533 1.79517 180 226 194
0.476277 -0.722326 1.74867 212 241 222
0.503698 -0.749499 1.81445 178 227 203
0.488862 -0.713954 1.7284 177 229 205
0.508819 -0.729588 1.76625 194 234 215
0.488025 -0.687276 1.66382 176 225 200
0.5022 -0.694831 1.68211 165 220 191
0.531232 -0.722326 1.74867 202 236 212
0.543201 -0.726082 1.75776 188 229 200
0.552408 -0.726082 1.75776 175 223 193
0.553943 -0.716163 1.73375 178 226 196
0.582969 -0.741533 1.79517 198 234 211
0.592371 -0.741533 1.79517 198 234 210
0.652695 -0.80428 1.94707 213 241 222
0.590267 -0.716163 1.73375 185 228 204
0.589351 -0.704219 1.70483 181 223 195
0.608429 -0.716163 1.73375 200 235 210
0.667582 -0.774235 1.87433 211 242 224
0.648788 -0.741533 1.79517 189 231 208
0.602907 -0.679249 1.64438 179 223 193
0.697034 -0.774235 1.87433 179 224 192
0.629605 -0.689624 1.6695 189 228 200
0.679821 -0.734428 1.77797 201 236 213
0.675286 -0.719669 1.74224 187 231 205
0.730983 -0.76864 1.86079 174 225 194
0.714607 -0.741533 1.79517 186 231 204
0.724009 -0.741533 1.79517 202 238 216
0.733412 -0.741533 1.79517 189 231 205
0.742815 -0.741533 1.79517 193 233 206
0.742342 -0.731798 1.7716 206 239 220
0.795208 -0.774235 1.87433 186 229 207
0.732224 -0.704219 1.70483 183 224 196
0.780426 -0.741533 1.79517 186 226 194
0.734539 -0.689624 1.6695 209 242 223
0.855179 -0.793442 1.92083 175 228 202
0.808634 -0.741533 1.79517 171 220 188
0.863467 -0.782715 1.89486 177 222 192
0.827439 -0.741533 1.79517 183 225 196
0.794731 -0.704219 1.70483 196 232 208
0.821294 -0.719669 1.74224 197 233 210
0.893382 -0.774235 1.87433 173 224 190
0.82152 -0.704219 1.70483 198 236 212
0.913016 -0.774235 1.87433 210 244 225
0.883856 -0.741533 1.79517 164 227 195
0.932651 -0.774235 1.87433 192 237 213
0.857238 -0.704219 1.70483 172 227 199
1.01613 -0.826144 2 199 237 215
0.946554 -0.761722 1.84404 193 232 209
0.911473 -0.726082 1.75776 175 225 196
0.965871 -0.761722 1.84404 196 235 214
0.97553 -0.761722 1.84404 200 236 217
0.910816 -0.704219 1.70483 177 226 197
1.07899 -0.826144 2 185 230 203
0.817096 -0.619608 1.5 199 234 214
0.937604 -0.704219 1.70483 177 225 200
0.90258 -0.671517 1.62567 182 228 202
1.00609 -0.741533 1.79517 198 235 214
0.899623 -0.656922 1.59033 188 231 211
1.14184 -0.826144 2 197 236 219
0.864236 -0.619608 1.5 174 228 204
0.872093 -0.619608 1.5 187 233 213
1.00011 -0.704219 1.70483 200 238 221
1.18374 -0.826144 2 215 245 230
1.20469 -0.826144 2 192 233 210
1.51896 -1.03268 2.5 166 223 192
0.61806 -0.413072 1 170 221 194
0.623298 -0.413072 1 169 219 197
-0.452538 -0.293642 0.719988 187 222 190
-0.468303 -0.306426 0.751332 188 223 191
-0.435629 -0.287461 0.704833 186 222 189
-0.464373 -0.309048 0.757762 185 222 190
-0.483131 -0.324303 0.795167 189 223 192
-0.460122 -0.311545 0.763883 189 222 191
-0.420862 -0.287461 0.704833 189 222 191
-0.45212 -0.311545 0.763883 187 223 191
-0.413478 -0.287461 0.704833 189 225 194
-0.486153 -0.341031 0.836183 187 223 193
-0.429982 -0.30437 0.746293 186 223 192
-0.448552 -0.320429 0.785666 189 223 192
-0.438562 -0.316192 0.775279 188 222 192
-0.434501 -0.316192 0.775279 185 221 190
-0.426556 -0.313339 0.768284 190 223 194
-0.46813 -0.347154 0.851194 188 221 196
-0.44822 -0.335585 0.822829 177 217 192
-0.423861 -0.320429 0.785666 184 222 199
-0.435126 -0.332169 0.814453 184 219 191
-0.446513 -0.344237 0.844042 180 217 184
-0.425265 -0.331135 0.811916 188 222 193
-0.392931 -0.309048 0.757762 179 216 184
-0.429216 -0.341031 0.836183 178 214 179
-0.409131 -0.328424 0.805271 176 212 176
-0.40953 -0.332169 0.814453 172 208 174
-0.452641 -0.371001 0.909666 167 200 165
-0.435979 -0.361146 0.885502 163 197 160
-0.425901 -0.356591 0.874334 160 191 152
-0.413321 -0.349819 0.85773 154 184 150
-0.42912 -0.367183 0.900304 144 171 142
-0.401254 -0.347154 0.851194 142 167 140
-0.393462 -0.344237 0.844042 140 163 132
-0.414974 -0.367183 0.900304 131 150 118
-0.421715 -0.377437 0.925446 127 147 119
-0.405542 -0.367183 0.900304 116 136 108
-0.4183 -0.38319 0.939552 110 120 97
-0.423518 -0.392588 0.962595 110 119 99
-0.38903 -0.364964 0.894863 101 110 90
-0.413434 -0.392588 0.962595 90 93 80
-0.395935 -0.380613 0.933233 86 88 77
-0.385851 -0.375555 0.920833 85 79 78
-0.384636 -0.379112 0.929553 85 74 77
-0.376205 -0.375555 0.920833 83 71 74
-0.373242 -0.377437 0.925446 79 67 70
-0.398072 -0.407843 1 80 67 71
-0.361735 -0.375555 0.920833 77 65 69
-0.34993 -0.368209 0.90282 76 64 68
-0.382359 -0.407843 1 78 66 69
-0.392107 -0.42405 1.03974 76 63 66
-0.344158 -0.377437 0.925446 72 59 63
-0.351108 -0.390559 0.957621 73 60 63
-0.361408 -0.407843 1 71 58 61
-0.35617 -0.407843 1 72 58 61
-0.350932 -0.407843 1 69 52 57
-0.345695 -0.407843 1 69 53 58
-0.362059 -0.433721 1.06345 70 54 59
-0.335219 -0.407843 1 67 50 56
-0.329981 -0.407843 1 67 51 58
-0.345349 -0.433721 1.06345 73 60 64
-0.319506 -0.407843 1 72 59 62
-0.332406 -0.431382 1.05772 69 53 59
-0.30903 -0.407843 1 68 53 60
-0.325193 -0.436574 1.07045 71 57 63
-0.298554 -0.407843 1 72 58 64
-0.316537 -0.440131 1.07917 69 56 62
-0.265272 -0.375555 0.920833 69 57 63
-0.326952 -0.47145 1.15596 72 61 67
-0.258047 -0.379112 0.929553 71 60 67
-0.342571 -0.51297 1.25776 73 62 69
-0.295213 -0.450722 1.10514 72 64 69
-0.2948 -0.459095 1.12567 71 62 68
-0.27697 -0.440131 1.07917 72 62 69
-0.274126 -0.444685 1.09033 72 66 71
-0.330871 -0.548158 1.34404 71 65 69
-0.271216 -0.459095 1.12567 71 65 70
-0.28398 -0.491383 1.20483 71 66 72
-0.309752 -0.548158 1.34404 70 66 71
-0.248905 -0.450722 1.10514 69 66 70
-0.28492 -0.528225 1.29517 72 68 77
-0.26677 -0.506638 1.24224 71 72 81
-0.314268 -0.611765 1.5 71 75 84
-0.274553 -0.548158 1.34404 71 76 86
-0.329596 -0.675371 1.65596 74 75 91
-0.260473 -0.548158 1.34404 75 76 89
-0.321464 -0.695304 1.70483 77 79 86
-0.287899 -0.640496 1.57045 82 86 85
-0.267128 -0.611765 1.5 82 88 90
-0.23755 -0.560513 1.37433 79 92 95
-0.266555 -0.648607 1.59033 84 99 96
-0.254996 -0.640496 1.57045 87 101 102
-0.249895 -0.648607 1.59033 90 100 107
-0.258957 -0.695304 1.70483 92 105 111
-0.247199 -0.687439 1.68555 92 110 112
-0.251958 -0.726623 1.78162 95 115 116
-0.221388 -0.663017 1.62567 97 120 118
-0.220263 -0.686035 1.68211 99 130 122
-0.217272 -0.704916 1.7284 102 139 126
-0.212779 -0.720353 1.76625 109 145 131
-0.19645 -0.695304 1.70483 122 153 141
-0.183009 -0.678577 1.66382 128 154 142
-0.18106 -0.704916 1.7284 139 165 151
-0.16558 -0.678577 1.66382 145 175 157
-0.148884 -0.644052 1.57917 149 180 159
-0.147451 -0.675371 1.65596 157 188 163
-0.146547 -0.713182 1.74867 159 189 170
-0.132158 -0.686035 1.68211 155 188 170
-0.112737 -0.62702 1.53741 164 195 174
-0.111616 -0.66854 1.63921 174 202 178
-0.105416 -0.684023 1.67717 178 208 183
-0.0954093 -0.675371 1.65596 173 211 187
-0.0881053 -0.686035 1.68211 169 211 186
-0.0814771 -0.704916 1.7284 179 216 192
-0.0704842 -0.686035 1.68211 180 216 186
-0.0586522 -0.652425 1.5997 186 219 193
-0.0499791 -0.648607 1.59033 192 222 198
-0.0446478 -0.695304 1.70483 184 218 192
-0.0357183 -0.695304 1.70483 186 221 194
-0.0277538 -0.720353 1.76625 186 221 193
-0.018106 -0.704916 1.7284 187 221 199
-0.00892957 -0.695304 1.70483 190 226 200
0 -0.675371 1.65596 187 226 194
0.00881053 -0.686035 1.68211 191 228 198
0.0183183 -0.713182 1.74867 188 226 195
0.0261442 -0.678577 1.66382 176 220 187
0.0337565 -0.657117 1.6112 166 217 184
0.0435737 -0.678577 1.66382 205 239 222
0.0535774 -0.695304 1.70483 150 214 183
0.062507 -0.695304 1.70483 180 220 193
0.0642562 -0.625417 1.53348 194 226 202
0.0759522 -0.657117 1.6112 167 212 177
0.0892957 -0.695304 1.70483 163 214 177
0.0995831 -0.704916 1.7284 164 221 186
0.10127 -0.657117 1.6112 181 228 202
0.112756 -0.675371 1.65596 185 228 207
0.119209 -0.663017 1.62567 166 212 184
0.13177 -0.684023 1.67717 169 216 182
0.135026 -0.657117 1.6112 200 234 212
0.149779 -0.686035 1.68211 177 224 194
0.158589 -0.686035 1.68211 201 233 210
0.164798 -0.675371 1.65596 187 226 198
0.165427 -0.644052 1.57917 189 228 201
0.180303 -0.66854 1.63921 181 222 192
0.193263 -0.684023 1.67717 203 233 211
0.202642 -0.686035 1.68211 196 232 211
0.208166 -0.675371 1.65596 172 223 190
0.219617 -0.684023 1.67717 195 231 206
0.228402 -0.684023 1.67717 192 229 203
0.227857 -0.657117 1.6112 194 230 205
0.24286 -0.675371 1.65596 187 229 195
0.272679 -0.732147 1.79517 175 224 186
0.257575 -0.66854 1.63921 187 229 201
0.276817 -0.695304 1.70483 165 219 193
0.281937 -0.686035 1.68211 170 221 194
0.298749 -0.704916 1.7284 187 227 202
0.314543 -0.720353 1.76625 199 234 212
0.312535 -0.695304 1.70483 186 230 205
0.317179 -0.686035 1.68211 197 235 213
0.330394 -0.695304 1.70483 173 226 197
0.344014 -0.704916 1.7284 182 229 203
0.324864 -0.648607 1.59033 173 223 192
0.357183 -0.695304 1.70483 207 237 216
0.353131 -0.670651 1.64438 205 238 215
0.36429 -0.675371 1.65596 191 232 204
0.366141 -0.663017 1.62567 180 229 204
0.387663 -0.686035 1.68211 181 229 204
0.43145 -0.746556 1.8305 175 221 193
0.41076 -0.695304 1.70483 194 230 208
0.396639 -0.657117 1.6112 180 224 198
0.428619 -0.695304 1.70483 185 227 203
0.443597 -0.704916 1.7284 201 234 218
0.46034 -0.716891 1.75776 168 221 195
0.442352 -0.675371 1.65596 167 218 182
0.470756 -0.704916 1.7284 191 230 204
0.473267 -0.695304 1.70483 186 231 209
0.482197 -0.695304 1.70483 203 238 221
0.477046 -0.675371 1.65596 167 224 197
0.476835 -0.663017 1.62567 184 230 203
0.494394 -0.675371 1.65596 197 234 210
0.556091 -0.746556 1.8305 191 232 207
0.519821 -0.686035 1.68211 171 223 192
0.552408 -0.716891 1.75776 191 233 210
0.519409 -0.663017 1.62567 202 237 215
0.54465 -0.684023 1.67717 184 228 199
0.562563 -0.695304 1.70483 170 221 186
0.586187 -0.713182 1.74867 183 228 199
0.571004 -0.684023 1.67717 202 236 215
0.607649 -0.716891 1.75776 177 225 198
0.653012 -0.758911 1.86079 172 223 190
0.597358 -0.684023 1.67717 173 225 192
0.626591 -0.707098 1.73375 195 234 209
0.62507 -0.695304 1.70483 198 235 212
0.644753 -0.707098 1.73375 185 226 198
0.695427 -0.75208 1.84404 185 226 197
0.628745 -0.670651 1.64438 190 230 203
0.616409 -0.648607 1.59033 190 232 207
0.681077 -0.707098 1.73375 198 234 212
0.714607 -0.732147 1.79517 182 227 200
0.750476 -0.758911 1.86079 175 222 192
0.655776 -0.654644 1.60514 170 220 188
0.664183 -0.654644 1.60514 177 224 190
0.742342 -0.722535 1.7716 218 243 225
0.773356 -0.743428 1.82283 183 226 199
0.782904 -0.743428 1.82283 179 224 195
0.757415 -0.71056 1.74224 207 239 217
0.773371 -0.716891 1.75776 206 242 222
0.782578 -0.716891 1.75776 198 238 215
0.767943 -0.695304 1.70483 183 228 201
0.818037 -0.732147 1.79517 200 234 213
0.785802 -0.695304 1.70483 175 223 191
0.836842 -0.732147 1.79517 164 216 179
0.803661 -0.695304 1.70483 184 227 196
0.893382 -0.764434 1.87433 178 225 192
0.783371 -0.663017 1.62567 206 241 220
0.791886 -0.663017 1.62567 163 225 192
0.839379 -0.695304 1.70483 172 227 195
0.942866 -0.772807 1.89486 216 245 227
0.942468 -0.764434 1.87433 177 229 202
0.893059 -0.716891 1.75776 173 227 199
1.02661 -0.815686 2 173 224 196
1.03708 -0.815686 2 188 231 206
0.981738 -0.764434 1.87433 178 228 201
0.901886 -0.695304 1.70483 194 234 212
1.00137 -0.764434 1.87433 199 235 213
0.994848 -0.75208 1.84404 186 228 205
0.656309 -0.491383 1.20483 170 221 192
1.03082 -0.764434 1.87433 198 235 213
0.996688 -0.732147 1.79517 175 226 198
1.00609 -0.732147 1.79517 152 215 179
0.777436 -0.560513 1.37433 171 223 194
0.739437 -0.528225 1.29517 207 241 223
0.982252 -0.695304 1.70483 170 226 201
0.991182 -0.695304 1.70483 159 218 186
1.17327 -0.815686 2 168 224 195
0.887806 -0.611765 1.5 207 241 223
0.90352 -0.611765 1.5 188 231 207
0.612822 -0.407843 1 208 238 222
0.435629 -0.287461 0.704833 175 224 199
0.934947 -0.611765 1.5 197 232 209
-0.412293 -0.264098 0.655958 187 222 190
-0.465163 -0.300468 0.746293 186 222 189
-0.453502 -0.295418 0.73375 188 223 192
-0.440237 -0.289228 0.718376 187 223 190
-0.471048 -0.312139 0.775279 189 223 191
-0.456435 -0.305086 0.757762 190 223 193
-0.445618 -0.300468 0.746293 189 223 191
-0.487009 -0.331283 0.822829 188 224 192
-0.45638 -0.31322 0.777965 190 224 193
-0.393704 -0.272639 0.677171 188 223 193
-0.440117 -0.30755 0.763883 188 224 194
-0.442622 -0.312139 0.775279 190 224 194
-0.428652 -0.305086 0.757762 189 223 194
-0.46115 -0.331283 0.822829 187 223 194
-0.447092 -0.324214 0.805271 186 224 195
-0.447923 -0.32791 0.814453 188 224 198
-0.433152 -0.320146 0.795167 185 223 196
-0.423861 -0.31632 0.785666 188 225 196
-0.424822 -0.320146 0.795167 188 225 196
-0.435291 -0.331283 0.822829 184 224 193
-0.426594 -0.32791 0.814453 191 227 200
-0.426671 -0.331283 0.822829 180 220 191
-0.397954 -0.312139 0.775279 183 218 190
-0.432463 -0.342703 0.851194 183 216 189
-0.389832 -0.312139 0.775279 177 212 183
-0.419987 -0.339823 0.844042 179 213 180
-0.433356 -0.354371 0.880174 171 209 171
-0.41463 -0.342703 0.851194 166 201 164
-0.421322 -0.352019 0.874334 162 193 160
-0.398558 -0.336659 0.836183 155 188 154
-0.401254 -0.342703 0.851194 154 186 150
-0.379668 -0.32791 0.814453 145 179 138
-0.405695 -0.354371 0.880174 142 174 136
-0.421715 -0.372598 0.925446 130 163 124
-0.390948 -0.349431 0.867904 133 159 127
-0.400827 -0.362475 0.900304 120 137 109
-0.384685 -0.352019 0.874334 116 131 102
-0.402326 -0.372598 0.925446 112 123 97
-0.400823 -0.375733 0.933233 106 110 94
-0.392631 -0.372598 0.925446 100 105 87
-0.404219 -0.388389 0.964669 93 97 80
-0.399166 -0.388389 0.964669 88 85 77
-0.365595 -0.360285 0.894863 86 76 71
-0.374898 -0.374252 0.929553 86 75 72
-0.35622 -0.360285 0.894863 84 72 74
-0.365161 -0.374252 0.929553 80 68 72
-0.373099 -0.387555 0.962595 77 66 69
-0.352089 -0.370741 0.920833 78 69 70
-0.391228 -0.417674 1.03741 75 66 66
-0.371884 -0.402614 1 76 64 66
-0.333525 -0.366244 0.909666 77 64 66
-0.361408 -0.402614 1 74 60 63
-0.338762 -0.382937 0.951125 69 52 58
-0.335001 -0.384337 0.954604 70 54 59
-0.363992 -0.423924 1.05293 69 54 58
-0.322437 -0.381304 0.947071 72 59 62
-0.335219 -0.402614 1 71 56 61
-0.346109 -0.422292 1.04887 69 55 61
-0.308872 -0.382937 0.951125 70 56 61
-0.339779 -0.428161 1.06345 72 58 61
-0.330902 -0.423924 1.05293 70 55 62
-0.35205 -0.458662 1.13921 67 53 60
-0.303792 -0.402614 1 71 58 63
-0.336072 -0.453209 1.12567 70 58 64
-0.31398 -0.430977 1.07045 70 57 63
-0.310885 -0.434488 1.07917 71 60 65
-0.282841 -0.402614 1 71 60 65
-0.297159 -0.430977 1.07045 70 59 66
-0.291553 -0.430977 1.07045 70 60 67
-0.291258 -0.438984 1.09033 71 63 68
-0.315533 -0.485083 1.20483 70 61 67
-0.283636 -0.444944 1.10514 72 63 69
-0.290624 -0.465405 1.15596 73 66 70
-0.272059 -0.444944 1.10514 72 66 70
-0.290291 -0.485083 1.20483 72 66 71
-0.292796 -0.500143 1.24224 71 65 71
-0.259424 -0.453209 1.12567 72 67 72
-0.279783 -0.500143 1.24224 70 64 69
-0.276692 -0.506393 1.25776 72 63 75
-0.295138 -0.553327 1.37433 68 66 78
-0.260264 -0.500143 1.24224 68 70 80
-0.246116 -0.485083 1.20483 69 71 82
-0.257785 -0.521453 1.29517 73 73 87
-0.251001 -0.521453 1.29517 75 74 86
-0.282841 -0.603922 1.5 78 79 86
-0.251947 -0.553327 1.37433 81 84 84
-0.214563 -0.485083 1.20483 77 83 85
-0.294676 -0.68639 1.70483 75 84 87
-0.251414 -0.603922 1.5 84 92 93
-0.267001 -0.662053 1.64438 88 95 98
-0.255447 -0.654516 1.62567 89 95 102
-0.255505 -0.67724 1.68211 87 99 104
-0.244013 -0.669877 1.66382 88 105 108
-0.227857 -0.648692 1.6112 90 109 110
-0.237263 -0.70145 1.74224 96 113 115
-0.209472 -0.64406 1.5997 96 122 119
-0.21431 -0.68639 1.70483 102 130 122
-0.197474 -0.659969 1.63921 107 134 125
-0.193832 -0.67724 1.68211 117 143 135
-0.190113 -0.695879 1.7284 125 150 139
-0.170298 -0.654516 1.62567 128 153 140
-0.159199 -0.64406 1.5997 138 163 149
-0.156124 -0.666713 1.65596 139 173 153
-0.151803 -0.68639 1.70483 149 179 155
-0.142873 -0.68639 1.70483 154 181 163
-0.128788 -0.659969 1.63921 148 178 163
-0.118148 -0.648692 1.6112 161 190 173
-0.117689 -0.695879 1.7284 169 196 177
-0.10303 -0.659969 1.63921 178 202 182
-0.0921677 -0.64406 1.5997 177 201 180
-0.0915917 -0.704039 1.74867 182 209 183
-0.0780621 -0.666713 1.65596 187 219 193
-0.0699561 -0.672165 1.6695 184 216 189
-0.0641142 -0.704039 1.74867 182 214 192
-0.0528632 -0.67724 1.68211 195 222 206
-0.0446478 -0.68639 1.70483 190 218 203
-0.0337565 -0.648692 1.6112 186 220 199
-0.0257575 -0.659969 1.63921 198 227 206
-0.0173471 -0.666713 1.65596 201 229 208
-0.00851491 -0.654516 1.62567 197 228 202
0 -0.64406 1.5997 191 227 196
0.00871474 -0.669877 1.66382 174 218 182
0.0167578 -0.64406 1.5997 203 233 209
0.0267887 -0.68639 1.70483 177 217 186
0.0357183 -0.68639 1.70483 186 223 195
0.0435737 -0.669877 1.66382 209 241 225
0.0515151 -0.659969 1.63921 165 219 192
0.0601009 -0.659969 1.63921 180 220 192
0.0686867 -0.659969 1.63921 186 223 196
0.0803661 -0.68639 1.70483 200 230 206
0.076007 -0.584244 1.45113 181 224 193
0.0995831 -0.695879 1.7284 188 231 204
0.0992562 -0.635795 1.57917 188 231 208
0.110694 -0.654516 1.62567 182 227 205
0.122006 -0.669877 1.66382 172 213 185
0.12407 -0.635795 1.57917 162 213 183
0.137807 -0.662053 1.64438 190 232 210
0.147451 -0.666713 1.65596 165 222 191
0.148884 -0.635795 1.57917 174 219 188
0.169662 -0.68639 1.70483 197 229 206
0.174295 -0.669877 1.66382 178 222 191
0.172739 -0.632284 1.57045 175 220 184
0.177158 -0.618981 1.53741 198 231 205
0.20538 -0.68639 1.70483 182 225 199
0.193263 -0.618981 1.53741 178 225 195
0.215324 -0.662053 1.64438 175 222 190
0.232169 -0.68639 1.70483 179 222 189
0.234186 -0.666713 1.65596 181 222 190
0.234609 -0.64406 1.5997 178 222 191
0.246932 -0.654516 1.62567 173 222 190
0.27159 -0.695879 1.7284 197 234 212
0.273126 -0.67724 1.68211 169 222 197
0.277554 -0.666713 1.65596 177 226 199
0.272955 -0.635795 1.57917 182 228 199
0.299558 -0.67724 1.68211 172 224 193
0.293261 -0.64406 1.5997 185 229 206
0.30909 -0.659969 1.63921 185 231 206
0.334961 -0.695879 1.7284 190 232 209
0.339324 -0.68639 1.70483 178 228 202
0.353067 -0.695879 1.7284 183 228 203
0.368272 -0.7077 1.75776 180 226 200
0.371173 -0.695879 1.7284 179 225 195
0.399157 -0.730525 1.81445 180 225 196
0.389279 -0.695879 1.7284 166 222 194
0.418164 -0.730525 1.81445 188 232 210
0.386363 -0.659969 1.63921 177 224 198
0.416438 -0.695879 1.7284 186 228 204
0.434809 -0.711118 1.76625 182 225 200
0.428619 -0.68639 1.70483 179 223 196
0.420706 -0.659969 1.63921 192 230 207
0.446478 -0.68639 1.70483 177 224 197
0.461703 -0.695879 1.7284 160 216 178
0.464337 -0.68639 1.70483 152 214 175
0.473267 -0.68639 1.70483 165 220 192
0.502881 -0.715834 1.77797 196 234 214
0.477046 -0.666713 1.65596 195 234 212
0.521507 -0.715834 1.77797 173 225 194
0.514923 -0.694397 1.72472 198 232 208
0.505455 -0.669877 1.66382 183 224 195
0.526844 -0.68639 1.70483 189 228 204
0.535774 -0.68639 1.70483 201 236 217
0.553943 -0.698033 1.73375 176 226 200
0.546253 -0.67724 1.68211 185 228 203
0.57034 -0.695879 1.7284 167 218 186
0.581186 -0.698033 1.73375 169 222 192
0.63813 -0.754634 1.87433 185 229 204
0.599348 -0.698033 1.73375 180 227 197
0.598281 -0.68639 1.70483 200 235 211
0.639385 -0.72276 1.79517 189 231 202
0.648788 -0.72276 1.79517 203 237 211
0.635672 -0.698033 1.73375 194 233 210
0.644753 -0.698033 1.73375 173 224 194
0.653834 -0.698033 1.73375 188 230 203
0.662915 -0.698033 1.73375 184 228 199
0.686666 -0.713271 1.7716 168 224 191
0.669717 -0.68639 1.70483 178 227 200
0.667636 -0.675253 1.67717 189 230 206
0.717072 -0.715834 1.77797 190 228 202
0.741291 -0.730525 1.81445 169 218 185
0.664183 -0.646251 1.60514 170 220 189
0.730039 -0.70145 1.74224 179 224 199
0.751621 -0.713271 1.7716 167 219 187
0.74829 -0.70145 1.74224 180 224 195
0.725794 -0.672165 1.6695 196 234 209
0.801999 -0.733897 1.82283 170 227 194
0.782578 -0.7077 1.75776 204 239 217
0.86021 -0.768859 1.90967 189 232 207
0.776872 -0.68639 1.70483 188 230 206
0.810198 -0.7077 1.75776 187 228 201
0.859626 -0.742438 1.84404 170 216 180
0.780621 -0.666713 1.65596 164 214 173
0.868832 -0.733897 1.82283 181 225 192
0.797969 -0.666713 1.65596 198 235 212
0.913016 -0.754634 1.87433 189 231 205
0.773214 -0.632284 1.57045 172 221 187
0.848309 -0.68639 1.70483 204 238 216
0.883853 -0.7077 1.75776 185 232 207
0.866168 -0.68639 1.70483 196 236 213
1.02661 -0.805229 2 197 234 213
0.842976 -0.654516 1.62567 184 229 202
1.04756 -0.805229 2 203 238 216
0.860006 -0.654516 1.62567 177 227 199
0.985189 -0.742438 1.84404 201 236 214
0.741444 -0.553327 1.37433 184 228 203
0.88555 -0.654516 1.62567 176 223 195
0.937604 -0.68639 1.70483 205 238 217
0.763039 -0.553327 1.37433 197 236 215
0.955464 -0.68639 1.70483 165 219 188
0.848523 -0.603922 1.5 174 224 195
1.14184 -0.805229 2 200 237 216
0.982252 -0.68639 1.70483 203 239 221
0.872093 -0.603922 1.5 165 224 195
0.87995 -0.603922 1.5 187 233 209
0.766572 -0.521453 1.29517 193 235 213
0.895663 -0.603922 1.5 193 235 213
0.602347 -0.402614 1 197 236 214
0.483131 -0.320146 0.795167 173 223 190
0.612822 -0.402614 1 206 238 216
0.30903 -0.201307 0.5 176 227 197
1.2466 -0.805229 2 184 228 197
-0.461188 -0.291582 0.73375 188 223 191
-0.476127 -0.303556 0.763883 188 223 192
-0.45168 -0.290411 0.730803 188 223 191
-0.42381 -0.274821 0.691572 187 223 191
-0.488429 -0.319453 0.803887 188 223 191
-0.462773 -0.305305 0.768284 189 223 192
-0.486317 -0.323652 0.814453 186 222 190
-0.434285 -0.291582 0.73375 188 224 192
-0.454805 -0.308085 0.775279 189 224 193
-0.402077 -0.274821 0.691572 183 221 188
-0.448231 -0.309152 0.777965 189 225 194
-0.448552 -0.312212 0.785666 189 224 193
-0.406372 -0.285472 0.718376 189 224 195
-0.450534 -0.319453 0.803887 189 224 196
-0.441482 -0.315988 0.795167 186 224 195
-0.437317 -0.315988 0.795167 187 225 195
-0.459775 -0.33541 0.844042 182 222 191
-0.428987 -0.315988 0.795167 183 222 191
-0.447463 -0.332829 0.837546 184 222 190
-0.42527 -0.319453 0.803887 189 225 195
-0.416492 -0.315988 0.795167 190 226 197
-0.444769 -0.34085 0.85773 180 221 191
-0.426298 -0.330028 0.830499 185 220 189
-0.39917 -0.312212 0.785666 183 218 187
-0.445255 -0.351886 0.885502 181 218 190
-0.405264 -0.323652 0.814453 176 215 183
-0.400998 -0.323652 0.814453 177 213 179
-0.39226 -0.320003 0.805271 180 212 182
-0.424136 -0.349769 0.880174 172 206 174
-0.392193 -0.32698 0.822829 163 197 157
-0.387883 -0.32698 0.822829 161 196 157
-0.404585 -0.344892 0.867904 158 192 156
-0.430151 -0.370853 0.933233 148 180 140
-0.412495 -0.359719 0.905214 144 176 135
-0.387744 -0.342066 0.860791 138 169 131
-0.403013 -0.359719 0.905214 138 160 127
-0.393717 -0.355606 0.894863 128 148 116
-0.404111 -0.369391 0.929553 125 139 109
-0.400823 -0.370853 0.933233 116 124 98
-0.395935 -0.370853 0.933233 114 123 99
-0.387784 -0.367759 0.925446 102 108 89
-0.367773 -0.353196 0.8888 94 96 80
-0.379767 -0.369391 0.929553 96 91 79
-0.373242 -0.367759 0.925446 86 81 71
-0.342657 -0.342066 0.860791 85 75 75
-0.377225 -0.381595 0.960263 83 72 72
-0.373099 -0.382521 0.962595 82 70 72
-0.367165 -0.381595 0.960263 76 69 68
-0.377121 -0.397386 1 73 65 64
-0.357106 -0.381595 0.960263 77 65 66
-0.352076 -0.381595 0.960263 73 61 63
-0.361408 -0.397386 1 75 63 65
-0.340001 -0.379346 0.954604 73 58 62
-0.368084 -0.416808 1.04887 74 59 62
-0.345695 -0.397386 1 77 63 66
-0.357096 -0.416808 1.04887 72 59 62
-0.318835 -0.377964 0.951125 71 59 63
-0.329981 -0.397386 1 71 58 62
-0.343486 -0.420321 1.05772 72 60 63
-0.299233 -0.372171 0.936549 70 55 59
-0.332406 -0.420321 1.05772 71 57 62
-0.347865 -0.447323 1.12567 72 60 64
-0.323068 -0.4226 1.06345 70 57 62
-0.336072 -0.447323 1.12567 68 55 62
-0.330176 -0.447323 1.12567 69 58 64
-0.288079 -0.397386 1 69 58 63
-0.282841 -0.397386 1 72 62 66
-0.297159 -0.42538 1.07045 71 60 66
-0.328155 -0.478783 1.20483 70 61 66
-0.267128 -0.397386 1 72 65 69
-0.26189 -0.397386 1 69 60 66
-0.27697 -0.428845 1.07917 69 60 67
-0.274126 -0.433283 1.09033 66 61 66
-0.289792 -0.467791 1.17717 73 66 70
-0.323832 -0.534103 1.34404 70 63 67
-0.296456 -0.499817 1.25776 70 64 69
-0.309752 -0.534103 1.34404 70 64 69
-0.248905 -0.439166 1.10514 70 63 69
-0.273277 -0.493647 1.24224 73 65 75
-0.322124 -0.596078 1.5 68 64 74
-0.271353 -0.514681 1.29517 71 71 78
-0.264569 -0.514681 1.29517 68 68 76
-0.24725 -0.493647 1.24224 70 68 80
-0.290698 -0.596078 1.5 70 67 77
-0.282841 -0.596078 1.5 75 75 81
-0.274984 -0.596078 1.5 76 79 82
-0.244748 -0.546141 1.37433 77 83 85
-0.259271 -0.596078 1.5 77 80 86
-0.272477 -0.646016 1.62567 77 77 84
-0.252929 -0.619014 1.55772 83 84 90
-0.26354 -0.666484 1.67717 90 92 97
-0.258957 -0.677476 1.70483 90 91 96
-0.238417 -0.646016 1.62567 93 96 98
-0.235298 -0.661177 1.66382 90 104 104
-0.238138 -0.694896 1.74867 92 107 109
-0.214646 -0.651398 1.63921 96 115 114
-0.209154 -0.661177 1.66382 96 122 116
-0.1941 -0.640268 1.6112 99 126 116
-0.188889 -0.651398 1.63921 107 135 123
-0.17197 -0.621293 1.56345 110 137 124
-0.168783 -0.640268 1.6112 121 147 135
-0.16558 -0.661177 1.66382 121 154 142
-0.153268 -0.646016 1.62567 125 160 148
-0.145959 -0.651398 1.63921 135 167 157
-0.149002 -0.706538 1.77797 137 165 155
-0.135795 -0.686841 1.7284 145 171 158
-0.126742 -0.686841 1.7284 153 182 166
-0.116084 -0.677476 1.70483 161 190 172
-0.10303 -0.651398 1.63921 163 190 171
-0.0969158 -0.668445 1.68211 174 198 178
-0.0892957 -0.677476 1.70483 180 205 178
-0.0759522 -0.640268 1.6112 184 215 188
-0.0681193 -0.646016 1.62567 178 212 184
-0.0610031 -0.661177 1.66382 185 215 193
-0.0502733 -0.635696 1.5997 190 216 199
-0.0429292 -0.651398 1.63921 191 217 200
-0.0352421 -0.668445 1.68211 193 223 206
-0.0251366 -0.635696 1.5997 193 224 201
-0.0189605 -0.719256 1.80997 193 224 199
-0.00881053 -0.668445 1.68211 198 228 201
0 -0.658054 1.65596 191 225 194
0.00805261 -0.610943 1.53741 182 221 191
0.0178591 -0.677476 1.70483 180 220 190
0.0274775 -0.694896 1.74867 168 211 175
0.0353142 -0.669812 1.68555 174 214 181
0.0429292 -0.651398 1.63921 210 237 218
0.0543181 -0.686841 1.7284 186 227 203
0.0586522 -0.635696 1.5997 182 226 201
0.0704842 -0.668445 1.68211 182 224 194
0.0754099 -0.635696 1.5997 193 227 198
0.0851491 -0.646016 1.62567 167 215 180
0.0909849 -0.627538 1.57917 170 221 189
0.10303 -0.651398 1.63921 186 229 203
0.107528 -0.627538 1.57917 197 232 208
0.123347 -0.668445 1.68211 178 223 194
0.130104 -0.658054 1.65596 180 225 200
0.135026 -0.640268 1.6112 198 235 217
0.151803 -0.677476 1.70483 166 221 196
0.160732 -0.677476 1.70483 175 220 195
0.157156 -0.627538 1.57917 179 220 192
0.176211 -0.668445 1.68211 178 223 192
0.177222 -0.640268 1.6112 185 225 195
0.203528 -0.701882 1.76625 182 220 187
0.202642 -0.668445 1.68211 182 224 196
0.208166 -0.658054 1.65596 203 235 213
0.228979 -0.694896 1.74867 184 227 198
0.223232 -0.651398 1.63921 184 225 193
0.237884 -0.668445 1.68211 187 225 196
0.256457 -0.694896 1.74867 182 223 194
0.248989 -0.651398 1.63921 173 221 190
0.27159 -0.686841 1.7284 195 234 211
0.266161 -0.651398 1.63921 200 235 215
0.285746 -0.677476 1.70483 185 228 200
0.286228 -0.658054 1.65596 199 234 211
0.291919 -0.651398 1.63921 195 233 210
0.312535 -0.677476 1.70483 194 232 211
0.317828 -0.669812 1.68555 175 225 198
0.322445 -0.661177 1.66382 155 217 183
0.339324 -0.677476 1.70483 163 218 187
0.348253 -0.677476 1.70483 208 238 220
0.37921 -0.719256 1.80997 198 234 212
0.361232 -0.668445 1.68211 183 227 200
0.394914 -0.713374 1.79517 184 227 200
0.383971 -0.677476 1.70483 186 228 203
0.381637 -0.658054 1.65596 191 231 208
0.423122 -0.713374 1.79517 192 232 210
0.421322 -0.694896 1.74867 187 229 205
0.430481 -0.694896 1.74867 185 228 203
0.422905 -0.668445 1.68211 171 220 190
0.453312 -0.701882 1.76625 186 227 201
0.433679 -0.658054 1.65596 195 233 207
0.444452 -0.661177 1.66382 186 230 201
0.464337 -0.677476 1.70483 184 228 201
0.479809 -0.686841 1.7284 186 228 204
0.499568 -0.701882 1.76625 172 221 189
0.497915 -0.686841 1.7284 202 233 212
0.488025 -0.661177 1.66382 188 230 206
0.508985 -0.677476 1.70483 189 228 203
0.477089 -0.624073 1.57045 168 215 181
0.526844 -0.677476 1.70483 176 218 186
0.54955 -0.694896 1.74867 214 243 226
0.564327 -0.701882 1.76625 184 229 205
0.553633 -0.677476 1.70483 188 231 208
0.580028 -0.698509 1.75776 177 224 199
0.589235 -0.698509 1.75776 190 229 207
0.588446 -0.686841 1.7284 200 232 212
0.579789 -0.666484 1.67717 175 222 190
0.598281 -0.677476 1.70483 196 234 209
0.61751 -0.688967 1.73375 188 232 203
0.635269 -0.698509 1.75776 185 230 200
0.62507 -0.677476 1.70483 192 232 208
0.642764 -0.686841 1.7284 191 232 207
0.662889 -0.698509 1.75776 190 231 206
0.716669 -0.744833 1.87433 195 234 210
0.686666 -0.704008 1.7716 191 231 209
0.645971 -0.653455 1.64438 176 223 196
0.654584 -0.653455 1.64438 193 232 209
0.699239 -0.688967 1.73375 169 222 192
0.67181 -0.653455 1.64438 177 222 194
0.640902 -0.6155 1.54887 206 235 215
0.772697 -0.732796 1.84404 204 235 215
0.739164 -0.69234 1.74224 182 225 200
0.71705 -0.663436 1.6695 172 219 188
0.792451 -0.724366 1.82283 188 231 206
0.766541 -0.69234 1.74224 177 228 199
0.788738 -0.704008 1.7716 204 240 220
0.752028 -0.663436 1.6695 173 228 202
0.760772 -0.663436 1.6695 196 234 212
0.863929 -0.744833 1.87433 183 227 199
0.825856 -0.704008 1.7716 183 224 196
0.846245 -0.713374 1.79517 178 221 192
0.812591 -0.677476 1.70483 190 230 206
0.913091 -0.752991 1.89486 177 225 196
0.83045 -0.677476 1.70483 172 219 186
0.773214 -0.624073 1.57045 165 218 182
0.848309 -0.677476 1.70483 200 234 212
0.902661 -0.713374 1.79517 151 217 181
0.866168 -0.677476 1.70483 160 220 186
0.921467 -0.713374 1.79517 184 228 201
0.842976 -0.646016 1.62567 165 220 183
0.832985 -0.631976 1.59033 185 229 200
0.841314 -0.631976 1.59033 185 229 202
0.884704 -0.658054 1.65596 185 228 201
0.96848 -0.713374 1.79517 185 227 200
0.957507 -0.698509 1.75776 161 216 181
0.987286 -0.713374 1.79517 193 232 209
0.996688 -0.713374 1.79517 200 236 216
1.12089 -0.794771 2 171 221 193
1.01549 -0.713374 1.79517 176 225 195
0.928125 -0.646016 1.62567 193 233 206
0.791833 -0.546141 1.37433 217 246 229
1.0437 -0.713374 1.79517 185 233 211
0.87995 -0.596078 1.5 191 236 215
0.887806 -0.596078 1.5 186 234 211
0.895663 -0.596078 1.5 181 231 206
0.90352 -0.596078 1.5 191 233 211
0.180885 -0.117295 0.295167 198 236 211
0.61806 -0.397386 1 203 240 215
-0.47628 -0.297162 0.757762 187 222 192
-0.422079 -0.265557 0.677171 188 223 192
-0.443999 -0.281716 0.718376 186 221 189
-0.499115 -0.319393 0.814453 187 222 191
-0.436474 -0.281716 0.718376 190 224 193
-0.466987 -0.304031 0.775279 189 223 193
-0.480008 -0.31525 0.803887 187 223 191
-0.470636 -0.31183 0.795167 187 223 192
-0.471587 -0.31525 0.803887 190 225 194
-0.41766 -0.281716 0.718376 186 223 192
-0.43659 -0.297162 0.757762 190 225 195
-0.423758 -0.291074 0.742238 188 223 192
-0.419871 -0.291074 0.742238 190 224 194
-0.456455 -0.319393 0.814453 187 224 195
-0.420714 -0.297162 0.757762 187 225 196
-0.442113 -0.31525 0.803887 185 223 193
-0.412776 -0.297162 0.757762 184 223 192
-0.448048 -0.325686 0.830499 186 224 193
-0.41046 -0.301288 0.768284 188 225 194
-0.435291 -0.322678 0.822829 187 224 193
-0.416492 -0.31183 0.795167 188 225 195
-0.402015 -0.304031 0.775279 187 224 193
-0.436922 -0.333802 0.851194 187 223 192
-0.449893 -0.347256 0.885502 187 223 192
-0.417598 -0.325686 0.830499 187 223 197
-0.39094 -0.308104 0.785666 186 223 196
-0.386825 -0.308104 0.785666 181 220 191
-0.41463 -0.333802 0.851194 183 217 191
-0.413321 -0.336365 0.85773 179 210 181
-0.408828 -0.336365 0.85773 179 211 177
-0.414916 -0.345166 0.880174 175 208 174
-0.407583 -0.342876 0.874334 162 200 164
-0.412466 -0.350927 0.894863 163 200 159
-0.381039 -0.327915 0.836183 161 194 150
-0.403091 -0.350927 0.894863 157 189 149
-0.403013 -0.354986 0.905214 141 178 136
-0.396111 -0.35306 0.900304 137 174 131
-0.37731 -0.340354 0.867904 139 161 126
-0.38668 -0.35306 0.900304 133 149 118
-0.3742 -0.345884 0.882004 123 139 110
-0.374969 -0.350927 0.894863 121 132 107
-0.372533 -0.35306 0.900304 114 121 105
-0.393266 -0.377488 0.962595 104 115 98
-0.40331 -0.392157 1 93 101 86
-0.371494 -0.365974 0.933233 96 93 83
-0.366606 -0.365974 0.933233 89 82 71
-0.387597 -0.392157 1 87 78 73
-0.347819 -0.356732 0.909666 82 71 70
-0.377121 -0.392157 1 79 69 67
-0.371884 -0.392157 1 77 66 64
-0.335706 -0.359065 0.915615 76 65 64
-0.361408 -0.392157 1 76 64 64
-0.372339 -0.409959 1.0454 75 62 65
-0.350932 -0.392157 1 74 60 62
-0.36259 -0.411323 1.04887 73 59 62
-0.340457 -0.392157 1 71 58 61
-0.335219 -0.392157 1 73 61 64
-0.347447 -0.412913 1.05293 69 56 61
-0.324743 -0.392157 1 69 57 60
-0.285914 -0.350927 0.894863 70 57 61
-0.314268 -0.392157 1 71 57 62
-0.3308 -0.419783 1.07045 70 59 64
-0.341968 -0.441438 1.12567 69 57 62
-0.336072 -0.441438 1.12567 70 59 64
-0.330176 -0.441438 1.12567 69 57 64
-0.310885 -0.423203 1.07917 69 58 63
-0.305233 -0.423203 1.07917 74 64 68
-0.30268 -0.427582 1.09033 71 61 67
-0.314843 -0.453317 1.15596 68 58 64
-0.308788 -0.453317 1.15596 69 60 64
-0.308289 -0.461636 1.17717 69 60 65
-0.309223 -0.472483 1.20483 72 64 69
-0.274126 -0.427582 1.09033 69 64 69
-0.268415 -0.427582 1.09033 69 63 68
-0.240939 -0.392157 1 72 64 69
-0.28398 -0.472483 1.20483 70 64 69
-0.298488 -0.507909 1.29517 70 63 68
-0.253528 -0.441438 1.12567 73 66 71
-0.310109 -0.55281 1.40967 70 63 71
-0.248242 -0.453317 1.15596 69 66 73
-0.314268 -0.588235 1.5 69 67 74
-0.253757 -0.487152 1.24224 70 68 76
-0.273542 -0.538954 1.37433 68 64 75
-0.218152 -0.441438 1.12567 71 66 75
-0.282841 -0.588235 1.5 73 73 78
-0.20636 -0.441438 1.12567 72 76 79
-0.303605 -0.668562 1.70483 75 80 82
-0.232314 -0.527075 1.34404 76 77 84
-0.261088 -0.610869 1.55772 76 75 82
-0.276817 -0.668562 1.70483 80 82 88
-0.260207 -0.649395 1.65596 81 83 88
-0.256028 -0.660999 1.68555 84 82 87
-0.238417 -0.637516 1.62567 87 85 88
-0.238371 -0.660999 1.68555 88 94 96
-0.226583 -0.652477 1.66382 86 99 101
-0.214646 -0.642827 1.63921 90 107 107
-0.201093 -0.627332 1.5997 90 110 106
-0.197474 -0.642827 1.63921 93 116 105
-0.19645 -0.668562 1.70483 103 126 114
-0.189708 -0.676361 1.72472 105 130 117
-0.174295 -0.652477 1.66382 109 135 123
-0.177304 -0.698676 1.78162 108 143 131
-0.145416 -0.604854 1.54238 113 148 137
-0.153901 -0.677804 1.7284 115 148 138
-0.149002 -0.697241 1.77797 127 155 145
-0.126587 -0.631843 1.6112 135 165 154
-0.119209 -0.637516 1.62567 138 172 159
-0.116084 -0.668562 1.70483 143 177 158
-0.10991 -0.685752 1.74867 156 185 167
-0.0982252 -0.668562 1.70483 165 190 171
-0.0882855 -0.660999 1.68555 169 196 174
-0.079457 -0.660999 1.68555 176 208 187
-0.074501 -0.697241 1.77797 181 212 189
-0.0616737 -0.659649 1.68211 178 211 187
-0.0510894 -0.637516 1.62567 186 213 192
-0.0435737 -0.652477 1.66382 186 211 192
-0.0340596 -0.637516 1.62567 197 224 205
-0.0253174 -0.631843 1.6112 195 226 200
-0.0171717 -0.642827 1.63921 198 228 201
-0.00851491 -0.637516 1.62567 197 227 199
0 -0.659649 1.68211 194 226 196
0.00858584 -0.642827 1.63921 195 225 197
0.0171717 -0.642827 1.63921 196 225 200
0.0251366 -0.627332 1.5997 190 222 189
0.0357183 -0.668562 1.70483 176 218 181
0.0462563 -0.692647 1.76625 195 228 200
0.0506348 -0.631843 1.6112 206 236 212
0.0616737 -0.659649 1.68211 167 221 185
0.0697179 -0.652477 1.66382 160 219 177
0.0772726 -0.642827 1.63921 195 232 204
0.0867357 -0.649395 1.65596 160 217 185
0.0928305 -0.631843 1.6112 162 218 188
0.107155 -0.668562 1.70483 187 229 202
0.112756 -0.649395 1.65596 183 225 194
0.118148 -0.631843 1.6112 181 224 196
0.137387 -0.685752 1.74867 196 233 210
0.144848 -0.677804 1.7284 198 237 219
0.147451 -0.649395 1.65596 181 226 202
0.156865 -0.652477 1.66382 186 225 201
0.172007 -0.677804 1.7284 188 224 197
0.176211 -0.659649 1.68211 199 230 205
0.180303 -0.642827 1.63921 192 229 202
0.187328 -0.637516 1.62567 180 221 191
0.202642 -0.659649 1.68211 179 218 187
0.217272 -0.677804 1.7284 207 235 214
0.205642 -0.615861 1.57045 185 227 197
0.229074 -0.659649 1.68211 194 230 202
0.237884 -0.659649 1.68211 176 221 191
0.231598 -0.619281 1.57917 190 229 203
0.248989 -0.642827 1.63921 203 235 213
0.27159 -0.677804 1.7284 168 222 186
0.273126 -0.659649 1.68211 174 225 192
0.278872 -0.652477 1.66382 162 219 185
0.298113 -0.676361 1.72472 179 227 199
0.311412 -0.685752 1.74867 190 230 206
0.308368 -0.659649 1.68211 183 226 200
0.30164 -0.627332 1.5997 193 231 208
0.315052 -0.637516 1.62567 171 222 192
0.323566 -0.637516 1.62567 165 216 184
0.320801 -0.615861 1.57045 174 219 191
0.352421 -0.659649 1.68211 189 230 208
0.35202 -0.642827 1.63921 181 228 202
0.379417 -0.676361 1.72472 184 228 202
0.377741 -0.657714 1.67717 184 228 201
0.392901 -0.668562 1.70483 175 225 197
0.379761 -0.631843 1.6112 183 229 204
0.416438 -0.677804 1.7284 195 234 211
0.41969 -0.668562 1.70483 184 228 205
0.41212 -0.642827 1.63921 198 235 215
0.448799 -0.685752 1.74867 186 231 207
0.429292 -0.642827 1.63921 160 219 182
0.483493 -0.709792 1.80997 197 235 210
0.476277 -0.685752 1.74867 202 238 219
0.479809 -0.677804 1.7284 197 232 210
0.468373 -0.649395 1.65596 180 224 195
0.51715 -0.703987 1.79517 205 237 216
0.500056 -0.668562 1.70483 190 229 206
0.527322 -0.692647 1.76625 175 221 191
0.517915 -0.668562 1.70483 185 220 192
0.526844 -0.668562 1.70483 165 209 168
0.527081 -0.657714 1.67717 205 234 209
0.551058 -0.676361 1.72472 208 241 221
0.577382 -0.697241 1.77797 177 227 203
0.555063 -0.659649 1.68211 170 221 196
0.544954 -0.637516 1.62567 197 232 208
0.60532 -0.697241 1.77797 196 230 207
0.581495 -0.659649 1.68211 184 225 199
0.577068 -0.644857 1.64438 189 232 207
0.607211 -0.668562 1.70483 215 246 228
0.648788 -0.703987 1.79517 191 233 209
0.596043 -0.637516 1.62567 175 223 194
0.644753 -0.679902 1.73375 166 220 186
0.670509 -0.697241 1.77797 198 234 210
0.693772 -0.71155 1.81445 186 229 202
0.671996 -0.679902 1.73375 201 236 216
0.719083 -0.717843 1.8305 179 227 202
0.714607 -0.703987 1.79517 183 229 205
0.738259 -0.717843 1.8305 185 228 204
0.696506 -0.668562 1.70483 160 212 177
0.690816 -0.654706 1.6695 179 221 186
0.760299 -0.71155 1.81445 217 243 225
0.723295 -0.668562 1.70483 195 232 209
0.760901 -0.694745 1.7716 177 223 194
0.753725 -0.679902 1.73375 188 230 204
0.737913 -0.657714 1.67717 201 238 217
0.820991 -0.723154 1.84404 188 234 209
0.798018 -0.694745 1.7716 184 232 207
0.818037 -0.703987 1.79517 173 224 198
0.840189 -0.714835 1.82283 194 233 209
0.794731 -0.668562 1.70483 214 245 229
0.900219 -0.748888 1.90967 169 226 201
0.812591 -0.668562 1.70483 188 231 207
0.853693 -0.694745 1.7716 178 226 199
0.83045 -0.668562 1.70483 165 217 184
0.839379 -0.668562 1.70483 170 221 186
0.823989 -0.649395 1.65596 208 239 220
0.857238 -0.668562 1.70483 186 229 203
0.912064 -0.703987 1.79517 185 228 202
0.946554 -0.723154 1.84404 190 230 203
0.842976 -0.637516 1.62567 205 237 214
0.867357 -0.649395 1.65596 182 227 199
0.929887 -0.689318 1.75776 174 224 194
1.00137 -0.735033 1.87433 166 217 184
1.01119 -0.735033 1.87433 172 218 186
0.977883 -0.703987 1.79517 166 215 179
0.894065 -0.637516 1.62567 201 235 213
0.946534 -0.668562 1.70483 186 231 206
1.00609 -0.703987 1.79517 191 231 206
0.848523 -0.588235 1.5 167 220 186
1.0528 -0.723154 1.84404 168 221 185
0.694174 -0.472483 1.20483 196 235 212
1.07212 -0.723154 1.84404 193 237 215
0.95367 -0.637516 1.62567 200 241 220
0.887806 -0.588235 1.5 198 240 219
0.895663 -0.588235 1.5 178 228 204
0.602347 -0.392157 1 183 229 207
0.607584 -0.392157 1 169 222 194
0.919233 -0.588235 1.5 188 233 209
0.61806 -0.392157 1 197 239 214
-0.443012 -0.27272 0.704833 188 224 193
-0.501924 -0.311582 0.805271 188 223 192
-0.474845 -0.297271 0.768284 188 223 192
-0.440237 -0.27796 0.718376 188 223 192
-0.471048 -0.299977 0.775279 187 223 191
-0.472239 -0.303351 0.784 187 222 191
-0.436369 -0.282768 0.730803 186 222 190
-0.476617 -0.311582 0.805271 188 224 193
-0.466471 -0.307673 0.795167 192 225 196
-0.462306 -0.307673 0.795167 189 225 194
-0.463166 -0.311047 0.803887 188 224 193
-0.423758 -0.287193 0.742238 188 223 192
-0.469798 -0.321343 0.830499 190 224 194
-0.436006 -0.301017 0.777965 185 223 192
-0.45684 -0.318376 0.822829 187 224 195
-0.437317 -0.307673 0.795167 188 225 195
-0.452398 -0.321343 0.830499 187 225 196
-0.433692 -0.311047 0.803887 187 224 194
-0.450934 -0.326583 0.844042 187 224 193
-0.43086 -0.315135 0.814453 190 226 196
-0.416492 -0.307673 0.795167 189 225 194
-0.444769 -0.33188 0.85773 190 225 195
-0.422361 -0.318376 0.822829 192 226 196
-0.432463 -0.329351 0.851194 187 223 193
-0.381024 -0.293199 0.757762 184 222 192
-0.405264 -0.315135 0.814453 187 224 194
-0.422306 -0.33188 0.85773 183 221 189
-0.420733 -0.334199 0.863725 184 219 193
-0.413321 -0.33188 0.85773 186 218 191
-0.433582 -0.351975 0.909666 183 220 189
-0.414916 -0.340564 0.880174 176 214 179
-0.396796 -0.329351 0.851194 174 210 168
-0.408151 -0.342625 0.885502 170 208 163
-0.429388 -0.364596 0.942284 163 203 161
-0.411586 -0.353544 0.91372 162 198 158
-0.389265 -0.338304 0.874334 155 193 151
-0.413379 -0.363539 0.939552 146 185 143
-0.404111 -0.35967 0.929553 147 180 148
-0.381739 -0.343902 0.8888 143 169 140
-0.397342 -0.362377 0.936549 136 158 129
-0.374969 -0.346248 0.894863 135 149 121
-0.384636 -0.35967 0.929553 127 141 114
-0.378089 -0.358081 0.925446 115 133 102
-0.388224 -0.372455 0.962595 113 123 94
-0.384008 -0.373257 0.964669 103 108 82
-0.365161 -0.35967 0.929553 101 104 78
-0.373099 -0.372455 0.962595 93 88 72
-0.396661 -0.401401 1.03741 86 77 69
-0.377121 -0.386928 1 82 71 67
-0.356124 -0.370531 0.957621 82 71 67
-0.351108 -0.370531 0.957621 79 69 67
-0.346092 -0.370531 0.957621 76 69 66
-0.323996 -0.351975 0.909666 76 67 65
-0.316829 -0.349327 0.90282 77 64 65
-0.345695 -0.386928 1 75 62 63
-0.371212 -0.421881 1.09033 76 63 65
-0.318835 -0.368017 0.951125 74 62 65
-0.347447 -0.407408 1.05293 72 59 63
-0.324743 -0.386928 1 73 60 64
-0.319506 -0.386928 1 75 62 65
-0.353761 -0.435552 1.12567 71 59 63
-0.347865 -0.435552 1.12567 72 61 64
-0.323068 -0.411479 1.06345 68 58 61
-0.298554 -0.386928 1 72 61 65
-0.311928 -0.411479 1.06345 70 59 64
-0.310885 -0.41756 1.07917 68 57 62
-0.302766 -0.414186 1.07045 70 62 64
-0.30268 -0.421881 1.09033 69 59 64
-0.301001 -0.427609 1.10514 71 62 67
-0.288275 -0.41756 1.07917 68 60 64
-0.315533 -0.466184 1.20483 71 62 67
-0.309223 -0.466184 1.20483 73 64 69
-0.251414 -0.386928 1 70 63 67
-0.277112 -0.435552 1.12567 70 63 67
-0.278515 -0.447273 1.15596 74 67 71
-0.28398 -0.466184 1.20483 70 64 68
-0.374656 -0.629016 1.62567 69 63 67
-0.317492 -0.545439 1.40967 71 64 69
-0.295672 -0.520047 1.34404 71 64 70
-0.288632 -0.520047 1.34404 70 64 71
-0.231539 -0.427609 1.10514 69 65 71
-0.264569 -0.501137 1.29517 68 66 71
-0.257785 -0.501137 1.29517 68 63 72
-0.290698 -0.580392 1.5 72 67 76
-0.296124 -0.60765 1.57045 69 65 72
-0.303575 -0.640737 1.65596 74 72 78
-0.267128 -0.580392 1.5 74 75 77
-0.259271 -0.580392 1.5 74 73 79
-0.261088 -0.602724 1.55772 74 72 79
-0.250439 -0.59679 1.54238 77 77 84
-0.274775 -0.676609 1.74867 75 76 81
-0.241566 -0.615345 1.59033 81 78 84
-0.250028 -0.659648 1.70483 86 82 87
-0.235298 -0.643778 1.66382 88 90 94
-0.224539 -0.637969 1.64881 86 91 95
-0.215903 -0.637969 1.64881 87 92 93
-0.211885 -0.652185 1.68555 99 107 103
-0.195843 -0.629016 1.62567 95 108 105
-0.193832 -0.650854 1.68211 91 107 108
-0.185021 -0.650854 1.68211 105 120 117
-0.185025 -0.683412 1.76625 107 124 115
-0.159199 -0.618967 1.5997 107 129 119
-0.154545 -0.634256 1.63921 110 135 124
-0.151803 -0.659648 1.70483 108 132 122
-0.137373 -0.634256 1.63921 120 142 132
-0.130104 -0.640737 1.65596 121 151 141
-0.128895 -0.680128 1.75776 126 162 152
-0.111616 -0.634256 1.63921 140 172 159
-0.104083 -0.640737 1.65596 150 175 161
-0.0921677 -0.618967 1.5997 159 182 168
-0.0843913 -0.623418 1.6112 160 189 171
-0.0792947 -0.650854 1.68211 168 201 182
-0.0658054 -0.60765 1.57045 171 203 182
-0.060715 -0.640737 1.65596 175 206 183
-0.0522884 -0.643778 1.66382 183 208 188
-0.045265 -0.668767 1.7284 181 207 184
-0.036212 -0.668767 1.7284 196 219 196
-0.024677 -0.60765 1.57045 203 228 202
-0.0176571 -0.652185 1.68555 200 229 202
-0.00837888 -0.618967 1.5997 198 224 195
0 -0.643778 1.66382 194 224 194
0.00882855 -0.652185 1.68555 197 226 199
0.0171717 -0.634256 1.63921 195 225 200
0.0261442 -0.643778 1.66382 200 229 203
0.0330854 -0.611024 1.57917 198 229 202
0.0429292 -0.634256 1.63921 177 223 189
0.0493541 -0.60765 1.57045 190 231 199
0.0596043 -0.629016 1.62567 192 232 203
0.0704842 -0.650854 1.68211 172 223 188
0.0780621 -0.640737 1.65596 174 223 188
0.0881053 -0.650854 1.68211 165 219 187
0.0904825 -0.60765 1.57045 168 220 191
0.10303 -0.634256 1.63921 185 228 201
0.113292 -0.643778 1.66382 187 228 202
0.123347 -0.650854 1.68211 167 218 187
0.133943 -0.659648 1.70483 166 221 187
0.137373 -0.634256 1.63921 195 233 209
0.136894 -0.594865 1.53741 190 229 204
0.166523 -0.683412 1.76625 173 219 189
0.153 -0.594865 1.53741 184 223 192
0.18106 -0.668767 1.7284 180 223 192
0.180303 -0.634256 1.63921 197 231 207
0.193832 -0.650854 1.68211 166 215 179
0.202642 -0.650854 1.68211 168 214 177
0.211453 -0.650854 1.68211 192 230 204
0.215903 -0.637969 1.64881 185 228 200
0.217851 -0.618967 1.5997 178 224 193
0.244431 -0.668767 1.7284 178 224 193
0.256457 -0.676609 1.74867 172 220 190
0.248989 -0.634256 1.63921 198 232 208
0.267887 -0.659648 1.70483 195 230 202
0.267719 -0.637969 1.64881 200 231 206
0.282514 -0.652185 1.68555 166 221 189
0.283333 -0.634256 1.63921 160 217 184
0.303605 -0.659648 1.70483 199 234 212
0.308999 -0.652185 1.68555 191 230 206
0.31373 -0.643778 1.66382 196 233 212
0.32599 -0.650854 1.68211 188 231 205
0.329596 -0.640737 1.65596 192 231 206
0.322583 -0.611024 1.57917 196 233 210
0.337565 -0.623418 1.6112 196 234 212
0.357304 -0.643778 1.66382 188 232 207
0.36429 -0.640737 1.65596 188 231 206
0.383971 -0.659648 1.70483 181 228 203
0.377777 -0.634256 1.63921 201 236 217
0.370156 -0.60765 1.57045 189 232 209
0.425558 -0.683412 1.76625 189 230 205
0.424586 -0.667343 1.72472 165 220 188
0.43964 -0.676609 1.74867 201 237 217
0.456318 -0.687945 1.77797 201 236 217
0.440526 -0.650854 1.68211 174 222 186
0.467118 -0.676609 1.74867 190 231 200
0.453166 -0.643778 1.66382 181 227 203
0.478788 -0.667343 1.72472 203 235 217
0.482197 -0.659648 1.70483 175 223 193
0.491126 -0.659648 1.70483 184 226 198
0.511027 -0.674121 1.74224 206 236 215
0.481031 -0.623418 1.6112 193 230 206
0.493865 -0.629016 1.62567 188 221 192
0.53299 -0.667343 1.72472 178 214 176
0.555075 -0.683412 1.76625 182 218 181
0.544704 -0.659648 1.70483 210 239 219
0.561287 -0.668767 1.7284 186 230 206
0.562563 -0.659648 1.70483 188 231 206
0.563874 -0.650854 1.68211 190 229 201
0.598442 -0.680128 1.75776 182 223 191
0.627246 -0.702063 1.81445 182 222 192
0.616856 -0.680128 1.75776 202 237 218
0.607211 -0.659648 1.70483 194 235 215
0.635269 -0.680128 1.75776 175 225 189
0.633711 -0.668767 1.7284 189 229 200
0.633999 -0.659648 1.70483 170 217 184
0.662889 -0.680128 1.75776 180 222 191
0.693772 -0.702063 1.81445 172 219 180
0.669923 -0.668767 1.7284 193 234 206
0.681077 -0.670837 1.73375 202 237 219
0.690158 -0.670837 1.73375 181 228 204
0.687577 -0.659648 1.70483 197 234 213
0.733412 -0.694601 1.79517 163 219 181
0.775573 -0.725233 1.87433 187 227 198
0.724241 -0.668767 1.7284 191 227 201
0.723295 -0.659648 1.70483 191 228 203
0.74829 -0.674121 1.74224 161 216 180
0.780426 -0.694601 1.79517 185 227 200
0.750084 -0.659648 1.70483 195 233 210
0.820991 -0.713512 1.84404 203 239 218
0.752028 -0.645977 1.6695 183 231 205
0.740797 -0.629016 1.62567 165 222 191
0.769517 -0.645977 1.6695 177 226 197
0.812168 -0.674121 1.74224 212 245 228
0.821294 -0.674121 1.74224 176 229 204
0.903166 -0.733176 1.89486 184 229 204
0.847025 -0.680128 1.75776 197 233 212
0.874453 -0.694601 1.79517 184 229 203
