ply
format ascii 1.0
element vertex 1274
property float x
property float y
property float z
property uchar red
property uchar green
property uchar blue
end_header
0.85638 0.384314 1.5 54 43 53
0.916283 0.407458 1.59033 52 41 52
0.962766 0.424272 1.65596 53 43 54
0.80623 0.352117 1.37433 52 41 52
0.83434 0.361169 1.40967 54 44 54
0.719416 0.308689 1.20483 55 45 55
0.90352 0.384314 1.5 54 44 55
0.987729 0.41651 1.62567 54 44 55
0.842222 0.352117 1.37433 55 46 57
0.800491 0.331834 1.29517 56 46 56
1.06262 0.436794 1.70483 56 46 56
-0.153895 0.0640123 0.244847 70 61 62
-0.146885 0.06161 0.235658 66 59 60
-0.140558 0.0594555 0.227417 63 56 57
-0.141441 0.0603406 0.230803 66 60 60
-0.141327 0.0608115 0.232604 62 56 57
-0.136752 0.0593546 0.227031 62 54 54
-0.139254 0.0609708 0.233213 62 54 55
-0.134175 0.0592672 0.226697 59 51 52
-0.132248 0.0589374 0.225436 58 49 51
-0.126826 0.05703 0.21814 61 52 54
-0.12349 0.056035 0.214334 59 52 53
-0.12211 0.0559173 0.213884 57 47 49
-0.112683 0.0520782 0.199199 58 48 50
-0.123116 0.0574316 0.219676 56 46 49
-0.12631 0.0594776 0.227502 56 47 49
-0.116527 0.0553934 0.21188 57 49 51
-0.119125 0.0571728 0.218686 56 47 50
-0.112383 0.0544605 0.208312 58 50 51
-0.116445 0.0569822 0.217957 57 47 48
-0.113792 0.0562353 0.2151 51 40 43
-0.110859 0.0553337 0.211651 52 41 44
-0.110908 0.0559173 0.213884 55 44 47
-0.109886 0.0559674 0.214075 54 43 46
-0.106367 0.0547335 0.209356 54 43 45
-0.105962 0.0550934 0.210732 56 44 46
-0.104563 0.054938 0.210138 55 42 45
-0.104366 0.055418 0.211974 54 42 45
-0.103425 0.055509 0.212322 54 41 44
-0.1029 0.0558274 0.21354 51 39 42
-0.0993828 0.0545117 0.208507 52 40 43
-0.098266 0.054498 0.208455 54 42 44
-0.0981083 0.0550219 0.210459 56 42 45
-0.0986764 0.0559694 0.214083 50 37 40
-0.0955945 0.0548446 0.20978 53 39 42
-0.0939289 0.0545156 0.208522 52 38 42
-0.091732 0.0538669 0.206041 53 39 42
-0.0923814 0.0548941 0.20997 52 37 41
-0.0900722 0.0541667 0.207188 53 38 42
-0.0903413 0.0549911 0.210341 55 38 43
-0.0892541 0.0550001 0.210375 53 37 40
-0.0873464 0.0544973 0.208452 53 36 40
-0.0869367 0.0549283 0.210101 52 35 39
-0.0845203 0.0540862 0.20688 52 34 38
-0.0854289 0.0553776 0.211819 50 30 35
-0.0856923 0.0562793 0.215268 48 29 33
-0.0832827 0.055426 0.212004 51 31 36
-0.082877 0.0559014 0.213823 45 25 30
-0.0811754 0.0555036 0.212301 48 29 34
-0.0802985 0.0556667 0.212925 49 28 34
-0.0797582 0.0560708 0.214471 50 30 35
-0.0775929 0.0553279 0.211629 51 31 37
-0.0751712 0.0543779 0.207995 51 31 36
-0.073112 0.0536661 0.205273 52 32 36
-0.0718824 0.053551 0.204833 52 32 37
-0.0724486 0.0547906 0.209574 48 28 33
-0.0698825 0.053663 0.205261 51 31 37
-0.0698127 0.0544471 0.20826 50 29 35
-0.069245 0.0548615 0.209845 51 29 36
-0.0678693 0.0546389 0.208994 50 29 36
-0.0655767 0.0536586 0.205244 50 30 37
-0.0643723 0.053551 0.204833 49 28 36
-0.0632995 0.053551 0.204833 48 28 36
-0.0633402 0.0545094 0.208498 49 28 37
-0.0616386 0.0539756 0.206457 48 27 36
-0.061748 0.055037 0.210517 48 28 38
-0.059356 0.0538669 0.206041 50 32 40
-0.0588668 0.0544123 0.208127 49 33 41
-0.0566321 0.0533343 0.204004 49 35 44
-0.0563693 0.0541077 0.206962 49 34 44
-0.0568333 0.0556228 0.212757 51 39 50
-0.0542369 0.0541433 0.207098 49 38 49
-0.0522127 0.0531863 0.203438 50 39 51
-0.0529595 0.055071 0.210646 50 40 53
-0.0520535 0.0552805 0.211448 51 42 53
-0.0487103 0.0528547 0.202169 49 42 55
-0.0468957 0.0520165 0.198963 51 44 58
-0.0489353 0.0555123 0.212335 53 47 60
-0.044579 0.0517466 0.197931 51 45 60
-0.0449461 0.053415 0.204312 55 45 62
-0.0425761 0.0518325 0.198259 54 47 61
-0.0419599 0.0523594 0.200275 52 45 61
-0.0403358 0.0516233 0.197459 55 45 63
-0.040965 0.0538083 0.205817 56 47 64
-0.0399786 0.0539319 0.20629 55 47 65
-0.0386234 0.053551 0.204833 56 48 65
-0.0384896 0.0548903 0.209955 54 48 66
-0.0366439 0.0537951 0.205766 53 48 66
-0.034431 0.0520782 0.199199 57 48 65
-0.034253 0.053428 0.204362 56 49 66
-0.0334117 0.0537969 0.205773 56 49 68
-0.0321862 0.053551 0.204833 55 47 66
-0.0310449 0.0534333 0.204382 51 47 65
-0.0296562 0.0528661 0.202213 52 50 68
-0.0284299 0.0525571 0.201031 52 49 67
-0.026661 0.0511828 0.195774 53 51 71
-0.0258238 0.0515585 0.197211 55 54 74
-0.025309 0.052636 0.201333 50 48 69
-0.0243548 0.0528538 0.202166 52 52 72
-0.0228144 0.0517615 0.197988 54 54 73
-0.0219977 0.052285 0.19999 58 55 76
-0.0205387 0.0512582 0.196062 59 54 72
-0.0200246 0.0526054 0.201216 58 48 69
-0.0186448 0.0517018 0.197759 60 49 70
-0.0173542 0.0509536 0.194897 57 50 69
-0.0162818 0.0507927 0.194282 55 51 67
-0.0152777 0.0508376 0.194454 56 54 66
-0.0143599 0.0511968 0.195828 56 53 66
-0.0132183 0.0507518 0.194126 56 56 68
-0.0123768 0.0514808 0.196914 55 55 65
-0.0111246 0.0504793 0.193083 51 50 61
-0.0103702 0.0517615 0.197988 53 49 64
-0.00934881 0.0518482 0.198319 56 51 66
-0.00804213 0.0501766 0.191925 55 49 64
-0.00704916 0.0502643 0.192261 57 49 66
-0.00620989 0.0516598 0.197599 58 50 68
-0.0049687 0.0496013 0.189725 61 57 72
-0.00410005 0.0511622 0.195695 54 57 70
-0.00305464 0.0508228 0.194397 52 57 68
-0.00205593 0.0513096 0.196259 51 57 67
-0.0010414 0.0519801 0.198824 57 54 67
0 0.0498324 0.190609 53 48 62
0.00101555 0.0506897 0.193888 54 47 61
0.00200371 0.0500064 0.191275 53 45 59
0.00297412 0.0494832 0.189273 51 45 58
0.00394257 0.049197 0.188179 52 46 59
0.00520433 0.0519535 0.198722 56 50 62
0.00592097 0.0492563 0.188405 55 50 63
0.00706033 0.0503439 0.192565 55 51 64
0.00769039 0.047982 0.183531 54 49 63
0.00892555 0.0495008 0.189341 54 50 63
0.00974927 0.0486622 0.186133 55 50 64
0.0107518 0.0487875 0.186612 55 49 64
0.0117698 0.0489563 0.187258 55 48 63
0.0129443 0.0496998 0.190102 55 48 64
0.0136331 0.0486057 0.185917 54 47 63
0.0142866 0.0475398 0.18184 55 48 64
0.0159138 0.0496448 0.189891 53 46 62
0.0166105 0.0487702 0.186546 54 47 63
0.0177066 0.0491003 0.187809 54 46 62
0.0182131 0.0478464 0.183013 54 46 62
0.0200161 0.0499538 0.191073 55 46 63
0.0201783 0.0479606 0.183449 54 45 63
0.021664 0.0491515 0.188004 53 45 62
0.0226155 0.0490793 0.187728 53 44 62
0.0234609 0.0487926 0.186632 53 44 61
0.0246909 0.0492965 0.188559 54 44 62
0.0258978 0.0497175 0.190169 53 44 61
0.0262021 0.0484387 0.185278 52 42 59
0.0276538 0.0492965 0.188559 51 41 58
0.0278911 0.0480052 0.18362 52 42 59
0.0295353 0.0491405 0.187962 51 41 58
0.0301896 0.0486088 0.185929 51 40 57
0.0308644 0.0481424 0.184144 51 41 58
0.0316912 0.0479341 0.183348 53 42 58
0.0322611 0.0473609 0.181156 52 41 58
0.0336652 0.0480102 0.183639 51 40 57
0.034471 0.0477938 0.182811 51 40 57
0.0353114 0.0476358 0.182207 50 40 57
0.0357212 0.0469204 0.179471 50 40 56
0.0369487 0.0472883 0.180878 52 41 57
0.0372463 0.0464776 0.177777 50 39 55
0.0390013 0.0474805 0.181613 51 40 56
0.0386262 0.0459042 0.175583 51 40 56
0.0411046 0.0477136 0.182504 50 38 54
0.0413458 0.0469028 0.179403 51 39 55
0.0425354 0.04718 0.180463 50 39 54
0.0426873 0.0463192 0.177171 52 40 55
0.0438934 0.0466145 0.178301 53 41 56
0.0436577 0.0453983 0.173648 52 39 54
0.0453257 0.0461709 0.176604 51 38 53
0.0468184 0.0467376 0.178771 51 38 53
0.0481273 0.0471022 0.180166 50 36 52
0.0482553 0.0463192 0.177171 51 38 53
0.0491832 0.0463192 0.177171 52 39 53
0.0490316 0.0453213 0.173354 50 37 51
0.0500993 0.0454662 0.173908 50 36 50
0.0510317 0.0454854 0.173982 49 35 49
0.053325 0.0466956 0.178611 48 34 49
0.0532613 0.0458357 0.175322 47 32 47
0.0543762 0.046002 0.175958 48 34 49
0.0561065 0.0466747 0.178531 48 33 48
0.0568761 0.0465393 0.178013 49 34 49
0.0582443 0.0468901 0.179355 48 33 47
0.0589095 0.0466729 0.178524 48 32 47
0.0594945 0.0463999 0.17748 47 30 46
0.0618427 0.0474892 0.181646 46 29 45
0.0620536 0.0469292 0.179504 46 29 44
0.0651145 0.0485091 0.185547 45 27 42
0.0628524 0.0461352 0.176467 45 26 41
0.0643542 0.046553 0.178065 45 24 39
0.0651583 0.0464613 0.177715 44 23 38
0.0669708 0.0470812 0.180085 44 22 38
0.0691034 0.0479057 0.183239 41 18 33
0.0710458 0.0485775 0.185809 41 18 33
0.0695837 0.0469349 0.179526 41 18 33
0.0747784 0.0497663 0.190356 42 19 34
0.0745115 0.0489361 0.187181 42 19 35
0.0730754 0.0473697 0.181189 42 20 35
0.0752684 0.0481657 0.184234 44 23 38
0.076482 0.0483228 0.184835 45 26 40
0.0790607 0.0493277 0.188678 45 28 41
0.0815705 0.0502653 0.192265 48 32 44
0.0802754 0.0488639 0.186905 50 35 46
0.0850521 0.0511478 0.19564 51 37 47
0.0930088 0.0552668 0.211396 53 39 49
0.118538 0.0696078 0.26625 53 39 49
0.143843 0.0834852 0.319331 54 41 50
0.163418 0.0937564 0.358618 54 41 51
0.242194 0.137373 0.525451 53 39 49
0.309448 0.173547 0.663817 52 39 49
0.332259 0.18427 0.704833 53 40 51
0.514373 0.282135 1.07917 52 40 50
0.567252 0.307757 1.17717 53 41 51
0.586892 0.314989 1.20483 52 41 52
0.637679 0.338606 1.29517 52 40 51
0.54254 0.285055 1.09033 53 40 51
0.789665 0.410574 1.57045 52 40 52
0.762099 0.392157 1.5 52 40 51
0.769956 0.392157 1.5 51 39 50
0.71265 0.359303 1.37433 53 41 52
0.785669 0.392157 1.5 52 40 51
0.824059 0.407246 1.55772 53 42 52
0.770548 0.377068 1.44228 52 41 51
0.9483 0.459546 1.75776 52 41 51
0.866304 0.415774 1.59033 52 41 51
0.910725 0.43293 1.65596 51 40 51
0.946534 0.445708 1.70483 52 42 52
0.840666 0.392157 1.5 51 39 50
0.91961 0.425011 1.62567 51 39 50
0.76734 0.351383 1.34404 52 41 51
1.0343 0.469325 1.79517 53 43 53
0.799031 0.359303 1.37433 52 41 51
0.95367 0.425011 1.62567 53 42 53
0.887806 0.392157 1.5 53 42 53
1.01797 0.445708 1.70483 53 42 53
0.979214 0.425011 1.62567 52 42 53
0.786923 0.338606 1.29517 52 42 53
0.738348 0.314989 1.20483 54 44 54
1.23612 0.522876 2 54 44 54
0.623298 0.261438 1 53 43 53
-0.139557 0.0592092 0.222035 80 76 69
-0.144772 0.061938 0.232268 69 66 64
-0.14343 0.0618839 0.232064 74 68 67
-0.135075 0.0587775 0.220415 70 63 63
-0.139805 0.0613601 0.2301 65 58 59
-0.13733 0.060798 0.227992 69 61 61
-0.134483 0.0600596 0.225223 70 62 61
-0.13586 0.0612116 0.229543 60 53 55
-0.128621 0.0584672 0.219252 63 54 57
-0.133227 0.0611068 0.22915 64 56 57
-0.129917 0.0601303 0.225489 62 55 56
-0.124447 0.058127 0.217976 58 50 51
-0.118905 0.0560526 0.210197 58 49 51
-0.120892 0.0575218 0.215707 58 49 51
-0.121883 0.0585406 0.219527 60 51 53
-0.117043 0.0567513 0.212817 57 48 50
-0.117662 0.0576001 0.216 58 49 51
-0.115525 0.0571028 0.214136 60 51 52
-0.116596 0.0581973 0.21824 56 46 47
-0.110299 0.0555996 0.208498 54 43 46
-0.107597 0.0547797 0.205424 57 48 50
-0.112792 0.0580046 0.217517 58 48 50
-0.107423 0.0558071 0.209277 56 45 47
-0.107629 0.0564907 0.21184 56 45 47
-0.107497 0.057009 0.213784 56 44 46
-0.104717 0.0561196 0.210448 54 41 44
-0.103083 0.0558318 0.209369 53 40 43
-0.102653 0.0561964 0.210736 54 41 44
-0.100501 0.0556163 0.208561 54 42 45
-0.0989487 0.0553591 0.207597 54 42 45
-0.0961405 0.0543856 0.203946 53 41 44
-0.0975044 0.0557769 0.209163 53 40 43
-0.0967696 0.0559856 0.209946 53 40 43
-0.0957871 0.0560542 0.210203 53 39 41
-0.095821 0.056726 0.212723 53 39 42
-0.0949923 0.056897 0.213364 53 38 42
-0.0920627 0.0557988 0.209245 51 36 40
-0.0923286 0.0566342 0.212378 53 38 42
-0.091953 0.0570916 0.214093 53 37 40
-0.0901649 0.0566725 0.212522 52 35 39
-0.0880656 0.056045 0.210169 51 33 38
-0.0877846 0.0565733 0.21215 49 31 36
-0.0869074 0.056726 0.212723 50 32 36
-0.0864681 0.0571722 0.214396 50 32 35
-0.0841849 0.056395 0.211481 48 28 32
-0.0826313 0.0560924 0.210346 48 27 32
-0.0810826 0.0557848 0.209193 48 28 33
-0.0801701 0.0559126 0.209672 48 29 34
-0.0792842 0.0560628 0.210235 49 28 33
-0.0773934 0.0554965 0.208112 51 31 36
-0.0768048 0.0558612 0.20948 51 31 36
-0.0756834 0.0558434 0.209413 51 31 35
-0.0739188 0.0553434 0.207538 53 33 37
-0.0726663 0.0552177 0.207066 52 31 37
-0.0709627 0.0547402 0.205276 50 29 34
-0.0712418 0.055801 0.209254 49 29 35
-0.0695518 0.0553284 0.207482 50 29 35
-0.0691661 0.055895 0.209606 50 29 36
-0.0656788 0.0539329 0.202248 50 29 36
-0.0664014 0.0554202 0.207826 49 29 36
-0.0658327 0.0558612 0.20948 50 30 37
-0.0638179 0.0550694 0.20651 49 29 37
-0.06378 0.0559856 0.209946 49 28 36
-0.0617852 0.0551861 0.206948 50 31 38
-0.0598278 0.054392 0.20397 48 29 38
-0.0612294 0.0566783 0.212544 48 30 39
-0.0584291 0.0550878 0.206579 49 32 41
-0.0568622 0.0546221 0.204833 50 35 44
-0.0566569 0.0554715 0.208018 49 34 45
-0.0543355 0.0542417 0.203406 48 35 46
-0.0532556 0.054227 0.203351 49 38 48
-0.0523106 0.0543517 0.203819 50 38 50
-0.0511007 0.0542008 0.203253 50 39 52
-0.0522105 0.0565562 0.212086 50 41 52
-0.0493521 0.0546221 0.204833 51 41 54
-0.0486919 0.0550889 0.206583 50 40 55
-0.0450686 0.0521484 0.195557 53 45 59
-0.0467882 0.0553972 0.20774 50 43 58
-0.0449381 0.0544735 0.204276 52 43 59
-0.0438692 0.0544748 0.204281 52 45 59
-0.0421243 0.0536158 0.201059 52 45 60
-0.0407492 0.0531955 0.199483 54 44 60
-0.0396387 0.0531076 0.199153 53 44 60
-0.0386045 0.0531198 0.199199 54 45 62
-0.0377707 0.0534162 0.200311 54 44 61
-0.0374581 0.0544877 0.204329 52 44 61
-0.0356786 0.0534256 0.200346 54 47 64
-0.034794 0.0536797 0.201299 55 46 62
-0.0341647 0.054356 0.203835 55 47 63
-0.0330995 0.0543601 0.20385 53 44 63
-0.031664 0.0537359 0.20151 55 46 64
-0.0293805 0.05158 0.193425 56 48 66
-0.0293287 0.053328 0.19998 53 46 64
-0.0287278 0.05417 0.203137 53 48 65
-0.0272766 0.0534118 0.200294 53 50 67
-0.0265028 0.0539725 0.202397 52 46 65
-0.0247549 0.0525133 0.196925 52 44 63
-0.0242141 0.0535994 0.200998 53 45 63
-0.022989 0.0532006 0.199502 55 48 65
-0.021543 0.0522284 0.195856 51 44 61
-0.0205652 0.0523508 0.196315 53 45 63
-0.0196564 0.0526708 0.197516 53 42 62
-0.018729 0.0529739 0.198652 55 44 65
-0.0173843 0.052063 0.195236 57 49 67
-0.0161424 0.0513651 0.192619 54 48 63
-0.0152992 0.0519276 0.194729 55 51 62
-0.014412 0.0524103 0.196539 54 49 62
-0.0134507 0.0526772 0.19754 52 48 60
-0.012356 0.0524222 0.196583 54 50 60
-0.0111779 0.0517355 0.194008 48 43 54
-0.010314 0.0525104 0.196914 53 46 59
-0.00915653 0.0517975 0.19424 51 44 56
-0.00825819 0.0525552 0.197082 58 51 63
-0.00719038 0.0522967 0.196112 53 45 60
-0.00614457 0.0521387 0.19552 55 48 64
-0.00513954 0.0523328 0.196248 59 54 67
-0.00405183 0.0515716 0.193394 54 51 62
-0.00304236 0.0516309 0.193616 51 50 61
-0.0020256 0.0515636 0.193363 54 53 63
-0.00102384 0.0521257 0.195471 51 46 58
0 0.0513466 0.19255 55 48 60
0.00101141 0.0514931 0.193099 53 46 59
0.00201773 0.0513635 0.192613 50 43 57
0.00303654 0.0515321 0.193246 51 44 58
0.00389681 0.0495986 0.185995 51 44 58
0.00500526 0.0509656 0.191121 52 45 58
0.00596437 0.0506097 0.189786 51 45 58
0.00701997 0.0510572 0.191465 52 47 61
0.00780026 0.0496409 0.186153 53 47 61
0.00871399 0.0492941 0.184853 54 49 63
0.0100324 0.0510768 0.191538 53 47 62
0.0107789 0.0498888 0.187083 55 48 63
0.0120139 0.0509709 0.191141 54 48 63
0.0126983 0.0497303 0.186489 54 46 62
0.0135787 0.04938 0.185175 53 46 62
0.0145851 0.0495038 0.185639 54 47 63
0.0159548 0.0507681 0.19038 54 47 62
0.0164006 0.0491168 0.184188 53 45 61
0.0175189 0.0495512 0.185817 54 45 61
0.0190618 0.0510776 0.191541 53 45 61
0.0193614 0.0492863 0.184824 54 45 62
0.0206793 0.0501345 0.188004 53 44 61
0.0217049 0.0502291 0.188359 52 43 60
0.0221982 0.0491373 0.184265 52 43 60
0.0230735 0.0489467 0.18355 52 43 61
0.0244881 0.0498696 0.187011 52 42 60
0.0249232 0.0488034 0.183013 53 43 60
0.026048 0.0491168 0.184188 52 42 59
0.0271059 0.0492863 0.184824 51 42 59
0.0278445 0.0488834 0.183313 51 41 58
0.0297348 0.050462 0.189232 51 41 58
0.0304522 0.0500123 0.187546 50 40 57
0.0315108 0.0501337 0.188001 51 41 58
0.0322007 0.0496788 0.186296 52 41 58
0.0330273 0.0494555 0.185458 51 40 57
0.0335531 0.0488073 0.183027 51 39 57
0.0340128 0.0481017 0.180381 50 40 57
0.0342165 0.0470819 0.176557 50 40 56
0.0359174 0.0481217 0.180456 50 40 56
0.0372501 0.0486276 0.182354 51 40 56
0.0378077 0.0481217 0.180456 51 40 56
0.0387529 0.0481217 0.180456 52 41 57
0.0398945 0.0483597 0.181349 51 39 55
0.0404884 0.0479383 0.179768 50 38 54
0.0418418 0.0484148 0.181556 50 39 54
0.0427 0.0483099 0.181162 51 39 55
0.0434885 0.0481323 0.180496 51 39 54
0.0435019 0.0471227 0.17671 52 40 55
0.0451095 0.0478461 0.179423 51 38 53
0.0448481 0.0465981 0.174743 50 37 53
0.0458506 0.0466869 0.175076 50 37 52
0.0469157 0.0468348 0.17563 50 37 52
0.0473565 0.0463657 0.173871 49 36 51
0.0497336 0.0477743 0.179154 50 37 52
0.0509658 0.0480513 0.180192 48 35 50
0.0492046 0.0455473 0.170803 48 35 49
0.050491 0.0459035 0.172138 48 34 48
0.0526192 0.0469991 0.176247 48 33 48
0.0544416 0.0477885 0.179207 49 35 49
0.0530887 0.045811 0.171791 48 33 48
0.0543113 0.0460849 0.172818 48 32 48
0.0573991 0.0479066 0.17965 48 32 48
0.0580663 0.0476818 0.178807 49 34 48
0.0591738 0.04782 0.179325 48 31 47
0.0596554 0.0474559 0.17796 47 30 46
0.0600421 0.0470287 0.176358 47 30 46
0.0614218 0.0473804 0.177676 46 29 44
0.0637569 0.0484476 0.181679 47 29 43
0.0645505 0.0483293 0.181235 45 25 40
0.0646238 0.047683 0.178811 44 23 38
0.0692709 0.0503817 0.188931 42 20 35
0.0685604 0.0491626 0.18436 44 21 37
0.0676088 0.0478069 0.179276 41 18 32
0.070526 0.0491866 0.18445 41 18 32
0.0710374 0.0488738 0.183277 42 18 33
0.0720815 0.0489309 0.183491 43 19 34
0.0729992 0.0489018 0.183382 41 18 33
0.0750933 0.0496513 0.186192 44 22 38
0.0733981 0.0479082 0.179656 45 24 39
0.0745599 0.0480505 0.180189 46 26 40
0.0759971 0.0483646 0.181367 48 30 43
0.0784119 0.0492853 0.18482 49 33 44
0.0841126 0.0522237 0.195839 49 34 45
0.0948134 0.0581583 0.218094 51 36 47
0.0972108 0.058919 0.220946 51 36 47
0.11689 0.070013 0.262549 52 38 48
0.182529 0.108057 0.405214 53 39 49
0.205573 0.1203 0.451125 51 37 48
0.259709 0.150254 0.563451 52 38 49
0.328568 0.187955 0.704833 53 40 50
0.405778 0.229544 0.860791 50 37 47
0.519696 0.290756 1.09033 52 39 50
0.520026 0.287778 1.07917 52 39 50
0.630895 0.345378 1.29517 54 42 53
0.579583 0.313912 1.17717 53 41 52
0.618126 0.331263 1.24224 52 39 49
0.651247 0.345378 1.29517 50 38 49
0.639026 0.335403 1.25776 51 39 50
0.689902 0.358411 1.34404 51 39 50
0.741283 0.381214 1.42955 50 39 50
0.785669 0.4 1.5 53 41 52
0.756259 0.381214 1.42955 54 41 53
0.839019 0.418786 1.57045 52 40 51
0.847245 0.418786 1.57045 52 41 51
0.767888 0.375911 1.40967 52 40 51
0.824953 0.4 1.5 51 41 51
0.882964 0.424089 1.59033 52 41 52
0.891294 0.424089 1.59033 54 42 52
0.797422 0.375911 1.40967 52 40 51
0.973323 0.454622 1.70483 51 41 50
0.916283 0.424089 1.59033 53 42 52
0.872093 0.4 1.5 53 42 51
0.87995 0.4 1.5 53 42 53
0.887806 0.4 1.5 53 41 52
0.773356 0.345378 1.29517 52 41 52
0.827825 0.366489 1.37433 53 43 53
1.03583 0.454622 1.70483 52 42 53
0.738348 0.321289 1.20483 53 43 53
0.800491 0.345378 1.29517 53 42 53
0.934947 0.4 1.5 53 44 54
-0.140866 0.0609368 0.224118 89 91 72
-0.149183 0.0650766 0.239344 81 87 70
-0.141697 0.0623351 0.229261 75 79 65
-0.132963 0.0589926 0.216968 77 72 66
-0.140696 0.0629617 0.231566 75 68 65
-0.137808 0.0622058 0.228786 75 67 66
-0.136157 0.0619996 0.228027 70 62 59
-0.129374 0.0594322 0.218585 64 59 56
-0.124716 0.0578039 0.212596 65 59 59
-0.126367 0.0590969 0.217352 61 54 55
-0.12445 0.0587295 0.216 66 60 60
-0.121991 0.058097 0.213674 64 57 57
-0.121601 0.0584477 0.214964 63 56 57
-0.118747 0.0576092 0.21188 58 51 52
-0.121505 0.0595033 0.218846 60 52 53
-0.11187 0.0553067 0.203412 61 53 55
-0.116369 0.0580842 0.213627 60 52 53
-0.111211 0.0560485 0.20614 58 49 50
-0.115051 0.0585525 0.215349 56 47 48
-0.112123 0.057627 0.211946 54 46 48
-0.110631 0.0574287 0.211216 58 51 53
-0.107949 0.0566025 0.208177 57 49 49
-0.110727 0.0586517 0.215714 57 46 48
-0.10841 0.0580164 0.213377 56 45 46
-0.105085 0.0568226 0.208987 53 42 43
-0.102676 0.0561049 0.206347 55 43 45
-0.103066 0.0569168 0.209334 54 43 45
-0.103071 0.0575317 0.211595 53 41 43
-0.100977 0.0569752 0.209548 53 41 44
-0.101997 0.0581835 0.213992 50 37 40
-0.0978337 0.0564286 0.207538 56 43 46
-0.0989672 0.0577238 0.212301 54 40 43
-0.0940178 0.0554601 0.203976 52 38 41
-0.0958692 0.0572023 0.210383 51 38 40
-0.0928364 0.0560368 0.206097 54 39 43
-0.092297 0.0563666 0.20731 53 38 42
-0.0915521 0.0565773 0.208085 53 38 41
-0.0916841 0.0573416 0.210896 54 39 42
-0.0886775 0.0561375 0.206467 53 37 40
-0.0881154 0.0564703 0.207691 52 36 39
-0.0873857 0.0567027 0.208546 51 34 38
-0.0868042 0.0570384 0.20978 51 32 37
-0.0853951 0.0568318 0.209021 52 35 38
-0.0869968 0.0586497 0.215707 50 32 36
-0.0846078 0.0577897 0.212544 48 28 33
-0.0823154 0.0569735 0.209542 48 28 33
-0.0815881 0.0572332 0.210497 50 31 35
-0.0805309 0.0572655 0.210616 50 31 36
-0.0772468 0.0556931 0.204833 49 30 35
-0.0763523 0.0558235 0.205313 52 33 38
-0.0781092 0.0579239 0.213037 53 33 38
-0.0769711 0.0579071 0.212976 54 35 38
-0.0731249 0.0558226 0.205309 52 31 35
-0.0738624 0.0572271 0.210475 50 30 34
-0.0732279 0.0575951 0.211828 49 29 34
-0.072101 0.0575813 0.211777 50 30 35
-0.0707022 0.0573464 0.210913 51 31 37
-0.0686496 0.0565654 0.208041 50 30 37
-0.068757 0.0575677 0.211727 50 29 37
-0.0660314 0.0561919 0.206667 50 30 37
-0.0649367 0.0561814 0.206629 49 28 36
-0.0632995 0.0556931 0.204833 49 29 37
-0.0625021 0.0559397 0.20574 50 30 37
-0.0621185 0.0565717 0.208064 49 29 37
-0.0613048 0.0568277 0.209006 49 30 39
-0.0603664 0.0569752 0.209548 50 33 41
-0.0586045 0.0563366 0.207199 49 32 41
-0.0571333 0.0559586 0.205809 49 33 43
-0.0567534 0.0566555 0.208372 50 36 46
-0.0538923 0.0548542 0.201747 50 37 47
-0.0533624 0.0554012 0.203759 50 37 48
-0.0528539 0.0559931 0.205936 50 39 50
-0.0512031 0.0553743 0.20366 51 39 52
-0.0513451 0.0567093 0.20857 50 40 52
-0.0495075 0.0558685 0.205478 52 42 55
-0.0475018 0.0547962 0.201534 51 41 55
-0.0481214 0.0567727 0.208803 51 44 57
-0.0458366 0.0553347 0.203515 52 44 59
-0.0440813 0.0544827 0.200381 54 44 60
-0.0445146 0.0563601 0.207286 53 45 60
-0.0415476 0.0539187 0.198307 53 45 59
-0.0413657 0.0550591 0.202501 53 43 59
-0.0411144 0.0561647 0.206567 54 44 60
-0.0389394 0.0546312 0.200927 53 44 60
-0.0383127 0.055245 0.203185 54 43 60
-0.0365531 0.0542137 0.199392 53 44 60
-0.035525 0.0542386 0.199483 52 43 60
-0.0351271 0.0552563 0.203226 55 45 61
-0.0344196 0.0558353 0.205356 54 44 61
-0.033259 0.0556931 0.204833 54 45 63
-0.0321094 0.0555602 0.204344 54 45 61
-0.0307617 0.0550637 0.202518 50 41 58
-0.0299122 0.0554553 0.203958 50 43 59
-0.0281815 0.0541819 0.199275 55 47 63
-0.0276123 0.0551293 0.202759 53 45 63
-0.0268218 0.0556931 0.204833 48 39 57
-0.0246595 0.0533368 0.196166 49 39 57
-0.0236064 0.053279 0.195954 50 41 58
-0.0225983 0.0533221 0.196112 52 44 60
-0.0219509 0.0542609 0.199565 52 43 59
-0.0206074 0.0534869 0.196719 51 42 58
-0.0197307 0.0539066 0.198262 54 42 60
-0.0184895 0.0533221 0.196112 49 38 56
-0.0177287 0.0541355 0.199104 57 47 62
-0.0163572 0.0530692 0.195182 54 47 60
-0.0152069 0.0526264 0.193554 50 43 54
-0.0145844 0.0540772 0.19889 50 42 53
-0.0131653 0.0525704 0.193348 55 46 57
-0.0124396 0.0538117 0.197913 50 42 53
-0.011197 0.0528402 0.19434 48 41 51
-0.0106005 0.0550277 0.202386 49 41 53
-0.00921813 0.0531684 0.195547 55 47 59
-0.00831151 0.0539316 0.198354 56 49 60
-0.00726312 0.0538615 0.198096 54 46 60
-0.0060815 0.0526154 0.193513 56 49 64
-0.00513837 0.0533468 0.196203 55 49 62
-0.00404927 0.0525496 0.193271 56 52 62
-0.00305629 0.0528843 0.194502 55 51 62
-0.00201847 0.0523898 0.192684 55 51 61
-0.000995788 0.0516916 0.190116 53 46 59
0 0.0526567 0.193665 53 45 59
0.0010272 0.0533221 0.196112 52 45 58
0.0019916 0.0516922 0.190118 52 45 59
0.00296799 0.0513563 0.188883 52 45 59
0.00399796 0.0518838 0.190823 50 43 57
0.00495219 0.0514139 0.189094 50 43 57
0.00598486 0.0517793 0.190438 53 46 61
0.0068747 0.0509811 0.187503 54 47 62
0.00807707 0.0524103 0.192759 54 48 62
0.00900152 0.051919 0.190952 55 49 64
0.00960903 0.0498807 0.183456 53 46 61
0.0108661 0.0512784 0.188596 56 48 63
0.011921 0.0515685 0.189663 55 47 62
0.0127874 0.0510615 0.187798 55 47 62
0.0134699 0.0499448 0.183691 53 46 61
0.0146358 0.0506497 0.186284 53 46 62
0.0153112 0.0496756 0.182701 54 46 62
0.0163743 0.0499996 0.183893 54 45 62
0.0179555 0.051782 0.190448 53 44 61
0.0182432 0.0498427 0.183316 53 44 60
0.0197791 0.051337 0.188811 53 43 61
0.0203991 0.0504249 0.185457 53 44 62
0.021412 0.0505228 0.185817 53 44 61
0.0225061 0.0507955 0.18682 52 43 60
0.0232668 0.0503244 0.185087 52 43 60
0.0240928 0.0500266 0.183992 53 43 61
0.0256137 0.051139 0.188083 52 42 60
0.0260997 0.0501793 0.184554 52 41 59
0.0275319 0.0510425 0.187728 51 41 58
0.0285815 0.0511611 0.188165 51 41 58
0.0294246 0.0509146 0.187258 52 42 58
0.0291674 0.0488415 0.179633 52 41 58
0.0304478 0.0493923 0.181659 51 40 57
0.031524 0.0495884 0.18238 52 41 58
0.0321477 0.0490823 0.180519 51 40 57
0.0334032 0.0495419 0.18221 50 40 57
0.0335011 0.048307 0.177668 50 40 56
0.0340748 0.0478063 0.175826 51 40 57
0.0356047 0.0486382 0.178886 51 40 56
0.0365148 0.0486024 0.178754 51 40 57
0.0380038 0.0493196 0.181392 52 41 56
0.0378869 0.0479687 0.176423 51 40 55
0.0380201 0.0469913 0.172829 50 38 54
0.0402109 0.0485432 0.178536 50 39 54
0.0410016 0.0483728 0.177909 50 39 54
0.0416724 0.0480717 0.176802 51 39 55
0.0416159 0.0469629 0.172724 51 40 54
0.044029 0.0486289 0.178851 52 40 55
0.0429587 0.0464583 0.170868 51 38 53
0.0458368 0.0485592 0.178595 50 37 53
0.0456487 0.0473927 0.174305 49 37 52
0.0469751 0.0478136 0.175853 49 36 51
0.0467449 0.0466642 0.171626 49 37 51
0.0494263 0.0484101 0.178047 49 37 52
0.0495333 0.0476164 0.175128 49 36 51
0.0504656 0.0476306 0.17518 49 35 49
0.0515743 0.0478077 0.175831 49 35 49
0.0516107 0.0470022 0.172869 48 33 48
0.0544633 0.0487449 0.179278 48 33 48
0.0542258 0.0477098 0.175471 48 33 49
0.0559089 0.0483707 0.177902 49 34 49
0.0565601 0.048132 0.177024 48 33 48
0.0576846 0.0482971 0.177631 50 34 48
0.0580433 0.0478261 0.175899 49 32 46
0.0597718 0.0484808 0.178307 48 31 46
0.0611651 0.0488476 0.179656 47 30 45
0.0633941 0.0498607 0.183382 47 28 44
0.0632231 0.048984 0.180157 47 27 42
0.0618668 0.0472283 0.1737 45 24 39
0.0657868 0.0494929 0.182029 43 20 36
0.06896 0.051139 0.188083 43 20 35
0.0669109 0.0489206 0.179924 41 18 32
0.0680904 0.0490916 0.180553 41 17 32
0.0670435 0.0476746 0.175342 41 17 31
0.0719175 0.0504494 0.185547 43 19 33
0.0706435 0.048895 0.17983 43 19 34
0.0717306 0.0489941 0.180195 44 21 36
0.0762164 0.051382 0.188977 45 23 37
0.0764819 0.0508999 0.187204 46 25 38
0.0751069 0.0493522 0.181512 46 26 40
0.0760246 0.0493307 0.181433 47 28 41
0.0789499 0.0505964 0.186088 49 33 44
0.084502 0.0534942 0.196745 49 34 45
0.0939034 0.0587295 0.216 50 35 46
0.103885 0.0641991 0.236117 51 36 47
0.144434 0.0882073 0.324416 50 35 46
0.184534 0.111386 0.409665 52 38 48
0.215239 0.128427 0.472338 51 37 48
0.266953 0.157473 0.579167 54 41 51
0.370678 0.216202 0.795167 52 39 49
0.55492 0.320067 1.17717 51 38 47
0.433582 0.247334 0.909666 51 37 48
0.580581 0.327588 1.20483 54 42 52
0.538329 0.300482 1.10514 53 41 51
0.611619 0.337759 1.24224 53 40 50
0.668783 0.365439 1.34404 51 38 49
0.754243 0.407843 1.5 51 39 49
0.698253 0.373675 1.37433 52 40 51
0.806117 0.426997 1.57045 53 40 51
0.832331 0.436429 1.60514 50 38 49
0.785669 0.407843 1.5 51 38 49
0.901886 0.463536 1.70483 51 39 50
0.884704 0.450247 1.65596 51 39 50
0.760505 0.383282 1.40967 51 39 50
0.817096 0.407843 1.5 53 41 51
0.937604 0.463536 1.70483 53 42 52
0.83281 0.407843 1.5 52 40 51
0.955464 0.463536 1.70483 54 41 52
0.899623 0.432405 1.59033 53 41 51
0.804806 0.383282 1.40967 53 42 52
0.864236 0.407843 1.5 53 41 51
0.991182 0.463536 1.70483 53 41 51
0.87995 0.407843 1.5 53 42 52
0.962184 0.442011 1.62567 50 39 50
0.597109 0.271895 1 52 41 52
1.0269 0.463536 1.70483 53 42 52
0.987729 0.442011 1.62567 52 41 52
0.842222 0.373675 1.37433 53 42 53
1.23612 0.543791 2 52 41 52
0.807275 0.35215 1.29517 52 43 53
-0.137907 0.0608036 0.219409 95 123 94
-0.144848 0.064401 0.23239 86 117 84
-0.139108 0.0623728 0.225072 91 111 82
-0.136595 0.0617698 0.222896 91 96 74
-0.135939 0.0620028 0.223737 87 87 69
-0.129371 0.0595205 0.214779 81 79 64
-0.136809 0.0634945 0.229119 82 80 61
-0.127844 0.0598589 0.216 77 78 57
-0.121254 0.05728 0.206694 70 70 56
-0.124453 0.0593208 0.214058 67 63 58
-0.126257 0.060728 0.219136 68 62 61
-0.121345 0.058901 0.212544 66 59 59
-0.119583 0.0585828 0.211396 65 59 59
-0.122666 0.0606552 0.218874 63 58 57
-0.119425 0.0596094 0.2151 65 58 58
-0.119531 0.0602305 0.217341 60 52 53
-0.117407 0.0597289 0.215531 59 50 51
-0.11365 0.0583793 0.210661 58 50 50
-0.107101 0.0555546 0.200468 63 55 55
-0.111478 0.0583976 0.210727 56 48 50
-0.109103 0.0577247 0.208299 62 55 55
-0.103293 0.0552029 0.199199 60 52 51
-0.110874 0.0598589 0.216 54 43 45
-0.109597 0.0597796 0.215714 57 45 47
-0.104047 0.0573435 0.206923 56 45 47
-0.105268 0.0586272 0.211556 56 45 47
-0.105603 0.0594391 0.214485 57 47 48
-0.102181 0.0581317 0.209768 57 45 46
-0.101247 0.0582265 0.21011 52 40 43
-0.0994084 0.0577973 0.208561 52 39 42
-0.097852 0.0575245 0.207577 53 41 43
-0.0984575 0.0585308 0.211208 54 41 44
-0.0967068 0.0581434 0.20981 54 40 43
-0.0983934 0.0598374 0.215923 54 40 42
-0.0936428 0.0576105 0.207887 54 40 44
-0.0929259 0.057842 0.208722 54 39 43
-0.092531 0.0582819 0.21031 55 41 42
-0.0908573 0.0579172 0.208994 53 37 39
-0.0897744 0.0579248 0.209021 52 35 38
-0.0891664 0.0582428 0.210169 52 36 38
-0.0877899 0.0580604 0.209511 53 36 38
-0.0856321 0.0573502 0.206948 51 34 38
-0.085967 0.0583127 0.210421 52 37 39
-0.0840316 0.0577402 0.208355 52 34 37
-0.0857382 0.059688 0.215383 51 32 36
-0.0811659 0.0572583 0.206616 49 28 32
-0.0797466 0.0570172 0.205746 49 29 33
-0.0801095 0.0580613 0.209514 50 31 35
-0.0768763 0.0564919 0.20385 50 30 35
-0.0795666 0.0592923 0.213956 50 30 35
-0.0786402 0.0594391 0.214485 52 31 36
-0.0760415 0.0583079 0.210404 50 29 33
-0.0741963 0.0577297 0.208317 50 29 33
-0.0729363 0.0575963 0.207836 52 32 37
-0.0730605 0.0585685 0.211344 52 33 37
-0.072794 0.0592527 0.213813 50 30 35
-0.0720243 0.0595422 0.214857 51 30 36
-0.0697062 0.0585406 0.211243 50 29 37
-0.0681332 0.0581424 0.209806 50 30 38
-0.0651313 0.0564919 0.20385 51 32 39
-0.0643723 0.0567641 0.204833 50 31 38
-0.0652652 0.0585269 0.211194 50 30 38
-0.0620782 0.0566287 0.204344 50 30 38
-0.0626503 0.0581532 0.209845 47 27 35
-0.0605322 0.0571906 0.206372 49 32 39
-0.0594549 0.0571941 0.206384 49 31 39
-0.0580843 0.0569103 0.20536 51 35 42
-0.0555109 0.0554151 0.199965 50 36 44
-0.0559432 0.0569207 0.205398 51 37 46
-0.0551757 0.0572405 0.206552 52 39 49
-0.0538028 0.0569326 0.205441 50 38 48
-0.0506023 0.0546386 0.197163 51 40 51
-0.0501121 0.0552367 0.199321 51 39 51
-0.0493417 0.0555446 0.200432 50 40 51
-0.0508559 0.0584937 0.211074 49 39 51
-0.047107 0.0553858 0.199859 51 41 54
-0.0477848 0.0574596 0.207342 50 41 54
-0.0440933 0.0542537 0.195774 51 42 56
-0.0443707 0.055895 0.201697 53 43 57
-0.0439878 0.0567641 0.204833 53 44 58
-0.0423168 0.055973 0.201978 54 46 60
-0.0424025 0.0575245 0.207577 55 46 60
-0.0398462 0.0554791 0.200196 54 44 59
-0.0393258 0.0562343 0.202921 53 44 59
-0.0383917 0.0564235 0.203604 53 43 59
-0.0374407 0.0565981 0.204234 52 42 58
-0.0364777 0.0567641 0.204833 53 44 59
-0.0359932 0.0577075 0.208237 53 43 58
-0.0346076 0.05722 0.206478 52 42 58
-0.0323977 0.055294 0.199528 51 42 58
-0.0323432 0.0570411 0.205832 53 42 58
-0.0308272 0.0562422 0.202949 51 41 57
-0.0294474 0.0556436 0.200789 51 42 57
-0.0286045 0.0560527 0.202266 51 42 57
-0.0269257 0.0547923 0.197718 50 40 57
-0.0259602 0.0549407 0.198253 52 42 58
-0.0246459 0.0543324 0.196058 48 37 54
-0.0242113 0.0556949 0.200974 48 38 54
-0.0225983 0.0543475 0.196112 52 41 57
-0.0213195 0.0537136 0.193825 49 39 55
-0.0210292 0.0556312 0.200745 50 40 55
-0.0197307 0.0549433 0.198262 50 37 54
-0.0186258 0.0547479 0.197557 50 38 55
-0.0176328 0.0548778 0.198026 55 44 59
-0.0164762 0.0544833 0.196603 51 41 54
-0.0152904 0.053933 0.194617 50 40 51
-0.0143772 0.0543342 0.196064 47 36 47
-0.0134507 0.054743 0.19754 48 38 49
-0.0120908 0.053309 0.192365 45 36 47
-0.0114788 0.0552115 0.19923 48 39 50
-0.0106193 0.056185 0.202743 49 40 52
-0.00945645 0.0555919 0.200603 49 39 52
-0.00822349 0.0543866 0.196253 52 44 55
-0.00721404 0.0545263 0.196758 54 45 58
-0.00606969 0.0535231 0.193138 53 44 58
-0.00509136 0.0538752 0.194408 55 46 59
-0.00404665 0.0535256 0.193147 51 45 58
-0.00300033 0.0529144 0.190941 51 46 58
-0.00195794 0.0517958 0.186905 50 45 56
-0.000998085 0.0528072 0.190554 52 45 59
0 0.0528348 0.190654 51 44 58
0.00101188 0.0535372 0.193189 52 45 59
0.00198111 0.0524089 0.189117 52 44 58
0.00300319 0.0529648 0.191123 51 43 57
0.0040203 0.0531771 0.191889 50 42 57
0.00498573 0.0527575 0.190375 51 44 58
0.00596151 0.0525691 0.189695 53 46 60
0.00700276 0.0529294 0.190995 54 47 62
0.00783074 0.0517892 0.186881 57 49 63
0.00889142 0.0522702 0.188617 52 45 59
0.0099333 0.0525557 0.189647 54 47 61
0.0106962 0.0514474 0.185647 56 48 63
0.0116011 0.0511497 0.184573 56 48 63
0.0123729 0.0503563 0.18171 54 46 62
0.0139718 0.0528022 0.190536 54 46 62
0.0143858 0.0507423 0.183103 52 45 61
0.0154488 0.051086 0.184343 53 45 61
0.0168512 0.0524454 0.189249 54 45 62
0.0173022 0.0508574 0.183519 53 44 61
0.0184381 0.0513438 0.185274 53 44 60
0.0196054 0.0518647 0.187153 53 44 61
0.0206065 0.0519172 0.187343 52 43 60
0.021826 0.05249 0.18941 52 43 60
0.0222973 0.0512921 0.185087 53 43 60
0.0233703 0.0515204 0.185911 52 42 60
0.0248743 0.0526424 0.18996 52 43 60
0.0252558 0.0513942 0.185455 52 42 60
0.0262145 0.0513693 0.185366 51 42 59
0.0267704 0.0505852 0.182536 51 41 58
0.0279674 0.0510246 0.184122 50 40 58
0.0297684 0.0525002 0.189446 52 42 58
0.0293485 0.0500899 0.180749 52 42 58
0.0305415 0.050497 0.182218 51 40 57
0.0308071 0.0493927 0.178233 49 38 56
0.032555 0.0506599 0.182806 49 39 56
0.0332499 0.050263 0.181374 50 40 57
0.0342289 0.0503055 0.181527 51 40 57
0.035432 0.0506664 0.182829 50 39 55
0.035412 0.0493051 0.177917 50 39 55
0.037283 0.0505792 0.182514 50 39 55
0.0384004 0.0507927 0.183285 51 42 56
0.0385072 0.0496917 0.179312 52 40 56
0.0390595 0.0492043 0.177553 50 39 54
0.0400732 0.0493073 0.177925 50 40 55
0.0406273 0.048853 0.176286 50 39 54
0.0432385 0.0508375 0.183447 51 40 54
0.04245 0.0488253 0.176186 52 40 55
0.0435245 0.0489962 0.176802 51 39 54
0.0447271 0.0493009 0.177902 50 38 53
0.0442821 0.0478143 0.172538 50 38 53
0.0463345 0.0490298 0.176924 49 38 52
0.04651 0.0482505 0.174112 50 36 51
0.0492478 0.0501083 0.180815 50 37 51
0.0486099 0.0485261 0.175106 49 36 51
0.0486564 0.047673 0.172028 50 37 51
0.049917 0.0480188 0.173275 49 35 49
0.0508313 0.0480252 0.173299 48 34 49
0.0533551 0.0495253 0.178711 48 34 49
0.0533409 0.0486584 0.175583 48 33 48
0.053445 0.0479271 0.172944 48 32 48
0.0550685 0.0485599 0.175228 47 31 47
0.0568021 0.0492675 0.177781 48 33 48
0.0571803 0.0487956 0.176079 47 29 45
0.0571268 0.0479761 0.173121 48 30 45
0.0593348 0.0490519 0.177003 48 30 45
0.0610825 0.0497198 0.179413 46 28 43
0.0622395 0.049894 0.180042 47 27 42
0.0650696 0.0513842 0.185419 46 26 40
0.0631694 0.04915 0.177357 44 23 39
0.0649946 0.0498372 0.179837 43 20 35
0.0658878 0.0498004 0.179704 43 19 34
0.0687402 0.0512245 0.184843 42 18 32
0.0679763 0.0499518 0.18025 41 17 31
0.0685582 0.0496892 0.179303 42 18 32
0.0697786 0.0498903 0.180029 43 19 33
0.0726329 0.0512387 0.184894 44 20 35
0.0732507 0.0509946 0.184014 45 22 36
0.0716661 0.0492435 0.177695 44 22 36
0.0746825 0.0506582 0.1828 46 25 39
0.0752468 0.0503949 0.18185 48 30 42
0.0789025 0.0521827 0.188301 48 31 43
0.0820565 0.0535986 0.19341 50 33 45
0.0897171 0.0578878 0.208888 50 33 45
0.096758 0.0616786 0.222567 51 36 47
0.121116 0.0762866 0.275279 51 35 47
0.153172 0.0953423 0.344042 50 36 47
0.206136 0.126818 0.457621 51 37 47
0.273274 0.16619 0.599696 52 38 48
0.288386 0.173387 0.625666 51 36 47
0.383573 0.228026 0.822829 52 38 48
0.434082 0.255185 0.920833 52 39 48
0.561086 0.326223 1.17717 51 37 47
0.542433 0.311949 1.12567 52 39 49
0.630895 0.358922 1.29517 51 38 48
0.593203 0.333888 1.20483 51 38 49
0.746386 0.415686 1.5 51 38 49
0.624632 0.344254 1.24224 52 39 50
0.841336 0.458906 1.65596 49 36 46
0.769956 0.415686 1.5 51 38 49
0.858684 0.458906 1.65596 52 39 49
0.851491 0.450511 1.62567 51 38 49
0.793526 0.415686 1.5 51 39 49
0.734245 0.380861 1.37433 51 39 50
0.698734 0.358922 1.29517 51 39 49
0.866304 0.44072 1.59033 51 39 49
0.824953 0.415686 1.5 52 40 51
0.882964 0.44072 1.59033 50 38 48
0.891294 0.44072 1.59033 50 38 49
0.91961 0.450511 1.62567 53 41 50
0.973323 0.47245 1.70483 52 40 50
0.982252 0.47245 1.70483 52 40 51
0.753004 0.358922 1.29517 52 41 50
1.00011 0.47245 1.70483 52 40 50
1.00904 0.47245 1.70483 52 41 52
0.895663 0.415686 1.5 51 40 51
0.725727 0.333888 1.20483 51 41 51
1.12041 0.511029 1.84404 52 41 52
0.612822 0.277124 1 52 40 51
0.800491 0.358922 1.29517 51 41 52
1.06262 0.47245 1.70483 52 42 53
-0.143275 0.0643624 0.22795 117 147 116
-0.139955 0.0633994 0.22454 115 145 112
-0.139641 0.0637933 0.225935 105 133 99
-0.12948 0.0596569 0.211285 107 131 102
-0.137613 0.0639507 0.226492 104 127 103
-0.137134 0.0642821 0.227666 88 116 86
-0.128576 0.0607993 0.215331 88 111 82
-0.132749 0.063328 0.224287 84 100 71
-0.130253 0.0626921 0.222035 81 92 73
-0.129234 0.0627621 0.222283 75 80 69
-0.123722 0.0606316 0.214737 71 73 64
-0.119882 0.0592886 0.209981 73 67 65
-0.124607 0.0621961 0.220278 70 65 62
-0.12479 0.0628695 0.222663 68 66 59
-0.118691 0.0603607 0.213778 65 63 57
-0.117299 0.0602211 0.213283 63 58 54
-0.113788 0.05898 0.208888 66 59 54
-0.117212 0.0613447 0.217263 64 57 53
-0.113498 0.0599835 0.212441 61 53 52
-0.112566 0.0600797 0.212782 60 51 52
-0.110433 0.0595309 0.210838 58 51 51
-0.108317 0.05898 0.208888 57 49 49
-0.109498 0.0602317 0.213321 59 48 50
-0.108013 0.0600271 0.212596 57 47 48
-0.104092 0.0584507 0.207013 61 51 52
-0.108831 0.0617553 0.218717 57 47 48
-0.104187 0.0597489 0.211611 58 46 48
-0.103 0.059703 0.211448 57 46 47
-0.100613 0.0589533 0.208793 55 44 46
-0.099019 0.0586572 0.207744 57 45 47
-0.102136 0.0611759 0.216664 56 44 45
-0.0983841 0.0595907 0.21105 54 41 44
-0.0985331 0.0603592 0.213772 54 42 44
-0.0950265 0.0588802 0.208534 56 42 44
-0.0941197 0.0589965 0.208946 56 42 45
-0.0909921 0.057707 0.204379 56 42 45
-0.0940112 0.0603315 0.213674 53 38 40
-0.0930647 0.0604436 0.214071 53 37 39
-0.0889087 0.0584486 0.207006 53 38 40
-0.0890867 0.0592886 0.209981 54 39 40
-0.0874708 0.0589409 0.208749 53 36 38
-0.0869924 0.0593606 0.210235 52 34 38
-0.0863264 0.0596613 0.2113 53 38 39
-0.085258 0.0596882 0.211396 53 35 37
-0.0826629 0.0586328 0.207658 53 33 37
-0.0825076 0.059303 0.210031 50 30 34
-0.0795813 0.0579727 0.20532 51 31 34
-0.0779351 0.0575512 0.203827 51 32 36
-0.0772468 0.0578351 0.204833 51 32 36
-0.0786145 0.0596882 0.211396 51 32 36
-0.075101 0.0578351 0.204833 50 30 35
-0.0752162 0.0587633 0.20812 50 30 34
-0.0768309 0.0609075 0.215714 51 31 35
-0.0736263 0.0592382 0.209802 50 30 35
-0.0721621 0.0589398 0.208745 50 30 34
-0.0716379 0.0594119 0.210417 50 30 35
-0.0695876 0.0586133 0.207589 52 32 38
-0.0666815 0.057057 0.202077 50 30 36
-0.0654469 0.0569038 0.201534 51 33 39
-0.0650933 0.0575241 0.203731 50 31 37
-0.0662744 0.059544 0.210885 51 31 38
-0.063979 0.058456 0.207032 50 31 38
-0.0623967 0.0579932 0.205393 49 29 37
-0.0631649 0.0597372 0.211569 50 32 40
-0.0610884 0.058805 0.208268 50 33 40
-0.0586671 0.057501 0.203649 49 32 40
-0.0601622 0.0600584 0.212707 48 31 40
-0.0563419 0.0573059 0.202959 50 34 43
-0.0570419 0.0591336 0.209432 51 37 46
-0.0539787 0.0570553 0.202071 50 37 47
-0.0538359 0.0580425 0.205567 51 38 49
-0.0517455 0.0569273 0.201618 49 38 48
-0.0497294 0.055849 0.197799 52 40 51
-0.0492101 0.0564417 0.199898 50 40 51
-0.0498774 0.0584507 0.207013 50 40 52
-0.0501924 0.0601269 0.212949 51 42 54
-0.0474796 0.0581699 0.206018 52 42 54
-0.0463956 0.0581637 0.205997 54 44 57
-0.0426462 0.0547363 0.193858 53 42 56
-0.0435366 0.0572419 0.202732 52 43 57
-0.0420966 0.0567324 0.200927 53 44 58
-0.0394237 0.0544925 0.192994 53 44 58
-0.0391236 0.0555008 0.196565 54 44 59
-0.0382099 0.0556696 0.197163 53 43 58
-0.0372747 0.0558155 0.19768 53 43 58
-0.0373064 0.0574591 0.203501 54 44 58
-0.03625 0.0574742 0.203554 51 41 56
-0.0341544 0.0557926 0.197599 52 42 56
-0.0337593 0.0568705 0.201416 53 42 57
-0.0325665 0.0566308 0.200567 51 41 57
-0.0320269 0.0575489 0.203819 52 41 56
-0.0306829 0.0570351 0.201999 50 39 54
-0.0293829 0.0565693 0.20035 50 40 55
-0.0280995 0.056102 0.198695 51 41 55
-0.0277235 0.0574801 0.203575 50 39 55
-0.0268218 0.0578351 0.204833 50 38 54
-0.0263476 0.0591799 0.209595 49 38 53
-0.0241595 0.0566243 0.200545 50 39 53
-0.0225439 0.0552396 0.19564 48 36 51
-0.0216967 0.0556953 0.197254 46 34 49
-0.0210675 0.056784 0.20111 49 36 51
-0.0198047 0.0561899 0.199006 46 33 48
-0.0186297 0.0557926 0.197599 52 39 53
-0.0174934 0.0554715 0.196461 53 41 55
-0.0162719 0.0548228 0.194164 49 37 50
-0.0158137 0.0568309 0.201276 49 37 48
-0.0142465 0.0548561 0.194282 48 36 48
-0.0133011 0.0551554 0.195342 47 35 47
-0.0120342 0.0540606 0.191465 49 38 49
-0.0115605 0.0566539 0.200649 44 33 45
-0.0102169 0.055076 0.195061 45 33 46
-0.00914276 0.0547619 0.193948 50 38 51
-0.00817795 0.0551059 0.195167 55 45 57
-0.00719555 0.0554128 0.196253 51 40 54
-0.00606381 0.0544802 0.192951 53 43 56
-0.00505483 0.054498 0.193014 53 44 57
-0.00410978 0.0553864 0.19616 53 46 59
-0.00304812 0.0547715 0.193982 51 45 57
-0.00195323 0.0526463 0.186456 51 45 57
-0.00101962 0.0549647 0.194666 52 45 58
0 0.0544652 0.192898 53 45 59
0.00100957 0.0544225 0.192746 52 44 58
0.00194498 0.0524239 0.185668 52 43 57
0.00297167 0.0533977 0.189117 52 43 57
0.00391189 0.0527194 0.186715 50 42 57
0.00468224 0.050481 0.178787 52 44 59
0.0058483 0.0525439 0.186093 52 44 59
0.00681852 0.0525093 0.18597 53 45 60
0.00774421 0.0521832 0.184816 53 46 61
0.00903239 0.0541008 0.191607 53 44 59
0.00958917 0.0516922 0.183076 52 44 59
0.0110773 0.0542854 0.192261 52 44 59
0.0117491 0.0527795 0.186927 53 45 61
0.0125945 0.0522254 0.184965 54 45 62
0.0134031 0.0516086 0.182781 53 45 61
0.0146074 0.0524958 0.185923 53 45 61
0.0151604 0.0510781 0.180902 51 43 59
0.0167294 0.0530487 0.187881 53 43 60
0.0180823 0.0541533 0.191793 53 44 61
0.018655 0.0529279 0.187453 52 43 60
0.0195508 0.052696 0.186632 54 44 61
0.0203499 0.052238 0.18501 52 43 60
0.02176 0.0533189 0.188838 52 43 60
0.0222077 0.0520498 0.184343 53 44 60
0.0230696 0.051817 0.183519 51 42 59
0.0236627 0.0510232 0.180707 51 42 59
0.0252809 0.0524158 0.185639 51 41 58
0.0254093 0.050731 0.179672 51 42 58
0.0271846 0.0523369 0.18536 51 41 58
0.0282127 0.0524433 0.185737 51 41 58
0.0284903 0.051194 0.181312 52 42 58
0.0299695 0.0521148 0.184573 52 41 57
0.0296267 0.0499087 0.17676 51 40 56
0.0316192 0.0516513 0.182932 50 39 56
0.031716 0.0502855 0.178095 49 39 55
0.0331207 0.0510124 0.180669 50 40 56
0.0336501 0.0503881 0.178458 50 39 56
0.033766 0.0491951 0.174233 50 39 55
0.0363291 0.0515365 0.182525 50 40 55
0.036525 0.0504858 0.178804 51 40 55
0.0379907 0.0511989 0.181329 52 41 56
0.0389083 0.0511566 0.18118 52 40 55
0.0394207 0.0505963 0.179195 51 39 55
0.0416113 0.0521658 0.184754 49 38 53
0.0402381 0.0492979 0.174597 49 39 54
0.0402212 0.0481822 0.170645 50 39 53
0.042474 0.0497748 0.176286 50 38 53
0.0447403 0.0513151 0.181741 50 39 54
0.0443841 0.0498459 0.176538 50 38 53
0.0443968 0.0488427 0.172984 50 38 53
0.0455926 0.049155 0.174091 50 38 52
0.0468852 0.0495575 0.175516 50 36 51
0.0473083 0.0490431 0.173694 50 37 51
0.0490017 0.0498401 0.176517 50 37 51
0.0511452 0.0510569 0.180827 49 35 50
0.0518015 0.0507719 0.179817 49 35 49
0.0518019 0.0498657 0.176608 48 35 49
0.052304 0.0494657 0.175191 47 32 47
0.054314 0.050481 0.178787 47 32 47
0.0566944 0.0518002 0.183459 47 32 47
0.056876 0.0511001 0.180979 47 31 46
0.0558995 0.0493994 0.174956 48 33 48
0.0575351 0.0500248 0.177171 48 31 46
0.0590706 0.0505446 0.179012 48 31 46
0.0592153 0.0498767 0.176647 47 29 44
0.061671 0.051146 0.181142 46 28 43
0.062438 0.0509975 0.180616 45 25 41
0.0624396 0.0502376 0.177925 45 25 40
0.0639909 0.0507286 0.179664 44 23 38
0.0630335 0.0492454 0.174411 43 19 34
0.0667379 0.0513947 0.182023 42 18 32
0.0694819 0.0527542 0.186838 42 19 33
0.0667349 0.0499648 0.176959 41 17 31
0.0711224 0.0525203 0.186009 41 17 31
0.0713559 0.0519806 0.184098 42 18 32
0.0727559 0.0522939 0.185208 44 21 35
0.0751509 0.0533045 0.188787 45 22 36
0.0749108 0.0524442 0.18574 45 23 37
0.0745014 0.0514889 0.182357 46 25 38
0.0778694 0.0531354 0.188188 48 30 42
0.0730224 0.0492051 0.174268 50 33 45
0.0807419 0.0537351 0.190312 50 33 44
0.0865588 0.0569038 0.201534 50 33 44
0.0946958 0.061503 0.217823 51 35 46
0.129866 0.0833413 0.295167 51 35 46
0.179986 0.114147 0.404271 52 37 47
0.184534 0.11567 0.409665 51 37 47
0.321184 0.199012 0.704833 51 36 47
0.35565 0.217863 0.771599 51 36 46
0.429259 0.26 0.920833 51 36 47
0.428818 0.256847 0.909666 52 38 48
0.476639 0.282353 1 51 37 47
0.53254 0.312039 1.10514 50 36 47
0.487115 0.282353 1 50 36 47
0.686765 0.393844 1.39486 51 38 48
0.711332 0.403639 1.42955 51 38 48
0.817431 0.459012 1.62567 50 38 48
0.762099 0.423529 1.5 50 37 47
0.689902 0.379494 1.34404 50 37 47
0.777813 0.423529 1.5 50 36 46
0.785669 0.423529 1.5 50 37 47
0.830793 0.44342 1.57045 51 37 48
0.9308 0.491926 1.74224 51 38 49
0.80924 0.423529 1.5 51 38 48
0.817096 0.423529 1.5 51 39 50
0.824953 0.423529 1.5 51 38 49
0.668931 0.340188 1.20483 50 38 48
0.891294 0.449036 1.59033 52 39 50
0.848523 0.423529 1.5 51 38 48
0.85638 0.423529 1.5 51 38 48
1.15232 0.564706 2 51 39 49
0.945155 0.459012 1.62567 52 41 51
0.87995 0.423529 1.5 52 41 51
0.813428 0.388047 1.37433 51 39 49
0.841724 0.398023 1.40967 52 40 50
1.11075 0.520671 1.84404 52 40 50
0.607584 0.282353 1 51 40 50
0.738348 0.340188 1.20483 52 40 51
1.05369 0.481365 1.70483 51 40 51
0.623298 0.282353 1 54 44 55
-0.143275 0.0655543 0.22795 114 175 146
-0.147171 0.0679029 0.236117 137 174 146
-0.135715 0.0631479 0.219582 124 161 128
-0.134106 0.0629326 0.218834 111 149 118
-0.139007 0.0657946 0.228786 118 152 122
-0.128747 0.0614685 0.213743 107 137 108
-0.130394 0.0628009 0.218376 102 129 98
-0.130204 0.0632644 0.219987 99 126 94
-0.126141 0.0618373 0.215025 94 119 89
-0.124453 0.0615593 0.214058 91 111 83
-0.124817 0.062301 0.216637 87 100 78
-0.125535 0.0632341 0.219882 86 93 77
-0.119191 0.0605946 0.210704 75 81 68
-0.118339 0.0607233 0.211151 73 78 67
-0.12224 0.0633169 0.22017 76 76 68
-0.115849 0.0605781 0.210646 75 74 59
-0.115389 0.0609179 0.211828 76 73 57
-0.10978 0.0585191 0.203487 71 65 58
-0.112221 0.0604068 0.210051 69 62 59
-0.111382 0.0605489 0.210545 70 64 60
-0.110221 0.0605168 0.210433 67 62 59
-0.10653 0.059081 0.205441 59 50 50
-0.10851 0.0607935 0.211396 59 49 51
-0.107649 0.0609328 0.21188 60 51 51
-0.106148 0.060709 0.211102 60 52 51
-0.108838 0.0629029 0.218731 57 48 48
-0.102455 0.0598434 0.208092 61 51 51
-0.103637 0.061185 0.212757 60 49 49
-0.101432 0.0605341 0.210494 57 45 46
-0.101008 0.0609435 0.211917 58 47 47
-0.0991639 0.0604956 0.21036 59 48 47
-0.10061 0.0620673 0.215825 54 41 44
-0.0997643 0.0622451 0.216443 56 45 47
-0.0953591 0.0601805 0.209264 54 42 43
-0.098833 0.0630981 0.219409 58 43 45
-0.0944271 0.0609944 0.212094 55 41 42
-0.0924086 0.0604012 0.210031 55 40 42
-0.0906692 0.0599784 0.208561 56 40 42
-0.0877749 0.0587718 0.204366 53 37 39
-0.0878993 0.0595817 0.207182 56 41 42
-0.0856326 0.0587708 0.204362 50 32 35
-0.0827149 0.057487 0.199898 51 32 35
-0.0843028 0.0593417 0.206347 53 38 38
-0.0836341 0.0596355 0.207369 54 35 37
-0.0821509 0.0593487 0.206372 54 35 38
-0.0825153 0.0604068 0.210051 51 32 36
-0.0812857 0.0603108 0.209717 52 33 37
-0.078099 0.0587402 0.204256 51 32 36
-0.078146 0.0595918 0.207217 52 33 37
-0.0789482 0.0610515 0.212293 52 33 37
-0.0789947 0.0619602 0.215453 49 29 33
-0.0744865 0.0592709 0.206101 50 30 34
-0.0736281 0.0594494 0.206722 52 33 36
-0.07635 0.0625673 0.217563 53 34 38
-0.0721274 0.0600024 0.208645 49 29 34
-0.0701642 0.0592673 0.206088 52 32 36
-0.0688757 0.059088 0.205465 51 30 36
-0.069245 0.0603477 0.209845 51 32 38
-0.0669299 0.0592709 0.206101 50 31 37
-0.0662524 0.0596327 0.207359 51 33 39
-0.0641688 0.0587199 0.204185 50 31 38
-0.0663259 0.0617226 0.214626 50 30 38
-0.0620258 0.058716 0.204172 48 30 37
