ply
format ascii 1.0
element vertex 1191
property float x
property float y
property float z
property uchar red
property uchar green
property uchar blue
end_header
0.0652785 -0.0220561 0.191738 65 56 69
0.0651791 -0.0216889 0.188545 63 60 70
0.0653134 -0.0214092 0.186114 67 65 74
0.0641 -0.0207025 0.17997 67 65 73
0.0673563 -0.0214389 0.186372 70 68 77
0.067496 -0.0211764 0.184091 70 69 78
0.0714152 -0.0220905 0.192037 69 69 78
0.0689332 -0.0210266 0.182788 71 72 81
0.0713539 -0.0214668 0.186615 72 72 81
0.0736024 -0.021844 0.189894 75 74 83
0.0704854 -0.02064 0.179428 73 72 83
0.0743382 -0.0214818 0.186745 76 73 84
0.0760349 -0.0216868 0.188527 77 75 84
0.0733577 -0.0206549 0.179557 75 77 84
0.0760209 -0.0211339 0.18372 76 78 85
0.0773677 -0.0212394 0.184638 76 75 85
0.0784758 -0.0212776 0.18497 80 79 89
0.0783372 -0.020981 0.182392 77 80 87
0.0791889 -0.0209536 0.182154 78 82 88
0.0778493 -0.0203539 0.17694 78 85 90
0.0810347 -0.0209375 0.182013 77 83 89
0.0798576 -0.0203934 0.177284 78 84 88
0.0833404 -0.0210382 0.182889 81 89 92
0.0828643 -0.0206803 0.179778 73 84 86
0.0829119 -0.0204597 0.17786 78 89 89
0.0851676 -0.0207828 0.180669 79 88 88
0.0856631 -0.020674 0.179723 84 93 93
0.0871926 -0.0208144 0.180944 81 89 92
0.0874007 -0.0206398 0.179425 81 90 93
0.0880498 -0.0205718 0.178835 83 92 95
0.0887025 -0.0205062 0.178264 84 95 95
0.0907386 -0.0207584 0.180456 86 100 97
0.0870308 -0.0197049 0.171298 87 101 98
0.0910712 -0.0204093 0.177422 93 108 106
0.0933199 -0.020702 0.179966 93 108 109
0.0936174 -0.0205603 0.178734 95 109 110
0.0947797 -0.0206095 0.179162 97 112 109
0.0926322 -0.019945 0.173386 99 118 111
0.0966808 -0.0206146 0.179207 102 120 113
0.0934898 -0.0197426 0.171626 108 125 116
0.0973631 -0.0203647 0.177034 109 132 118
0.0990652 -0.0205252 0.178429 104 132 119
0.0984047 -0.0201978 0.175583 110 129 123
0.104083 -0.0211655 0.183995 108 129 123
0.102894 -0.0207317 0.180224 115 137 130
0.103418 -0.0206479 0.179496 117 142 128
0.103375 -0.0204534 0.177805 119 146 128
0.105847 -0.0207555 0.180432 125 151 134
0.106044 -0.0206101 0.179167 124 155 141
0.107787 -0.0207651 0.180515 127 156 150
0.111764 -0.021344 0.185547 125 153 147
0.109903 -0.0208077 0.180885 133 160 147
0.111001 -0.0208359 0.18113 139 166 148
0.109376 -0.0203569 0.176966 131 163 147
0.111097 -0.0205035 0.17824 134 173 156
-0.457826 -0.0799812 0.7284 66 87 87
-0.44572 -0.0785208 0.7151 70 84 87
-0.441975 -0.0785208 0.7151 70 80 90
-0.41915 -0.0751023 0.683967 73 83 93
-0.445815 -0.0805686 0.73375 71 81 85
-0.453993 -0.08276 0.753707 70 90 91
-0.420862 -0.0773934 0.704833 71 91 90
-0.439309 -0.0815006 0.742238 71 91 88
-0.44215 -0.08276 0.753707 79 99 96
-0.442844 -0.0836367 0.761692 77 96 93
-0.421584 -0.0803453 0.731716 77 97 92
-0.446245 -0.0858254 0.781624 78 98 93
-0.419871 -0.0815006 0.742238 82 102 94
-0.412552 -0.0808285 0.736117 83 103 97
-0.407383 -0.0805686 0.73375 85 105 102
-0.387636 -0.0773934 0.704833 83 106 105
-0.37844 -0.0762839 0.694728 86 113 108
-0.400432 -0.0815006 0.742238 84 112 107
-0.371559 -0.0763655 0.695471 83 113 109
-0.381969 -0.0792822 0.722035 84 116 114
-0.369177 -0.0773934 0.704833 87 120 116
-0.384881 -0.0815006 0.742238 94 130 122
-0.343658 -0.0735139 0.669501 94 126 120
-0.353346 -0.0763655 0.695471 91 122 117
-0.324015 -0.070756 0.644385 88 122 115
-0.336954 -0.074356 0.677171 96 132 124
-0.313906 -0.070007 0.637564 106 140 137
-0.285586 -0.0643758 0.58628 108 141 138
-0.279087 -0.0635948 0.579167 109 147 138
-0.270479 -0.0623106 0.567472 119 165 152
-0.267507 -0.0623106 0.567472 128 177 164
-0.244946 -0.0576966 0.525451 135 182 173
-0.236216 -0.0562724 0.512481 130 177 169
-0.22257 -0.0536311 0.488426 137 181 168
-0.199227 -0.0485645 0.442284 140 182 168
-0.208207 -0.0513506 0.467657 138 180 167
-0.17373 -0.0433575 0.394863 134 178 166
-0.154599 -0.039048 0.355615 128 171 164
-0.138655 -0.0354479 0.322829 123 166 159
-0.113407 -0.029351 0.267304 120 163 153
-0.105022 -0.0275208 0.250636 123 166 154
-0.0980117 -0.0260088 0.236866 120 166 151
-0.100295 -0.0269559 0.245491 123 168 157
-0.09494 -0.0258481 0.235402 133 179 165
-0.0895949 -0.0247138 0.225072 129 189 165
-0.0887865 -0.0248173 0.226015 138 197 174
-0.0834659 -0.0236454 0.215342 143 200 178
-0.0775887 -0.0222815 0.202921 151 201 184
-0.0787353 -0.0229248 0.20878 152 202 187
-0.0750448 -0.022158 0.201796 159 208 184
-0.0761446 -0.022804 0.207679 168 214 191
-0.0738653 -0.022442 0.204382 168 219 192
-0.072041 -0.0222096 0.202266 168 219 191
-0.0708475 -0.0221676 0.201884 192 228 208
-0.067718 -0.0215095 0.19589 167 218 191
-0.0667492 -0.0215279 0.196058 143 205 178
-0.0668105 -0.0218844 0.199304 158 209 181
-0.0660406 -0.0219756 0.200135 154 211 181
-0.0642408 -0.0217214 0.19782 141 206 172
-0.0635677 -0.0218462 0.198956 177 221 196
-0.0621549 -0.0217167 0.197777 154 209 174
-0.0614723 -0.0218422 0.19892 190 226 203
-0.0619857 -0.0224044 0.20404 165 215 187
-0.0588217 -0.0216338 0.197022 157 212 184
-0.0573682 -0.021476 0.195585 168 217 193
-0.0573657 -0.0218655 0.199132 155 211 182
-0.0551943 -0.0214274 0.195143 146 208 177
-0.0544558 -0.0215396 0.196164 180 223 201
-0.0535403 -0.0215847 0.196575 169 218 193
-0.0516393 -0.0212265 0.193313 164 216 189
-0.0509516 -0.0213628 0.194554 154 208 176
-0.0504222 -0.0215722 0.196461 149 205 172
-0.0476921 -0.0208293 0.189695 184 222 201
-0.0466821 -0.020822 0.189629 154 210 179
-0.0461655 -0.0210392 0.191607 179 222 197
-0.045959 -0.0214105 0.194989 153 209 180
-0.044677 -0.0212863 0.193858 161 213 186
-0.0433887 -0.0211532 0.192646 171 218 192
-0.0421783 -0.0210528 0.19173 152 210 179
-0.0408987 -0.020912 0.190448 186 228 208
-0.0399705 -0.0209483 0.190779 188 229 209
-0.0392642 -0.0211058 0.192214 159 213 185
-0.0381479 -0.0210454 0.191663 163 213 183
-0.0374012 -0.0211911 0.19299 148 206 173
-0.0360411 -0.0209877 0.191138 162 213 186
-0.034148 -0.0204534 0.186272 184 226 203
-0.0328975 -0.020284 0.184729 147 211 179
-0.0327977 -0.0208353 0.18975 167 218 191
-0.0318626 -0.0208737 0.1901 168 216 188
-0.0300237 -0.0203035 0.184907 144 205 169
-0.0291702 -0.0203839 0.185639 174 219 193
-0.0288433 -0.0208505 0.189889 166 218 191
-0.027613 -0.020674 0.188281 169 219 194
-0.0269227 -0.0209037 0.190373 148 207 174
-0.0257128 -0.0207322 0.188811 163 214 184
-0.0243774 -0.0204417 0.186165 159 213 183
-0.0231938 -0.0202596 0.184507 155 210 179
-0.0223527 -0.0203738 0.185547 143 204 165
-0.0219747 -0.0209397 0.190701 142 204 168
-0.0206503 -0.0206147 0.187741 160 214 187
-0.019556 -0.0204984 0.186681 189 228 210
-0.0182726 -0.0201611 0.18361 169 217 200
-0.0175598 -0.020451 0.186251 152 205 181
-0.0167199 -0.0206183 0.187774 137 191 179
-0.0159605 -0.020912 0.190448 97 152 147
-0.0142328 -0.0198916 0.181156 68 102 100
-0.0135079 -0.0202268 0.184209 72 80 83
-0.0123856 -0.0199729 0.181896 72 67 75
-0.0114788 -0.0200532 0.182627 73 66 74
-0.0105338 -0.0200754 0.182829 74 67 75
-0.00982773 -0.0206026 0.187631 70 63 72
-0.00846365 -0.0197145 0.179542 70 62 71
-0.00760949 -0.0199404 0.1816 68 61 71
-0.00652297 -0.0195352 0.177909 68 62 71
-0.00556791 -0.0194541 0.177171 67 61 71
-0.0047984 -0.0201185 0.183222 66 60 70
-0.00368405 -0.0193079 0.175839 66 59 69
-0.00283673 -0.0198228 0.180529 66 59 70
-0.00191686 -0.0200923 0.182983 65 58 69
-0.000976165 -0.0204641 0.186369 66 59 70
0 -0.0198532 0.180806 65 59 70
0.000962091 -0.020169 0.183682 66 59 71
0.00189261 -0.0198382 0.180669 65 58 70
0.00283839 -0.0198345 0.180635 65 59 70
0.0037644 -0.019729 0.179675 65 57 69
0.00483065 -0.0202537 0.184453 65 58 71
0.00562108 -0.0196398 0.178863 65 58 71
0.0067161 -0.0201135 0.183177 65 59 72
0.00764034 -0.0200213 0.182337 64 57 70
0.00832562 -0.0193929 0.176614 64 57 71
0.00956254 -0.0200467 0.182568 65 58 71
0.0105557 -0.020117 0.183208 64 58 71
0.0116184 -0.0202971 0.184849 65 59 73
0.0123374 -0.0198953 0.181189 64 58 72
0.0133169 -0.0199409 0.181605 65 58 72
0.0141385 -0.0197598 0.179955 64 58 71
0.0152194 -0.0199409 0.181605 63 57 71
0.0162723 -0.0200664 0.182747 65 60 73
0.0171218 -0.0199409 0.181605 64 58 72
0.018132 -0.020006 0.182198 64 59 72
0.0192894 -0.020219 0.184137 65 60 73
0.0205041 -0.0204687 0.186411 65 60 74
0.0212723 -0.0202703 0.184605 66 61 74
0.0224569 -0.0204687 0.186411 65 59 73
0.0227984 -0.0199142 0.181362 64 57 73
0.0240282 -0.0201489 0.183499 64 58 73
0.0243866 -0.0196629 0.179073 65 59 73
0.0259094 -0.020117 0.183208 64 57 72
0.0268773 -0.0201232 0.183265 64 58 73
0.0276403 -0.0199809 0.181968 63 56 72
0.0290445 -0.0202961 0.184839 64 57 73
0.0293355 -0.0198382 0.180669 63 56 72
0.0310067 -0.020313 0.184994 64 57 72
0.0318389 -0.0202262 0.184203 63 56 71
0.0323714 -0.0199596 0.181775 62 55 71
0.0335311 -0.0200839 0.182907 64 58 72
0.0348498 -0.0202939 0.18482 64 57 72
0.0360855 -0.0204456 0.186201 64 56 72
0.037045 -0.0204369 0.186122 63 56 71
0.0376304 -0.0202275 0.184215 64 57 72
0.038644 -0.0202531 0.184448 62 55 71
0.0399197 -0.0204114 0.18589 63 57 72
0.0406092 -0.0202696 0.184598 64 57 72
0.0415905 -0.0202766 0.184662 64 56 71
0.0410374 -0.0195523 0.178065 64 57 72
0.0426104 -0.0198505 0.180782 63 56 71
0.0450122 -0.0205136 0.18682 64 57 72
0.0449767 -0.0200613 0.182701 64 58 73
0.046416 -0.020272 0.18462 66 60 74
0.048272 -0.0206523 0.188083 65 59 72
0.0486175 -0.0203841 0.185641 65 58 72
0.049238 -0.0202395 0.184324 63 55 70
0.0504336 -0.0203323 0.185169 62 51 68
0.051141 -0.0202284 0.184223 64 59 71
0.0531511 -0.0206342 0.187919 62 56 70
0.0539784 -0.0205744 0.187374 60 50 65
0.0548673 -0.0205397 0.187058 60 49 64
0.0562385 -0.0206837 0.188369 59 46 61
0.0551369 -0.0199289 0.181495 62 49 63
0.0568436 -0.0201975 0.183942 61 46 61
0.0572653 -0.0200083 0.182218 59 44 60
0.0595891 -0.0204789 0.186504 62 47 62
0.0617352 -0.0208742 0.190105 62 48 62
0.0616149 -0.0205029 0.186722 63 54 65
0.0631206 -0.0206757 0.188297 67 60 72
0.0663487 -0.0213987 0.194881 64 54 68
0.0634801 -0.0201633 0.18363 67 63 73
0.0671485 -0.0210102 0.191343 69 66 75
0.0667869 -0.0205898 0.187514 69 67 76
0.067657 -0.0205557 0.187204 69 67 76
0.0692365 -0.0207351 0.188838 69 67 77
0.0673123 -0.0198749 0.181004 69 68 78
0.0696654 -0.020284 0.184729 69 68 77
0.0706019 -0.0202751 0.184648 71 69 79
0.0727499 -0.0206096 0.187695 72 71 80
0.0727499 -0.0203348 0.185192 72 71 81
0.0722667 -0.019934 0.181542 73 71 81
0.0738317 -0.0201012 0.183064 76 73 82
0.0737251 -0.0198148 0.180456 74 74 82
0.0756769 -0.0200819 0.182889 72 72 81
0.0761647 -0.0199587 0.181767 73 73 82
0.0781711 -0.0202316 0.184252 77 77 86
0.0785428 -0.0200799 0.182871 74 76 84
0.0784708 -0.0198198 0.180502 75 78 85
0.079475 -0.0198345 0.180635 74 77 83
0.0799575 -0.0197201 0.179594 77 81 87
0.0813824 -0.0198382 0.180669 79 84 88
0.0815614 -0.0196533 0.178985 77 83 87
0.0837848 -0.0199596 0.181775 77 84 86
0.0824287 -0.0194159 0.176824 77 86 86
0.0845508 -0.0196945 0.17936 79 89 89
0.0861623 -0.0198493 0.18077 82 90 91
0.0879606 -0.0200433 0.182537 80 87 89
0.08779 -0.0197893 0.180224 81 89 92
0.0869971 -0.019402 0.176697 83 92 95
0.0881587 -0.0194541 0.177171 85 95 93
0.0907923 -0.0198265 0.180563 84 96 92
0.089208 -0.0192798 0.175583 84 97 93
0.0930002 -0.0198942 0.18118 89 103 100
0.0908713 -0.0192425 0.175244 86 100 97
0.0918507 -0.0192554 0.175361 89 104 101
0.0913326 -0.0189572 0.172646 95 110 107
0.0940811 -0.0193362 0.176098 94 113 108
0.0947746 -0.0192896 0.175673 96 113 111
0.100184 -0.0201946 0.183916 98 114 110
0.0990495 -0.0197757 0.1801 97 116 109
0.0983665 -0.0194541 0.177171 95 117 110
0.100112 -0.0196143 0.17863 105 126 120
0.0983644 -0.0190934 0.173886 105 127 121
0.100977 -0.0194207 0.176867 105 129 121
0.103435 -0.0197127 0.179526 110 136 121
0.102443 -0.0193477 0.176202 110 138 119
0.10461 -0.0195805 0.178322 117 145 126
0.106171 -0.0196968 0.179382 119 148 135
0.1076 -0.0197869 0.180202 116 143 143
0.110833 -0.0202042 0.184002 116 144 144
0.106945 -0.0193272 0.176016 122 148 147
0.110647 -0.0198254 0.180553 123 148 148
0.111814 -0.0198647 0.180911 124 152 150
0.113673 -0.0200253 0.182373 125 160 146
-0.470565 -0.0782921 0.748668 68 78 80
-0.43248 -0.0725603 0.693858 64 67 73
-0.448962 -0.0759639 0.726405 70 73 82
-0.425211 -0.0725603 0.693858 69 74 81
-0.434483 -0.0747817 0.7151 73 76 83
-0.436533 -0.0757878 0.724721 71 80 82
-0.454813 -0.079654 0.761692 69 81 81
-0.455265 -0.0804389 0.769197 69 84 82
-0.425145 -0.0757878 0.724721 67 84 82
-0.442844 -0.079654 0.761692 70 86 83
-0.446054 -0.0809608 0.774187 74 89 86
-0.418912 -0.076732 0.73375 73 89 86
-0.398711 -0.073708 0.704833 76 91 89
-0.420461 -0.0784553 0.750228 77 92 90
-0.413739 -0.0779293 0.745199 79 92 92
-0.408208 -0.0776196 0.742238 76 95 95
-0.38912 -0.0747016 0.714334 80 99 97
-0.400432 -0.0776196 0.742238 80 99 93
-0.402672 -0.0788191 0.753707 84 104 98
-0.38339 -0.0757878 0.724721 86 110 106
-0.374153 -0.0747016 0.714334 82 110 106
-0.370412 -0.0747016 0.714334 82 110 105
-0.371263 -0.0756372 0.72328 87 105 102
-0.358102 -0.073708 0.704833 91 105 102
-0.35441 -0.073708 0.704833 86 103 97
-0.350718 -0.073708 0.704833 84 103 98
-0.331102 -0.0703258 0.67249 89 116 116
-0.301926 -0.0648183 0.619825 90 123 125
-0.304233 -0.0660235 0.63135 102 140 132
-0.300926 -0.0660235 0.63135 109 157 143
-0.278285 -0.0617343 0.590334 113 161 147
-0.280973 -0.0630311 0.602735 119 166 158
-0.275745 -0.0625613 0.598242 127 173 163
-0.261426 -0.0599942 0.573695 133 178 166
-0.237685 -0.0551803 0.527662 136 178 167
-0.234409 -0.0550599 0.52651 134 176 165
-0.219987 -0.0522876 0.5 135 178 165
-0.201107 -0.0483759 0.462595 131 173 162
-0.194533 -0.0473651 0.452929 125 167 155
-0.184289 -0.045425 0.434376 124 166 154
-0.149695 -0.0373592 0.357248 118 163 147
-0.132461 -0.0334766 0.32012 118 164 147
-0.116027 -0.0296993 0.284 121 164 152
-0.106125 -0.0275173 0.263134 130 171 159
-0.094652 -0.0248654 0.237776 129 180 165
-0.0872229 -0.0232193 0.222035 131 186 165
-0.0889431 -0.0239972 0.229473 139 191 172
-0.0850099 -0.0232502 0.22233 141 191 178
-0.0830386 -0.0230265 0.220191 139 191 181
-0.0800547 -0.0225117 0.215268 145 198 185
-0.0755357 -0.0215444 0.206018 150 204 181
-0.0742253 -0.0214775 0.205378 147 209 184
-0.0715535 -0.0210088 0.200897 149 212 187
-0.0703897 -0.0209756 0.200579 183 226 207
-0.0692598 -0.0209516 0.20035 161 215 191
-0.0673419 -0.0206848 0.197799 146 207 182
-0.0686638 -0.0214204 0.204833 157 210 184
-0.0678779 -0.0215114 0.205702 180 223 200
-0.06431 -0.0207094 0.198033 149 210 178
-0.0642224 -0.0210202 0.201005 154 211 179
-0.0627675 -0.0208864 0.199726 148 205 170
-0.0620052 -0.0209824 0.200645 186 222 201
-0.0593736 -0.0204383 0.195441 166 215 187
-0.0582705 -0.0204105 0.195176 147 206 174
-0.0596175 -0.0212552 0.203253 184 223 201
-0.0564345 -0.0204862 0.1959 178 221 197
-0.0553351 -0.0204591 0.19564 157 211 180
-0.0535084 -0.020157 0.192751 170 218 192
-0.053947 -0.020713 0.198068 164 216 188
-0.0529095 -0.020713 0.198068 168 218 191
-0.0505167 -0.0201718 0.192893 184 221 199
-0.0488816 -0.0199173 0.190459 158 207 177
-0.0482393 -0.020065 0.191872 185 223 202
-0.0486933 -0.0206848 0.197799 155 208 178
-0.0463353 -0.020111 0.192312 181 220 200
-0.0460329 -0.0204238 0.195302 159 210 183
-0.0441885 -0.020051 0.191738 180 221 198
-0.0429789 -0.0199557 0.190826 143 205 171
-0.0412256 -0.0195974 0.1874 146 208 171
-0.0416143 -0.0202646 0.19378 175 224 199
-0.0399431 -0.0199371 0.190649 171 224 197
-0.0381034 -0.0195065 0.186531 176 223 198
-0.0377542 -0.0198363 0.189685 185 225 203
-0.0372279 -0.0200885 0.192096 147 204 172
-0.0352108 -0.0195278 0.186735 162 212 185
-0.03448 -0.0196689 0.188083 192 228 209
-0.0334459 -0.0196401 0.187809 178 224 200
-0.0323059 -0.0195456 0.186905 159 214 185
-0.0316171 -0.0197266 0.188636 175 221 197
-0.0311978 -0.0200929 0.192138 153 210 178
-0.0295293 -0.0196522 0.187925 148 207 173
-0.0284483 -0.0195857 0.187288 162 216 188
-0.0273055 -0.0194703 0.186185 155 214 183
-0.0265823 -0.0196567 0.187967 173 218 191
-0.0261762 -0.0201008 0.192214 173 218 192
-0.0245174 -0.0195801 0.187235 165 215 188
-0.0240325 -0.0199925 0.191178 161 213 186
-0.0223739 -0.019422 0.185723 161 212 182
-0.0214813 -0.0194947 0.186419 154 209 176
-0.0204864 -0.0194772 0.186251 132 197 158
-0.0195197 -0.019486 0.186335 166 214 186
-0.0187828 -0.0197373 0.188738 174 217 193
-0.0175102 -0.0194222 0.185725 172 215 192
-0.01711 -0.0200947 0.192155 149 201 184
-0.0155647 -0.0194222 0.185725 112 169 152
-0.0145849 -0.019413 0.185637 89 125 116
-0.0139801 -0.0199371 0.190649 71 87 85
-0.0126769 -0.0194693 0.186175 73 68 76
-0.0116958 -0.0194593 0.18608 74 67 75
-0.0108673 -0.0197246 0.188617 71 64 72
-0.00950561 -0.0189784 0.181481 70 63 72
-0.00874672 -0.0194036 0.185547 69 62 72
-0.00771656 -0.0192581 0.184156 70 63 73
-0.00669181 -0.0190865 0.182514 68 61 71
-0.00584191 -0.0194394 0.18589 66 59 70
-0.00485703 -0.0193946 0.185461 66 59 69
-0.00367633 -0.0183499 0.175471 65 58 69
-0.00291165 -0.0193775 0.185297 64 57 69
-0.00193759 -0.0193424 0.184962 64 57 69
-0.000958428 -0.0191355 0.182983 65 58 69
0 -0.0190336 0.182009 65 59 71
0.00094808 -0.0189289 0.181007 65 58 70
0.00189969 -0.0189641 0.181344 65 58 70
0.00287639 -0.0191429 0.183054 64 57 69
0.0037687 -0.018811 0.17988 65 57 70
0.00485518 -0.0193872 0.18539 65 58 71
0.00576677 -0.0191894 0.183499 64 56 69
0.00660364 -0.018835 0.180109 64 56 70
0.00747078 -0.0186447 0.17829 65 58 71
0.00839954 -0.0186334 0.178182 65 58 71
0.00956254 -0.0190921 0.182568 64 57 71
0.0105107 -0.0190774 0.182428 64 57 71
0.0113455 -0.0188766 0.180507 64 57 71
0.0123778 -0.0190099 0.181783 64 58 72
0.0134979 -0.0192494 0.184072 65 59 72
0.0143579 -0.0191108 0.182747 66 59 72
0.0151273 -0.0188766 0.180507 64 58 71
0.0160641 -0.0188663 0.180409 64 58 72
0.0174644 -0.0193714 0.185239 64 57 71
0.0182668 -0.019195 0.183552 65 59 72
0.0193326 -0.0192992 0.184549 65 59 73
0.0200954 -0.0191055 0.182696 64 57 72
0.0206308 -0.0187229 0.179038 65 59 72
0.0225119 -0.0195418 0.186868 64 58 72
0.0236265 -0.0196548 0.187949 64 58 73
0.0237132 -0.0189378 0.181093 63 56 72
0.0246084 -0.0188968 0.180701 65 59 73
0.0260551 -0.0192667 0.184238 64 57 72
0.0267208 -0.0190534 0.182198 64 56 72
0.0285025 -0.019623 0.187645 64 56 72
0.0287658 -0.0191441 0.183066 66 59 74
0.029847 -0.0192229 0.183819 64 57 72
0.0304073 -0.0189718 0.181417 63 56 71
0.0316424 -0.0191441 0.183066 63 55 70
0.0325287 -0.0191015 0.182658 62 54 70
0.0340005 -0.0193953 0.185468 63 55 70
0.0349719 -0.0193953 0.185468 63 55 71
0.0348455 -0.0188029 0.179803 63 55 71
0.0376379 -0.0197752 0.1891 63 56 71
0.038435 -0.0196763 0.188154 63 56 71
0.0399077 -0.0199194 0.190479 62 55 71
0.0394875 -0.019229 0.183877 65 58 73
0.0397527 -0.0188972 0.180704 64 56 71
0.0411389 -0.0191014 0.182657 64 55 70
0.041404 -0.0187875 0.179656 63 55 70
0.0427646 -0.0189737 0.181436 62 53 69
0.0443422 -0.019246 0.184039 63 56 71
0.0461864 -0.0196199 0.187615 61 53 68
0.0462149 -0.019223 0.18382 65 59 72
0.0462807 -0.0188575 0.180325 65 58 71
0.0481597 -0.0192306 0.183893 63 55 69
0.0483238 -0.0189178 0.180902 63 55 69
0.0504856 -0.019384 0.18536 62 52 67
0.0511689 -0.0192757 0.184324 67 61 73
0.0510231 -0.0188648 0.180395 62 53 67
0.052879 -0.0191955 0.183557 61 50 65
0.0551086 -0.0196477 0.187881 61 50 65
0.0558654 -0.0195681 0.18712 59 46 61
0.055689 -0.01917 0.183313 60 45 61
0.056937 -0.0192674 0.184244 58 43 59
0.0574222 -0.0191077 0.182717 60 44 60
0.0605292 -0.0198114 0.189446 61 46 61
0.0602552 -0.0194036 0.185547 62 48 63
0.0616085 -0.0195245 0.186703 61 51 64
0.0628801 -0.0196161 0.187579 60 48 64
0.0619404 -0.0190257 0.181933 66 56 69
0.0662025 -0.0200267 0.191506 66 61 71
0.0656141 -0.0195525 0.186971 68 65 74
0.0655509 -0.0192464 0.184044 69 66 76
0.0679893 -0.019673 0.188123 69 66 76
0.0691625 -0.0197266 0.188636 67 65 75
0.0681967 -0.0191772 0.183382 68 66 76
0.0698723 -0.0193755 0.185278 69 67 77
0.0691662 -0.0189169 0.180893 67 66 75
0.0722656 -0.0194975 0.186445 70 69 78
0.0724379 -0.0192834 0.184398 71 70 80
0.0727559 -0.0191133 0.182771 72 70 80
0.0715539 -0.0185534 0.177417 73 71 80
0.0745618 -0.0190854 0.182504 72 71 80
0.0748017 -0.0189045 0.180774 72 71 80
0.0786157 -0.01962 0.187616 74 73 83
0.0784076 -0.0193265 0.18481 77 75 85
0.0770997 -0.0187724 0.179511 79 79 86
0.0782347 -0.0188192 0.179959 75 75 82
0.0790168 -0.0187811 0.179594 73 75 81
0.0798535 -0.0187566 0.17936 74 77 83
0.0794459 -0.0184439 0.17637 74 76 83
0.082556 -0.0189456 0.181168 76 80 85
0.0804502 -0.0182526 0.17454 76 80 84
0.0824832 -0.0185036 0.17694 72 77 80
0.0852798 -0.0189184 0.180907 77 82 84
0.0852764 -0.0187097 0.178912 76 81 83
0.0869612 -0.018872 0.180463 79 84 87
0.0876873 -0.018825 0.180014 76 83 87
0.0882866 -0.018752 0.179316 78 87 88
0.0868365 -0.0182498 0.174514 82 90 90
0.0914677 -0.0190229 0.181906 80 88 88
0.0887605 -0.0182696 0.174703 86 93 93
0.0921473 -0.0187731 0.179518 88 96 97
0.0910215 -0.0183564 0.175534 88 97 94
0.094415 -0.0188504 0.180257 91 103 99
0.0942763 -0.0186364 0.17821 88 101 98
0.0934373 -0.0182894 0.174893 86 101 100
0.0967615 -0.0187562 0.179356 90 107 105
0.0962071 -0.0184694 0.176614 92 110 106
0.0970491 -0.0184537 0.176463 96 114 108
0.100285 -0.0188891 0.180627 101 120 114
0.0996239 -0.0185892 0.177759 98 121 115
0.100988 -0.0186692 0.178524 101 124 119
0.100013 -0.0183193 0.175178 103 124 119
0.10217 -0.0185443 0.17733 104 125 121
0.104624 -0.0188187 0.179954 105 124 121
0.104231 -0.0185805 0.177676 110 130 125
0.108592 -0.0191866 0.183472 115 133 125
0.106755 -0.0186967 0.178787 109 135 125
0.108401 -0.0188198 0.179964 110 140 125
0.108946 -0.0187514 0.17931 116 139 131
0.110066 -0.0187823 0.179606 123 143 142
0.111473 -0.0188611 0.180359 125 145 146
0.1081 -0.0181368 0.173433 132 146 149
-0.456571 -0.0721657 0.726405 69 75 76
-0.446281 -0.0711321 0.716 71 70 77
-0.448962 -0.0721657 0.726405 71 71 77
-0.438229 -0.0710426 0.7151 71 73 78
-0.445815 -0.0728954 0.73375 69 72 77
-0.43128 -0.0711321 0.716 71 73 77
-0.462274 -0.0769127 0.774187 69 75 76
-0.429938 -0.0721657 0.726405 69 79 78
-0.430442 -0.0728954 0.73375 69 79 78
-0.438202 -0.0748781 0.753707 71 80 78
-0.400701 -0.0690926 0.695471 72 78 78
-0.418912 -0.0728954 0.73375 70 76 79
-0.413919 -0.0726934 0.731716 69 76 79
-0.422411 -0.0748781 0.753707 75 82 85
-0.433963 -0.0776515 0.781624 82 89 93
-0.414515 -0.0748781 0.753707 80 87 91
-0.38912 -0.0709665 0.714334 78 88 91
-0.390205 -0.0718553 0.72328 76 90 88
-0.398126 -0.0740328 0.745199 79 89 87
-0.367916 -0.0690926 0.695471 85 89 90
-0.413055 -0.078345 0.788604 73 95 95
-0.370412 -0.0709665 0.714334 69 91 92
-0.361794 -0.0700226 0.704833 81 89 91
-0.358102 -0.0700226 0.704833 86 87 87
-0.386774 -0.076417 0.769197 81 85 83
-0.34606 -0.0690926 0.695471 80 91 89
-0.332345 -0.0670601 0.675013 70 92 94
-0.347963 -0.0709665 0.714334 77 108 109
-0.325273 -0.0670601 0.675013 90 126 119
-0.331135 -0.0690188 0.694728 100 135 125
-0.303764 -0.0640173 0.644385 104 137 131
-0.283266 -0.0603682 0.607653 111 143 141
-0.29135 -0.0627965 0.632096 114 160 151
-0.298912 -0.0651671 0.655958 112 158 147
-0.267922 -0.0590899 0.594786 113 156 148
-0.262824 -0.0586476 0.590334 117 162 152
-0.238633 -0.0538834 0.542379 116 163 149
-0.223804 -0.0511438 0.514802 119 164 150
-0.208933 -0.0483277 0.486457 123 165 150
-0.206385 -0.0483277 0.486457 113 158 143
-0.189032 -0.0448177 0.451125 111 159 142
-0.170961 -0.0410463 0.413163 113 161 143
-0.164572 -0.0400188 0.40282 123 166 154
-0.142061 -0.0349936 0.352238 129 169 159
-0.117498 -0.0293238 0.295167 129 173 161
-0.113814 -0.0287833 0.289726 138 183 163
-0.0974154 -0.0249689 0.251332 137 186 167
-0.0889735 -0.0231175 0.232696 130 184 169
-0.0890447 -0.0234573 0.236117 132 187 176
-0.083254 -0.0222408 0.223871 136 193 180
-0.0825085 -0.0223565 0.225036 139 197 177
-0.0766068 -0.0210582 0.211968 146 203 182
-0.0746278 -0.0208159 0.209528 140 205 184
-0.0704223 -0.019936 0.200672 151 210 194
-0.0704415 -0.0202436 0.203768 151 209 192
-0.0699091 -0.0203997 0.205339 154 208 187
-0.068337 -0.0202525 0.203858 160 213 190
-0.0646058 -0.0194507 0.195786 176 224 200
-0.06379 -0.0195148 0.196432 174 221 196
-0.0649995 -0.0202108 0.203438 157 213 182
-0.0630741 -0.019939 0.200702 160 213 184
-0.0620673 -0.0199533 0.200846 160 211 184
-0.0609373 -0.0199278 0.200589 155 209 178
-0.0584316 -0.0194436 0.195715 154 210 179
-0.0577173 -0.0195489 0.196775 164 213 186
-0.0560429 -0.0193269 0.19454 191 226 206
-0.0545381 -0.0191562 0.192822 167 216 188
-0.053269 -0.0190635 0.191889 168 214 187
-0.0530534 -0.0193514 0.194788 153 206 174
-0.05168 -0.0192201 0.193466 163 212 185
-0.0508279 -0.0192813 0.194081 183 222 202
-0.0509568 -0.0197247 0.198544 149 206 177
-0.0487853 -0.0192775 0.194044 167 215 188
-0.0481714 -0.01944 0.195678 160 211 182
-0.046865 -0.0193239 0.19451 158 210 183
-0.0442589 -0.0186548 0.187776 165 214 185
-0.0435336 -0.0187662 0.188896 165 214 186
-0.0437108 -0.0192807 0.194076 138 202 169
-0.0423416 -0.0191215 0.192473 182 224 197
-0.04131 -0.0191106 0.192364 186 227 203
-0.0399458 -0.0189415 0.190661 159 216 185
-0.0389877 -0.0189612 0.19086 174 222 197
-0.0382458 -0.0190899 0.192155 188 227 206
-0.0362909 -0.0186037 0.187261 163 211 181
-0.0348681 -0.0183708 0.184917 174 216 191
-0.0342792 -0.0185766 0.186988 170 217 193
-0.0343488 -0.0191618 0.192879 182 224 204
-0.0330153 -0.018976 0.191008 158 214 186
-0.0315113 -0.0186776 0.188004 178 223 199
-0.0309012 -0.0189068 0.190312 164 216 188
-0.0302361 -0.0191165 0.192423 164 215 187
-0.0282255 -0.0184607 0.185821 178 220 196
-0.0276946 -0.0187603 0.188838 166 215 186
-0.0269822 -0.0189547 0.190794 164 214 183
-0.0261305 -0.0190624 0.191878 165 214 186
-0.024669 -0.0187161 0.188392 169 216 192
-0.0241842 -0.0191128 0.192386 166 215 191
-0.0220761 -0.0182053 0.183251 151 207 179
-0.0216731 -0.0186854 0.188083 162 209 186
-0.0204864 -0.0185033 0.186251 178 217 193
-0.0196029 -0.0185906 0.187129 155 207 175
-0.0188439 -0.0188114 0.189351 150 205 175
-0.0174934 -0.0184334 0.185547 153 207 178
-0.0166181 -0.0185412 0.186632 131 194 165
-0.0159428 -0.0188995 0.190238 114 167 146
-0.0148598 -0.0187899 0.189135 86 124 107
-0.0136584 -0.0185044 0.186261 78 91 87
-0.0123962 -0.0180863 0.182053 74 73 81
-0.0116233 -0.0183718 0.184927 74 71 78
-0.0107722 -0.0185744 0.186966 75 69 77
-0.00965928 -0.018321 0.184415 71 64 74
-0.00866447 -0.0182601 0.183802 73 66 76
-0.00780788 -0.0185117 0.186335 69 62 72
-0.00688908 -0.0186667 0.187895 66 59 70
-0.00571657 -0.0180713 0.181901 65 59 70
-0.00477181 -0.0181016 0.182207 66 59 71
-0.00382688 -0.0181463 0.182657 65 58 70
-0.00285994 -0.0180817 0.182007 65 58 70
-0.00190459 -0.0180624 0.181813 65 59 70
-0.000954089 -0.0180964 0.182155 66 60 71
0 -0.0178598 0.179773 64 56 69
0.000952571 -0.0180676 0.181865 65 58 70
0.00186827 -0.0177179 0.178345 65 58 70
0.00289658 -0.0183133 0.184338 64 57 70
0.00379568 -0.0179984 0.181168 64 56 69
0.00478734 -0.0181605 0.1828 65 57 71
0.00581119 -0.0183704 0.184912 64 56 70
0.00660838 -0.0179061 0.180239 64 56 70
0.00758978 -0.0179946 0.18113 64 56 70
0.00854757 -0.0180137 0.181322 64 57 71
0.00965258 -0.0183083 0.184287 64 57 71
0.0103124 -0.0177815 0.178985 64 58 71
0.0114896 -0.0181605 0.1828 63 56 71
0.0124156 -0.0181145 0.182337 63 57 71
0.0134409 -0.0182097 0.183295 64 58 71
0.0140338 -0.0177454 0.178622 64 56 70
0.0152842 -0.0181187 0.182379 64 57 71
0.0163006 -0.0181869 0.183066 64 57 71
0.0173109 -0.0182411 0.183611 64 57 71
0.018199 -0.0181676 0.182872 64 58 72
0.0190004 -0.0180193 0.181378 65 59 72
0.0199505 -0.0180193 0.181378 65 59 72
0.0208744 -0.0179968 0.181152 63 56 71
0.0214633 -0.0176999 0.178164 63 56 71
0.0223272 -0.0176452 0.177613 64 58 72
0.0237333 -0.0180062 0.181246 64 57 72
0.0251852 -0.0183728 0.184937 64 57 72
0.0259581 -0.0182353 0.183552 64 58 72
0.0269406 -0.0182496 0.183696 64 57 72
0.0274528 -0.0179553 0.180734 63 55 71
0.0296648 -0.0187553 0.188787 61 52 69
0.029762 -0.0182097 0.183295 63 55 71
0.0302216 -0.0179131 0.18031 64 55 71
0.0316424 -0.0181869 0.183066 62 54 70
0.0316914 -0.0176793 0.177957 63 54 70
0.0332727 -0.0180312 0.181498 62 53 69
0.034154 -0.0179946 0.18113 63 54 70
0.0358515 -0.0183785 0.184994 63 54 70
0.0368667 -0.0184016 0.185226 63 55 70
0.0376065 -0.0182895 0.184098 63 55 71
0.0384078 -0.0182122 0.183321 63 56 71
0.0395792 -0.0183099 0.184304 63 56 71
0.0398446 -0.0179938 0.181122 62 53 69
0.0414856 -0.0182992 0.184196 63 54 69
0.0426635 -0.0183911 0.185121 63 53 69
0.0431856 -0.0182025 0.183222 61 52 68
0.0442787 -0.0182575 0.183776 63 54 69
0.0444308 -0.0179304 0.180483 62 53 68
0.045385 -0.0179339 0.180519 62 52 68
0.046369 -0.0179488 0.180669 63 54 69
0.0477486 -0.0181131 0.182323 62 54 68
0.0500145 -0.0186007 0.187231 61 52 67
0.0503333 -0.0183593 0.1848 62 52 67
0.0512239 -0.0183316 0.184522 65 57 69
0.0529642 -0.0186034 0.187258 62 53 66
0.0543705 -0.0187501 0.188735 63 52 66
0.0543413 -0.0184054 0.185265 60 47 62
0.055847 -0.0185836 0.187058 57 42 59
0.0565097 -0.0184799 0.186014 59 43 60
0.0566491 -0.0182115 0.183313 58 42 59
0.0587178 -0.0185619 0.18684 59 43 60
0.0582715 -0.0181188 0.18238 63 49 63
0.0601621 -0.0184049 0.18526 62 49 64
0.0614478 -0.0184999 0.186216 60 49 63
0.0620371 -0.0183855 0.185064 61 51 65
0.0641069 -0.0187066 0.188297 62 53 65
0.0659247 -0.0189456 0.190702 68 62 73
0.0648826 -0.0183678 0.184886 67 63 73
0.0657507 -0.0183398 0.184605 68 65 74
0.0677277 -0.0186175 0.1874 68 65 75
0.0675955 -0.0183157 0.184362 69 66 76
0.0707209 -0.0188927 0.190169 69 67 76
0.0696348 -0.0183441 0.184648 69 67 76
0.0699527 -0.0181754 0.18295 69 66 76
0.0721572 -0.0184949 0.186165 70 67 77
0.0715376 -0.0180916 0.182106 71 68 78
0.0719193 -0.0179488 0.180669 70 67 77
0.0734042 -0.0180815 0.182004 72 69 79
0.0754904 -0.018357 0.184777 73 71 80
0.0765347 -0.0183753 0.184962 72 71 80
0.0770772 -0.0182742 0.183945 75 73 83
0.0752679 -0.017625 0.177409 76 74 84
0.0762977 -0.0176482 0.177643 74 73 82
0.0802062 -0.0183288 0.184494 76 76 82
0.0771223 -0.0174142 0.175288 73 73 79
0.0817104 -0.0182332 0.183531 71 71 78
0.0816244 -0.0180022 0.181206 72 72 79
0.0807348 -0.0176013 0.177171 71 73 79
0.0844005 -0.0181914 0.183111 73 75 80
0.084555 -0.0180199 0.181385 76 78 81
0.0832434 -0.0175433 0.176587 74 76 80
0.086179 -0.0179624 0.180806 75 78 81
0.0871261 -0.0179624 0.180806 78 82 86
0.0886827 -0.0180867 0.182057 78 84 88
0.086285 -0.0174105 0.17525 80 87 89
0.0877359 -0.0175169 0.176321 80 87 87
0.0922255 -0.0182215 0.183413 81 87 87
0.0902696 -0.0176512 0.177673 81 85 88
0.0904208 -0.0175003 0.176154 81 84 87
0.0922742 -0.0176786 0.177949 83 91 90
0.0913607 -0.0173286 0.174426 84 93 91
0.0952705 -0.0178912 0.180089 86 95 94
0.0927948 -0.0172555 0.17369 83 95 95
0.0956575 -0.0176151 0.17731 86 102 100
0.0987276 -0.0180057 0.181241 89 107 103
0.0988405 -0.0178546 0.17972 91 107 101
0.100403 -0.0179658 0.18084 90 107 100
0.100564 -0.0178264 0.179437 95 112 106
0.104777 -0.0184013 0.185223 96 116 113
0.10115 -0.0176013 0.177171 98 118 115
0.105706 -0.0182268 0.183467 104 122 120
0.104274 -0.0178178 0.179351 107 121 120
0.102015 -0.0172763 0.173899 109 123 123
0.105392 -0.0176901 0.178065 103 123 119
0.108873 -0.0181141 0.182333 104 130 121
0.106023 -0.0174866 0.176016 109 138 121
0.109077 -0.0178353 0.179526 115 136 122
0.10644 -0.0172553 0.173688 116 138 129
0.109768 -0.017644 0.177601 112 135 130
0.109459 -0.0174465 0.175613 117 139 134
-0.479289 -0.0717693 0.762549 68 67 64
-0.43248 -0.0653042 0.693858 68 65 71
-0.473588 -0.0721176 0.76625 67 65 71
-0.444125 -0.068209 0.724721 67 66 71
-0.470384 -0.0728647 0.774187 67 69 73
-0.461548 -0.0721176 0.76625 69 72 75
-0.426992 -0.0673035 0.7151 66 68 68
-0.434285 -0.0690588 0.73375 66 69 68
-0.44215 -0.0709371 0.753707 64 70 69
-0.442844 -0.0716886 0.761692 68 73 71
-0.422756 -0.0690588 0.73375 68 69 69
-0.441999 -0.0728647 0.774187 67 68 72
-0.426359 -0.0709371 0.753707 71 74 78
-0.407109 -0.0683675 0.726405 70 75 78
-0.422896 -0.0716886 0.761692 70 73 78
-0.425779 -0.0728647 0.774187 71 76 81
-0.436881 -0.0754835 0.802012 68 75 79
-0.410927 -0.0716886 0.761692 70 81 81
-0.382046 -0.0673035 0.7151 72 81 81
-0.38339 -0.068209 0.724721 81 81 84
-0.420078 -0.0754835 0.802012 76 80 83
-0.386417 -0.0701364 0.745199 73 79 82
-0.386881 -0.0709371 0.753707 72 75 78
-0.389306 -0.0721176 0.76625 74 70 79
-0.389283 -0.0728647 0.774187 72 68 78
-0.340336 -0.0643734 0.683967 72 76 79
-0.347026 -0.0663372 0.704833 78 88 90
-0.343335 -0.0663372 0.704833 75 93 94
-0.34459 -0.0673035 0.7151 82 107 104
-0.335951 -0.0663372 0.704833 80 106 104
-0.332259 -0.0663372 0.704833 97 115 117
-0.318841 -0.0643734 0.683967 92 120 121
-0.311131 -0.0635306 0.675013 98 127 127
-0.293638 -0.060648 0.644385 98 129 129
-0.281831 -0.0588862 0.625666 102 132 132
-0.292041 -0.0617372 0.655958 97 129 125
-0.255702 -0.0546988 0.581175 105 137 129
-0.252658 -0.0546988 0.581175 102 137 129
-0.235741 -0.0516588 0.548874 104 141 137
-0.218717 -0.0485199 0.515524 101 142 138
-0.196819 -0.0442078 0.469708 101 146 139
-0.212746 -0.0483901 0.514145 111 156 142
-0.162302 -0.0373897 0.397265 121 163 152
-0.174443 -0.0407085 0.432528 128 169 159
-0.169924 -0.0401757 0.426867 132 173 164
-0.159635 -0.0382463 0.406367 137 179 164
-0.122278 -0.029692 0.315478 138 182 165
-0.122401 -0.0301289 0.32012 135 185 169
-0.0937781 -0.0234041 0.248668 135 185 174
-0.0900843 -0.0227989 0.242238 129 185 172
-0.0888155 -0.0227989 0.242238 129 190 172
-0.0805662 -0.020981 0.222923 134 192 173
-0.0760734 -0.0201023 0.213587 140 194 180
-0.074915 -0.0200917 0.213474 139 191 183
-0.0758894 -0.0206614 0.219527 136 191 176
-0.0713024 -0.0197112 0.209432 137 193 176
-0.071614 -0.0201067 0.213633 146 200 178
-0.0686851 -0.0195904 0.208148 149 212 183
-0.0685958 -0.0198805 0.211231 158 214 187
-0.0646082 -0.0190318 0.202213 159 214 186
-0.0628093 -0.0188103 0.199859 170 217 192
-0.0632995 -0.0192784 0.204833 162 214 187
-0.0601765 -0.0186432 0.198084 157 213 184
-0.0597534 -0.0188369 0.200142 150 210 180
-0.0597192 -0.0191623 0.2036 152 209 179
-0.0557868 -0.018226 0.193651 163 212 186
-0.0564982 -0.0188002 0.199752 164 214 187
-0.0538708 -0.0182642 0.194057 161 211 182
-0.0541459 -0.0187105 0.198799 153 206 175
-0.0525107 -0.0185012 0.196575 157 209 178
-0.051481 -0.0185012 0.196575 166 215 187
-0.0497952 -0.0182605 0.194018 158 211 182
-0.0480772 -0.0179978 0.191227 157 211 181
-0.0470685 -0.0179951 0.191198 153 209 176
-0.0472395 -0.0184531 0.196064 145 204 169
-0.0449204 -0.0179372 0.190582 152 208 175
-0.044794 -0.0182932 0.194365 153 210 178
-0.0424467 -0.0177377 0.188463 148 208 175
-0.042587 -0.0182201 0.193588 166 216 184
-0.0414333 -0.0181588 0.192938 148 208 170
-0.0398434 -0.0178986 0.190172 139 205 170
-0.0375293 -0.0172913 0.18372 139 205 171
-0.0368945 -0.0174462 0.185366 156 211 181
-0.0372592 -0.0180948 0.192258 142 203 164
-0.0355025 -0.0177206 0.188281 142 201 162
-0.0347475 -0.0178393 0.189542 151 209 181
-0.0333826 -0.0176426 0.187453 166 217 196
-0.0329185 -0.0179245 0.190448 147 209 179
-0.0323093 -0.0181426 0.192766 174 221 196
-0.031188 -0.0180779 0.192078 159 214 185
-0.0300925 -0.0180243 0.191509 148 207 173
-0.0278911 -0.0172819 0.18362 173 218 192
-0.0273201 -0.0175326 0.186284 154 209 176
-0.0267762 -0.01782 0.189338 171 217 189
-0.0257943 -0.0178268 0.18941 149 205 172
-0.0248301 -0.0178468 0.189622 173 216 192
-0.0237778 -0.0178026 0.189153 164 213 187
-0.0224992 -0.0175777 0.186763 150 206 178
-0.0215326 -0.0175872 0.186864 162 211 190
-0.0206417 -0.0176623 0.187662 163 211 188
-0.0192617 -0.0173056 0.183872 155 209 184
-0.0185817 -0.0175733 0.186716 176 216 201
-0.0178902 -0.0178593 0.189755 158 208 183
-0.0165784 -0.0175233 0.186185 135 185 152
-0.0154585 -0.0173608 0.184458 105 150 128
-0.0145356 -0.0174127 0.18501 81 114 97
-0.013829 -0.0177495 0.188588 70 89 84
-0.0125069 -0.0172874 0.183679 73 78 86
-0.0114889 -0.0172036 0.182788 76 71 78
-0.0104801 -0.0171196 0.181896 76 71 78
-0.00966734 -0.0173712 0.184569 71 65 75
-0.00855505 -0.0170806 0.181481 71 65 76
-0.00765434 -0.0171926 0.182671 68 62 72
-0.00673305 -0.0172837 0.183639 69 62 73
-0.00569724 -0.0170622 0.181286 68 61 72
-0.00482338 -0.0173342 0.184176 67 60 71
-0.00377102 -0.0169403 0.179991 66 59 70
-0.00282567 -0.0169248 0.179826 65 57 70
-0.00191026 -0.0171627 0.182354 65 58 70
-0.000974027 -0.0175022 0.185961 64 57 69
0 -0.0168626 0.179166 64 57 69
0.000953326 -0.0171303 0.182009 64 57 70
0.00189154 -0.0169945 0.180567 64 57 70
0.00282571 -0.016925 0.179828 63 55 69
0.00379441 -0.0170454 0.181107 64 56 69
0.00482584 -0.017343 0.18427 64 56 70
0.00569233 -0.0170475 0.18113 64 56 70
0.00667854 -0.0171438 0.182153 64 57 70
0.00761497 -0.0171041 0.181731 63 55 70
0.00872415 -0.0174182 0.185068 65 58 71
0.00942845 -0.0169419 0.180008 63 56 69
0.0105539 -0.0172402 0.183177 63 55 69
0.0113724 -0.0170291 0.180935 63 56 71
0.0123967 -0.017135 0.182059 64 56 71
0.0134322 -0.0172402 0.183177 64 57 71
0.0140515 -0.0168327 0.178847 63 56 70
0.0155169 -0.0174264 0.185155 63 56 70
0.0162598 -0.0171866 0.182607 64 57 71
0.0171257 -0.0170961 0.181646 64 56 70
0.018041 -0.017062 0.181284 62 54 69
0.0191198 -0.0171782 0.182518 62 56 70
0.0198406 -0.0169769 0.180379 63 56 71
0.0212109 -0.0173245 0.184072 63 56 71
0.0215787 -0.0168586 0.179122 63 57 72
0.0227721 -0.0170496 0.181152 63 57 72
0.0236031 -0.0169649 0.180252 64 58 72
0.0245511 -0.0169676 0.180281 63 55 70
0.0253366 -0.0168619 0.179158 63 55 71
0.0271553 -0.0174269 0.18516 64 56 71
0.0283577 -0.017571 0.186692 62 53 70
0.029095 -0.0174269 0.18516 63 54 71
0.0299766 -0.0173757 0.184617 63 54 71
0.0307509 -0.0172675 0.183467 62 52 69
0.0309313 -0.0168425 0.178952 63 54 70
0.032863 -0.0173681 0.184536 63 54 70
0.0335805 -0.0172402 0.183177 63 55 70
0.034721 -0.0173305 0.184137 63 55 71
0.0356526 -0.0173146 0.183967 63 54 70
0.0370404 -0.0175152 0.186099 62 53 70
0.0378861 -0.0174557 0.185467 60 51 68
0.0388575 -0.0174557 0.185467 62 54 70
0.0399166 -0.0174941 0.185875 63 54 71
0.0400718 -0.017144 0.182155 62 53 69
0.0406119 -0.016971 0.180317 63 53 69
0.0426047 -0.0173991 0.184866 62 51 67
0.0431628 -0.0172353 0.183125 63 53 69
0.0438021 -0.0171104 0.181798 62 53 68
0.044367 -0.0169623 0.180224 63 54 69
0.0455999 -0.0170704 0.181374 60 50 66
0.0481311 -0.0176503 0.187534 61 51 67
0.0478318 -0.0171897 0.182641 62 54 68
0.0491695 -0.017324 0.184068 62 51 67
0.0509353 -0.017601 0.187011 62 51 65
0.0511191 -0.0173312 0.184144 60 49 64
0.0510231 -0.0169784 0.180395 61 51 65
0.0517759 -0.0169156 0.179728 60 46 61
0.0542303 -0.0174011 0.184886 59 44 59
0.0553117 -0.0174367 0.185265 58 42 59
0.0558262 -0.0172955 0.183764 54 38 55
0.056446 -0.0171911 0.182656 56 40 57
0.0578776 -0.0173333 0.184167 60 45 61
0.0600172 -0.0176794 0.187844 59 43 59
0.0596763 -0.0172955 0.183764 62 50 63
0.0613205 -0.0174899 0.18583 64 57 69
0.063063 -0.0177059 0.188125 61 51 65
0.0640201 -0.0176981 0.188042 66 60 71
0.0642746 -0.0174992 0.185929 65 60 70
0.0647489 -0.0173652 0.184505 67 63 73
0.0661528 -0.0174808 0.185734 67 63 72
0.0664962 -0.0173169 0.183992 67 64 72
0.0678299 -0.0174119 0.185001 68 64 74
0.0697709 -0.0176579 0.187615 69 66 75
0.0693324 -0.0173032 0.183846 69 66 75
0.0684797 -0.0168563 0.179098 68 64 74
0.0712309 -0.0172965 0.183776 69 65 75
0.0710157 -0.0170144 0.180778 68 65 75
0.0733518 -0.0173428 0.184267 70 67 77
0.0735663 -0.0171676 0.182406 70 67 77
0.0770517 -0.0177505 0.188599 72 69 78
0.0748601 -0.0170273 0.180915 71 69 78
0.0754866 -0.0169552 0.180149 72 70 79
0.0760678 -0.0168748 0.179295 72 70 79
0.0782144 -0.0171394 0.182106 71 69 78
0.0800933 -0.0173397 0.184234 70 69 76
0.0795945 -0.0170265 0.180907 73 72 79
0.080542 -0.0170265 0.180907 71 71 78
0.0805909 -0.0168387 0.178912 73 72 79
0.0808937 -0.0167078 0.17752 71 71 78
0.0815543 -0.0166528 0.176936 70 72 76
0.0834696 -0.0168524 0.179056 72 74 78
0.0820093 -0.0163736 0.173969 71 73 77
0.0841628 -0.0166189 0.176575 74 75 80
0.0869264 -0.016978 0.180391 75 77 81
0.0858324 -0.0165841 0.176206 76 80 84
0.0876487 -0.0167548 0.17802 75 79 82
0.089756 -0.0169771 0.180381 80 84 86
0.0934301 -0.0174879 0.185809 78 82 83
0.089437 -0.0165679 0.176034 80 82 87
0.0903465 -0.0165656 0.17601 80 82 85
0.0916006 -0.0166259 0.17665 79 85 86
0.0939055 -0.0168738 0.179284 79 85 86
0.0932953 -0.0165982 0.176356 82 89 89
0.0936327 -0.0164949 0.175258 85 93 93
0.0967193 -0.0168732 0.179278 84 95 94
0.095965 -0.0165807 0.17617 87 99 96
0.0984904 -0.0168549 0.179084 90 101 95
0.100597 -0.0170531 0.181189 89 104 96
0.099815 -0.0167623 0.1781 93 109 101
0.0993124 -0.0165235 0.175562 90 102 102
0.101619 -0.0167522 0.177992 91 110 109
0.102853 -0.0168015 0.178516 93 113 111
0.103799 -0.0168033 0.178535 96 112 110
0.103316 -0.0165757 0.176117 94 109 112
0.105934 -0.0168453 0.178982 95 115 115
0.106574 -0.0167985 0.178484 95 117 113
0.107067 -0.0167294 0.177749 104 127 113
0.106794 -0.0165429 0.175769 105 128 114
0.111599 -0.0171394 0.182106 105 129 122
0.106099 -0.0161567 0.171665 104 129 122
0.11496 -0.0173589 0.184439 109 135 121
-0.436114 -0.0616762 0.693858 64 62 59
-0.472311 -0.0673566 0.757762 64 59 65
-0.435629 -0.0626518 0.704833 63 61 65
-0.438781 -0.0636445 0.716 64 61 65
-0.434483 -0.0635644 0.7151 62 59 63
-0.424554 -0.0626518 0.704833 63 62 66
-0.420862 -0.0626518 0.704833 64 64 65
-0.428941 -0.0644196 0.724721 67 66 66
-0.462621 -0.0700982 0.788604 63 60 61
-0.438202 -0.0669962 0.753707 64 61 62
-0.438855 -0.0677059 0.761692 64 60 62
-0.418912 -0.0652222 0.73375 66 62 66
-0.426359 -0.0669962 0.753707 66 69 72
-0.400344 -0.0634963 0.714334 67 68 72
-0.418463 -0.0669962 0.753707 65 65 70
-0.414515 -0.0669962 0.753707 69 70 75
-0.405933 -0.0662399 0.745199 67 71 75
-0.40203 -0.0662399 0.745199 66 74 74
-0.39201 -0.0652222 0.73375 68 71 72
-0.398724 -0.0669962 0.753707 69 68 71
-0.394776 -0.0669962 0.753707 72 71 75
-0.38048 -0.0652222 0.73375 72 69 73
-0.36667 -0.0634963 0.714334 68 64 68
-0.362929 -0.0634963 0.714334 66 60 69
-0.349329 -0.0617536 0.694728 66 61 72
-0.360614 -0.0644196 0.724721 72 68 73
-0.352081 -0.0635644 0.7151 74 70 74
-0.348336 -0.0635644 0.7151 80 83 87
-0.350038 -0.0645693 0.726405 77 96 97
-0.316402 -0.059006 0.663817 77 100 99
-0.337099 -0.0635644 0.7151 79 97 96
-0.323451 -0.0616762 0.693858 86 103 104
-0.3144 -0.0606316 0.682106 86 104 104
-0.300859 -0.0586872 0.660231 83 102 104
-0.287932 -0.0568186 0.639209 86 108 110
-0.278554 -0.0556147 0.625666 82 116 111
-0.275277 -0.0556147 0.625666 89 123 114
-0.274796 -0.0561863 0.632096 90 121 115
-0.259906 -0.05379 0.605137 81 115 112
-0.242018 -0.0507064 0.570447 89 129 126
-0.239031 -0.0507064 0.570447 96 133 131
-0.23452 -0.0503793 0.566767 107 143 139
-0.224242 -0.0487888 0.548874 113 154 145
-0.176065 -0.0388044 0.436549 120 162 153
-0.187525 -0.041874 0.471083 127 168 160
-0.167468 -0.0378938 0.426305 130 172 162
-0.158785 -0.0364147 0.409665 139 179 163
-0.149265 -0.0347004 0.39038 132 182 166
-0.129745 -0.0305815 0.344042 137 184 173
-0.10011 -0.0239286 0.269197 134 182 172
-0.0976194 -0.0236667 0.26625 124 182 166
-0.0861265 -0.0211829 0.238308 140 192 176
-0.0840977 -0.0209882 0.236117 142 187 173
-0.0773638 -0.0195958 0.220452 147 188 178
-0.0781778 -0.020102 0.226147 147 194 180
-0.0740165 -0.0193248 0.217404 151 195 182
-0.0692788 -0.0183704 0.206667 149 195 177
-0.072652 -0.0195707 0.22017 158 209 191
-0.0682663 -0.0186859 0.210216 152 206 185
-0.0648744 -0.0180485 0.203046 161 211 188
-0.0613564 -0.0173543 0.195236 159 212 188
-0.0611342 -0.0175846 0.197826 152 210 184
-0.0618028 -0.0180834 0.203438 165 215 193
-0.060108 -0.017896 0.20133 160 214 189
-0.0576559 -0.0174725 0.196565 162 213 187
-0.0583062 -0.0179908 0.202397 168 215 191
-0.0572632 -0.0179962 0.202457 165 215 187
-0.0545003 -0.0174511 0.196324 162 212 184
-0.0532016 -0.0173628 0.195332 175 216 192
-0.0524008 -0.0174368 0.196164 179 219 196
-0.0503522 -0.0170902 0.192265 165 214 186
-0.0487717 -0.0168916 0.19003 155 208 178
-0.0493055 -0.0174322 0.196112 162 212 186
-0.0483989 -0.0174758 0.196603 178 220 194
-0.04681 -0.0172695 0.194282 163 212 182
-0.0440024 -0.0165945 0.186688 149 206 171
-0.0447562 -0.0172623 0.194201 159 214 185
-0.043484 -0.0171617 0.193069 164 218 188
-0.0404128 -0.0163294 0.183705 173 218 188
-0.0405923 -0.0168019 0.189021 165 216 185
-0.0398589 -0.0169108 0.190247 161 213 185
-0.0385434 -0.016772 0.188685 158 212 183
-0.037115 -0.0165755 0.186474 177 220 196
-0.036636 -0.0168037 0.189042 176 220 193
-0.0358189 -0.0168853 0.18996 157 211 178
-0.034824 -0.0168853 0.18996 175 219 193
-0.0344813 -0.0172109 0.193623 187 226 205
-0.0325376 -0.0167329 0.188245 155 212 182
-0.0319108 -0.0169233 0.190388 187 226 206
-0.0309022 -0.0169171 0.190317 173 219 195
-0.0299506 -0.0169427 0.190606 150 207 173
-0.0288864 -0.0169042 0.190172 177 219 195
-0.0267791 -0.0162307 0.182595 172 217 192
-0.0276876 -0.0174028 0.195782 166 215 189
-0.0257267 -0.0167923 0.188913 156 210 179
-0.0247928 -0.01683 0.189338 158 210 178
-0.0235946 -0.016684 0.187695 168 214 189
-0.0224284 -0.0165489 0.186175 150 206 177
-0.02174 -0.0167701 0.188663 172 215 196
-0.0204387 -0.0165171 0.185817 157 209 184
-0.0193049 -0.0163808 0.184285 133 198 169
-0.0184743 -0.0165012 0.185638 138 195 174
-0.0176991 -0.016687 0.187728 159 197 178
-0.0165784 -0.0165498 0.186185 109 148 126
-0.0158021 -0.0167608 0.188559 92 123 110
-0.014621 -0.0165419 0.186096 72 100 88
-0.013766 -0.016687 0.187728 71 90 87
-0.0123276 -0.0160929 0.181045 75 79 88
-0.0116058 -0.0164132 0.184648 73 68 77
-0.0105561 -0.0162858 0.183216 73 67 77
-0.00963458 -0.0163505 0.183943 70 64 75
-0.00856228 -0.0161453 0.181634 69 63 75
-0.00776749 -0.0164774 0.185371 68 61 73
-0.0068932 -0.0167117 0.188007 67 61 72
-0.00581194 -0.0164387 0.184936 68 62 73
-0.00470866 -0.0159818 0.179796 68 61 72
-0.00376812 -0.0159869 0.179853 66 59 70
-0.00278966 -0.0157808 0.177534 65 57 70
-0.00192956 -0.016373 0.184196 65 58 70
-0.000961666 -0.0163201 0.183601 65 58 71
0 -0.0162923 0.183289 64 58 70
0.000971858 -0.0164931 0.185547 64 58 70
0.00190011 -0.0161231 0.181385 62 54 68
0.00286975 -0.0162339 0.182631 63 56 69
0.00381433 -0.0161829 0.182058 64 57 70
0.00486141 -0.0165003 0.185628 65 57 71
0.00577058 -0.0163218 0.18362 64 56 70
0.00674669 -0.0163566 0.184011 64 56 70
0.0075439 -0.0160031 0.180035 63 55 70
0.00842804 -0.0158922 0.178787 63 55 70
0.0093767 -0.0159129 0.17902 65 57 71
0.0105743 -0.0163139 0.183531 63 55 70
0.0115113 -0.0162795 0.183144 64 56 71
0.0122588 -0.0160031 0.180035 63 55 70
0.0132241 -0.0160302 0.180339 64 57 71
0.0142747 -0.0161501 0.181688 64 57 71
0.0153803 -0.0163134 0.183526 63 56 70
0.0161164 -0.0160886 0.180997 64 55 70
0.0170212 -0.0160478 0.180538 63 55 69
0.0183018 -0.016347 0.183904 64 56 71
0.0191772 -0.0162725 0.183066 63 55 70
0.0197083 -0.0159268 0.179176 63 56 70
0.0205813 -0.0158763 0.178608 63 55 70
0.0215419 -0.0158948 0.178816 64 56 71
0.0230919 -0.0163286 0.183696 65 57 72
0.0240241 -0.0163082 0.183467 63 56 71
0.0247997 -0.0161872 0.182106 63 55 71
0.0262617 -0.0165066 0.1857 63 56 71
0.027156 -0.0164591 0.185165 64 56 71
0.0274873 -0.0160854 0.180961 62 53 69
0.0290586 -0.0164381 0.184929 62 52 69
0.0296874 -0.0162521 0.182836 62 53 69
0.0306688 -0.0162647 0.182978 63 53 69
0.0312451 -0.0160682 0.180767 62 52 68
0.0323148 -0.0161295 0.181457 62 53 69
0.0328962 -0.0159506 0.179444 63 54 70
0.0348225 -0.0164156 0.184675 63 53 69
0.0346633 -0.0158989 0.178863 62 53 69
0.0370898 -0.0165642 0.186347 62 54 69
0.0367078 -0.0159732 0.179699 62 54 69
0.038383 -0.0162846 0.183202 62 53 69
0.0398462 -0.0164931 0.185547 61 52 68
0.0403961 -0.0163226 0.183629 61 51 68
0.0413932 -0.0163365 0.183786 61 50 66
0.0415315 -0.0160186 0.180209 63 53 69
0.0431856 -0.0162864 0.183222 63 52 68
0.0434953 -0.0160466 0.180524 61 50 66
0.0435844 -0.0157374 0.177045 62 52 67
0.0462039 -0.0163356 0.183776 60 49 65
0.0465893 -0.0161357 0.181527 62 52 67
0.0479558 -0.0162768 0.183115 62 53 67
0.0501783 -0.0166973 0.187844 60 48 65
0.0490915 -0.0160215 0.180241 62 49 64
0.0518191 -0.0165925 0.186666 56 41 59
0.0518974 -0.0163099 0.183486 58 43 61
0.052968 -0.0163437 0.183866 59 44 61
