ply
format ascii 1.0
element vertex 1171
property float x
property float y
property float z
property uchar red
property uchar green
property uchar blue
end_header
0.0442062 -0.0271569 0.216406 185 224 197
0.0441614 -0.0264511 0.210782 175 218 191
0.0450434 -0.0263214 0.209749 201 231 213
0.0489193 -0.0279056 0.222373 178 221 197
0.0476116 -0.0265281 0.211396 162 212 181
0.0513426 -0.0279568 0.22278 170 213 183
0.0546157 -0.0290781 0.231716 207 231 213
0.0542021 -0.0282306 0.224962 166 210 179
0.0612854 -0.0312407 0.248949 193 225 199
0.0588665 -0.0293824 0.234141 199 230 207
0.0577485 -0.0282362 0.225007 180 223 197
0.0634396 -0.0303985 0.242238 186 227 202
0.0625598 -0.0293891 0.234194 178 222 193
0.0636654 -0.0293333 0.23375 167 213 184
0.0629923 -0.0284756 0.226915 191 225 202
0.0635602 -0.0282002 0.224721 181 218 191
0.0662072 -0.0288405 0.229823 191 223 198
0.0701218 -0.0300004 0.239065 188 222 195
0.0687523 -0.0288984 0.230284 188 223 196
0.0673271 -0.0278114 0.221622 164 212 182
0.0694454 -0.0282002 0.224721 191 228 205
0.0685398 -0.0273686 0.218094 177 220 194
0.0706187 -0.0277365 0.221025 183 223 198
0.0665181 -0.0257045 0.204833 176 219 193
0.0672306 -0.0255675 0.203741 196 229 207
0.0703988 -0.026354 0.210008 188 222 196
0.0737132 -0.0271702 0.216513 174 217 188
0.0749494 -0.0272073 0.216808 202 233 212
0.0752625 -0.0269132 0.214465 196 230 208
0.0738492 -0.0260194 0.207342 192 229 205
0.0748899 -0.0260037 0.207217 186 227 202
0.0767257 -0.0262606 0.209264 191 228 204
0.0799061 -0.0269639 0.214869 173 218 190
0.0805634 -0.0268081 0.213627 179 221 195
0.0802554 -0.0263398 0.209895 198 230 210
0.0798652 -0.0258575 0.206052 178 221 194
0.0827597 -0.0264374 0.210673 177 222 195
0.0815383 -0.0257045 0.204833 182 225 200
0.0833108 -0.0259222 0.206567 193 230 208
0.0862453 -0.0264912 0.211102 200 232 212
0.0854682 -0.0259202 0.206552 170 216 187
0.085356 -0.0255626 0.203702 185 224 197
0.0883342 -0.0261279 0.208207 185 227 198
0.0860466 -0.0251409 0.200342 208 239 218
0.0907493 -0.0261955 0.208745 196 232 206
0.0886445 -0.0252833 0.201476 195 227 202
0.0904668 -0.0254995 0.203199 182 222 191
0.0927434 -0.0258372 0.20589 183 222 193
0.0901946 -0.0248383 0.197931 190 226 201
0.0927166 -0.0252427 0.201153 185 223 195
0.0947671 -0.0255111 0.203291 177 217 186
0.0936913 -0.0249412 0.198751 186 224 200
0.0952421 -0.0250755 0.19982 192 230 205
0.0946333 -0.0246444 0.196385 193 230 203
0.094287 -0.0242901 0.193562 181 222 190
0.101573 -0.0258887 0.206301 204 232 210
0.0978154 -0.0246686 0.196578 192 228 202
0.0985773 -0.0246018 0.196046 177 221 188
0.100617 -0.0248521 0.19804 205 235 212
0.100596 -0.0245933 0.195978 181 224 197
0.100035 -0.0242091 0.192916 181 222 194
0.103333 -0.0247572 0.197284 205 233 209
0.100841 -0.023921 0.19062 194 228 202
0.102549 -0.0240875 0.191947 190 227 201
0.104293 -0.0242593 0.193316 183 223 191
0.106165 -0.0244574 0.194895 184 223 190
0.106318 -0.0242593 0.193316 212 238 217
0.107169 -0.0242227 0.193025 202 233 207
0.110243 -0.0246847 0.196706 189 227 195
0.110642 -0.0245448 0.195591 195 229 206
0.111076 -0.024415 0.194557 192 229 207
0.109413 -0.0238308 0.189902 152 211 174
0.115813 -0.0249975 0.199199 177 224 195
0.115823 -0.0247764 0.197437 212 240 227
0.115147 -0.0244138 0.194547 194 228 208
0.114353 -0.0240328 0.191511 162 213 178
0.121963 -0.0254092 0.202479 174 223 191
0.121517 -0.0250981 0.200001 215 244 228
0.122877 -0.0251621 0.20051 187 229 209
0.121156 -0.0245994 0.196026 176 223 198
0.121568 -0.0244755 0.195039 167 217 187
-0.484978 -0.0927937 0.771599 189 223 189
-0.472311 -0.0911296 0.757762 190 223 190
-0.496201 -0.0965503 0.802837 190 223 189
-0.487296 -0.0956279 0.795167 191 223 191
-0.473923 -0.0938054 0.780012 191 223 190
-0.46477 -0.0927937 0.771599 191 223 190
-0.503985 -0.101506 0.844042 190 223 190
-0.475176 -0.0965503 0.802837 191 223 191
-0.484675 -0.0993597 0.826197 190 223 190
-0.458052 -0.094748 0.78785 192 225 193
-0.46667 -0.0974081 0.80997 188 223 190
-0.449799 -0.094748 0.78785 188 223 190
-0.445673 -0.094748 0.78785 188 223 190
-0.441546 -0.094748 0.78785 188 221 190
-0.441482 -0.0956279 0.795167 188 221 190
-0.421413 -0.0921503 0.76625 189 222 189
-0.407823 -0.0900359 0.748668 189 222 188
-0.408807 -0.0911296 0.757762 188 221 189
-0.393274 -0.0885265 0.736117 188 221 191
-0.382628 -0.0869827 0.72328 189 221 192
-0.379594 -0.0871559 0.724721 187 220 190
-0.350022 -0.081178 0.675013 184 220 188
-0.347595 -0.0814376 0.677171 181 218 186
-0.326315 -0.0772403 0.64227 182 215 183
-0.299075 -0.0715299 0.594786 180 214 178
-0.316605 -0.0765194 0.636275 177 211 172
-0.297941 -0.0727746 0.605137 175 208 167
-0.282121 -0.0696514 0.579167 169 200 160
-0.288279 -0.0719455 0.598242 165 194 153
-0.276054 -0.0696514 0.579167 155 185 142
-0.266218 -0.0679161 0.564737 145 171 124
-0.267174 -0.0689258 0.573133 133 158 117
-0.247055 -0.0644597 0.535997 113 127 94
-0.245583 -0.0648123 0.538928 105 106 79
-0.249067 -0.0664961 0.552929 99 98 74
-0.233938 -0.0631915 0.525451 93 97 81
-0.243275 -0.0664961 0.552929 83 87 74
-0.23501 -0.0650109 0.54058 81 86 74
-0.236577 -0.0662426 0.550821 81 86 75
-0.206619 -0.0585685 0.48701 83 76 75
-0.215187 -0.0617594 0.513543 80 69 72
-0.206893 -0.0601307 0.5 80 67 70
-0.220853 -0.0650109 0.54058 79 65 70
-0.20736 -0.0618318 0.514145 78 66 71
-0.210547 -0.0636084 0.528917 77 65 70
-0.190006 -0.058168 0.48368 75 61 67
-0.182057 -0.0564877 0.469708 75 61 66
-0.180123 -0.0566531 0.471083 72 58 63
-0.166795 -0.0531897 0.442284 70 55 61
-0.185942 -0.0601307 0.5 72 58 64
-0.173181 -0.0568041 0.472338 70 57 62
-0.149522 -0.0497546 0.41372 70 55 60
-0.143094 -0.0483159 0.401758 69 54 59
-0.145188 -0.0497546 0.41372 67 52 57
-0.129405 -0.045018 0.374334 68 53 57
-0.135252 -0.0477757 0.397265 67 52 56
-0.143994 -0.0516587 0.429553 64 48 53
-0.115888 -0.0422352 0.351194 64 48 52
-0.125189 -0.046361 0.385502 63 47 51
-0.1158 -0.0435871 0.362436 64 47 52
-0.119725 -0.0458154 0.380965 63 47 52
-0.122025 -0.0474868 0.394863 64 49 53
-0.124453 -0.049267 0.409665 63 48 53
-0.105355 -0.0424382 0.352883 63 47 53
-0.121907 -0.0499825 0.415615 64 50 56
-0.11973 -0.0499825 0.415615 65 51 58
-0.112626 -0.0478876 0.398196 64 51 58
-0.11588 -0.0502006 0.417429 66 53 59
-0.122871 -0.054253 0.451125 65 51 59
-0.119425 -0.0537654 0.447071 66 53 62
-0.111033 -0.0509871 0.423969 65 53 62
-0.112041 -0.0525 0.436549 64 53 62
-0.125707 -0.0601307 0.5 65 54 64
-0.114847 -0.0561049 0.466525 63 53 62
-0.147262 -0.0735038 0.6112 63 53 63
-0.190911 -0.0974081 0.80997 63 54 64
-0.230463 -0.120261 1 64 54 65
-0.215001 -0.114802 0.954604 63 54 65
-0.210001 -0.114802 0.954604 63 54 66
-0.234149 -0.131125 1.09033 64 55 66
-0.226098 -0.129782 1.07917 62 55 67
-0.204274 -0.120261 1 63 56 68
-0.209571 -0.126627 1.05293 64 56 68
-0.20327 -0.126139 1.04887 62 55 68
-0.203488 -0.129782 1.07917 61 55 67
-0.198793 -0.13041 1.08438 62 57 70
-0.202017 -0.136423 1.13439 62 57 69
-0.194568 -0.135374 1.12567 61 58 70
-0.18275 -0.131125 1.09033 63 59 72
-0.170308 -0.126139 1.04887 64 60 74
-0.168849 -0.129227 1.07455 67 64 79
-0.151896 -0.120261 1 69 66 80
-0.152873 -0.125358 1.04238 69 68 79
-0.135427 -0.115165 0.957621 67 65 80
-0.130771 -0.115483 0.960263 68 66 81
-0.125396 -0.115165 0.957621 71 67 81
-0.114351 -0.109398 0.909666 70 70 82
-0.0957932 -0.0956279 0.795167 66 70 83
-0.0942471 -0.0983611 0.817894 71 76 90
-0.0826418 -0.0903562 0.751332 71 76 90
-0.0701342 -0.0805152 0.669501 74 80 95
-0.0780222 -0.0942849 0.784 72 77 95
-0.0635263 -0.0810325 0.673803 74 79 97
-0.0690328 -0.0932362 0.775279 81 84 103
-0.057957 -0.0831694 0.691572 85 91 113
-0.0468046 -0.0716433 0.595729 84 90 112
-0.0436843 -0.0716433 0.595729 87 103 112
-0.039573 -0.069893 0.581175 94 111 119
-0.0314268 -0.0601307 0.5 90 109 118
-0.0288079 -0.0601307 0.5 95 118 130
-0.0232967 -0.05349 0.444781 98 124 135
-0.021075 -0.0537654 0.447071 99 124 135
-0.0168791 -0.0484438 0.40282 110 127 140
-0.0142077 -0.0466017 0.387504 119 135 146
-0.0116421 -0.0445511 0.370452 117 147 151
-0.00865542 -0.0397462 0.330499 115 153 154
-0.00660406 -0.0379078 0.315212 116 154 155
-0.00485395 -0.0371494 0.308905 126 160 161
-0.00295504 -0.0339243 0.282088 140 165 171
-0.00142258 -0.0326629 0.271599 150 173 179
0 -0.031735 0.263883 144 178 176
0.00132518 -0.0304266 0.253004 152 188 179
0.00260122 -0.0298624 0.248312 165 198 186
0.00360073 -0.0275579 0.22915 179 206 193
0.00467247 -0.0268203 0.223017 184 209 197
0.00601361 -0.0276149 0.229624 171 201 191
0.00668422 -0.0255786 0.212692 167 200 192
0.00745742 -0.0244607 0.203396 180 209 201
0.0088698 -0.0254567 0.211678 180 216 203
0.0100145 -0.0255485 0.212441 190 223 209
0.011112 -0.0255135 0.21215 189 223 208
0.0118687 -0.0247734 0.205997 170 212 192
0.0128745 -0.0246335 0.204833 189 223 205
0.0139473 -0.0246335 0.204833 186 223 204
0.0148757 -0.0243965 0.202862 174 217 194
0.0152633 -0.0233634 0.194271 188 225 206
0.0164771 -0.0236449 0.196613 167 214 190
0.0177651 -0.0239937 0.199513 186 222 203
0.0191486 -0.0244254 0.203103 171 214 191
0.0191425 -0.0231325 0.192352 192 227 206
0.0210272 -0.0241395 0.200726 178 221 195
0.0232341 -0.0254029 0.211231 180 221 197
0.0224097 -0.0233879 0.194476 190 227 205
0.0242983 -0.0242563 0.201697 162 210 178
0.0262399 -0.0251032 0.208738 169 216 187
0.0263226 -0.024175 0.201021 199 231 212
0.0284017 -0.0250812 0.208556 177 219 195
0.0288632 -0.0245448 0.204095 162 210 180
0.0286438 -0.0234882 0.19531 153 204 170
0.0306747 -0.0242863 0.201946 160 210 182
0.0326419 -0.0249823 0.207733 163 212 184
0.0321983 -0.0238478 0.1983 173 217 187
0.0322496 -0.0231394 0.192409 194 227 203
0.0347613 -0.0241858 0.20111 187 222 196
0.0363432 -0.0245427 0.204078 172 211 179
0.0367248 -0.0240918 0.200328 167 210 175
0.0373171 -0.0238003 0.197905 184 221 199
0.037882 -0.0235077 0.195471 188 224 203
0.0423529 -0.0255904 0.21279 172 214 184
0.0411852 -0.0242468 0.201618 175 217 186
0.0422326 -0.0242419 0.201576 188 226 200
0.0427466 -0.0239384 0.199053 184 224 200
0.0448746 -0.0245318 0.203987 178 219 193
0.0445492 -0.0237875 0.197799 165 209 178
0.0440852 -0.0230048 0.19129 180 218 193
0.0487312 -0.0248641 0.20675 201 229 209
0.0484253 -0.0241709 0.200986 171 213 183
0.0509117 -0.0248712 0.20681 165 210 175
0.049944 -0.0238902 0.198652 197 228 205
0.0506356 -0.0237267 0.197293 207 236 217
0.0521939 -0.0239678 0.199297 180 223 197
0.0565649 -0.0254656 0.211752 204 234 214
0.0580411 -0.0256277 0.2131 176 218 193
0.0584835 -0.0253359 0.210673 188 225 200
0.0589155 -0.0250503 0.208299 189 224 199
0.0606601 -0.0253232 0.210568 193 225 202
0.0633565 -0.0259765 0.216 188 222 197
0.0633383 -0.0255135 0.21215 204 232 210
0.0640921 -0.025372 0.210974 179 219 191
0.0651098 -0.025338 0.210691 197 228 208
0.0619977 -0.0237248 0.197277 191 226 204
0.0645722 -0.0243049 0.202101 171 218 188
0.0668105 -0.0247418 0.205733 177 221 193
0.0699057 -0.0254771 0.211848 195 229 207
0.070922 -0.0254436 0.211569 181 219 193
0.0717096 -0.0253304 0.210628 163 213 183
0.0708096 -0.0246335 0.204833 175 220 192
0.074574 -0.0255559 0.212503 184 225 199
0.0729553 -0.0246335 0.204833 177 222 194
0.0732518 -0.0243751 0.202684 179 222 196
0.0788858 -0.0258749 0.215155 200 232 211
0.0779202 -0.0251982 0.209528 174 217 187
0.080145 -0.0255577 0.212518 201 231 210
0.0799918 -0.0251594 0.209206 192 229 207
0.0826269 -0.025637 0.213177 172 218 190
0.0818395 -0.0250541 0.208331 164 215 186
0.0826646 -0.0249738 0.207662 186 226 203
0.0832746 -0.0248313 0.206478 169 218 187
0.0841387 -0.0247673 0.205946 190 229 203
0.0863617 -0.0250999 0.208711 202 233 211
0.0856004 -0.0245677 0.204285 177 222 192
0.0846519 -0.0239955 0.199528 176 223 194
0.0895456 -0.0250731 0.208488 192 231 208
0.0883673 -0.0244451 0.203266 205 235 216
0.08832 -0.0241411 0.200739 170 217 186
0.0900739 -0.0243309 0.202316 190 228 200
0.0895912 -0.0239191 0.198892 196 231 205
0.0915737 -0.0241674 0.200957 182 223 195
0.0933138 -0.0243467 0.202448 192 227 203
0.0924127 -0.0238407 0.198241 175 214 184
0.095896 -0.0244645 0.203427 191 226 201
0.0951825 -0.0240156 0.199695 200 234 212
0.0929585 -0.0231995 0.192909 202 235 211
0.0930852 -0.0229813 0.191095 179 221 187
0.0947667 -0.0231476 0.192477 178 218 185
0.0978327 -0.0236449 0.196613 194 229 203
0.096783 -0.0231476 0.192477 184 224 196
0.0977912 -0.0231476 0.192477 189 227 198
0.0988858 -0.0231678 0.192646 187 226 195
0.100587 -0.0233283 0.19398 178 222 186
0.103512 -0.0237668 0.197626 183 224 191
0.103747 -0.0235848 0.196112 200 231 207
0.10812 -0.0243379 0.202375 184 225 197
0.104282 -0.023246 0.193296 169 214 177
0.106941 -0.0236095 0.196318 174 215 178
0.104639 -0.0228814 0.190264 200 232 208
0.107534 -0.0232926 0.193683 204 233 211
0.109318 -0.0234576 0.195055 186 222 195
0.108247 -0.0230127 0.191356 166 213 182
0.112089 -0.023611 0.196331 185 225 200
0.114336 -0.0238653 0.198445 178 221 191
0.114364 -0.0236562 0.196706 177 222 193
0.112515 -0.0230659 0.191798 174 221 192
0.114313 -0.023227 0.193138 190 226 200
0.118256 -0.0238176 0.198048 184 224 197
0.115429 -0.0230459 0.191632 183 227 199
0.115624 -0.0228858 0.190301 206 237 218
0.118514 -0.0232574 0.193391 204 236 217
0.121363 -0.0236147 0.196361 185 226 203
0.123704 -0.0238679 0.198467 172 217 188
-0.521998 -0.0955345 0.830499 190 223 190
-0.480936 -0.0887592 0.771599 190 223 189
-0.476895 -0.0887592 0.771599 190 223 189
-0.478009 -0.0897269 0.780012 190 223 189
-0.463313 -0.087718 0.762549 189 223 189
-0.501497 -0.095773 0.832572 190 223 190
-0.48364 -0.093173 0.80997 193 224 192
-0.474688 -0.0922576 0.802012 191 224 191
-0.462179 -0.0906285 0.78785 191 224 191
-0.474778 -0.0939378 0.816618 187 222 188
-0.450339 -0.0899123 0.781624 189 224 191
-0.469769 -0.0946522 0.822829 190 224 191
-0.445673 -0.0906285 0.78785 190 223 191
-0.417642 -0.0857222 0.745199 190 222 191
-0.441482 -0.0914702 0.795167 188 221 189
-0.428982 -0.0897269 0.780012 189 222 189
-0.410568 -0.086701 0.753707 189 222 189
-0.417669 -0.0890568 0.774187 189 222 191
-0.385751 -0.0830576 0.722035 187 221 190
-0.363384 -0.0790165 0.686904 186 220 189
-0.369177 -0.0810788 0.704833 186 220 190
-0.308078 -0.0683437 0.594124 185 221 191
-0.303021 -0.0679078 0.590334 187 221 192
-0.285642 -0.0646731 0.562215 189 222 192
-0.279422 -0.0639238 0.555701 189 221 190
-0.278592 -0.0644046 0.559881 185 219 185
-0.25698 -0.0600406 0.521944 181 215 180
-0.238302 -0.0562752 0.489211 174 210 177
-0.227212 -0.0542395 0.471514 176 211 177
-0.211615 -0.0510714 0.443973 179 205 166
-0.189573 -0.04626 0.402147 170 198 159
-0.186607 -0.0460481 0.400304 166 192 150
-0.184511 -0.0460481 0.400304 143 166 121
-0.176323 -0.0445106 0.386939 137 147 108
-0.181451 -0.0463375 0.40282 128 131 100
-0.175201 -0.045268 0.393523 104 110 88
-0.17314 -0.045268 0.393523 103 111 94
-0.162737 -0.0430607 0.374334 90 101 82
-0.17193 -0.0460481 0.400304 86 96 76
-0.163219 -0.0442545 0.384713 92 91 81
-0.165457 -0.0454222 0.394863 89 83 78
-0.176917 -0.0491831 0.427558 88 78 77
-0.166298 -0.0468236 0.407046 84 71 74
-0.161065 -0.0459391 0.399357 79 67 70
-0.152065 -0.0439429 0.382004 81 70 73
-0.144348 -0.042269 0.367452 81 69 71
-0.129278 -0.0383677 0.333537 77 64 67
-0.138287 -0.0416035 0.361667 76 62 66
-0.125187 -0.0381857 0.331955 74 59 64
-0.122406 -0.0378633 0.329153 72 59 63
-0.120682 -0.0378633 0.329153 72 59 63
-0.101601 -0.0323387 0.281126 68 54 58
-0.10513 -0.0339539 0.295167 66 52 56
-0.105203 -0.0344845 0.29978 69 55 58
-0.103632 -0.0344845 0.29978 66 51 54
-0.0989653 -0.0334382 0.290684 65 50 54
-0.103551 -0.0355342 0.308905 66 50 54
-0.0925896 -0.0322771 0.280591 65 49 53
-0.100661 -0.0356566 0.30997 63 46 51
-0.0926404 -0.0333536 0.289949 64 48 53
-0.0995988 -0.0364566 0.316924 63 48 53
-0.0861287 -0.0320604 0.278707 64 49 53
-0.0896695 -0.0339539 0.295167 66 51 56
-0.0844688 -0.0325457 0.282926 65 50 56
-0.0885852 -0.0347413 0.302012 65 50 56
-0.0806656 -0.0322106 0.280012 66 52 59
-0.0903199 -0.0367335 0.319331 65 51 58
-0.084205 -0.0348927 0.303329 65 52 58
-0.0927576 -0.0391759 0.340563 64 51 58
-0.0815464 -0.0351162 0.305271 63 50 59
-0.093132 -0.0409074 0.355615 65 53 61
-0.0997864 -0.0447247 0.3888 64 53 61
-0.086497 -0.039576 0.344042 65 54 63
-0.107969 -0.0504514 0.438583 63 53 63
-0.126148 -0.0602274 0.523568 64 54 63
-0.149525 -0.0729751 0.634386 64 54 63
-0.158578 -0.0791521 0.688083 64 55 65
-0.173784 -0.0887592 0.771599 64 55 65
-0.16223 -0.084831 0.737451 63 53 64
-0.170762 -0.0914702 0.795167 64 54 65
-0.169113 -0.0928518 0.807177 62 53 65
-0.167075 -0.0940845 0.817894 62 54 65
-0.158267 -0.0914702 0.795167 62 53 65
-0.163574 -0.0970924 0.844042 63 55 67
-0.142884 -0.0871674 0.757762 63 55 67
-0.151701 -0.0951907 0.82751 62 55 67
-0.150311 -0.0970924 0.844042 61 54 66
-0.140001 -0.093173 0.80997 63 56 68
-0.15434 -0.105926 0.920833 62 56 68
-0.138484 -0.0981094 0.852883 63 57 70
-0.132628 -0.0970924 0.844042 62 57 72
-0.132808 -0.100577 0.874334 63 59 73
-0.119951 -0.0940845 0.817894 66 62 74
-0.107163 -0.0871674 0.757762 66 62 76
-0.100428 -0.084831 0.737451 65 61 76
-0.0960808 -0.0844052 0.73375 66 63 77
-0.0905076 -0.0828221 0.719988 72 72 85
-0.0736308 -0.0703079 0.6112 68 71 84
-0.0662067 -0.0660925 0.574554 66 68 81
-0.0514986 -0.0538578 0.468195 66 72 80
-0.0481269 -0.0528483 0.45942 68 74 84
-0.045885 -0.0530383 0.461072 72 77 93
-0.0402452 -0.0491037 0.426867 70 74 93
-0.0345043 -0.0445756 0.387504 76 78 97
-0.033633 -0.0461656 0.401326 78 80 101
-0.0277249 -0.0405931 0.352883 84 89 107
-0.0261744 -0.0410603 0.356944 83 95 107
-0.0234263 -0.039576 0.344042 90 104 111
-0.0191632 -0.0350718 0.304886 87 103 110
-0.0175265 -0.0349926 0.304197 83 106 116
-0.0159019 -0.0349238 0.303599 87 111 121
-0.0131779 -0.0321571 0.279548 92 107 121
-0.0119003 -0.0326692 0.284 98 112 127
-0.00908719 -0.0285105 0.247847 111 123 136
-0.00769475 -0.0281654 0.244847 114 128 136
-0.00637518 -0.0280024 0.24343 113 124 133
-0.00479973 -0.0263529 0.229091 117 135 143
-0.00377526 -0.0276375 0.240258 118 142 153
-0.00231243 -0.0253929 0.220745 124 149 161
-0.00115679 -0.0254054 0.220854 128 152 163
0 -0.0244933 0.212925 131 156 159
0.00112665 -0.0247435 0.2151 139 167 163
0.00218414 -0.0239841 0.208498 159 184 175
0.00325473 -0.0238268 0.207131 161 191 180
0.00436036 -0.0239406 0.20812 160 192 181
0.00525714 -0.0230915 0.200739 162 193 184
0.00640612 -0.0234486 0.203843 159 191 183
0.00733973 -0.0230279 0.200186 171 201 193
0.00862125 -0.0236675 0.205746 171 208 199
0.00912074 -0.0222567 0.193481 175 213 200
0.0102842 -0.0225861 0.196345 179 217 204
0.0112344 -0.0224301 0.194989 174 214 200
0.012632 -0.0231186 0.200974 179 217 202
0.0136406 -0.0230443 0.200328 177 216 200
0.014801 -0.0232187 0.201844 190 225 209
0.0159802 -0.0233972 0.203396 183 221 204
0.0173416 -0.0238036 0.206929 173 216 197
0.0178723 -0.023089 0.200717 188 224 207
0.0177242 -0.0216256 0.187995 174 215 194
0.0201211 -0.023258 0.202186 193 226 206
0.0205719 -0.0225901 0.19638 184 222 200
0.021961 -0.0229671 0.199657 177 218 196
0.0236032 -0.0235625 0.204833 189 227 205
0.0237613 -0.022689 0.197239 156 211 180
0.0254326 -0.023273 0.202316 180 223 198
0.0255117 -0.0224116 0.194828 183 224 201
0.0278947 -0.0235625 0.204833 185 223 200
0.0270125 -0.0219722 0.191008 176 216 189
0.0285586 -0.0224001 0.194729 181 217 191
0.0302179 -0.0228844 0.198938 176 220 196
0.0318197 -0.0232942 0.202501 174 219 190
0.0320251 -0.0226883 0.197233 182 221 193
0.0323561 -0.0222065 0.193045 179 219 190
0.0343667 -0.0228716 0.198827 177 215 183
0.0359454 -0.0232187 0.201844 187 222 195
0.0371025 -0.0232813 0.202389 178 217 189
0.037458 -0.0228515 0.198652 194 225 205
0.0377573 -0.0224116 0.194828 180 218 193
0.0405172 -0.0234169 0.203567 185 222 196
0.0406681 -0.0229014 0.199086 170 215 184
0.0416987 -0.0228947 0.199028 169 216 185
0.0413294 -0.0221385 0.192454 185 225 201
0.0437572 -0.0228809 0.198908 178 219 193
0.0452355 -0.0231038 0.200846 179 216 190
0.0463958 -0.0231579 0.201316 178 214 189
0.0477729 -0.0233153 0.202684 191 224 205
0.0489979 -0.0233933 0.203362 177 217 191
0.0509775 -0.0238206 0.207077 179 217 190
0.0518817 -0.0237381 0.206359 166 212 178
0.0533796 -0.023925 0.207984 183 223 196
0.0536436 -0.0235625 0.204833 168 216 186
0.053405 -0.0229977 0.199923 197 229 209
0.0555591 -0.0234652 0.203987 180 221 195
0.0573249 -0.0237542 0.206499 176 219 190
0.057471 -0.0233737 0.203192 190 225 200
0.0608986 -0.0243174 0.211396 180 220 192
0.0619814 -0.0243078 0.211312 176 220 191
0.0623342 -0.0240173 0.208787 200 232 211
0.0624633 -0.0236521 0.205612 183 225 198
0.0652282 -0.0242804 0.211074 180 222 195
0.0638937 -0.0233873 0.20331 184 223 200
0.065201 -0.0234745 0.204069 192 228 206
0.0667622 -0.0236489 0.205584 189 226 201
0.0707625 -0.0246681 0.214444 187 225 201
0.0703828 -0.0241523 0.209961 193 228 207
0.0697367 -0.0235625 0.204833 182 222 198
0.0735082 -0.0244605 0.212639 198 229 209
0.0731305 -0.0239716 0.208389 182 222 199
0.0727123 -0.023484 0.20415 205 236 218
0.0769221 -0.0244836 0.21284 175 222 196
0.0779474 -0.0244555 0.212596 169 219 189
0.0801624 -0.0247962 0.215558 178 220 191
0.0805483 -0.0245695 0.213587 193 229 208
0.0810909 -0.0243962 0.21208 198 232 213
0.0814431 -0.024171 0.210123 197 231 210
0.0795577 -0.0232966 0.202522 171 218 190
0.0840117 -0.0242772 0.211046 194 230 207
0.085511 -0.0243895 0.212023 189 227 203
0.0854839 -0.0240693 0.209238 200 232 209
0.0856364 -0.023807 0.206958 188 228 201
0.0847498 -0.023266 0.202255 180 224 195
0.0875503 -0.0237381 0.206359 177 222 190
0.0858723 -0.0229991 0.199936 183 222 194
0.0842229 -0.0222856 0.193733 186 224 197
0.0901213 -0.0235625 0.204833 186 226 199
0.0888899 -0.0229671 0.199657 196 231 207
0.0900026 -0.0229842 0.199806 204 235 214
0.0917101 -0.023151 0.201256 175 222 192
0.0913023 -0.0227862 0.198084 190 226 200
0.091167 -0.0224968 0.195569 177 216 182
0.0947048 -0.0231101 0.2009 202 232 210
0.0940268 -0.0226925 0.19727 186 226 200
0.0947313 -0.022614 0.196588 212 239 218
0.0940858 -0.0222184 0.193149 192 227 199
0.097203 -0.0227104 0.197425 206 232 209
0.0957812 -0.0221426 0.19249 198 231 207
0.100358 -0.0229589 0.199586 188 227 199
0.10047 -0.0227477 0.19775 194 229 202
0.100135 -0.0224406 0.19508 190 228 197
0.100341 -0.0222595 0.193506 173 219 181
0.103909 -0.0228206 0.198384 170 218 179
0.100932 -0.0219473 0.190792 188 226 198
0.101642 -0.0218849 0.190249 193 227 201
0.106368 -0.0226802 0.197163 185 222 193
0.103885 -0.0219378 0.19071 180 220 189
0.108112 -0.0226129 0.196578 175 220 188
0.109368 -0.0226598 0.196986 178 221 190
0.108331 -0.0222353 0.193296 181 219 191
0.10783 -0.0219276 0.19062 163 211 178
0.111924 -0.0225512 0.196042 165 214 183
0.110754 -0.0221125 0.192228 171 217 186
0.113556 -0.0224677 0.195316 205 234 213
0.118276 -0.0231926 0.201618 191 228 205
0.117045 -0.0227481 0.197753 174 217 188
0.119325 -0.0229879 0.199838 176 220 191
0.119004 -0.0227267 0.197567 175 221 192
0.115859 -0.0219353 0.190688 184 226 196
0.117624 -0.0220791 0.191938 202 236 213
0.119527 -0.0222462 0.193391 197 233 211
0.123487 -0.0227901 0.198119 171 219 187
-0.499791 -0.0873125 0.795167 190 223 190
-0.466643 -0.0822067 0.748668 191 223 189
-0.476895 -0.0847246 0.771599 189 222 188
-0.48223 -0.0864047 0.7869 191 223 190
-0.473923 -0.0856484 0.780012 190 223 189
-0.461548 -0.0841372 0.76625 190 223 190
-0.500679 -0.0920713 0.838506 192 224 191
-0.483333 -0.0896679 0.816618 191 223 191
-0.475155 -0.0889378 0.80997 191 224 191
-0.474778 -0.0896679 0.816618 190 224 191
-0.44941 -0.0856484 0.780012 191 224 191
-0.445325 -0.0856484 0.780012 192 225 192
-0.445673 -0.086509 0.78785 190 223 191
-0.407109 -0.0797621 0.726405 191 223 192
-0.420714 -0.0832053 0.757762 190 222 191
-0.393283 -0.0785208 0.7151 189 222 189
-0.3677 -0.0741191 0.675013 189 222 189
-0.355762 -0.0724088 0.659437 189 222 190
-0.325693 -0.0669387 0.60962 190 222 192
-0.325685 -0.0675998 0.615641 188 222 192
-0.273794 -0.0573974 0.522727 188 222 191
-0.253676 -0.0537173 0.489211 187 222 191
-0.240594 -0.0514669 0.468716 188 222 192
-0.234454 -0.0506706 0.461464 187 221 192
-0.212147 -0.046327 0.421907 187 221 190
-0.189356 -0.0417853 0.380545 186 221 187
-0.181506 -0.0404792 0.36865 188 222 190
-0.179863 -0.0405441 0.369241 188 221 191
-0.159745 -0.0364007 0.331506 185 219 186
-0.145504 -0.03352 0.305271 185 220 187
-0.149589 -0.034844 0.317329 187 218 191
-0.134886 -0.0317722 0.289354 180 212 180
-0.128463 -0.0306031 0.278707 185 207 171
-0.128585 -0.0309841 0.282177 184 197 162
-0.129461 -0.0315581 0.287404 171 184 147
-0.130287 -0.0321331 0.292641 152 170 127
-0.126519 -0.0315751 0.287559 138 161 107
-0.122673 -0.0309841 0.282177 128 145 104
-0.117509 -0.0300418 0.273595 107 119 84
-0.111389 -0.0288289 0.262549 101 105 77
-0.120141 -0.0314827 0.286717 92 93 78
-0.123317 -0.032724 0.298022 97 95 84
-0.12059 -0.0324105 0.295167 88 84 76
-0.117804 -0.0320728 0.292092 89 81 77
-0.113978 -0.0314397 0.286326 86 79 74
-0.109039 -0.0304782 0.277569 80 69 68
-0.111057 -0.0314617 0.286526 82 70 70
-0.102508 -0.0294377 0.268093 76 62 64
-0.0983759 -0.0286434 0.26086 78 64 67
-0.102513 -0.0302686 0.27566 77 64 66
-0.0976194 -0.0292353 0.26625 75 63 65
-0.0919577 -0.0279388 0.254443 76 62 65
-0.0899294 -0.0277244 0.25249 72 59 60
-0.0895415 -0.0280168 0.255153 66 53 55
-0.0843773 -0.026801 0.24408 64 49 54
-0.0808419 -0.0260731 0.237451 64 49 53
-0.0789732 -0.0258684 0.235587 65 51 55
-0.0824199 -0.0274259 0.249771 65 48 52
-0.0786651 -0.0265987 0.242238 65 49 53
-0.0777239 -0.0267112 0.243263 66 50 54
-0.0728209 -0.0254433 0.231716 65 49 54
-0.0745124 -0.0264756 0.241117 66 52 56
-0.0732312 -0.026469 0.241057 66 51 56
-0.0704937 -0.0259265 0.236117 66 51 56
-0.0742103 -0.0277809 0.253004 66 52 57
-0.0730877 -0.0278581 0.253707 66 52 57
-0.0738484 -0.0286693 0.261095 66 52 57
-0.0705534 -0.0279069 0.254152 66 53 58
-0.0709018 -0.028584 0.260319 64 52 58
-0.0652222 -0.0268099 0.244161 65 52 60
-0.0691083 -0.0289754 0.263883 65 53 60
-0.0715306 -0.0306031 0.278707 64 53 60
-0.0742092 -0.0324105 0.295167 65 53 61
-0.0742623 -0.0331238 0.301663 64 54 63
-0.0869285 -0.0396163 0.360791 64 54 62
-0.0973829 -0.045367 0.413163 64 54 63
-0.103033 -0.0490901 0.447071 64 53 63
-0.109427 -0.0533488 0.485855 65 54 64
-0.103908 -0.0518646 0.472338 63 53 63
-0.100545 -0.0514097 0.468195 63 52 63
-0.108175 -0.056694 0.51632 62 53 64
-0.105471 -0.056694 0.51632 62 52 63
-0.0995181 -0.054902 0.5 62 53 64
-0.103746 -0.0587815 0.535331 62 52 63
-0.109587 -0.0638153 0.581175 62 53 65
-0.0985186 -0.0590092 0.537405 62 53 65
-0.0993209 -0.0612394 0.557716 61 53 65
-0.101204 -0.0642915 0.585512 61 53 65
-0.100868 -0.0660804 0.601804 62 54 67
-0.0905573 -0.0612394 0.557716 62 56 68
-0.0896365 -0.0626373 0.570447 61 54 67
-0.0816297 -0.0590092 0.537405 64 57 70
-0.0808828 -0.0605574 0.551505 63 57 69
-0.0579351 -0.0449829 0.409665 60 54 69
-0.0552733 -0.0445668 0.405876 63 58 72
-0.0562478 -0.0471667 0.429553 67 63 76
-0.0504495 -0.0440672 0.401326 63 61 73
-0.0403887 -0.036813 0.335261 62 61 74
-0.0382517 -0.03645 0.331955 63 63 76
-0.032974 -0.0329171 0.29978 63 64 73
-0.0313564 -0.0328674 0.299328 62 66 75
-0.0289834 -0.031979 0.291238 63 67 81
-0.0261616 -0.0304693 0.277488 66 69 85
-0.0242893 -0.0299526 0.272783 69 69 87
-0.0231522 -0.0303348 0.276263 68 68 87
-0.0200544 -0.0280277 0.255252 76 80 96
-0.0175952 -0.0263472 0.239948 74 80 95
-0.0162142 -0.026147 0.238124 75 82 98
-0.0141579 -0.0247336 0.225252 73 83 96
-0.0131938 -0.0251447 0.228997 74 87 99
-0.0121139 -0.0253953 0.231279 80 91 106
-0.00979415 -0.0228136 0.207766 79 92 107
-0.00906142 -0.0237452 0.216251 84 104 114
-0.00795418 -0.0238214 0.216945 92 113 123
-0.00680243 -0.0237674 0.216453 91 112 122
-0.00571231 -0.0239503 0.218119 97 110 118
-0.00387336 -0.0203001 0.184876 98 115 120
-0.0032023 -0.0223774 0.203794 105 124 138
-0.00220711 -0.0231347 0.210691 111 132 147
-0.00103909 -0.0217833 0.198384 110 133 145
0 -0.0222962 0.203055 113 136 142
0.00106381 -0.0223015 0.203103 129 152 153
0.00212833 -0.0223089 0.203171 139 164 159
0.00311783 -0.0217871 0.198419 137 168 162
0.00425839 -0.022318 0.203253 136 172 164
0.00504982 -0.0211727 0.192822 142 174 163
0.00629894 -0.0220082 0.200432 153 182 173
0.00732673 -0.0219423 0.199831 163 190 183
0.00855408 -0.0224157 0.204143 167 200 193
0.0090474 -0.0210742 0.191925 168 206 197
0.0104216 -0.0218475 0.198968 173 210 198
0.0115788 -0.0220669 0.200967 175 212 201
0.0124442 -0.0217398 0.197988 184 217 206
0.0134404 -0.0216739 0.197387 184 217 205
0.0145326 -0.0217612 0.198183 185 220 207
0.0153952 -0.0215161 0.19595 181 219 204
0.0161871 -0.021209 0.193153 186 222 207
0.0173062 -0.0213414 0.194359 191 225 209
0.01824 -0.0212433 0.193466 177 216 197
0.0191358 -0.0211136 0.192285 179 218 197
0.0208042 -0.0218067 0.198597 178 219 199
0.0219161 -0.0218783 0.199249 173 216 194
0.0227117 -0.021642 0.197096 203 232 216
0.0231673 -0.0211163 0.192309 174 219 195
0.0255453 -0.0223136 0.203213 182 223 198
0.0261154 -0.0218991 0.199438 179 221 194
0.0269625 -0.0217398 0.197988 180 220 194
0.0265989 -0.0206523 0.188083 185 221 196
0.0292814 -0.0219231 0.199657 175 215 187
0.0301894 -0.0218236 0.198751 195 227 206
0.0305857 -0.0213731 0.194648 188 225 198
0.0312002 -0.0210991 0.192153 178 220 190
0.0322703 -0.0211408 0.192532 177 219 190
0.0340574 -0.0216355 0.197038 182 221 193
0.0356528 -0.0219829 0.200201 175 217 186
0.03603 -0.0215807 0.196539 184 221 196
0.0361538 -0.0210533 0.191735 203 230 212
0.0389711 -0.0220806 0.201091 189 223 200
0.0407691 -0.0224914 0.204833 185 221 196
0.0402097 -0.021614 0.196842 189 224 201
0.0421176 -0.0220736 0.201027 187 225 202
0.042799 -0.0218836 0.199297 192 229 209
0.0439521 -0.0219381 0.199794 195 231 211
0.0443284 -0.0216114 0.196818 190 226 208
0.0458726 -0.021856 0.199045 190 222 201
0.0474441 -0.0221024 0.201289 194 228 209
0.0493521 -0.0224914 0.204833 173 218 192
0.0492125 -0.0219506 0.199907 186 224 198
0.0516522 -0.0225588 0.205447 177 219 190
0.0519249 -0.0222151 0.202316 176 219 190
0.052454 -0.0219926 0.20029 179 218 193
0.05315 -0.0218475 0.198968 176 218 193
0.055965 -0.0225623 0.205478 203 231 213
0.0554107 -0.0219173 0.199604 186 223 201
0.0588585 -0.0228499 0.208097 182 220 196
0.0580675 -0.022133 0.201568 167 212 182
0.0612335 -0.0229229 0.208762 202 232 212
0.0605772 -0.0222794 0.202902 185 226 202
0.0612449 -0.0221366 0.201601 180 223 196
0.0631013 -0.022421 0.204192 187 225 200
0.0639624 -0.0223482 0.203528 177 221 195
0.0644127 -0.0221366 0.201601 186 226 202
0.0665181 -0.0224914 0.204833 182 223 198
0.0669537 -0.0222794 0.202902 180 224 194
0.0682353 -0.0223511 0.203554 194 230 206
0.0695184 -0.022421 0.204192 174 218 192
0.069931 -0.0222124 0.202291 186 223 198
0.0729939 -0.0228392 0.208 177 218 192
0.0763733 -0.0235452 0.214429 194 231 210
0.0738011 -0.0224224 0.204204 199 232 214
0.0771151 -0.0230946 0.210326 175 221 195
0.0781783 -0.0230833 0.210223 196 229 209
0.0792794 -0.0230833 0.210223 192 229 209
0.0796695 -0.0228791 0.208363 166 218 192
0.0802915 -0.0227461 0.207152 202 235 215
0.0815869 -0.0228049 0.207688 171 219 190
0.0810998 -0.0223705 0.203731 190 228 205
0.0834684 -0.0227248 0.206958 165 216 182
0.0822051 -0.0220939 0.201213 173 216 183
0.083922 -0.0222699 0.202815 195 229 204
0.0835604 -0.0218968 0.199417 203 234 212
0.0860976 -0.0222831 0.202935 195 231 206
0.0871784 -0.0222876 0.202977 177 220 189
0.0866694 -0.0218906 0.199361 166 213 179
0.0897257 -0.0223927 0.203934 162 213 178
0.0892259 -0.022006 0.200412 197 232 210
0.088179 -0.0214949 0.195757 200 234 213
0.087683 -0.0211283 0.192419 194 230 208
0.0920591 -0.0219307 0.199726 169 214 181
0.0907123 -0.0213671 0.194593 192 225 195
0.093248 -0.0217203 0.19781 212 236 216
0.0950515 -0.0218971 0.19942 168 217 181
0.0950811 -0.0216658 0.197314 177 221 187
0.0941174 -0.0212156 0.193214 177 220 186
0.0975893 -0.0217643 0.19821 169 216 175
0.0952811 -0.0210258 0.191485 203 235 211
0.10022 -0.0218852 0.199312 195 231 206
0.0969014 -0.0209425 0.190726 187 227 198
0.101339 -0.0216781 0.197425 179 223 191
0.0982201 -0.0207986 0.189416 203 233 210
0.0995882 -0.0208774 0.190134 194 229 204
0.105972 -0.0219957 0.200318 185 225 196
0.104073 -0.0213899 0.194801 191 226 200
0.108765 -0.0221371 0.201606 202 233 210
0.103874 -0.0209383 0.190688 175 221 189
0.107177 -0.0213985 0.194879 191 228 200
0.109753 -0.021706 0.19768 188 226 199
0.110135 -0.0215781 0.196515 182 223 195
0.112783 -0.0218921 0.199375 188 225 201
0.109761 -0.0211101 0.192253 188 225 200
0.116238 -0.0221527 0.201747 192 227 203
0.113022 -0.0213456 0.194397 202 233 211
0.112603 -0.0210766 0.191947 202 232 214
0.115602 -0.0214465 0.195316 171 216 188
0.114955 -0.0211394 0.19252 200 230 209
0.117766 -0.021468 0.195512 192 229 206
0.116574 -0.0210676 0.191865 174 221 188
0.118831 -0.0212918 0.193907 203 234 210
0.119722 -0.0212697 0.193706 220 243 227
0.125004 -0.0220214 0.200552 195 231 206
-0.505272 -0.0840667 0.803887 190 223 189
-0.514967 -0.0863997 0.826197 190 223 189
-0.513298 -0.0868495 0.830499 190 223 189
-0.49756 -0.0849063 0.811916 191 223 190
-0.473923 -0.0815699 0.780012 191 223 190
-0.461548 -0.0801307 0.76625 191 224 191
-0.479381 -0.0839568 0.802837 190 223 189
-0.475176 -0.0839568 0.802837 190 223 189
-0.476297 -0.0849063 0.811916 191 223 190
-0.440559 -0.0792431 0.757762 189 223 189
-0.425726 -0.0772711 0.738905 190 224 189
-0.432621 -0.0792431 0.757762 192 224 191
-0.445673 -0.0823896 0.78785 191 224 191
-0.42944 -0.0801307 0.76625 191 223 191
-0.413739 -0.0779293 0.745199 191 223 191
-0.377029 -0.0716912 0.685547 190 223 190
-0.319364 -0.0613103 0.58628 190 223 190
-0.299537 -0.0580621 0.555219 189 222 189
-0.293239 -0.0573986 0.548874 191 223 192
-0.22603 -0.0446811 0.427263 189 222 191
-0.205278 -0.0409847 0.391916 190 223 191
-0.165747 -0.0334265 0.319641 191 224 191
-0.169039 -0.0344382 0.329315 187 221 189
-0.139305 -0.0286732 0.274187 190 222 192
-0.137163 -0.0285263 0.272783 189 222 191
-0.130981 -0.0275273 0.26323 189 222 190
-0.127931 -0.0271724 0.259836 191 222 191
-0.119665 -0.02569 0.245661 187 221 188
-0.115586 -0.025084 0.239865 185 221 188
-0.108212 -0.0237418 0.227031 186 222 189
-0.108855 -0.0241483 0.230918 186 222 191
-0.10908 -0.0244701 0.233995 180 219 186
-0.104591 -0.0237297 0.226915 181 217 185
-0.101298 -0.0232467 0.222297 179 213 181
-0.0956605 -0.0222082 0.212366 178 208 175
-0.102155 -0.0239949 0.229452 167 202 158
-0.100794 -0.0239572 0.229091 174 203 157
-0.0960797 -0.0231118 0.221006 162 189 141
-0.0946841 -0.0230538 0.220452 147 163 119
-0.0954742 -0.0235332 0.225036 141 153 114
-0.0918718 -0.0229283 0.219252 116 124 90
-0.0921084 -0.0232783 0.222599 107 112 88
-0.0898755 -0.0230052 0.219987 96 96 83
-0.0958798 -0.0248609 0.237732 95 91 81
-0.09092 -0.023885 0.2284 89 87 73
-0.0929593 -0.0247464 0.236637 82 79 65
-0.0850733 -0.0229531 0.219489 87 81 79
-0.0824577 -0.0225522 0.215655 82 72 72
-0.0787063 -0.0218251 0.208703 82 70 70
-0.0795558 -0.0223714 0.213927 82 70 71
-0.0796517 -0.0227184 0.217244 80 68 69
-0.0791976 -0.0229162 0.219136 73 60 62
-0.0763393 -0.022414 0.214334 74 60 62
-0.0761783 -0.0227005 0.217074 73 59 61
-0.0722866 -0.0218672 0.209105 65 50 54
-0.0756733 -0.0232439 0.22227 65 50 53
-0.0727117 -0.0226832 0.216908 65 50 53
-0.0675909 -0.0214204 0.204833 65 50 54
-0.0700417 -0.0225551 0.215683 65 49 53
-0.0681253 -0.0222976 0.213221 67 53 57
-0.067088 -0.0223241 0.213474 69 54 58
-0.066053 -0.0223522 0.213743 68 54 58
-0.0662746 -0.0228139 0.218158 68 54 58
-0.066638 -0.0233414 0.223202 67 53 57
-0.0644857 -0.0229909 0.21985 69 55 59
-0.0665999 -0.0241764 0.231187 66 53 57
-0.0628005 -0.0232193 0.222035 66 52 57
-0.0612104 -0.0230584 0.220496 64 51 56
-0.0620538 -0.0238257 0.227833 64 52 58
-0.0619577 -0.0242552 0.231941 64 53 59
-0.0618366 -0.0246919 0.236117 67 54 62
-0.0607575 -0.0247562 0.236731 66 53 61
-0.0602946 -0.0250794 0.239822 65 53 61
-0.0643429 -0.0273327 0.261369 66 54 63
-0.0616414 -0.0267544 0.255839 63 52 61
-0.0654041 -0.0290183 0.277488 64 53 62
-0.0688984 -0.0312634 0.298957 64 54 63
-0.065594 -0.0304562 0.291238 64 53 63
-0.0736747 -0.0350227 0.334904 64 53 62
-0.0642806 -0.0313023 0.299328 64 53 64
-0.0627422 -0.031317 0.299469 61 52 62
-0.0630039 -0.0322539 0.308428 63 53 63
-0.0670611 -0.0352344 0.336929 63 52 62
-0.0652963 -0.0352344 0.336929 62 51 62
-0.0630918 -0.0349905 0.334597 61 51 63
-0.06163 -0.0351564 0.336183 62 52 64
-0.0580909 -0.0341121 0.326197 63 53 64
-0.0581082 -0.0351564 0.336183 62 53 65
-0.0566354 -0.035336 0.337901 62 54 66
-0.0558626 -0.0359782 0.344042 64 56 68
-0.0540606 -0.0359782 0.344042 63 54 67
-0.0488616 -0.0336395 0.321678 62 53 66
-0.0439907 -0.0313677 0.299954 63 55 68
-0.0411504 -0.0304292 0.290979 62 56 69
-0.0361436 -0.0277548 0.265406 65 59 71
-0.0359768 -0.0287318 0.274748 62 55 66
-0.0315942 -0.0262831 0.251332 62 55 68
-0.0311519 -0.0270419 0.258588 62 55 68
-0.0277906 -0.0252205 0.241172 61 56 69
-0.0239814 -0.0228 0.218025 59 58 69
-0.0236381 -0.0235973 0.225649 64 65 75
-0.0230403 -0.0242111 0.231519 62 63 76
-0.0216715 -0.0240379 0.229863 62 61 76
-0.0190184 -0.0223359 0.213587 62 59 77
-0.019067 -0.0237926 0.227517 65 62 80
-0.0170807 -0.022735 0.217404 71 73 85
-0.0159793 -0.0227882 0.217912 69 72 86
-0.0145943 -0.022414 0.214334 67 71 87
-0.0126171 -0.0209923 0.200739 72 80 92
-0.0119192 -0.0216338 0.206873 66 74 87
-0.01042 -0.020804 0.198938 70 77 90
-0.00993201 -0.0220331 0.210691 74 80 90
-0.00854334 -0.0213215 0.203887 77 91 96
-0.00724487 -0.0206639 0.197599 80 96 105
-0.00629926 -0.0209613 0.200442 78 94 104
-0.00527684 -0.0210709 0.201491 86 104 110
-0.00411104 -0.0205197 0.19622 87 105 110
-0.00317109 -0.0211042 0.201808 92 111 116
-0.00214574 -0.0214204 0.204833 95 117 122
-0.00107655 -0.0214938 0.205535 88 111 117
0 -0.0204787 0.195828 106 120 128
0.00104833 -0.0209304 0.200147 115 129 136
0.00209767 -0.0209405 0.200243 126 141 146
0.00309688 -0.0206102 0.197085 122 147 146
0.00404233 -0.0201768 0.192941 126 159 151
0.00531575 -0.0212263 0.202977 137 170 158
0.00626688 -0.0208536 0.199412 152 183 174
0.00709058 -0.0202238 0.193391 159 188 182
0.00819429 -0.0204504 0.195557 152 189 185
0.00924477 -0.0205085 0.196112 167 201 194
0.0105498 -0.0210631 0.201416 164 204 195
0.0112295 -0.0203821 0.194904 166 206 197
0.0119839 -0.0199387 0.190664 172 210 200
0.0129988 -0.0199636 0.190902 176 212 201
0.0140518 -0.0200394 0.191627 182 215 206
0.0152732 -0.0203291 0.194397 180 213 205
0.0157058 -0.0195984 0.18741 186 221 207
0.0171098 -0.0200944 0.192153 184 221 206
0.018224 -0.0202139 0.193296 185 219 203
0.0192923 -0.0202727 0.193858 187 222 205
0.0203167 -0.0202816 0.193943 184 220 202
0.0215046 -0.0204452 0.195507 157 206 178
0.0225906 -0.0205015 0.196046 194 225 205
0.0234963 -0.0203963 0.195039 192 228 206
0.0243536 -0.0202596 0.193733 177 220 193
0.0256283 -0.0204673 0.195718 188 224 200
0.0261875 -0.0201095 0.192297 174 216 190
0.0267039 -0.0197466 0.188826 190 224 202
0.02806 -0.0200083 0.191329 174 215 187
0.0302761 -0.020844 0.199321 170 213 184
0.0312499 -0.0207973 0.198875 185 223 199
0.0321476 -0.0207046 0.197988 189 225 202
0.0325778 -0.020326 0.194367 184 223 198
0.0333731 -0.0201912 0.193078 192 226 203
0.0351613 -0.0206475 0.197441 165 212 180
0.0361856 -0.0206418 0.197387 184 220 195
0.0364251 -0.0202012 0.193174 184 221 196
0.0385247 -0.0207882 0.198788 180 219 193
0.038982 -0.0204814 0.195854 187 224 199
0.0404025 -0.0206835 0.197786 175 219 191
0.0403986 -0.0201644 0.192822 171 219 192
0.0424284 -0.020661 0.197571 190 228 208
0.0444082 -0.0211103 0.201867 186 227 206
0.0451308 -0.0209549 0.200381 181 222 202
0.0452285 -0.020523 0.196251 188 225 203
0.0471963 -0.0209399 0.200238 186 225 203
0.0470966 -0.0204415 0.195471 180 222 197
0.0492755 -0.0209321 0.200163 196 230 207
0.0494889 -0.0205848 0.196842 182 224 195
0.0521585 -0.0212524 0.203226 187 224 200
0.0532157 -0.0212496 0.203199 179 219 193
0.0542763 -0.0212481 0.203185 177 219 192
0.0545661 -0.0209508 0.200342 191 227 204
0.0556155 -0.0209508 0.200342 184 222 199
0.0580949 -0.0214795 0.205398 189 225 203
0.0591693 -0.021479 0.205393 166 214 184
0.0604073 -0.0215368 0.205946 206 234 215
0.0603237 -0.0211297 0.202053 208 238 220
0.0622266 -0.0214204 0.204833 201 234 214
0.0610541 -0.0206606 0.197567 190 226 203
0.0627604 -0.020884 0.199703 187 225 202
0.0638064 -0.020884 0.199703 186 226 204
0.0685539 -0.022076 0.211102 195 230 209
0.0703918 -0.022308 0.213321 172 221 188
0.0684721 -0.0213606 0.204261 177 222 192
0.0687648 -0.0211219 0.201978 169 215 183
0.0718054 -0.0217217 0.207713 173 215 184
0.0752763 -0.0224318 0.214504 187 223 197
0.0705389 -0.0207109 0.198048 169 220 192
0.0742323 -0.0214795 0.205398 164 217 189
0.0742835 -0.0211872 0.202603 181 223 198
0.0755558 -0.0212466 0.203171 155 210 176
0.0789227 -0.0218852 0.209277 185 225 200
0.0791753 -0.0216544 0.20707 205 236 218
0.0781029 -0.0210725 0.201505 182 227 202
0.0815206 -0.0217013 0.207519 196 229 206
0.0784098 -0.0205986 0.196974 186 224 198
0.0803572 -0.020836 0.199244 186 223 196
0.083684 -0.0214204 0.204833 186 223 196
0.0824258 -0.0208313 0.199199 171 216 183
0.0846767 -0.0211326 0.202081 197 229 206
0.0851992 -0.0210005 0.200818 202 234 212
0.0858912 -0.0209129 0.19998 199 231 206
0.0860524 -0.0206997 0.197941 169 215 181
0.0874754 -0.0207915 0.198819 160 211 175
0.0887685 -0.0208507 0.199385 171 218 187
0.0880093 -0.020432 0.195381 176 221 194
0.0933399 -0.0214204 0.204833 189 227 204
0.0913994 -0.0207367 0.198295 166 213 181
0.0936074 -0.0209991 0.200804 165 211 172
0.0954317 -0.0211705 0.202442 201 231 206
0.094205 -0.0206687 0.197644 205 235 212
0.0940507 -0.0204105 0.195176 191 227 198
0.0937431 -0.020125 0.192446 185 224 192
0.0968826 -0.0205777 0.196775 179 220 184
0.101317 -0.0212931 0.203616 189 226 197
0.0997084 -0.0207367 0.198295 182 223 191
0.0979666 -0.0201644 0.192822 189 227 199
0.101489 -0.0206764 0.197718 177 222 190
0.102053 -0.0205811 0.196807 191 228 200
0.101461 -0.0202573 0.19371 189 227 200
0.10192 -0.0201473 0.192658 196 230 205
0.10147 -0.0198618 0.189928 170 218 183
0.106631 -0.0206693 0.19765 177 222 190
0.104614 -0.0200834 0.192047 188 227 199
0.105041 -0.0199734 0.190995 205 234 213
0.109026 -0.0205354 0.19637 186 226 199
0.112935 -0.0210729 0.20151 180 222 193
0.108767 -0.0201073 0.192276 187 227 199
0.111888 -0.0204944 0.195978 165 214 177
0.114011 -0.0206934 0.197881 176 219 186
0.116151 -0.0208921 0.19978 180 221 191
0.113515 -0.0202356 0.193503 195 227 207
0.120924 -0.0213655 0.204308 176 217 192
0.117917 -0.0206514 0.197479 175 217 190
0.117907 -0.0204702 0.195746 187 226 204
0.117727 -0.0202627 0.193762 168 219 185
0.11856 -0.0202317 0.193466 202 232 210
0.118366 -0.0200273 0.191511 207 237 219
0.120256 -0.0201762 0.192935 202 234 214
-0.510318 -0.080661 0.811916 191 224 190
-0.460558 -0.0734075 0.738905 191 223 190
-0.496201 -0.079759 0.802837 191 223 190
-0.464373 -0.0752809 0.757762 190 223 190
-0.501985 -0.0820797 0.826197 191 223 190
-0.487882 -0.0804676 0.80997 191 224 191
-0.48364 -0.0804676 0.80997 190 223 190
-0.466306 -0.0782701 0.78785 191 224 191
-0.470971 -0.079759 0.802837 189 223 189
-0.453496 -0.0774914 0.780012 191 224 191
-0.458142 -0.078997 0.795167 191 224 191
-0.440521 -0.0766556 0.771599 192 224 191
-0.428652 -0.0752809 0.757762 192 224 191
-0.395019 -0.0700226 0.704833 190 224 190
-0.366564 -0.0655916 0.660231 189 225 191
-0.30331 -0.0547901 0.551505 191 225 191
-0.263909 -0.0481309 0.484476 190 223 190
-0.221012 -0.0406988 0.409665 189 222 189
-0.177485 -0.0330039 0.33221 191 223 192
-0.147049 -0.0276149 0.277965 190 223 192
-0.149499 -0.0283558 0.285424 190 223 190
-0.131558 -0.0252049 0.253707 191 224 190
-0.12901 -0.0249689 0.251332 189 222 189
-0.113741 -0.0222408 0.223871 189 222 191
-0.113946 -0.0225129 0.22661 189 223 191
-0.115452 -0.0230506 0.232022 188 222 189
-0.11227 -0.0226537 0.228027 188 222 188
-0.111257 -0.0226908 0.2284 187 222 189
-0.105857 -0.021824 0.219676 186 222 189
-0.103504 -0.0215734 0.217153 186 222 189
-0.104667 -0.0220583 0.222035 184 222 188
-0.101498 -0.0216307 0.21773 185 222 191
-0.10427 -0.0224739 0.226217 185 222 190
-0.0997147 -0.0217392 0.218822 181 219 185
-0.0964507 -0.0212721 0.214121 183 217 185
-0.0997618 -0.0222612 0.224077 182 217 184
-0.0947633 -0.0213976 0.215383 177 212 174
-0.095064 -0.0217241 0.21867 178 210 172
-0.0918771 -0.0212519 0.213917 171 201 158
-0.0910667 -0.0213245 0.214648 166 193 145
-0.090083 -0.0213578 0.214983 158 177 124
-0.0893779 -0.0214589 0.216 142 155 117
-0.0870616 -0.0211707 0.2131 121 131 98
-0.0883971 -0.0217746 0.219179 105 112 79
-0.0886251 -0.0221181 0.222636 102 110 82
-0.0853572 -0.0215865 0.217285 94 101 76
-0.0844049 -0.0216341 0.217765 88 91 83
-0.0862544 -0.022411 0.225585 87 89 83
-0.0815471 -0.0214822 0.216236 81 81 77
-0.0774006 -0.0206771 0.208131 83 75 73
-0.0806289 -0.0218472 0.21991 84 73 72
-0.078723 -0.02164 0.217823 79 67 66
-0.0750103 -0.0209226 0.210603 77 65 64
-0.0732202 -0.0207281 0.208645 76 64 64
-0.0714626 -0.0205371 0.206722 74 59 61
-0.0708258 -0.0206672 0.208032 67 53 55
-0.0695278 -0.0206055 0.20741 66 52 53
-0.0688745 -0.0207358 0.208722 68 53 56
-0.0696984 -0.0213223 0.214626 66 51 54
-0.0658716 -0.020482 0.206167 67 53 56
-0.0675145 -0.0213427 0.214831 66 52 55
-0.0662672 -0.0213035 0.214436 66 52 56
-0.0626545 -0.0204893 0.206241 66 53 56
-0.0637336 -0.0212079 0.213474 67 53 57
-0.0598539 -0.0202725 0.204059 66 53 56
-0.0597035 -0.0205893 0.207247 68 54 58
-0.0605514 -0.0212684 0.214083 67 54 58
-0.0596117 -0.0213333 0.214737 67 55 59
-0.0575509 -0.0209919 0.2113 65 54 59
-0.0578849 -0.0215278 0.216694 65 53 58
-0.0579314 -0.0219759 0.221205 65 52 59
-0.0534001 -0.0206704 0.208064 67 54 61
-0.0543056 -0.0214589 0.216 65 53 61
-0.0538815 -0.0217443 0.218874 64 52 60
-0.0519419 -0.0214172 0.215581 64 54 62
-0.0540476 -0.0227807 0.229306 64 53 61
-0.0542716 -0.023395 0.23549 65 54 63
-0.0517709 -0.0228361 0.229863 64 53 62
-0.0539878 -0.0243809 0.245413 65 54 63
-0.0493816 -0.0228447 0.229949 64 52 62
-0.048839 -0.0231585 0.233108 62 52 61
-0.0500159 -0.0243247 0.244847 63 52 62
-0.048923 -0.0244193 0.245799 62 50 61
-0.0471196 -0.0241548 0.243137 61 50 61
-0.0435203 -0.0229294 0.230803 63 52 63
-0.0477514 -0.0258774 0.260477 61 50 62
-0.0452744 -0.0252568 0.254229 61 50 62
-0.0427706 -0.024583 0.247447 62 52 63
-0.0429481 -0.0254564 0.256239 61 51 63
-0.0395072 -0.0241723 0.243313 61 51 64
-0.0390742 -0.0247043 0.248668 63 52 66
-0.0363131 -0.0237503 0.239065 62 51 65
-0.0330351 -0.022378 0.225252 62 53 65
-0.0338654 -0.0237901 0.239466 59 49 62
-0.0294496 -0.0214837 0.216251 61 52 65
-0.0302225 -0.0229294 0.230803 62 53 65
-0.0266515 -0.0210627 0.212012 61 53 66
-0.0252161 -0.0207948 0.209316 61 53 66
-0.0244464 -0.0210763 0.21215 61 53 65
-0.0230817 -0.0208474 0.209845 62 56 67
-0.0217512 -0.020628 0.207637 59 56 67
-0.0204742 -0.0204389 0.205733 60 57 71
-0.019637 -0.0206922 0.208283 64 60 74
-0.0183137 -0.0204329 0.205674 64 59 74
-0.0176393 -0.0209105 0.210481 64 60 73
-0.0167105 -0.0211302 0.212692 64 62 74
-0.0156411 -0.0211906 0.2133 67 66 78
-0.014102 -0.020575 0.207104 68 66 79
-0.0125947 -0.0199071 0.200381 61 60 72
-0.0117159 -0.0202016 0.203345 62 64 77
-0.0106526 -0.020205 0.203379 66 67 81
-0.00945077 -0.0199172 0.200482 68 70 81
-0.0083686 -0.0198411 0.199717 72 80 87
-0.00725077 -0.0196467 0.197759 74 84 89
-0.00632909 -0.0200075 0.201392 74 87 92
-0.00515726 -0.0195638 0.196925 72 85 94
-0.00406271 -0.0192646 0.193913 74 87 96
-0.00316079 -0.0199838 0.201153 82 96 101
-0.00207674 -0.0196949 0.198245 88 102 105
-0.00101459 -0.019244 0.193706 97 97 107
0 -0.0199436 0.200748 101 102 116
0.00104601 -0.0198398 0.199703 103 104 117
0.0020399 -0.0193456 0.194729 106 109 119
0.00321862 -0.0203494 0.204833 113 135 137
0.0040945 -0.0194153 0.195431 120 146 136
0.00515333 -0.0195489 0.196775 133 160 151
0.00638717 -0.0201911 0.20324 134 168 160
0.00727592 -0.0197148 0.198445 137 174 168
0.00840863 -0.019936 0.200672 143 179 175
0.00913024 -0.0192417 0.193683 149 184 181
