ply
format ascii 1.0
element vertex 1344
property float x
property float y
property float z
property uchar red
property uchar green
property uchar blue
end_header
0.47801 0.0706941 1.69003 36 36 33
0.499457 0.0725229 1.73375 35 35 32
0.513695 0.0732583 1.75133 36 36 34
0.504566 0.0706941 1.69003 37 37 35
0.5267 0.0725229 1.73375 37 37 35
0.545093 0.0737834 1.76388 36 37 35
0.544862 0.0725229 1.73375 36 37 35
0.56357 0.0737834 1.76388 36 37 34
0.553633 0.0713133 1.70483 36 37 34
0.571132 0.0723996 1.7308 35 36 33
0.56653 0.0706941 1.69003 35 35 33
0.569857 0.0700153 1.6738 33 34 32
0.584767 0.0707586 1.69157 34 34 32
0.629982 0.075092 1.79517 35 36 34
0.628243 0.0737834 1.76388 35 36 34
0.606143 0.0701562 1.67717 35 36 34
0.614928 0.0701562 1.67717 34 36 33
0.633999 0.0713133 1.70483 34 36 33
0.665198 0.0737834 1.76388 35 36 34
0.669638 0.0732583 1.75133 35 37 34
0.671996 0.0725229 1.73375 35 37 34
0.681077 0.0725229 1.73375 35 37 34
0.74073 0.077837 1.86079 35 37 34
0.687577 0.0713133 1.70483 35 36 34
0.690459 0.0706941 1.69003 35 36 34
0.738194 0.0746248 1.784 35 36 34
0.733849 0.0732583 1.75133 35 36 34
0.723295 0.0713133 1.70483 34 35 33
0.725031 0.0706126 1.68808 33 35 32
0.780426 0.075092 1.79517 33 34 31
0.773371 0.0735273 1.75776 33 34 31
0.759013 0.0713133 1.70483 33 34 31
0.784792 0.0728779 1.74224 32 33 30
0.811865 0.0745255 1.78162 32 34 31
0.827439 0.075092 1.79517 33 36 34
0.80275 0.0720328 1.72203 35 37 35
0.846245 0.075092 1.79517 34 36 34
0.841864 0.0738823 1.76625 31 33 31
0.829809 0.0720328 1.72203 29 30 28
0.893415 0.0767203 1.8341 26 28 26
0.913617 0.0776205 1.85562 26 28 27
0.838712 0.0705065 1.68555 26 29 28
0.910104 0.0757111 1.80997 25 29 28
0.919584 0.0757111 1.80997 30 34 33
0.972641 0.0792622 1.89486 31 35 34
0.915874 0.0738823 1.76625 35 38 37
0.992491 0.0792622 1.89486 36 39 39
0.97553 0.0771364 1.84404 36 40 39
1.00137 0.0784035 1.87433 35 39 38
0.9483 0.0735273 1.75776 34 38 37
0.988388 0.0758987 1.81445 34 37 37
1.03082 0.0784035 1.87433 32 37 36
1.0074 0.0758987 1.81445 31 36 36
0.97167 0.0725229 1.73375 30 36 35
1.09547 0.081006 1.93655 31 37 36
1.09664 0.0803486 1.92083 34 39 37
1.04541 0.0758987 1.81445 36 41 40
1.08973 0.0784035 1.87433 37 41 40
1.06933 0.076249 1.82283 35 40 39
1.13028 0.0798814 1.90967 35 39 37
1.14695 0.0803486 1.92083 35 39 38
1.14136 0.0792622 1.89486 35 39 38
1.16707 0.0803486 1.92083 35 39 38
1.08568 0.0741061 1.7716 35 39 37
1.12662 0.076249 1.82283 34 38 37
1.19029 0.0798814 1.90967 33 37 36
-0.605025 0.0452986 0.962595 38 37 34
-0.646612 0.0488191 1.03741 38 37 34
-0.596223 0.0453962 0.964669 37 37 34
-0.637174 0.0489288 1.03974 36 36 33
-0.629051 0.0487215 1.03533 36 36 31
-0.602347 0.0470588 1 36 36 31
-0.618205 0.0487215 1.03533 36 35 30
-0.61401 0.0488191 1.03741 36 36 31
-0.60736 0.0487215 1.03533 36 36 30
-0.603142 0.0488191 1.03741 37 37 33
-0.597709 0.0488191 1.03741 38 38 34
-0.591091 0.0487215 1.03533 37 37 32
-0.586841 0.0488191 1.03741 36 36 31
-0.622765 0.0522918 1.1112 36 36 30
-0.555206 0.0470588 1 37 36 31
-0.571823 0.0489288 1.03974 38 37 32
-0.565106 0.0488191 1.03741 37 37 30
-0.596214 0.0520064 1.10514 37 36 30
-0.593664 0.0522918 1.1112 37 37 31
-0.591439 0.0526116 1.118 38 38 33
-0.589601 0.0529725 1.12567 38 38 33
-0.559593 0.0507843 1.07917 38 37 32
-0.573872 0.0526116 1.118 37 37 32
-0.568016 0.0526116 1.118 37 36 32
-0.594396 0.0556285 1.18211 36 35 30
-0.556304 0.0526116 1.118 36 36 31
-0.593203 0.056698 1.20483 37 38 33
-0.56793 0.0548661 1.1659 37 37 33
-0.594516 0.0580588 1.23375 37 37 33
-0.567215 0.0560014 1.19003 37 37 33
-0.574344 0.0573353 1.21838 37 37 33
-0.533471 0.0538534 1.14438 37 38 33
-0.568668 0.0580588 1.23375 37 37 33
-0.590192 0.060949 1.29517 37 37 32
-0.572793 0.05984 1.2716 37 37 31
-0.566132 0.05984 1.2716 38 37 32
-0.559472 0.05984 1.2716 38 38 33
-0.584305 0.063249 1.34404 37 37 32
-0.577265 0.063249 1.34404 37 37 32
-0.589214 0.0653553 1.3888 37 37 32
-0.608056 0.0682883 1.45113 37 37 33
-0.547368 0.0622508 1.32283 37 37 34
-0.553834 0.0637937 1.35562 37 37 34
-0.533511 0.0622508 1.32283 37 38 34
-0.616564 0.0728882 1.54887 37 38 35
-0.624738 0.0748393 1.59033 37 38 34
-0.597821 0.0725825 1.54238 37 37 33
-0.595607 0.0733043 1.55772 37 38 33
-0.565682 0.0705882 1.5 37 37 33
-0.633999 0.0802274 1.70483 37 37 33
-0.588517 0.0755359 1.60514 37 37 33
-0.61614 0.0802274 1.70483 36 36 32
-0.579014 0.0765019 1.62567 35 35 30
-0.598281 0.0802274 1.70483 36 36 31
-0.561984 0.0765019 1.62567 37 37 33
-0.593157 0.0819877 1.74224 37 37 33
-0.581186 0.0815882 1.73375 37 37 34
-0.572105 0.0815882 1.73375 37 37 33
-0.553633 0.0802274 1.70483 37 37 33
-0.535865 0.0789257 1.67717 37 37 34
-0.544862 0.0815882 1.73375 38 38 34
-0.502379 0.0765019 1.62567 37 37 33
-0.507181 0.0785648 1.6695 37 37 33
-0.504566 0.0795308 1.69003 37 37 33
-0.476835 0.0765019 1.62567 37 37 33
-0.470832 0.0769123 1.63439 37 37 34
-0.486483 0.0809406 1.71999 37 37 34
-0.481295 0.0815882 1.73375 38 38 35
-0.477002 0.0824156 1.75133 39 40 36
-0.43426 0.0765019 1.62567 38 38 35
-0.450447 0.0809406 1.71999 37 38 34
-0.43375 0.0795308 1.69003 37 38 34
-0.421665 0.0789257 1.67717 37 38 34
-0.41288 0.0789257 1.67717 37 37 34
-0.41076 0.0802274 1.70483 37 37 34
-0.408646 0.0815882 1.73375 37 37 33
-0.396022 0.0808647 1.71838 36 37 33
-0.380199 0.0794392 1.68808 36 36 32
-0.363151 0.0776839 1.65078 36 36 33
-0.372322 0.0815882 1.73375 36 37 34
-0.360358 0.0809406 1.71999 37 37 34
-0.337212 0.0776839 1.65078 37 37 34
-0.347576 0.0821785 1.74629 37 37 34
-0.319919 0.0776839 1.65078 37 37 34
-0.313292 0.0781879 1.66149 37 37 34
-0.30459 0.0781879 1.66149 38 37 34
-0.29106 0.0769123 1.63439 38 38 35
-0.292384 0.0796034 1.69157 38 37 34
-0.283265 0.0795308 1.69003 37 37 34
-0.276817 0.0802274 1.70483 37 37 33
-0.25278 0.0757032 1.60869 37 36 33
-0.26602 0.0824156 1.75133 37 36 33
-0.25225 0.0809406 1.71999 37 36 32
-0.233454 0.0776839 1.65078 37 36 32
-0.224808 0.0776839 1.65078 37 36 32
-0.219617 0.0789257 1.67717 37 36 33
-0.200777 0.0751614 1.59718 37 37 34
-0.196893 0.0769123 1.63439 38 38 34
-0.19645 0.0802274 1.70483 38 38 34
-0.182754 0.0781879 1.66149 37 37 34
-0.181621 0.0815882 1.73375 38 37 34
-0.163347 0.0772415 1.64138 37 37 34
-0.159337 0.0795308 1.69003 37 37 33
-0.143944 0.076074 1.61657 37 37 33
-0.137807 0.0773828 1.64438 37 37 33
-0.12639 0.0757032 1.60869 37 37 33
-0.120581 0.0773828 1.64438 36 37 33
-0.111968 0.0773828 1.64438 37 37 34
-0.102727 0.0769123 1.63439 37 37 34
-0.0916283 0.0748393 1.59033 37 37 34
-0.0886011 0.0796034 1.69157 37 38 34
-0.0783231 0.0781879 1.66149 36 37 33
-0.0684846 0.0769123 1.63439 35 36 33
-0.0605252 0.0776839 1.65078 36 37 34
-0.0527081 0.0789257 1.67717 37 38 35
-0.0439234 0.0789257 1.67717 36 37 34
-0.0340596 0.0765019 1.62567 36 37 33
-0.0248961 0.0745593 1.58438 36 36 33
-0.0172929 0.0776839 1.65078 36 37 33
-0.00870257 0.0781879 1.66149 36 37 33
0 0.0765019 1.62567 36 37 33
0.00872567 0.0783955 1.6659 37 37 34
0.0177041 0.0795308 1.69003 37 37 34
0.0265803 0.0796034 1.69157 37 37 34
0.033704 0.0757032 1.60869 37 37 34
0.0428029 0.0769123 1.63439 36 37 34
0.0508036 0.076074 1.61657 36 37 34
0.0601806 0.0772415 1.64138 37 38 35
0.0666388 0.0748393 1.59033 38 39 35
0.0803661 0.0802274 1.70483 38 38 34
0.0870257 0.0781879 1.66149 37 37 33
0.0966315 0.0789257 1.67717 37 37 33
0.104431 0.0781879 1.66149 37 37 32
0.113133 0.0781879 1.66149 37 37 33
0.123928 0.0795308 1.69003 37 37 33
0.131506 0.0787672 1.6738 38 38 35
0.141633 0.0795308 1.69003 38 38 35
0.142217 0.0751614 1.59718 37 37 34
0.152545 0.076141 1.618 36 36 32
0.168342 0.0796034 1.69157 36 37 33
0.173471 0.0779274 1.65596 36 37 33
0.184478 0.0789257 1.67717 36 37 33
0.191456 0.0781879 1.66149 36 37 34
0.20069 0.0783955 1.6659 36 37 33
0.210832 0.0789257 1.67717 36 37 33
0.214015 0.0769123 1.63439 36 37 33
0.226867 0.0783955 1.6659 37 38 34
0.229902 0.0765019 1.62567 37 38 35
0.250028 0.0802274 1.70483 38 39 35
0.250747 0.0776839 1.65078 37 38 35
0.270268 0.0809406 1.71999 37 38 34
0.26978 0.0781879 1.66149 36 37 33
0.283523 0.0796034 1.69157 35 37 32
0.280992 0.0765019 1.62567 36 37 33
0.306017 0.0808647 1.71838 36 38 34
0.301453 0.0773828 1.64438 37 38 35
0.312249 0.0779274 1.65596 37 39 35
0.320922 0.0779274 1.65596 36 38 34
0.336377 0.0795308 1.69003 36 37 34
0.330224 0.076074 1.61657 35 36 33
0.36002 0.0808647 1.71838 35 36 32
0.359448 0.0787672 1.6738 35 36 32
0.361744 0.0773828 1.64438 36 36 32
0.37421 0.0781879 1.66149 36 37 32
0.37897 0.0773828 1.64438 36 37 33
0.398342 0.0795308 1.69003 36 36 32
0.41076 0.0802274 1.70483 35 36 31
0.41969 0.0802274 1.70483 35 36 31
0.401554 0.0751614 1.59718 36 37 32
0.441438 0.0809406 1.71999 35 36 31
0.446478 0.0802274 1.70483 34 35 30
0.43926 0.0773828 1.64438 35 35 31
0.460306 0.0795308 1.69003 35 35 32
0.459699 0.0779274 1.65596 35 36 33
0.47801 0.0795308 1.69003 35 35 33
0.495028 0.0808647 1.71838 36 36 34
0.495714 0.0795308 1.69003 36 36 34
0.508985 0.0802274 1.70483 36 36 34
0.527824 0.0817624 1.73745 37 37 35
0.526844 0.0802274 1.70483 36 36 35
0.535774 0.0802274 1.70483 36 37 34
0.535865 0.0789257 1.67717 36 37 34
0.536081 0.0776839 1.65078 35 36 33
0.572105 0.0815882 1.73375 35 36 33
0.576032 0.0808647 1.71838 35 36 34
0.585581 0.0809406 1.71999 34 35 33
0.617295 0.0840314 1.78567 34 35 33
0.603034 0.0808647 1.71838 35 36 34
0.597358 0.0789257 1.67717 35 36 34
0.61614 0.0802274 1.70483 35 36 34
0.642118 0.0824156 1.75133 34 36 33
0.655959 0.0830063 1.76388 34 36 33
0.662889 0.0827182 1.75776 35 36 34
0.674437 0.0830063 1.76388 35 37 35
0.671996 0.0815882 1.73375 35 37 35
0.681077 0.0815882 1.73375 35 37 34
0.68468 0.0809406 1.71999 35 36 34
0.731787 0.085386 1.81445 35 36 34
0.720631 0.0830063 1.76388 35 36 34
0.733063 0.0833694 1.7716 35 36 34
0.708163 0.0795308 1.69003 35 36 34
0.730593 0.0810369 1.72203 34 36 34
0.754957 0.0827182 1.75776 34 36 33
0.755334 0.0817624 1.73745 33 34 32
0.757652 0.0810369 1.72203 32 34 31
0.788738 0.0833694 1.7716 32 33 30
0.791785 0.0827182 1.75776 31 32 30
0.818037 0.0844785 1.79517 32 34 32
0.827439 0.0844785 1.79517 33 36 34
0.836842 0.0844785 1.79517 33 35 34
0.83986 0.0838411 1.78162 31 34 32
0.841864 0.0831176 1.76625 28 31 29
0.858524 0.0838411 1.78162 26 29 27
0.860367 0.0831176 1.76625 24 27 25
0.897475 0.0857802 1.82283 25 27 26
0.923337 0.0873231 1.85562 24 27 27
0.973752 0.0911317 1.93655 24 27 26
0.905183 0.0838411 1.78162 29 33 32
0.957627 0.0877936 1.86561 32 35 34
0.956213 0.0867784 1.84404 35 38 37
0.92068 0.0827182 1.75776 36 39 38
0.97553 0.0867784 1.84404 35 38 37
1.00734 0.0887295 1.8855 35 38 37
1.02656 0.0895445 1.90282 34 37 37
1.03219 0.08917 1.89486 34 37 37
1.03082 0.088204 1.87433 34 38 37
1.0074 0.085386 1.81445 34 38 38
1.0169 0.085386 1.81445 33 38 37
1.08658 0.0903921 1.92083 32 37 36
1.0528 0.0867784 1.84404 34 39 38
1.11173 0.0908025 1.92955 35 39 38
1.0437 0.0844785 1.79517 34 39 38
1.12682 0.0903921 1.92083 34 38 37
1.02616 0.0815882 1.73375 35 39 38
1.05784 0.0833694 1.7716 35 39 38
1.15701 0.0903921 1.92083 35 40 38
1.10752 0.0857802 1.82283 36 40 38
1.18247 0.0908025 1.92955 36 40 38
1.12662 0.0857802 1.82283 35 39 38
1.09561 0.0827182 1.75776 34 39 37
-0.584257 0.0486041 0.929553 37 36 33
-0.623298 0.0522876 1 36 36 32
-0.571981 0.0483893 0.925446 36 35 31
-0.612822 0.0522876 1 35 35 30
-0.607584 0.0522876 1 36 36 31
-0.57682 0.0500717 0.957621 37 36 32
-0.597109 0.0522876 1 37 37 33
-0.569732 0.0503318 0.962595 38 38 34
-0.586633 0.0522876 1 38 38 33
-0.603142 0.0542434 1.03741 38 37 32
-0.624776 0.0566999 1.08438 38 37 33
-0.57092 0.0522876 1 37 37 32
-0.586841 0.0542434 1.03741 36 36 31
-0.580245 0.054135 1.03533 36 36 31
-0.575974 0.0542434 1.03741 37 37 31
-0.571823 0.0543653 1.03974 38 38 33
-0.585342 0.0561858 1.07455 37 37 30
-0.618861 0.05998 1.14712 36 36 29
-0.553131 0.054135 1.03533 37 37 30
-0.570898 0.056427 1.07917 38 37 32
-0.605467 0.0604423 1.15596 38 37 32
-0.559593 0.056427 1.07917 38 37 32
-0.533701 0.0543653 1.03974 38 37 32
-0.564563 0.0581019 1.1112 39 38 33
-0.58625 0.0609623 1.1659 37 36 31
-0.606252 0.0637059 1.21838 36 36 31
-0.579583 0.0615514 1.17717 37 37 32
-0.573418 0.0615514 1.17717 37 37 32
-0.580581 0.0629978 1.20483 37 37 32
-0.599499 0.0657653 1.25776 37 37 33
-0.560982 0.0622238 1.19003 37 37 33
-0.545179 0.0611504 1.1695 38 38 33
-0.607452 0.0689095 1.31789 37 37 32
-0.600549 0.0689095 1.31789 37 37 31
-0.542717 0.0629978 1.20483 36 36 31
-0.566132 0.0664889 1.2716 37 37 32
-0.546553 0.0649536 1.24224 37 37 32
-0.531264 0.0638972 1.22203 37 37 32
-0.566034 0.0689095 1.31789 37 37 32
-0.583077 0.0718606 1.37433 37 37 33
-0.608056 0.0758758 1.45113 37 37 33
-0.5833 0.073708 1.40967 36 37 33
-0.549106 0.0702767 1.34404 37 37 34
-0.604965 0.0784314 1.5 37 37 34
-0.597109 0.0784314 1.5 37 38 34
-0.570052 0.0758758 1.45113 37 38 34
-0.600339 0.0809869 1.54887 37 38 34
-0.557335 0.0762155 1.45762 37 38 33
-0.584114 0.0809869 1.54887 37 37 32
-0.611519 0.0859809 1.64438 37 38 33
-0.602907 0.0859809 1.64438 37 37 33
-0.574759 0.0831547 1.59033 37 37 32
-0.61751 0.0906536 1.73375 36 35 31
-0.563294 0.0839287 1.60514 36 36 31
-0.577137 0.0872942 1.6695 37 37 33
-0.553469 0.0850021 1.62567 37 38 34
-0.551229 0.0859809 1.64438 37 37 34
-0.529665 0.0839287 1.60514 37 37 33
-0.563024 0.0906536 1.73375 36 37 33
-0.514787 0.0842457 1.6112 36 37 33
-0.528632 0.0879532 1.68211 37 37 34
-0.53216 0.090041 1.72203 37 38 34
-0.497088 0.0855569 1.63628 37 38 34
-0.51351 0.089934 1.71999 38 38 35
-0.512217 0.0913094 1.74629 38 38 34
-0.479912 0.0871061 1.6659 38 38 35
-0.486027 0.0898497 1.71838 38 37 34
-0.469158 0.0883676 1.69003 38 38 35
-0.460306 0.0883676 1.69003 38 38 35
-0.448019 0.0876952 1.67717 38 38 34
-0.443005 0.0884482 1.69157 37 38 35
-0.425005 0.0865861 1.65596 37 38 34
-0.43682 0.0908471 1.73745 37 37 34
-0.416425 0.0884482 1.69157 37 37 34
-0.407565 0.0884482 1.69157 37 37 33
-0.398342 0.0883676 1.69003 36 37 33
-0.389845 0.0884482 1.69157 36 37 33
-0.377741 0.0876952 1.67717 36 36 33
-0.385271 0.0915729 1.75133 36 37 33
-0.359448 0.0875191 1.6738 36 37 34
-0.363241 0.0906536 1.73375 36 37 34
-0.337212 0.0863154 1.65078 36 36 33
-0.336684 0.0884482 1.69157 37 36 34
-0.333331 0.089934 1.71999 36 36 34
-0.318673 0.0883676 1.69003 37 37 34
-0.306846 0.0875191 1.6738 37 37 34
-0.295887 0.0868755 1.66149 37 37 34
-0.292117 0.0883676 1.69003 37 37 34
-0.285746 0.0891416 1.70483 37 37 34
-0.274663 0.0884482 1.69157 37 37 34
-0.265803 0.0884482 1.69157 37 37 33
-0.254756 0.0876952 1.67717 37 37 33
-0.243672 0.0868755 1.66149 37 36 32
-0.243014 0.0898497 1.71838 36 35 31
-0.228402 0.0876952 1.67717 36 36 32
-0.219617 0.0876952 1.67717 37 36 33
-0.207515 0.0863154 1.65078 38 37 34
-0.198098 0.0859809 1.64438 38 38 34
-0.199783 0.0906536 1.73375 38 38 34
-0.189011 0.0898497 1.71838 36 36 32
-0.172259 0.0859809 1.64438 37 37 33
-0.163646 0.0859809 1.64438 36 36 32
-0.15409 0.0854581 1.63439 36 36 32
-0.14642 0.0859809 1.64438 36 36 32
-0.140273 0.0875191 1.6738 36 36 32
-0.127009 0.0845266 1.61657 36 36 33
-0.119848 0.0854581 1.63439 36 37 34
-0.117116 0.089934 1.71999 37 37 34
-0.101112 0.0841147 1.60869 36 37 34
-0.0990055 0.0898497 1.71838 36 37 34
-0.0842601 0.0841147 1.60869 36 37 34
-0.0775166 0.0859809 1.64438 36 37 34
-0.0687778 0.0858239 1.64138 36 37 33
-0.0599241 0.0854581 1.63439 36 37 33
-0.052354 0.0871061 1.6659 36 37 33
-0.0432323 0.0863154 1.65078 36 37 33
-0.0349027 0.0871061 1.6659 35 36 32
-0.0259394 0.0863154 1.65078 35 36 32
-0.0177202 0.0884482 1.69157 36 36 33
-0.00851491 0.0850021 1.62567 36 37 33
0 0.0828437 1.58438 37 37 33
0.00856058 0.0854581 1.63439 37 37 34
0.0169495 0.0846011 1.618 37 37 34
0.026354 0.0876952 1.67717 37 37 34
0.0345858 0.0863154 1.65078 37 37 34
0.0419496 0.0837544 1.6018 37 37 34
0.0510894 0.0850021 1.62567 36 37 34
0.0610797 0.0871061 1.6659 37 38 35
0.0684846 0.0854581 1.63439 38 39 35
0.0790621 0.0876952 1.67717 38 39 35
0.0846727 0.0845266 1.61657 38 39 35
0.0966315 0.0876952 1.67717 38 39 35
0.102727 0.0854581 1.63439 38 38 34
0.113133 0.0868755 1.66149 38 38 34
0.12105 0.0863154 1.65078 37 37 33
0.128409 0.0854581 1.63439 37 37 34
0.135476 0.0845266 1.61657 37 37 34
0.148336 0.0871061 1.6659 37 37 33
0.149937 0.0831547 1.59033 36 36 32
0.17254 0.0906536 1.73375 35 36 31
0.169345 0.0845266 1.61657 36 36 32
0.187521 0.0891416 1.70483 36 37 33
0.194745 0.0883676 1.69003 36 37 33
0.198869 0.0863154 1.65078 36 37 33
0.206711 0.0859809 1.64438 36 37 33
0.219617 0.0876952 1.67717 36 37 33
0.223937 0.0859809 1.64438 37 38 34
0.23873 0.0882658 1.68808 38 39 35
0.243672 0.0868755 1.66149 38 39 35
0.254756 0.0876952 1.67717 38 39 35
0.265803 0.0884482 1.69157 38 38 35
0.26978 0.0868755 1.66149 37 38 35
0.275614 0.0859809 1.64438 36 37 34
0.287185 0.0868755 1.66149 36 37 33
0.300622 0.0882658 1.68808 36 38 34
0.30459 0.0868755 1.66149 37 38 34
0.318964 0.0884482 1.69157 36 38 34
0.321995 0.0868755 1.66149 36 37 33
0.323566 0.0850021 1.62567 37 37 34
0.3394 0.0868755 1.66149 37 37 34
0.344518 0.0859809 1.64438 36 37 34
0.353131 0.0859809 1.64438 35 36 32
0.375042 0.0891416 1.70483 36 36 32
0.380199 0.0882658 1.68808 35 36 31
0.384758 0.0872942 1.6695 36 36 32
0.40183 0.0891416 1.70483 36 36 32
0.398984 0.0865861 1.65596 35 36 31
0.409021 0.0868755 1.66149 35 36 31
0.420818 0.0875191 1.6738 35 35 31
0.43375 0.0883676 1.69003 34 35 30
0.446478 0.0891416 1.70483 34 35 30
0.459026 0.0898497 1.71838 35 35 31
0.477002 0.0915729 1.75133 35 35 32
0.481295 0.0906536 1.73375 35 35 32
0.47801 0.0883676 1.69003 36 36 33
0.486862 0.0883676 1.69003 36 36 34
0.508538 0.0906536 1.73375 36 36 34
0.504566 0.0883676 1.69003 35 35 33
0.535854 0.0922292 1.76388 36 36 34
0.539657 0.0913094 1.74629 35 36 34
0.543936 0.0904995 1.7308 36 36 34
0.544704 0.0891416 1.70483 36 36 34
0.549327 0.0884482 1.69157 36 36 34
0.567032 0.0898497 1.71838 35 36 33
0.576572 0.089934 1.71999 35 36 33
0.580422 0.0891416 1.70483 34 35 34
0.599348 0.0906536 1.73375 35 36 34
0.598281 0.0891416 1.70483 35 36 34
0.642984 0.0943933 1.80527 35 36 34
0.6416 0.0928251 1.77528 34 35 33
0.614928 0.0876952 1.67717 34 36 33
0.651291 0.0915729 1.75133 34 36 33
0.658564 0.0913094 1.74629 34 36 34
0.651858 0.0891416 1.70483 35 37 34
0.671996 0.0906536 1.73375 35 37 35
0.675671 0.089934 1.71999 36 37 35
0.695151 0.0913094 1.74629 35 36 34
0.693689 0.089934 1.71999 35 36 33
0.720631 0.0922292 1.76388 35 35 33
0.724676 0.0915729 1.75133 34 35 33
0.760299 0.0948733 1.81445 34 35 33
0.748348 0.0922292 1.76388 34 35 33
0.766226 0.093281 1.784 33 35 32
0.761369 0.0915729 1.75133 33 35 32
0.756751 0.089934 1.71999 33 35 32
0.782578 0.0919091 1.75776 34 35 33
0.808634 0.0938649 1.79517 34 35 32
0.818037 0.0938649 1.79517 33 35 32
0.821197 0.0931568 1.78162 31 34 32
0.819405 0.0919091 1.75776 30 33 31
0.835135 0.0926327 1.7716 28 31 29
0.868832 0.0953113 1.82283 25 28 27
0.831104 0.0901815 1.72472 24 28 27
0.908768 0.0975484 1.86561 23 26 25
0.897475 0.0953113 1.82283 25 28 28
0.886519 0.0931568 1.78162 27 30 29
0.933056 0.0970256 1.85562 28 31 30
0.919584 0.0946389 1.80997 29 34 33
0.967836 0.0985883 1.8855 33 36 35
0.977711 0.0985883 1.8855 35 38 37
0.931262 0.0929655 1.77797 35 37 37
0.997463 0.0985883 1.8855 34 36 35
0.994137 0.0972963 1.86079 33 36 36
1.01119 0.0980044 1.87433 34 37 37
1.01363 0.0972963 1.86079 35 38 37
0.997892 0.0948733 1.81445 35 39 38
1.04064 0.0980044 1.87433 35 40 39
1.08533 0.101257 1.93655 35 40 39
1.06028 0.0980044 1.87433 35 40 39
1.01144 0.0926327 1.7716 35 40 38
1.07211 0.0972963 1.86079 35 39 38
1.11676 0.100436 1.92083 34 38 37
1.01708 0.0906536 1.73375 34 38 37
1.13689 0.100436 1.92083 35 39 38
1.04031 0.0910974 1.74224 35 40 38
1.15701 0.100436 1.92083 36 40 39
1.12041 0.0964205 1.84404 36 40 39
1.11707 0.0953113 1.82283 37 41 39
1.23612 0.104575 2 37 41 39
1.2466 0.104575 2 35 40 38
-0.653512 0.0598019 1.03974 38 38 35
-0.59853 0.0552308 0.960263 37 37 33
-0.61806 0.0575163 1 36 36 32
-0.637174 0.0598019 1.03974 36 36 32
-0.607584 0.0575163 1 37 37 32
-0.559913 0.0534645 0.929553 37 37 32
-0.618205 0.0595485 1.03533 38 37 32
-0.591871 0.0575163 1 38 37 33
-0.586633 0.0575163 1 37 37 32
-0.601937 0.0595485 1.03533 37 37 32
-0.595445 0.0594417 1.03348 38 37 32
-0.592275 0.0596677 1.03741 37 36 31
-0.585668 0.0595485 1.03533 36 36 30
-0.579205 0.0594417 1.03348 37 37 31
-0.555206 0.0575163 1 37 37 32
-0.571823 0.0598019 1.03974 38 37 32
-0.566377 0.0598019 1.03974 37 37 30
-0.603151 0.064303 1.118 37 36 30
-0.612853 0.065978 1.14712 37 37 31
-0.573658 0.0623698 1.08438 38 38 32
-0.562829 0.0618044 1.07455 38 38 32
-0.60457 0.0670586 1.1659 37 37 31
-0.570383 0.0639121 1.1112 37 36 30
-0.598081 0.0677066 1.17717 37 36 30
-0.570402 0.0652457 1.13439 37 36 30
-0.560121 0.0647442 1.12567 38 37 32
-0.585915 0.0684462 1.19003 38 38 33
-0.573418 0.0677066 1.17717 38 38 33
-0.567252 0.0677066 1.17717 37 38 33
-0.607848 0.0733494 1.27528 36 37 32
-0.560982 0.0684462 1.19003 36 36 31
-0.538866 0.0664865 1.15596 37 37 32
-0.539054 0.0672654 1.1695 37 37 32
-0.590192 0.0744933 1.29517 36 37 31
-0.605424 0.0773044 1.34404 36 36 30
-0.557109 0.071972 1.25133 37 37 31
-0.569841 0.0744933 1.29517 37 37 32
-0.563057 0.0744933 1.29517 37 37 32
-0.582236 0.07797 1.35562 37 36 31
-0.618413 0.083837 1.45762 37 37 32
-0.575878 0.0790467 1.37433 37 37 33
-0.603143 0.083837 1.45762 37 37 34
-0.553834 0.07797 1.35562 37 38 34
-0.562563 0.0802274 1.39486 37 37 33
-0.577653 0.0834634 1.45113 36 37 33
-0.608452 0.0890856 1.54887 38 38 34
-0.622146 0.0923216 1.60514 38 38 34
-0.595607 0.0895941 1.55772 37 37 32
-0.587448 0.0895941 1.55772 36 36 31
-0.579289 0.0895941 1.55772 37 37 32
-0.62507 0.0980557 1.70483 37 38 33
-0.580109 0.0923216 1.60514 37 37 33
-0.579014 0.0935024 1.62567 37 37 33
-0.585882 0.0960236 1.6695 37 37 33
-0.554887 0.0923216 1.60514 38 38 34
-0.593157 0.100207 1.74224 37 37 33
-0.522176 0.0895941 1.55772 36 37 33
-0.542616 0.094579 1.64438 36 37 33
-0.553633 0.0980557 1.70483 37 37 34
-0.52539 0.094579 1.64438 36 37 33
-0.54955 0.100577 1.74867 36 37 33
-0.50953 0.0948333 1.64881 37 37 33
-0.513418 0.0972043 1.69003 37 37 34
-0.504566 0.0972043 1.69003 37 37 34
-0.504028 0.0988347 1.71838 38 37 34
-0.487306 0.097293 1.69157 38 37 34
-0.482197 0.0980557 1.70483 37 37 34
-0.469586 0.097293 1.69157 38 37 34
-0.456803 0.0964647 1.67717 38 37 34
-0.443831 0.095563 1.66149 38 38 35
-0.438352 0.096271 1.6738 38 38 35
-0.441438 0.0989274 1.71999 37 37 34
-0.435889 0.099719 1.73375 37 37 33
-0.406384 0.094947 1.65078 37 37 33
-0.41076 0.0980557 1.70483 36 37 33
-0.40183 0.0980557 1.70483 37 37 34
-0.38575 0.096271 1.6738 37 38 34
-0.376983 0.096271 1.6738 37 37 34
-0.375042 0.0980557 1.70483 37 37 34
-0.366112 0.0980557 1.70483 37 37 34
-0.351387 0.0964647 1.67717 37 37 34
-0.348253 0.0980557 1.70483 37 37 34
-0.336377 0.0972043 1.69003 37 37 34
-0.335998 0.099719 1.73375 37 37 34
-0.330232 0.10073 1.75133 37 37 34
-0.29962 0.0940039 1.63439 36 36 33
-0.303605 0.0980557 1.70483 36 36 33
-0.282499 0.0940039 1.63439 36 36 34
-0.288016 0.0988347 1.71838 37 36 33
-0.279016 0.0988347 1.71838 37 37 34
-0.265803 0.097293 1.69157 37 37 33
-0.250747 0.094947 1.65078 38 37 34
-0.239696 0.0940039 1.63439 38 37 34
-0.235593 0.0958167 1.6659 37 36 33
-0.226867 0.0958167 1.6659 37 36 33
-0.216162 0.094947 1.65078 37 37 34
-0.212449 0.0972043 1.69003 37 37 34
-0.203597 0.0972043 1.69003 38 38 34
-0.188333 0.0940039 1.63439 38 38 35
-0.184108 0.096271 1.6738 37 37 34
-0.172259 0.094579 1.64438 37 37 33
-0.165349 0.095563 1.66149 36 36 32
-0.159337 0.0972043 1.69003 36 36 32
-0.151803 0.0980557 1.70483 36 36 32
-0.141633 0.0972043 1.69003 36 36 32
-0.123824 0.0906475 1.57603 37 37 34
-0.121836 0.095563 1.66149 37 38 35
-0.111968 0.094579 1.64438 37 37 34
-0.102727 0.0940039 1.63439 36 37 33
-0.0957282 0.095563 1.66149 36 37 33
-0.0851491 0.0935024 1.62567 36 37 33
-0.0775166 0.094579 1.64438 37 38 34
-0.0691717 0.094947 1.65078 37 38 35
-0.0605252 0.094947 1.65078 36 37 33
-0.0522154 0.095563 1.66149 35 37 33
-0.0436283 0.0958167 1.6659 35 36 32
-0.0351387 0.0964647 1.67717 35 36 32
-0.026354 0.0964647 1.67717 36 37 33
-0.0171212 0.0940039 1.63439 37 37 34
-0.00886011 0.097293 1.69157 37 38 34
0 0.0980557 1.70483 37 38 34
0.00851491 0.0935024 1.62567 37 37 34
0.0172929 0.094947 1.65078 36 37 33
0.0255447 0.0935024 1.62567 37 37 34
0.0340596 0.0935024 1.62567 37 37 34
0.0425745 0.0935024 1.62567 37 37 34
0.0527081 0.0964647 1.67717 36 37 34
0.060918 0.095563 1.66149 37 37 34
0.0702774 0.0964647 1.67717 37 38 34
0.078531 0.0958167 1.6659 37 38 34
0.0885203 0.0972043 1.69003 37 38 34
0.0990055 0.0988347 1.71838 38 38 34
0.100679 0.0921299 1.6018 37 38 33
0.111968 0.094579 1.64438 37 37 33
0.12105 0.094947 1.65078 37 37 33
0.127724 0.0935024 1.62567 37 37 33
0.142873 0.0980557 1.70483 37 37 33
0.150485 0.0972043 1.69003 37 37 33
0.153268 0.0935024 1.62567 37 37 34
0.162651 0.0940039 1.63439 36 37 33
0.172259 0.094579 1.64438 36 36 32
0.184478 0.0964647 1.67717 36 37 33
0.19645 0.0980557 1.70483 36 37 33
0.203782 0.097293 1.69157 37 37 34
0.203215 0.0929793 1.61657 37 38 34
0.221503 0.097293 1.69157 37 38 34
0.234013 0.0988347 1.71838 37 38 34
0.245711 0.0999318 1.73745 37 38 34
0.245971 0.0964647 1.67717 37 38 34
0.246932 0.0935024 1.62567 37 38 34
0.265561 0.0972043 1.69003 37 37 34
0.276817 0.0980557 1.70483 37 37 34
0.278482 0.095563 1.66149 37 37 34
0.292117 0.0972043 1.69003 37 38 34
0.298679 0.0964647 1.67717 37 39 35
0.301453 0.094579 1.64438 37 38 34
0.315613 0.096271 1.6738 36 37 34
0.318097 0.0944063 1.64138 36 37 34
0.339324 0.0980557 1.70483 37 38 34
0.3394 0.095563 1.66149 37 38 35
0.349027 0.0958167 1.6659 38 38 35
0.366112 0.0980557 1.70483 37 38 34
0.363151 0.094947 1.65078 37 37 33
0.376983 0.096271 1.6738 36 37 33
0.38575 0.096271 1.6738 36 37 33
0.390311 0.0952447 1.65596 36 36 32
0.414411 0.0989274 1.71999 36 36 32
0.416046 0.0972043 1.69003 35 36 31
0.432429 0.0989274 1.71999 35 35 31
0.430449 0.0964647 1.67717 35 35 31
0.425745 0.0935024 1.62567 35 35 31
0.459026 0.0988347 1.71838 35 35 32
0.451026 0.0952447 1.65596 35 35 32
0.481295 0.099719 1.73375 36 36 33
0.490376 0.099719 1.73375 37 37 34
0.46832 0.0935024 1.62567 37 37 35
0.505101 0.0990451 1.72203 37 37 35
0.496046 0.095563 1.66149 36 36 34
0.5267 0.099719 1.73375 36 36 34
0.531528 0.0989274 1.71999 36 36 34
0.544862 0.099719 1.73375 36 36 34
0.544704 0.0980557 1.70483 36 36 33
0.54465 0.0964647 1.67717 35 36 33
0.582048 0.101452 1.76388 35 35 32
0.56653 0.0972043 1.69003 34 35 32
0.600526 0.101452 1.76388 34 35 33
0.599348 0.099719 1.73375 35 35 33
0.593086 0.0972043 1.69003 34 35 33
0.587959 0.094947 1.65078 35 35 33
0.631124 0.10044 1.74629 34 36 33
0.642118 0.10073 1.75133 34 36 33
0.649417 0.10044 1.74629 34 36 33
0.653834 0.099719 1.73375 34 36 33
0.662915 0.099719 1.73375 35 37 34
0.671996 0.099719 1.73375 35 37 34
0.681077 0.099719 1.73375 35 36 34
0.678647 0.0980557 1.70483 35 36 34
0.704298 0.10044 1.74629 35 35 33
0.720631 0.101452 1.76388 34 35 33
0.722591 0.10044 1.74629 33 34 32
0.733849 0.10073 1.75133 32 34 31
0.751621 0.101896 1.7716 33 34 32
0.776181 0.103942 1.80718 32 34 31
0.797349 0.10549 1.8341 33 35 32
0.789828 0.103251 1.79517 33 35 32
0.773535 0.0999318 1.73745 34 36 33
0.802533 0.102472 1.78162 35 36 34
0.793917 0.100207 1.74224 32 34 31
0.816576 0.101896 1.7716 30 33 30
0.819405 0.1011 1.75776 28 31 29
0.821294 0.100207 1.74224 27 30 29
0.849192 0.102472 1.78162 26 29 29
0.883809 0.10549 1.8341 26 29 29
0.881663 0.104103 1.80997 29 32 32
0.877188 0.102472 1.78162 33 35 35
0.900624 0.104103 1.80997 34 36 36
0.922235 0.10549 1.8341 34 36 35
0.942775 0.106728 1.85562 33 36 35
0.972641 0.108986 1.89486 34 36 35
0.977711 0.108447 1.8855 35 37 37
0.925126 0.101588 1.76625 36 37 37
0.981653 0.106728 1.85562 34 36 36
1.03768 0.111713 1.94228 32 35 35
0.9483 0.1011 1.75776 34 37 36
0.952553 0.100577 1.74867 35 37 37
0.953508 0.099719 1.73375 35 39 38
1.0163 0.105284 1.8305 36 41 40
1.00609 0.103251 1.79517 37 42 40
1.06659 0.108447 1.8855 37 42 40
1.0249 0.103251 1.79517 36 41 39
1.02072 0.101896 1.7716 36 40 39
1.12183 0.110981 1.92955 34 38 37
1.00011 0.0980557 1.70483 34 38 37
1.14205 0.110981 1.92955 35 39 38
1.13144 0.108986 1.89486 35 39 38
1.11075 0.106063 1.84404 36 40 39
1.16028 0.109837 1.90967 35 40 38
1.13007 0.106063 1.84404 36 41 39
1.12662 0.104842 1.82283 37 41 40
1.16827 0.107805 1.87433 36 40 38
-0.628536 0.0627451 1 38 38 35
-0.553987 0.0557679 0.8888 38 38 34
-0.61806 0.0627451 1 37 37 34
-0.612822 0.0627451 1 38 38 34
-0.607584 0.0627451 1 38 38 34
-0.602347 0.0627451 1 37 37 33
-0.597109 0.0627451 1 37 37 31
-0.641816 0.0680398 1.08438 37 36 31
-0.586633 0.0627451 1 38 37 31
-0.604498 0.0652384 1.03974 37 36 32
-0.597709 0.0650921 1.03741 37 36 31
-0.593606 0.0652384 1.03974 36 36 30
-0.565682 0.0627451 1 36 36 30
-0.560444 0.0627451 1 37 37 32
-0.613579 0.0693419 1.10514 38 37 32
-0.593508 0.0677124 1.07917 38 38 32
-0.609007 0.0701488 1.118 37 37 32
-0.599485 0.0697223 1.1112 37 37 32
-0.593664 0.0697223 1.1112 37 37 31
-0.591439 0.0701488 1.118 38 38 32
-0.605467 0.0725307 1.15596 38 38 32
-0.559593 0.0677124 1.07917 37 37 31
-0.556619 0.0680398 1.08438 36 35 29
-0.571913 0.07063 1.12567 35 34 28
-0.591915 0.0738617 1.17717 37 36 30
-0.53958 0.0680398 1.08438 38 38 34
-0.599871 0.0764471 1.21838 38 38 34
-0.600978 0.0774118 1.23375 39 39 35
-0.573448 0.0746686 1.19003 38 38 33
-0.574271 0.0755973 1.20483 36 36 31
-0.601169 0.0800175 1.27528 35 36 30
-0.538866 0.0725307 1.15596 36 36 31
-0.57258 0.0779443 1.24224 36 37 32
-0.549028 0.0755973 1.20483 36 37 31
-0.572793 0.0797866 1.2716 36 37 31
-0.632573 0.0891503 1.42083 37 37 32
-0.582011 0.083001 1.32283 37 37 32
-0.575083 0.083001 1.32283 37 37 31
-0.590275 0.0862327 1.37433 36 36 31
-0.598067 0.0884496 1.40967 37 37 32
-0.590683 0.0884496 1.40967 38 37 33
-0.638214 0.0967767 1.54238 38 37 33
-0.612822 0.0941176 1.5 37 37 32
-0.585254 0.091051 1.45113 37 36 32
-0.597109 0.0941176 1.5 37 37 32
-0.589252 0.0941176 1.5 38 38 34
-0.581395 0.0941176 1.5 38 38 34
-0.573539 0.0941176 1.5 37 37 33
-0.584114 0.0971843 1.54887 37 37 32
-0.62086 0.104753 1.6695 37 37 33
-0.575797 0.0985378 1.57045 37 37 33
-0.562971 0.097739 1.55772 37 38 34
-0.554812 0.097739 1.55772 38 38 34
-0.5581 0.0997857 1.59033 38 38 34
-0.589351 0.10697 1.70483 37 38 34
-0.593157 0.109317 1.74224 37 37 33
-0.571492 0.10697 1.70483 36 37 33
-0.542616 0.103177 1.64438 36 36 33
-0.570822 0.110291 1.75776 36 37 33
-0.519409 0.102003 1.62567 36 37 33
-0.497351 0.0992986 1.58257 36 37 33
-0.53216 0.108049 1.72203 37 37 33
-0.538198 0.111159 1.7716 37 37 34
-0.517619 0.108784 1.73375 37 37 34
-0.507673 0.108599 1.7308 37 37 34
-0.499457 0.108784 1.73375 37 37 34
-0.47801 0.106041 1.69003 37 36 33
-0.477027 0.10782 1.71838 37 37 33
-0.459775 0.105919 1.68808 37 37 33
-0.459456 0.107921 1.71999 38 37 34
-0.454051 0.108784 1.73375 37 37 34
-0.43375 0.106041 1.69003 37 37 34
-0.435889 0.108784 1.73375 36 37 34
-0.434226 0.110675 1.76388 37 37 34
-0.404095 0.105234 1.67717 37 38 34
-0.405402 0.107921 1.71999 37 38 34
-0.37897 0.103177 1.64438 37 38 34
-0.387022 0.10782 1.71838 37 38 34
-0.372125 0.106138 1.69157 38 38 35
-0.356805 0.104251 1.66149 37 38 35
-0.365869 0.109571 1.74629 37 37 34
-0.345544 0.106138 1.69157 37 37 34
-0.339324 0.10697 1.70483 37 37 34
-0.321995 0.104251 1.66149 37 37 34
-0.321464 0.10697 1.70483 36 36 34
-0.310104 0.106138 1.69157 36 36 34
-0.289507 0.102003 1.62567 36 36 34
-0.287947 0.104527 1.6659 36 36 34
-0.283265 0.106041 1.69003 37 37 34
-0.26978 0.104251 1.66149 38 37 34
-0.267887 0.10697 1.70483 38 37 34
-0.245551 0.101432 1.61657 38 37 34
-0.242101 0.103579 1.65078 38 37 34
-0.231136 0.10255 1.63439 38 38 34
-0.226267 0.104251 1.66149 38 37 34
-0.217564 0.104251 1.66149 38 37 34
-0.208862 0.104251 1.66149 38 37 34
-0.200159 0.104251 1.66149 37 37 33
-0.19645 0.10697 1.70483 37 37 34
-0.185893 0.106041 1.69003 38 38 34
-0.177041 0.106041 1.69003 37 37 34
-0.168189 0.106041 1.69003 36 36 32
-0.155033 0.103177 1.64438 36 37 33
-0.144753 0.102003 1.62567 36 36 33
-0.138343 0.103579 1.65078 37 37 34
-0.133943 0.10697 1.70483 37 38 35
-0.122986 0.105234 1.67717 37 38 35
-0.115076 0.106041 1.69003 37 37 34
-0.104431 0.104251 1.66149 36 37 34
-0.0964374 0.105023 1.6738 36 37 34
-0.0856058 0.10255 1.63439 36 37 34
-0.0738038 0.0982352 1.56562 37 38 34
-0.0708809 0.106138 1.69157 37 38 34
-0.0619642 0.106041 1.69003 36 37 33
-0.0522154 0.104251 1.66149 35 36 32
-0.0419496 0.100505 1.6018 35 36 32
-0.0340596 0.102003 1.62567 36 37 33
-0.026354 0.105234 1.67717 37 37 34
-0.0170298 0.102003 1.62567 37 37 34
-0.00870257 0.104251 1.66149 37 38 34
0 0.105234 1.67717 37 38 34
0.00878468 0.105234 1.67717 37 38 34
0.0175694 0.105234 1.67717 37 37 34
0.0265803 0.106138 1.69157 37 37 34
0.0351387 0.105234 1.67717 37 37 34
0.0442602 0.106041 1.69003 37 37 34
0.0513635 0.10255 1.63439 37 37 34
0.0601806 0.102989 1.64138 36 37 34
0.0674081 0.100938 1.60869 37 37 34
0.0766342 0.102003 1.62567 36 37 32
0.0886011 0.106138 1.69157 37 37 33
0.0912855 0.0994124 1.58438 37 37 33
0.103758 0.103579 1.65078 37 37 33
0.110172 0.101521 1.618 37 37 32
0.123184 0.105404 1.67988 37 37 33
0.128409 0.10255 1.63439 37 37 33
0.140555 0.105234 1.67717 37 37 33
0.14904 0.105023 1.6738 36 37 33
0.157062 0.104527 1.6659 36 37 32
0.160094 0.100938 1.60869 37 37 34
0.174051 0.104251 1.66149 37 37 34
0.176946 0.100938 1.60869 36 37 33
0.199783 0.108784 1.73375 36 37 34
0.20538 0.10697 1.70483 37 38 34
0.21431 0.10697 1.70483 37 38 34
0.216162 0.103579 1.65078 37 38 34
0.220149 0.101432 1.61657 37 38 34
0.239223 0.106138 1.69157 38 38 34
0.243672 0.104251 1.66149 37 38 34
0.250747 0.103579 1.65078 37 38 33
0.26354 0.105234 1.67717 36 37 33
0.26804 0.103579 1.65078 36 36 32
0.28111 0.105234 1.67717 36 36 32
0.292117 0.106041 1.69003 36 37 33
0.296673 0.104527 1.6659 37 38 34
0.312535 0.10697 1.70483 37 38 35
0.316248 0.105234 1.67717 37 38 34
0.32438 0.105023 1.6738 37 38 34
0.333147 0.105023 1.6738 37 38 35
0.328614 0.100938 1.60869 37 38 34
0.350681 0.105023 1.6738 37 38 34
0.366112 0.10697 1.70483 38 38 35
0.355625 0.101432 1.61657 37 38 34
0.383971 0.10697 1.70483 37 37 33
0.396393 0.107921 1.71999 36 37 32
0.405402 0.107921 1.71999 35 36 32
0.402247 0.104753 1.6695 35 36 32
0.41288 0.105234 1.67717 35 36 31
0.428619 0.10697 1.70483 35 36 31
0.43375 0.106041 1.69003 36 36 32
0.446478 0.10697 1.70483 35 36 32
0.44097 0.103579 1.65078 35 35 32
0.456803 0.105234 1.67717 35 35 32
0.477474 0.107921 1.71999 36 36 34
0.47801 0.106041 1.69003 37 37 34
0.495492 0.107921 1.71999 37 37 35
0.508538 0.108784 1.73375 37 37 35
0.48535 0.102003 1.62567 36 36 34
0.508488 0.105023 1.6738 36 36 33
0.513451 0.104251 1.66149 35 36 33
0.516777 0.103177 1.64438 35 36 33
0.553943 0.108784 1.73375 35 36 33
0.579883 0.112042 1.78567 35 36 33
0.582048 0.110675 1.76388 35 35 32
0.589235 0.110291 1.75776 35 35 33
0.594537 0.109571 1.74629 34 35 33
0.603684 0.109571 1.74629 34 35 33
0.603599 0.107921 1.71999 34 35 32
0.607211 0.10697 1.70483 35 35 33
0.626591 0.108784 1.73375 35 36 34
0.62507 0.10697 1.70483 34 36 33
0.623712 0.105234 1.67717 34 36 33
0.648644 0.107921 1.71999 35 36 34
0.651858 0.10697 1.70483 35 37 34
0.660788 0.10697 1.70483 35 36 34
0.700817 0.111937 1.784 34 36 33
0.697157 0.109887 1.75133 34 35 33
0.693689 0.107921 1.71999 34 35 33
0.715503 0.109887 1.75133 34 35 32
0.705436 0.10697 1.70483 32 34 31
0.791452 0.118513 1.8888 32 34 31
0.723295 0.10697 1.70483 33 35 32
0.760901 0.111159 1.7716 32 35 32
0.764164 0.110291 1.75776 34 35 33
0.770542 0.109887 1.75133 34 35 33
0.782578 0.110291 1.75776 34 36 34
0.787688 0.10972 1.74867 34 35 33
0.800991 0.110291 1.75776 32 34 31
0.810198 0.110291 1.75776 30 33 30
0.819405 0.110291 1.75776 28 31 29
0.813036 0.108218 1.72472 27 30 30
0.868832 0.114374 1.82283 26 29 30
0.851116 0.110824 1.76625 27 31 30
0.887927 0.114374 1.82283 32 35 35
0.943158 0.120195 1.91561 36 38 37
0.878869 0.110824 1.76625 36 39 38
0.952791 0.118893 1.89486 36 38 37
0.912064 0.112638 1.79517 35 38 37
0.885306 0.108218 1.72472 35 38 37
0.94919 0.114855 1.8305 34 37 36
0.965871 0.115705 1.84404 35 37 36
0.97553 0.115705 1.84404 34 36 36
1.00137 0.117605 1.87433 34 36 36
1.04475 0.121509 1.93655 34 37 37
0.977883 0.112638 1.79517 34 37 37
0.987286 0.112638 1.79517 34 38 38
0.996688 0.112638 1.79517 35 39 38
1.05046 0.117605 1.87433 37 41 40
1.06028 0.117605 1.87433 37 41 40
1.0249 0.112638 1.79517 36 41 40
1.05024 0.114374 1.82283 36 40 39
1.16279 0.12549 2 35 38 38
1.08178 0.115705 1.84404 34 38 37
1.09143 0.115705 1.84404 34 38 38
1.14695 0.120523 1.92083 34 39 38
1.11075 0.115705 1.84404 36 40 39
1.21517 0.12549 2 36 40 39
1.08568 0.111159 1.7716 36 40 39
1.17114 0.118893 1.89486 36 40 39
1.16827 0.117605 1.87433 35 39 38
-0.628536 0.0679739 1 37 37 34
-0.623298 0.0679739 1 37 37 33
-0.61806 0.0679739 1 37 37 33
-0.638793 0.0708545 1.04238 38 38 34
-0.630311 0.0705164 1.03741 38 38 34
-0.624877 0.0705164 1.03741 38 37 33
-0.641625 0.0730416 1.07455 37 36 30
-0.591871 0.0679739 1 37 36 31
-0.53713 0.0622379 0.915615 37 37 32
-0.560854 0.0655722 0.964669 37 37 32
-0.62177 0.0733551 1.07917 37 36 31
-0.57092 0.0679739 1 36 36 30
-0.607856 0.0730416 1.07455 36 36 30
-0.584195 0.0708545 1.04238 37 37 32
-0.577269 0.0706749 1.03974 37 38 32
-0.549969 0.0679739 1 37 37 32
-0.62487 0.077974 1.14712 37 37 31
-0.559673 0.0705164 1.03741 36 36 30
-0.57655 0.0733551 1.07917 37 36 30
-0.616784 0.079251 1.1659 37 36 30
-0.585584 0.0759945 1.118 37 36 30
-0.579728 0.0759945 1.118 36 36 29
-0.577809 0.0765159 1.12567 36 35 29
-0.548288 0.0733551 1.07917 36 36 30
-0.558743 0.0755325 1.1112 37 36 31
-0.56446 0.0771086 1.13439 38 37 32
-0.563441 0.0777882 1.14438 37 37 32
-0.586892 0.0818971 1.20483 38 38 33
-0.602988 0.0850578 1.25133 38 38 34
-0.588054 0.0838628 1.23375 36 36 31
-0.592911 0.0854949 1.25776 35 35 30
-0.592774 0.0864355 1.2716 36 36 31
-0.563268 0.0830664 1.22203 37 38 33
-0.549028 0.0818971 1.20483 37 38 33
-0.572793 0.0864355 1.2716 36 37 32
-0.566132 0.0864355 1.2716 37 37 32
-0.582011 0.0899178 1.32283 37 37 31
-0.612834 0.0958204 1.40967 37 36 31
-0.610247 0.0965795 1.42083 36 36 30
-0.561225 0.0899178 1.32283 37 37 32
-0.590683 0.0958204 1.40967 38 38 33
-0.620679 0.101961 1.5 37 37 32
-0.612822 0.101961 1.5 35 35 30
-0.562563 0.0948142 1.39486 36 36 31
-0.539633 0.0921464 1.35562 36 36 32
-0.589252 0.101961 1.5 38 38 34
-0.546382 0.0958204 1.40967 39 39 35
-0.573539 0.101961 1.5 38 38 34
-0.605331 0.109107 1.60514 37 38 33
-0.62086 0.113482 1.6695 37 37 34
-0.549969 0.101961 1.5 37 37 33
-0.606143 0.114004 1.67717 38 38 34
-0.607211 0.115884 1.70483 38 38 35
-0.611408 0.118427 1.74224 38 38 34
-0.612432 0.120422 1.7716 37 37 33
-0.559842 0.111775 1.64438 37 37 33
-0.571492 0.115884 1.70483 37 37 33
-0.572105 0.11785 1.73375 36 37 33
-0.582969 0.122024 1.79517 36 37 33
-0.519409 0.110503 1.62567 37 37 34
-0.547529 0.118427 1.74224 37 37 34
-0.53216 0.117053 1.72203 37 37 34
-0.517915 0.115884 1.70483 37 37 34
-0.508985 0.115884 1.70483 37 37 34
-0.512217 0.118702 1.74629 37 36 33
-0.495028 0.116805 1.71838 37 37 33
-0.474373 0.114004 1.67717 37 36 33
-0.477474 0.116914 1.71999 37 36 33
-0.452533 0.112938 1.66149 37 36 32
-0.443831 0.112938 1.66149 36 36 33
-0.443005 0.114983 1.69157 36 36 32
-0.437549 0.115884 1.70483 36 36 33
-0.428619 0.115884 1.70483 36 36 33
-0.429896 0.118702 1.74629 36 37 33
-0.417727 0.11785 1.73375 37 38 34
-0.405023 0.116805 1.71838 36 37 34
-0.396022 0.116805 1.71838 36 37 33
-0.380985 0.114983 1.69157 37 38 34
-0.371785 0.114878 1.69003 38 39 36
-0.366112 0.115884 1.70483 37 38 34
-0.354404 0.114983 1.69157 36 36 33
-0.345544 0.114983 1.69157 36 36 34
-0.330698 0.112938 1.66149 37 37 34
-0.327525 0.114878 1.69003 37 37 34
-0.318964 0.114983 1.69157 36 37 34
-0.312535 0.115884 1.70483 37 37 35
-0.303605 0.115884 1.70483 37 37 35
-0.299674 0.11785 1.73375 37 37 35
-0.275614 0.111775 1.64438 37 37 35
-0.272325 0.114004 1.67717 37 37 34
-0.251698 0.108881 1.6018 37 36 33
-0.253044 0.113238 1.6659 37 37 34
-0.242101 0.11221 1.65078 38 37 34
-0.235593 0.113238 1.6659 38 38 35
-0.224808 0.11221 1.65078 38 37 34
-0.216162 0.11221 1.65078 38 37 34
-0.212449 0.114878 1.69003 37 37 34
-0.210375 0.118702 1.74629 37 36 33
-0.190819 0.112562 1.65596 37 36 33
-0.181576 0.11221 1.65078 37 37 33
-0.172259 0.111775 1.64438 37 37 34
-0.168189 0.114878 1.69003 36 36 32
-0.156646 0.112938 1.66149 37 37 33
-0.147944 0.112938 1.66149 37 37 33
-0.137807 0.111775 1.64438 37 38 34
-0.127009 0.109885 1.61657 37 38 35
-0.12105 0.11221 1.65078 37 38 35
-0.112404 0.11221 1.65078 37 38 35
-0.106224 0.114878 1.69003 38 38 35
-0.0966315 0.114004 1.67717 37 38 34
-0.0870257 0.112938 1.66149 36 38 34
-0.0783231 0.112938 1.66149 37 37 34
-0.0714365 0.115884 1.70483 37 38 34
-0.0605252 0.11221 1.65078 36 37 33
-0.0518788 0.11221 1.65078 35 37 33
-0.0414934 0.107697 1.58438 36 37 33
-0.0335597 0.108881 1.6018 37 38 34
-0.026177 0.113238 1.6659 36 37 34
-0.016852 0.109349 1.60869 36 36 32
-0.00878468 0.114004 1.67717 36 36 33
0 0.114878 1.69003 36 37 33
0.00851491 0.110503 1.62567 36 37 33
0.0175694 0.114004 1.67717 36 37 34
0.0254018 0.109885 1.61657 37 37 34
0.0351955 0.114188 1.67988 37 37 34
0.0432323 0.11221 1.65078 37 37 34
0.0527081 0.114004 1.67717 37 37 34
0.062507 0.115884 1.70483 37 37 34
0.0674081 0.109349 1.60869 38 38 34
0.0790621 0.114004 1.67717 37 37 34
0.0859722 0.111571 1.64138 37 38 34
0.0973724 0.114878 1.69003 37 37 33
0.105416 0.114004 1.67717 37 37 32
0.112404 0.11221 1.65078 37 37 32
0.122159 0.113238 1.6659 36 37 32
0.13177 0.114004 1.67717 36 36 32
0.140555 0.114004 1.67717 36 36 32
0.148336 0.113238 1.6659 36 36 31
0.162161 0.116914 1.71999 35 35 31
0.163646 0.111775 1.64438 37 37 34
0.177202 0.114983 1.69157 38 38 35
0.180872 0.111775 1.64438 37 38 34
0.193263 0.114004 1.67717 37 37 33
0.207012 0.116805 1.71838 37 37 33
0.210832 0.114004 1.67717 36 37 32
0.232464 0.120673 1.77528 37 37 33
0.220149 0.109885 1.61657 37 37 33
0.243014 0.116805 1.71838 37 38 34
0.245971 0.114004 1.67717 37 38 34
0.248257 0.111096 1.63439 37 38 34
0.261077 0.112938 1.66149 37 38 34
0.272325 0.114004 1.67717 36 37 33
0.283523 0.114983 1.69157 35 36 31
0.289894 0.114004 1.67717 35 36 32
0.303605 0.115884 1.70483 36 37 33
0.29962 0.111096 1.63439 37 38 34
0.311273 0.11221 1.65078 37 38 34
0.318679 0.111775 1.64438 37 38 34
0.327292 0.111775 1.64438 38 38 35
0.342602 0.114004 1.67717 37 37 33
0.354081 0.114878 1.69003 36 36 32
0.353131 0.111775 1.64438 36 37 33
0.368216 0.113775 1.6738 36 37 33
0.387385 0.116914 1.71999 36 36 32
0.396393 0.116914 1.71999 36 36 32
0.395311 0.114004 1.67717 35 36 31
0.400318 0.112938 1.66149 35 36 31
0.409021 0.112938 1.66149 35 35 31
0.428619 0.115884 1.70483 35 36 31
0.422035 0.111775 1.64438 35 36 32
0.446478 0.115884 1.70483 36 36 33
0.455408 0.115884 1.70483 35 35 32
0.47563 0.118702 1.74629 35 35 31
0.482322 0.118101 1.73745 36 36 33
0.491422 0.118101 1.73745 36 36 34
0.491126 0.115884 1.70483 37 37 35
0.495714 0.114878 1.69003 37 37 35
0.526615 0.119898 1.76388 36 36 33
0.532041 0.119045 1.75133 35 35 32
0.535781 0.11785 1.73375 35 35 32
0.531122 0.114878 1.69003 35 35 33
0.55795 0.118702 1.74629 35 36 33
0.572809 0.119898 1.76388 35 36 34
0.562563 0.115884 1.70483 35 36 34
0.576032 0.116805 1.71838 36 37 34
0.590267 0.11785 1.73375 36 36 34
0.589351 0.115884 1.70483 35 36 34
0.588574 0.114004 1.67717 35 36 34
0.623772 0.119045 1.75133 35 36 34
0.626591 0.11785 1.73375 35 35 33
0.630626 0.116914 1.71999 34 35 32
0.651291 0.119045 1.75133 34 36 33
0.637346 0.114878 1.69003 35 36 34
0.646788 0.114983 1.69157 35 36 34
0.676858 0.118702 1.74629 34 36 33
0.675671 0.116914 1.71999 34 35 32
0.697157 0.119045 1.75133 33 34 31
0.681607 0.114878 1.69003 34 35 32
0.73754 0.122711 1.80527 33 34 32
0.733063 0.120422 1.7716 32 34 31
0.728033 0.118101 1.73745 32 34 32
0.729724 0.116914 1.71999 32 34 32
0.760901 0.120422 1.7716 31 34 31
0.780426 0.122024 1.79517 33 35 33
0.789828 0.122024 1.79517 35 36 34
0.804578 0.122841 1.80718 35 36 34
0.802533 0.121104 1.78162 34 35 33
0.800991 0.119482 1.75776 32 34 31
0.832975 0.122841 1.80718 31 33 31
0.812168 0.118427 1.74224 28 31 30
0.851906 0.122841 1.80718 27 30 30
0.841864 0.120059 1.76625 27 30 31
0.831104 0.117236 1.72472 28 32 32
0.887927 0.123905 1.82283 34 37 37
0.883856 0.122024 1.79517 37 39 39
0.874646 0.119482 1.75776 40 42 41
0.888121 0.120059 1.76625 41 42 42
0.912064 0.122024 1.79517 37 39 39
0.921467 0.122024 1.79517 35 38 37
0.94919 0.124426 1.8305 35 37 37
0.958778 0.124426 1.8305 35 37 37
0.968366 0.124426 1.8305 34 36 36
0.923407 0.117486 1.7284 33 36 35
1.02227 0.128801 1.89486 33 36 35
0.988388 0.123335 1.81445 33 36 35
0.997892 0.123335 1.81445 32 36 36
0.987138 0.120855 1.77797 31 37 36
1.00609 0.122024 1.79517 35 40 38
1.03548 0.124426 1.8305 36 41 40
1.07009 0.127406 1.87433 36 41 39
1.11576 0.131635 1.93655 36 39 39
1.08186 0.126485 1.86079 35 38 38
1.12682 0.130566 1.92083 34 38 37
1.10135 0.126485 1.86079 33 37 37
1.15633 0.131635 1.93655 33 38 37
1.15701 0.130566 1.92083 36 41 39
1.16028 0.129807 1.90967 37 41 40
1.17029 0.129807 1.90967 36 41 39
1.17114 0.128801 1.89486 36 40 39
1.2466 0.135948 2 35 39 38
-0.628536 0.0732026 1 36 35 31
-0.601276 0.0706163 0.964669 36 35 31
-0.56913 0.0674074 0.920833 37 36 32
-0.589899 0.0704645 0.962595 38 38 34
-0.583441 0.0702938 0.960263 38 38 34
-0.623628 0.075789 1.03533 38 38 34
-0.620836 0.0761115 1.03974 37 37 32
-0.591871 0.0732026 1 37 37 31
-0.608576 0.0759408 1.03741 37 37 32
-0.581395 0.0732026 1 38 37 32
-0.599052 0.0761115 1.03974 37 37 31
-0.654912 0.083972 1.14712 38 37 32
-0.565682 0.0732026 1 37 37 32
-0.581408 0.0759408 1.03741 37 37 32
-0.594319 0.0783595 1.07045 37 37 32
-0.607791 0.0808989 1.10514 36 37 31
-0.587855 0.0789978 1.07917 36 37 31
-0.599485 0.0813427 1.1112 36 36 29
-0.597295 0.0818402 1.118 36 36 29
-0.591439 0.0818402 1.118 36 36 30
-0.610677 0.0853473 1.1659 36 36 30
-0.599413 0.0846192 1.15596 36 36 30
-0.563187 0.0803164 1.09718 37 36 30
-0.598081 0.086172 1.17717 38 38 33
-0.566017 0.0824017 1.12567 38 37 33
-0.545946 0.0803164 1.09718 37 37 33
-0.579583 0.086172 1.17717 37 37 32
-0.557447 0.083772 1.14438 37 37 32
-0.594516 0.0903137 1.23375 37 37 33
-0.617328 0.0948096 1.29517 36 37 32
-0.592911 0.0920715 1.25776 35 36 31
-0.561649 0.0881969 1.20483 35 36 31
-0.596976 0.0948096 1.29517 37 38 33
-0.626268 0.100605 1.37433 38 39 34
-0.563663 0.0916008 1.25133 37 38 34
-0.586743 0.0964733 1.31789 37 37 32
-0.582011 0.0968345 1.32283 37 37 32
-0.575083 0.0968345 1.32283 37 37 32
-0.626047 0.106702 1.45762 37 37 31
-0.620523 0.107066 1.46259 37 37 32
-0.608056 0.106226 1.45113 38 38 33
-0.620679 0.109804 1.5 38 37 33
-0.543573 0.097396 1.3305 37 36 32
-0.604965 0.109804 1.5 36 36 31
-0.597109 0.109804 1.5 37 37 32
-0.572604 0.106702 1.45762 38 38 34
-0.581395 0.109804 1.5 39 38 35
-0.573539 0.109804 1.5 38 38 35
-0.620132 0.120373 1.64438 38 38 34
-0.611519 0.120373 1.64438 37 37 34
-0.588517 0.1175 1.60514 37 37 34
-0.580109 0.1175 1.60514 38 38 34
-0.551663 0.113382 1.54887 38 38 35
-0.598281 0.124798 1.70483 38 38 34
-0.518542 0.109804 1.5 37 37 33
-0.603153 0.129686 1.7716 37 37 33
-0.571492 0.124798 1.70483 37 37 33
-0.572105 0.126915 1.73375 37 37 34
-0.570822 0.128673 1.75776 37 38 34
-0.551058 0.126254 1.72472 37 37 34
-0.552408 0.128673 1.75776 37 37 34
-0.531528 0.125908 1.71999 36 37 34
-0.532041 0.128202 1.75133 36 37 34
-0.508985 0.124798 1.70483 37 37 34
-0.507673 0.126699 1.7308 37 37 34
-0.495492 0.125908 1.71999 38 38 35
-0.489542 0.126699 1.7308 38 38 34
-0.469586 0.123827 1.69157 37 37 34
-0.468026 0.12579 1.71838 37 36 33
-0.451865 0.123827 1.69157 36 36 33
-0.442602 0.123715 1.69003 36 36 33
-0.441438 0.125908 1.71999 36 36 32
-0.428619 0.124798 1.70483 35 36 32
-0.423024 0.12579 1.71838 35 36 32
-0.407194 0.123715 1.69003 36 37 33
-0.391615 0.121626 1.66149 36 37 33
-0.392901 0.124798 1.70483 36 37 33
-0.380985 0.123827 1.69157 35 36 33
