ply
format ascii 1.0
element vertex 1331
property float x
property float y
property float z
property uchar red
property uchar green
property uchar blue
end_header
0.379417 -0.685379 1.72472 38 38 36
0.397804 -0.701882 1.76625 38 38 36
0.417131 -0.719256 1.80997 37 38 35
0.416307 -0.701882 1.76625 37 37 34
0.441904 -0.728843 1.8341 37 38 34
0.438594 -0.707992 1.78162 37 38 34
0.471234 -0.744833 1.87433 37 38 35
0.442653 -0.685379 1.72472 38 39 35
0.441428 -0.669812 1.68555 38 39 36
0.475921 -0.707992 1.78162 38 39 37
0.476277 -0.694896 1.74867 38 38 36
0.490317 -0.701882 1.76625 38 39 37
0.527672 -0.741368 1.86561 38 39 37
0.528364 -0.728843 1.8341 38 39 37
0.547215 -0.741368 1.86561 38 39 37
0.527322 -0.701882 1.76625 37 39 37
0.569408 -0.744833 1.87433 37 39 37
0.559335 -0.719256 1.80997 37 38 37
0.555075 -0.701882 1.76625 37 38 37
0.578295 -0.719256 1.80997 38 39 38
0.605846 -0.741368 1.86561 36 38 37
0.582829 -0.701882 1.76625 35 36 35
0.579393 -0.686841 1.7284 36 37 36
0.616216 -0.719256 1.80997 37 38 36
0.620579 -0.713374 1.79517 36 38 36
0.647134 -0.732796 1.84404 36 38 36
0.629085 -0.701882 1.76625 36 38 36
0.658785 -0.724366 1.82283 36 38 36
0.641142 -0.694896 1.74867 36 38 36
0.673098 -0.719256 1.80997 36 38 36
0.703563 -0.741368 1.86561 37 38 36
0.705086 -0.732796 1.84404 37 38 36
0.660788 -0.677476 1.70483 37 39 36
0.744368 -0.752991 1.89486 39 40 37
0.750566 -0.749271 1.8855 38 40 36
0.738259 -0.727414 1.8305 37 39 35
0.75338 -0.732796 1.84404 37 39 35
0.757434 -0.727414 1.8305 37 39 34
0.815869 -0.773738 1.94707 36 39 34
0.795208 -0.744833 1.87433 36 38 33
0.799208 -0.739452 1.86079 36 38 34
0.78881 -0.721037 1.81445 36 38 36
0.76937 -0.694896 1.74867 35 37 35
0.859062 -0.766777 1.92955 35 38 36
0.844295 -0.744833 1.87433 36 38 36
0.854112 -0.744833 1.87433 35 37 36
0.895249 -0.771836 1.94228 34 36 35
0.845832 -0.721037 1.81445 35 37 36
0.883564 -0.744833 1.87433 36 38 37
0.886926 -0.739452 1.86079 37 40 39
0.896673 -0.739452 1.86079 36 39 38
0.97423 -0.794771 2 37 39 38
0.872252 -0.704008 1.7716 36 39 37
0.907022 -0.724366 1.82283 36 39 36
1.00566 -0.794771 2 35 38 35
1.05635 -0.826231 2.07917 36 39 35
1.02661 -0.794771 2 37 39 36
1.03708 -0.794771 2 37 39 36
0.965871 -0.732796 1.84404 37 38 35
1.00242 -0.752991 1.89486 36 38 35
0.985189 -0.732796 1.84404 36 38 35
1.07899 -0.794771 2 37 38 36
1.03219 -0.752991 1.89486 37 38 35
1.09994 -0.794771 2 37 38 36
1.05204 -0.752991 1.89486 37 37 35
1.07026 -0.758874 1.90967 36 37 35
1.07189 -0.752991 1.89486 37 38 35
1.07009 -0.744833 1.87433 38 39 37
0.982252 -0.677476 1.70483 37 38 36
1.05978 -0.724366 1.82283 36 37 34
1.17327 -0.794771 2 36 37 34
1.18374 -0.794771 2 35 37 34
1.19422 -0.794771 2 36 38 35
1.129 -0.744833 1.87433 36 39 36
1.15129 -0.752991 1.89486 35 38 36
0.996244 -0.646016 1.62567 34 38 36
1.41855 -0.912066 2.29517 34 38 36
1.2466 -0.794771 2 35 38 36
-0.554371 -0.345884 0.882004 42 37 32
-0.515785 -0.324514 0.82751 40 37 32
-0.511451 -0.324514 0.82751 38 38 33
-0.460433 -0.29464 0.751332 38 38 34
-0.490428 -0.31654 0.807177 37 38 33
-0.498448 -0.324514 0.82751 38 38 34
-0.488372 -0.320743 0.817894 38 38 34
-0.489779 -0.324514 0.82751 37 37 32
-0.485445 -0.324514 0.82751 37 37 32
-0.495862 -0.334464 0.852883 37 37 32
-0.463963 -0.315793 0.805271 37 38 33
-0.516804 -0.354986 0.905214 38 38 33
-0.473013 -0.327915 0.836183 39 37 33
-0.463773 -0.324514 0.82751 38 38 33
-0.472589 -0.333802 0.851194 38 37 32
-0.484068 -0.345166 0.880174 38 37 33
-0.468899 -0.337565 0.860791 38 37 34
-0.471697 -0.342876 0.874334 38 37 35
-0.48816 -0.358322 0.91372 37 37 34
-0.465628 -0.345166 0.880174 38 37 34
-0.45459 -0.340354 0.867904 38 37 34
-0.469391 -0.354986 0.905214 38 38 35
-0.448799 -0.342876 0.874334 38 37 34
-0.493374 -0.380817 0.971083 38 37 34
-0.473807 -0.369523 0.942284 36 35 32
-0.419987 -0.330997 0.844042 36 35 33
-0.462591 -0.368452 0.939552 37 37 34
-0.459001 -0.369523 0.942284 37 37 34
-0.433836 -0.35306 0.900304 37 37 34
-0.476639 -0.392157 1 38 38 34
-0.456409 -0.379684 0.968195 38 38 34
-0.433324 -0.364531 0.929553 38 39 34
-0.430151 -0.365974 0.933233 38 38 34
-0.421715 -0.36292 0.925446 38 38 34
-0.435371 -0.379029 0.966525 38 39 34
-0.430309 -0.379029 0.966525 38 38 34
-0.423518 -0.377488 0.962595 38 38 34
-0.434737 -0.392157 1 37 37 33
-0.429499 -0.392157 1 37 37 32
-0.424261 -0.392157 1 37 38 32
-0.433828 -0.406012 1.03533 37 37 31
-0.429264 -0.406825 1.03741 37 37 31
-0.408548 -0.392157 1 37 38 31
-0.416811 -0.405284 1.03348 36 37 31
-0.42775 -0.421394 1.07455 36 37 31
-0.407529 -0.406825 1.03741 35 37 31
-0.414902 -0.419783 1.07045 36 38 33
-0.410865 -0.421394 1.07455 37 40 35
-0.406977 -0.423203 1.07917 38 41 36
-0.405477 -0.427582 1.09033 37 40 35
-0.397585 -0.425249 1.08438 37 39 36
-0.406825 -0.441438 1.12567 36 37 36
-0.390783 -0.430266 1.09718 37 37 36
-0.387828 -0.433387 1.10514 38 38 36
-0.385276 -0.437058 1.1145 38 38 36
-0.371212 -0.427582 1.09033 37 37 35
-0.365501 -0.427582 1.09033 37 37 35
-0.397572 -0.472483 1.20483 37 37 34
-0.403408 -0.487152 1.24224 37 37 34
-0.378789 -0.46492 1.18555 37 37 34
-0.393253 -0.490718 1.25133 37 36 33
-0.400245 -0.507909 1.29517 38 38 34
-0.386302 -0.498666 1.2716 39 39 34
-0.35395 -0.46492 1.18555 39 38 32
-0.379894 -0.507909 1.29517 38 37 31
-0.362335 -0.49324 1.25776 37 37 29
-0.38015 -0.527075 1.34404 36 36 28
-0.391328 -0.55281 1.40967 37 37 31
-0.392828 -0.565602 1.44228 38 38 33
-0.345975 -0.507909 1.29517 37 38 33
-0.359924 -0.538954 1.37433 36 38 32
-0.332407 -0.507909 1.29517 36 38 33
-0.377121 -0.588235 1.5 37 38 33
-0.347026 -0.55281 1.40967 37 38 33
-0.361408 -0.588235 1.5 36 38 32
-0.378332 -0.629465 1.60514 37 38 33
-0.36193 -0.615861 1.57045 38 38 33
-0.358183 -0.623661 1.59033 38 38 33
-0.329981 -0.588235 1.5 38 38 33
-0.322124 -0.588235 1.5 39 39 35
-0.336295 -0.629465 1.60514 39 39 35
-0.292021 -0.560609 1.42955 38 37 33
-0.329596 -0.649395 1.65596 37 36 33
-0.290698 -0.588235 1.5 37 38 35
-0.343714 -0.714835 1.82283 38 39 36
-0.312535 -0.668562 1.70483 36 37 35
-0.285851 -0.629465 1.60514 35 36 34
-0.31029 -0.703987 1.79517 37 38 36
-0.296937 -0.694745 1.7716 38 40 36
-0.254996 -0.615861 1.57045 38 39 35
-0.267887 -0.668562 1.70483 37 39 34
-0.280103 -0.723154 1.84404 37 38 33
-0.238417 -0.637516 1.62567 37 38 33
-0.251441 -0.697241 1.77797 38 39 34
-0.242626 -0.698676 1.78162 38 39 35
-0.218613 -0.654706 1.6695 38 39 35
-0.223963 -0.698676 1.78162 38 39 35
-0.211756 -0.689318 1.75776 37 38 35
-0.205299 -0.698676 1.78162 37 38 34
-0.193343 -0.689318 1.75776 38 38 35
-0.188054 -0.703987 1.79517 38 38 35
-0.173384 -0.683231 1.74224 37 38 35
-0.166523 -0.692647 1.76625 37 37 35
-0.150085 -0.660999 1.68555 37 37 35
-0.150444 -0.703987 1.79517 37 38 36
-0.135506 -0.676361 1.72472 37 37 35
-0.128228 -0.685752 1.74867 37 37 35
-0.118631 -0.683231 1.74224 38 39 37
-0.111981 -0.698676 1.78162 39 39 37
-0.10038 -0.683231 1.74224 38 38 36
-0.0901967 -0.675308 1.72203 38 38 35
-0.0846245 -0.703987 1.79517 37 37 34
-0.0746543 -0.698676 1.78162 36 36 34
-0.0647588 -0.692647 1.76625 36 37 36
-0.0547529 -0.683231 1.74224 36 37 36
-0.0455021 -0.681354 1.73745 36 37 36
-0.0368272 -0.689318 1.75776 36 37 35
-0.0278378 -0.694745 1.7716 36 37 34
-0.0189313 -0.708697 1.80718 36 38 35
-0.00903373 -0.676361 1.72472 36 38 34
0 -0.698676 1.78162 36 37 35
0.00912549 -0.683231 1.74224 37 38 36
0.0185586 -0.694745 1.7716 37 38 36
0.0276204 -0.689318 1.75776 37 38 36
0.0368272 -0.689318 1.75776 36 37 35
0.0462563 -0.692647 1.76625 37 38 35
0.0552408 -0.689318 1.75776 38 39 37
0.0647588 -0.692647 1.76625 38 38 37
0.0746543 -0.698676 1.78162 38 39 37
0.0824325 -0.685752 1.74867 38 39 37
0.0940272 -0.703987 1.79517 38 39 37
0.101275 -0.689318 1.75776 37 37 36
0.10991 -0.685752 1.74867 37 36 35
0.114771 -0.660999 1.68555 36 36 35
0.133666 -0.714835 1.82283 36 36 35
0.139977 -0.698676 1.78162 37 37 36
0.148468 -0.694745 1.7716 38 38 37
0.15864 -0.698676 1.78162 38 38 37
0.169249 -0.703987 1.79517 38 38 37
0.174024 -0.685752 1.74867 37 37 36
0.18251 -0.683231 1.74224 36 36 35
0.189413 -0.675308 1.72203 36 36 35
0.201502 -0.685752 1.74867 36 36 35
0.219595 -0.714835 1.82283 37 36 35
0.225665 -0.703987 1.79517 36 37 35
0.233295 -0.698676 1.78162 37 38 36
0.234877 -0.676361 1.72472 38 39 37
0.253873 -0.703987 1.79517 37 38 35
0.268985 -0.719253 1.8341 37 38 35
0.270622 -0.698676 1.78162 37 39 36
0.276204 -0.689318 1.75776 38 40 37
0.295976 -0.714835 1.82283 38 39 36
0.29604 -0.692647 1.76625 37 38 35
0.301141 -0.683231 1.74224 37 38 35
0.309414 -0.681354 1.73745 37 38 35
0.326612 -0.698676 1.78162 37 39 36
0.327615 -0.681354 1.73745 38 39 36
0.347901 -0.703987 1.79517 37 38 36
0.346768 -0.683231 1.74224 37 38 35
0.361892 -0.694745 1.7716 37 38 36
0.381904 -0.714835 1.82283 37 38 36
0.38045 -0.694745 1.7716 37 37 36
0.388553 -0.692647 1.76625 38 38 36
0.395892 -0.689318 1.75776 38 38 36
0.417131 -0.709792 1.80997 38 38 35
0.429642 -0.714835 1.82283 37 38 35
0.429262 -0.698676 1.78162 37 38 34
0.448737 -0.714835 1.82283 38 38 34
0.43964 -0.685752 1.74867 38 39 35
0.437549 -0.668562 1.70483 37 38 34
0.470136 -0.703987 1.79517 36 37 34
0.482747 -0.708697 1.80718 36 37 35
0.496475 -0.714835 1.82283 36 37 35
0.490317 -0.692647 1.76625 36 37 36
0.527672 -0.731613 1.86561 37 38 36
0.528364 -0.719253 1.8341 38 39 37
0.519639 -0.694745 1.7716 38 39 38
0.527322 -0.692647 1.76625 38 39 37
0.545358 -0.703987 1.79517 38 39 37
0.550575 -0.698676 1.78162 37 38 37
0.576397 -0.719253 1.8341 36 37 36
0.582404 -0.714835 1.82283 37 38 37
0.587776 -0.709792 1.80997 36 37 37
0.597256 -0.709792 1.80997 36 37 36
0.614823 -0.719253 1.8341 35 37 36
0.631757 -0.727692 1.85562 36 37 36
0.614633 -0.697241 1.77797 36 38 36
0.629982 -0.703987 1.79517 36 38 36
0.644657 -0.709792 1.80997 36 38 36
0.648788 -0.703987 1.79517 36 38 37
0.680353 -0.727692 1.85562 36 39 37
0.690073 -0.727692 1.85562 36 38 36
0.699792 -0.727692 1.85562 36 38 36
0.713334 -0.731613 1.86561 36 38 35
0.709496 -0.717843 1.8305 36 38 36
0.744368 -0.743084 1.89486 37 39 36
0.734062 -0.723154 1.84404 37 39 36
0.717072 -0.697241 1.77797 38 39 36
0.73946 -0.709792 1.80997 37 39 35
0.763038 -0.723154 1.84404 37 39 34
0.78539 -0.735033 1.87433 37 39 35
0.799946 -0.739412 1.8855 35 38 33
0.799208 -0.729722 1.86079 35 37 33
0.764164 -0.689318 1.75776 35 37 35
0.82466 -0.735033 1.87433 35 37 35
0.834477 -0.735033 1.87433 36 38 36
0.830649 -0.723154 1.84404 36 39 37
0.911376 -0.784314 2 35 37 36
0.885362 -0.753268 1.92083 34 36 36
0.895423 -0.753268 1.92083 35 37 36
0.846245 -0.703987 1.79517 36 38 37
0.953279 -0.784314 2 36 39 38
0.888602 -0.723154 1.84404 36 39 38
0.930227 -0.748888 1.90967 36 39 37
0.907919 -0.723154 1.84404 36 39 37
0.955788 -0.753268 1.92083 36 38 36
0.965849 -0.753268 1.92083 35 38 35
0.97591 -0.753268 1.92083 36 38 36
0.980239 -0.748888 1.90967 37 39 36
1.03708 -0.784314 2 37 39 36
1.04756 -0.784314 2 36 38 36
0.964308 -0.714835 1.82283 36 38 35
1.06851 -0.784314 2 36 38 36
0.983403 -0.714835 1.82283 37 38 36
1.13867 -0.819739 2.09033 37 38 36
1.04212 -0.743084 1.89486 37 38 36
1.11041 -0.784314 2 36 37 35
1.12089 -0.784314 2 37 37 35
1.08026 -0.748888 1.90967 37 38 36
1.08181 -0.743084 1.89486 38 39 37
1.15232 -0.784314 2 38 39 36
1.16279 -0.784314 2 37 38 35
1.09955 -0.735033 1.87433 36 37 35
1.12151 -0.743084 1.89486 36 37 34
1.11918 -0.735033 1.87433 36 38 35
1.20469 -0.784314 2 36 39 35
1.39451 -0.900066 2.29517 35 38 36
1.40653 -0.900066 2.29517 35 38 36
1.41855 -0.900066 2.29517 36 39 37
1.2466 -0.784314 2 36 39 37
-0.484978 -0.298554 0.771599 41 36 32
-0.495626 -0.307673 0.795167 39 37 32
-0.505507 -0.316466 0.817894 36 37 32
-0.501224 -0.316466 0.817894 36 37 31
-0.518198 -0.330004 0.852883 37 37 32
-0.486201 -0.31232 0.807177 37 38 33
-0.480835 -0.311582 0.805271 37 38 33
-0.444691 -0.290711 0.751332 36 37 31
-0.485445 -0.320187 0.82751 36 37 31
-0.48111 -0.320187 0.82751 36 37 31
-0.515582 -0.346248 0.894863 37 37 32
-0.464987 -0.315135 0.814453 38 38 33
-0.509286 -0.348353 0.900304 39 37 33
-0.48071 -0.33188 0.85773 39 38 34
-0.481866 -0.335816 0.867904 39 37 33
-0.480856 -0.338304 0.874334 38 37 32
-0.463672 -0.329351 0.851194 37 36 34
-0.477722 -0.342625 0.885502 37 36 34
-0.47569 -0.344513 0.89038 37 37 34
-0.468446 -0.342625 0.885502 37 37 34
-0.476464 -0.351975 0.909666 38 38 35
-0.450044 -0.335816 0.867904 39 38 36
-0.469016 -0.353544 0.91372 37 37 34
-0.474144 -0.361094 0.933233 38 38 35
-0.472433 -0.363539 0.939552 37 37 35
-0.437967 -0.340564 0.880174 36 35 34
-0.465165 -0.365562 0.944781 36 36 34
-0.471623 -0.374622 0.968195 36 35 34
-0.433836 -0.348353 0.900304 36 36 33
-0.447827 -0.363539 0.939552 37 36 33
-0.456409 -0.374622 0.968195 37 37 33
-0.452043 -0.375207 0.969708 37 38 33
-0.446964 -0.375207 0.969708 38 38 34
-0.441195 -0.374622 0.968195 38 38 34
-0.435371 -0.373976 0.966525 38 38 34
-0.445213 -0.386928 1 38 38 34
-0.453968 -0.399234 1.0318 38 38 34
-0.434737 -0.386928 1 37 38 34
-0.415122 -0.373976 0.966525 38 38 33
-0.438464 -0.399881 1.03348 38 39 33
-0.389505 -0.35967 0.929553 37 38 33
-0.413786 -0.386928 1 37 38 32
-0.393266 -0.372455 0.962595 37 38 32
-0.443519 -0.425503 1.0997 37 37 32
-0.384008 -0.373257 0.964669 36 37 31
-0.434136 -0.427609 1.10514 35 37 32
-0.372195 -0.371553 0.960263 35 38 33
-0.427476 -0.432584 1.118 37 40 36
-0.408945 -0.419579 1.08438 38 41 36
-0.386661 -0.402303 1.03974 37 40 36
-0.409908 -0.432584 1.118 37 39 36
-0.394056 -0.421881 1.09033 36 38 36
-0.407596 -0.442795 1.14438 37 38 37
-0.413107 -0.455481 1.17717 38 38 37
-0.389137 -0.435552 1.12567 38 38 36
-0.393554 -0.447273 1.15596 38 38 35
-0.398921 -0.460456 1.19003 36 36 34
-0.381444 -0.447273 1.15596 35 35 32
-0.406362 -0.484175 1.25133 37 37 34
-0.396902 -0.480657 1.24224 37 37 34
-0.399623 -0.492018 1.2716 37 36 33
-0.391309 -0.489948 1.26625 36 36 33
-0.393462 -0.501137 1.29517 37 38 33
-0.379642 -0.492018 1.2716 38 38 33
-0.372981 -0.492018 1.2716 39 39 34
-0.381079 -0.51184 1.32283 39 39 33
-0.366326 -0.501137 1.29517 37 38 32
-0.376323 -0.524526 1.35562 37 37 32
-0.379912 -0.539712 1.39486 37 37 32
-0.400691 -0.580392 1.5 36 37 32
-0.377719 -0.55806 1.44228 36 38 33
-0.397522 -0.599303 1.54887 36 38 33
-0.362611 -0.55806 1.44228 38 39 34
-0.355056 -0.55806 1.44228 38 39 35
-0.33113 -0.531768 1.37433 38 39 34
-0.336947 -0.553134 1.42955 38 39 34
-0.392901 -0.659648 1.70483 38 39 34
-0.350837 -0.602724 1.55772 39 39 35
-0.317284 -0.55806 1.44228 39 39 34
-0.30973 -0.55806 1.44228 39 39 35
-0.336295 -0.621073 1.60514 38 38 34
-0.341036 -0.645977 1.6695 37 37 33
-0.352612 -0.685482 1.7716 37 37 34
-0.330394 -0.659648 1.70483 38 39 35
-0.314802 -0.645977 1.6695 37 38 35
-0.285565 -0.602724 1.55772 35 36 34
-0.324619 -0.705304 1.82283 35 36 34
-0.294676 -0.659648 1.70483 37 38 36
-0.285746 -0.659648 1.70483 37 38 35
-0.260629 -0.621073 1.60514 36 38 33
-0.286428 -0.705304 1.82283 37 38 33
-0.272679 -0.694601 1.79517 36 38 33
-0.266105 -0.702063 1.81445 36 38 33
-0.249784 -0.683412 1.76625 37 38 34
-0.237263 -0.674121 1.74224 38 38 34
-0.225843 -0.667343 1.72472 37 38 34
-0.224261 -0.69028 1.784 37 38 34
-0.20538 -0.659648 1.70483 37 37 34
-0.204144 -0.685482 1.7716 37 37 34
-0.194865 -0.685482 1.7716 38 38 35
-0.184136 -0.680128 1.75776 38 38 35
-0.166146 -0.645977 1.6695 37 38 35
-0.160732 -0.659648 1.70483 36 37 35
-0.151803 -0.659648 1.70483 36 37 34
-0.146008 -0.674121 1.74224 36 37 35
-0.132628 -0.653167 1.68808 36 37 35
-0.128895 -0.680128 1.75776 37 37 35
-0.119688 -0.680128 1.75776 38 39 37
-0.111981 -0.68936 1.78162 39 39 36
-0.10343 -0.694601 1.79517 38 38 36
-0.0874451 -0.645977 1.6695 38 38 35
-0.0821294 -0.674121 1.74224 38 38 36
-0.0730039 -0.674121 1.74224 37 37 35
-0.0618929 -0.653167 1.68808 35 35 35
-0.0547529 -0.674121 1.74224 35 36 35
-0.0451687 -0.667343 1.72472 36 37 36
-0.0365019 -0.674121 1.74224 37 38 36
-0.027059 -0.666304 1.72203 37 39 36
-0.0185025 -0.683412 1.76625 37 38 35
-0.00892957 -0.659648 1.70483 36 38 35
0 -0.659648 1.70483 37 38 35
0.00910042 -0.672269 1.73745 37 39 36
0.0190952 -0.705304 1.82283 37 39 36
0.0267887 -0.659648 1.70483 38 39 36
0.0368272 -0.680128 1.75776 37 38 35
0.0437225 -0.645977 1.6695 36 37 35
0.0547529 -0.674121 1.74224 37 38 36
0.0641142 -0.676609 1.74867 38 38 36
0.07401 -0.683412 1.76625 38 38 36
0.0803661 -0.659648 1.70483 38 38 36
0.0912549 -0.674121 1.74224 37 37 36
0.10343 -0.694601 1.79517 37 37 35
0.112833 -0.694601 1.79517 37 37 35
0.119688 -0.680128 1.75776 37 37 35
0.130645 -0.68936 1.78162 37 37 35
0.138769 -0.683412 1.76625 37 37 35
0.146008 -0.674121 1.74224 37 37 36
0.153334 -0.666304 1.72203 38 38 37
0.165722 -0.680128 1.75776 38 38 36
0.169662 -0.659648 1.70483 37 37 35
0.18251 -0.674121 1.74224 36 36 35
0.187521 -0.659648 1.70483 35 35 34
0.200761 -0.674121 1.74224 36 36 34
0.209886 -0.674121 1.74224 36 36 34
0.22203 -0.683412 1.76625 36 37 35
0.241468 -0.713512 1.84404 37 38 36
0.239377 -0.680128 1.75776 37 38 36
0.248584 -0.680128 1.75776 37 38 35
0.250028 -0.659648 1.70483 37 38 35
0.26157 -0.666304 1.72203 37 39 36
0.276204 -0.680128 1.75776 38 39 36
0.295976 -0.705304 1.82283 38 39 36
0.296937 -0.685482 1.7716 37 38 35
0.312848 -0.700328 1.80997 37 38 35
0.307147 -0.667343 1.72472 37 38 35
0.334166 -0.705304 1.82283 37 38 35
0.331445 -0.680128 1.75776 37 39 36
0.345276 -0.68936 1.78162 37 38 36
0.343282 -0.667343 1.72472 37 38 36
0.381096 -0.721858 1.86561 38 39 37
0.365019 -0.674121 1.74224 38 38 36
0.385511 -0.694601 1.79517 37 37 35
0.38327 -0.674121 1.74224 37 37 35
0.404317 -0.694601 1.79517 37 37 36
0.397484 -0.667343 1.72472 38 38 35
0.432298 -0.709663 1.8341 38 39 35
0.449498 -0.721858 1.86561 38 39 35
0.451511 -0.709663 1.8341 38 39 35
0.451331 -0.694601 1.79517 38 38 34
0.457257 -0.68936 1.78162 36 37 33
0.46034 -0.680128 1.75776 35 36 33
0.46072 -0.667343 1.72472 35 36 34
0.474525 -0.674121 1.74224 36 37 35
0.48796 -0.680128 1.75776 36 37 35
0.482197 -0.659648 1.70483 36 37 36
0.513248 -0.68936 1.78162 37 38 37
0.52258 -0.68936 1.78162 37 39 37
0.540374 -0.700328 1.80997 37 38 36
0.529278 -0.674121 1.74224 37 38 37
0.550575 -0.68936 1.78162 37 38 37
0.564163 -0.694601 1.79517 37 38 37
0.569239 -0.68936 1.78162 37 38 38
0.587776 -0.700328 1.80997 37 38 37
0.574906 -0.674121 1.74224 36 37 36
0.611047 -0.705304 1.82283 36 37 36
0.611177 -0.694601 1.79517 36 37 36
0.641476 -0.71799 1.85562 36 37 36
0.613664 -0.676609 1.74867 35 37 35
0.622823 -0.676609 1.74867 36 38 36
0.654137 -0.700328 1.80997 36 38 36
0.65819 -0.694601 1.79517 36 38 37
0.690073 -0.71799 1.85562 36 38 36
0.695427 -0.713512 1.84404 36 38 36
0.709511 -0.71799 1.85562 36 37 35
0.703276 -0.702063 1.81445 36 37 35
0.744368 -0.733176 1.89486 37 38 36
0.796145 -0.773856 2 37 39 36
0.738259 -0.708271 1.8305 38 40 36
0.721598 -0.683412 1.76625 37 39 35
0.750795 -0.702063 1.81445 36 38 34
0.772697 -0.713512 1.84404 36 39 34
0.782356 -0.713512 1.84404 35 38 33
0.83421 -0.751524 1.94228 35 38 34
0.753725 -0.670837 1.73375 36 38 36
0.818701 -0.719992 1.86079 35 38 36
0.839449 -0.729554 1.8855 36 38 37
0.808634 -0.694601 1.79517 36 39 37
0.826825 -0.702063 1.81445 36 38 37
0.857687 -0.719992 1.86079 35 38 37
0.902749 -0.749305 1.93655 36 38 37
0.835135 -0.685482 1.7716 36 38 37
0.903166 -0.733176 1.89486 36 38 37
0.925606 -0.743224 1.92083 36 38 37
0.906419 -0.719992 1.86079 35 38 37
0.950021 -0.746598 1.92955 35 38 36
0.955788 -0.743224 1.92083 36 39 37
1.00566 -0.773856 2 36 38 36
0.97591 -0.743224 1.92083 36 38 36
1.02661 -0.773856 2 36 39 36
0.996032 -0.743224 1.92083 37 39 37
0.954761 -0.705304 1.82283 37 39 37
1.05803 -0.773856 2 36 38 36
1.06851 -0.773856 2 36 38 36
1.07899 -0.773856 2 36 38 36
0.977883 -0.694601 1.79517 36 38 36
1.04212 -0.733176 1.89486 37 38 36
1.01205 -0.705304 1.82283 37 38 36
1.07026 -0.738903 1.90967 37 38 36
1.08026 -0.738903 1.90967 37 38 36
1.14184 -0.773856 2 37 38 36
1.15232 -0.773856 2 38 39 36
1.02195 -0.680128 1.75776 37 39 36
1.08178 -0.713512 1.84404 36 37 35
1.10936 -0.725233 1.87433 36 38 35
1.11918 -0.725233 1.87433 36 38 36
1.11075 -0.713512 1.84404 36 39 36
1.03583 -0.659648 1.70483 35 38 36
1.22564 -0.773856 2 36 38 36
1.23612 -0.773856 2 36 39 37
1.14939 -0.713512 1.84404 36 38 36
-0.554371 -0.33666 0.882004 37 32 27
-0.515785 -0.31586 0.82751 35 34 28
-0.484559 -0.299252 0.784 35 35 30
-0.501224 -0.31219 0.817894 36 36 31
-0.483131 -0.303515 0.795167 36 37 32
-0.508406 -0.32217 0.844042 37 37 32
-0.468133 -0.299252 0.784 36 37 32
-0.513687 -0.331278 0.867904 37 37 32
-0.485445 -0.31586 0.82751 37 38 32
-0.468181 -0.307372 0.805271 38 38 33
-0.503754 -0.333733 0.874334 38 38 34
-0.516804 -0.34552 0.905214 39 38 34
-0.469798 -0.317001 0.830499 39 38 34
-0.499008 -0.339857 0.89038 39 38 35
-0.468617 -0.32217 0.844042 40 38 35
-0.464196 -0.32217 0.844042 39 37 34
-0.463672 -0.3249 0.851194 37 37 34
-0.471697 -0.333733 0.874334 37 37 35
-0.470238 -0.335962 0.880174 38 37 35
-0.483374 -0.348766 0.91372 39 38 36
-0.445838 -0.3249 0.851194 40 39 37
-0.469391 -0.34552 0.905214 38 38 36
-0.441847 -0.328563 0.860791 37 36 35
-0.475829 -0.35748 0.936549 38 38 36
-0.470923 -0.35748 0.936549 40 39 38
-0.466018 -0.35748 0.936549 37 37 36
-0.45948 -0.356214 0.933233 36 36 35
-0.473029 -0.370662 0.971083 36 36 35
-0.454065 -0.359669 0.942284 37 37 34
-0.476639 -0.381699 1 37 37 33
-0.442906 -0.358626 0.939552 37 36 32
-0.43504 -0.356214 0.933233 37 37 33
-0.434323 -0.359669 0.942284 38 38 34
-0.455688 -0.381699 1 38 38 34
-0.420375 -0.356214 0.933233 37 38 34
-0.459372 -0.393839 1.0318 37 37 34
-0.439975 -0.381699 1 37 37 33
-0.421568 -0.370137 0.969708 37 38 34
-0.443159 -0.393839 1.0318 37 38 33
-0.410059 -0.368922 0.966525 37 38 32
-0.433828 -0.395185 1.03533 37 38 33
-0.429264 -0.395977 1.03741 37 38 33
-0.42383 -0.395977 1.03741 37 38 33
-0.430238 -0.407184 1.06677 37 38 33
-0.412137 -0.395185 1.03533 37 38 33
-0.439188 -0.426738 1.118 36 37 33
-0.402095 -0.395977 1.03741 35 38 33
-0.424877 -0.424144 1.1112 37 39 35
-0.405237 -0.410156 1.07455 38 40 36
-0.415764 -0.426738 1.118 38 40 36
-0.423827 -0.441229 1.15596 38 40 37
-0.396529 -0.418793 1.09718 38 39 38
-0.407596 -0.436811 1.14438 38 39 37
-0.427567 -0.465053 1.21838 38 39 37
-0.395608 -0.436811 1.14438 39 39 37
-0.373542 -0.418793 1.09718 38 38 35
-0.427498 -0.486773 1.27528 37 37 34
-0.388444 -0.449325 1.17717 37 37 35
-0.384999 -0.452523 1.18555 38 38 36
-0.384951 -0.459884 1.20483 37 37 35
-0.387728 -0.470922 1.23375 37 37 34
-0.415349 -0.51302 1.34404 37 37 34
-0.377382 -0.474161 1.24224 37 37 33
-0.394936 -0.504923 1.32283 38 38 34
-0.379894 -0.494364 1.29517 39 40 35
-0.395916 -0.524582 1.37433 39 39 34
-0.383424 -0.517438 1.35562 37 38 33
-0.367222 -0.504923 1.32283 38 38 34
-0.369223 -0.517438 1.35562 38 39 34
-0.353364 -0.504923 1.32283 38 38 34
-0.359924 -0.524582 1.37433 37 39 34
-0.347921 -0.517438 1.35562 37 39 34
-0.325623 -0.494364 1.29517 38 39 34
-0.357233 -0.553894 1.45113 38 39 34
-0.33113 -0.524582 1.37433 37 38 34
-0.353551 -0.572549 1.5 38 39 34
-0.332393 -0.550519 1.44228 38 39 34
-0.350837 -0.594579 1.55772 37 37 32
-0.361744 -0.627661 1.64438 36 36 32
-0.349111 -0.620516 1.62567 37 37 32
-0.32636 -0.594579 1.55772 36 36 32
-0.355894 -0.665011 1.74224 37 37 34
-0.362809 -0.695773 1.82283 38 38 35
-0.330394 -0.650734 1.70483 37 38 35
-0.306537 -0.620516 1.62567 36 37 34
-0.306058 -0.637248 1.6695 35 36 34
-0.303605 -0.650734 1.70483 35 36 33
-0.269247 -0.594579 1.55772 35 36 34
-0.285746 -0.650734 1.70483 35 36 32
-0.287658 -0.676218 1.7716 35 37 33
-0.267887 -0.650734 1.70483 36 38 34
-0.264639 -0.665011 1.74224 38 39 35
-0.268458 -0.6987 1.8305 38 40 35
-0.251958 -0.680045 1.78162 38 40 35
-0.232169 -0.650734 1.70483 38 39 35
-0.23869 -0.695773 1.82283 37 38 34
-0.21841 -0.663184 1.73745 36 37 34
-0.214917 -0.680951 1.784 36 36 34
-0.201809 -0.668482 1.75133 36 37 34
-0.191635 -0.665011 1.74224 37 37 34
-0.180393 -0.657299 1.72203 37 38 35
-0.174929 -0.670937 1.75776 37 38 35
-0.165722 -0.670937 1.75776 37 38 35
-0.156516 -0.670937 1.75776 36 38 35
-0.142873 -0.650734 1.70483 36 37 35
-0.138769 -0.674176 1.76625 36 37 34
-0.132519 -0.689798 1.80718 36 36 34
-0.121475 -0.680951 1.784 37 38 36
-0.108236 -0.657299 1.72203 38 38 36
-0.105024 -0.695773 1.82283 38 38 35
-0.0940272 -0.685214 1.79517 37 37 34
-0.0846245 -0.685214 1.79517 37 37 35
-0.0736544 -0.670937 1.75776 37 37 36
-0.0631377 -0.657299 1.72203 36 36 35
-0.0552408 -0.670937 1.75776 35 36 35
-0.0455021 -0.663184 1.73745 36 37 36
-0.0366925 -0.668482 1.75133 37 38 36
-0.0267887 -0.650734 1.70483 37 39 36
-0.0184136 -0.670937 1.75776 37 39 36
-0.00892957 -0.650734 1.70483 37 38 35
0 -0.670937 1.75776 37 38 35
0.00952176 -0.693889 1.81789 37 38 35
0.0178591 -0.650734 1.70483 37 38 35
0.0265255 -0.64434 1.68808 37 38 35
0.0360787 -0.657299 1.72203 37 38 35
0.0470136 -0.685214 1.79517 37 38 35
0.0547529 -0.665011 1.74224 37 37 35
0.0617999 -0.643372 1.68555 38 38 36
0.0730039 -0.665011 1.74224 38 38 36
0.0795765 -0.64434 1.68808 37 37 36
0.0892957 -0.650734 1.70483 36 37 35
0.0972602 -0.64434 1.68808 37 37 35
0.107155 -0.650734 1.70483 37 37 36
0.116084 -0.650734 1.70483 37 37 36
0.131638 -0.685214 1.79517 37 37 36
0.135295 -0.657299 1.72203 37 37 36
0.144315 -0.657299 1.72203 37 37 36
0.156516 -0.670937 1.75776 37 38 36
0.169249 -0.685214 1.79517 38 38 36
0.174929 -0.670937 1.75776 37 38 36
0.184136 -0.670937 1.75776 37 37 36
0.187521 -0.650734 1.70483 37 36 35
0.198742 -0.658325 1.72472 36 36 35
0.214631 -0.680045 1.78162 36 36 35
0.21681 -0.658325 1.72472 36 36 35
0.233295 -0.680045 1.78162 37 37 36
0.242626 -0.680045 1.78162 37 39 36
0.248584 -0.670937 1.75776 37 38 35
0.26129 -0.680045 1.78162 37 38 35
0.274503 -0.689798 1.80718 36 38 35
0.267887 -0.650734 1.70483 36 38 35
0.27961 -0.657299 1.72203 36 37 34
0.291213 -0.663184 1.73745 36 37 34
0.301141 -0.665011 1.74224 36 37 34
0.306669 -0.657299 1.72203 37 38 35
0.312535 -0.650734 1.70483 37 39 36
0.331445 -0.670937 1.75776 37 39 36
0.337643 -0.665011 1.74224 37 38 35
0.357303 -0.685214 1.79517 36 37 35
0.37669 -0.70387 1.84404 37 38 36
0.357183 -0.650734 1.70483 38 38 36
0.38045 -0.676218 1.7716 37 37 35
0.375042 -0.650734 1.70483 36 36 34
0.397804 -0.674176 1.76625 37 36 35
0.41372 -0.685214 1.79517 37 37 34
0.423122 -0.685214 1.79517 38 39 35
0.432525 -0.685214 1.79517 39 39 35
0.424586 -0.658325 1.72472 38 39 35
0.445405 -0.676218 1.7716 37 38 34
0.460733 -0.685214 1.79517 36 37 33
0.466589 -0.680045 1.78162 35 36 32
0.475921 -0.680045 1.78162 36 37 34
0.499544 -0.700073 1.8341 36 37 35
0.494585 -0.680045 1.78162 36 37 35
0.503916 -0.680045 1.78162 36 37 36
0.51715 -0.685214 1.79517 36 37 36
0.526552 -0.685214 1.79517 37 38 36
0.524787 -0.670937 1.75776 37 38 37
0.523141 -0.657299 1.72203 37 38 37
0.55476 -0.685214 1.79517 38 39 38
0.572856 -0.695773 1.82283 38 39 38
0.573566 -0.685214 1.79517 37 38 37
0.570822 -0.670937 1.75776 36 38 37
0.597256 -0.690864 1.80997 36 38 36
0.611047 -0.695773 1.82283 37 38 37
0.606566 -0.680045 1.78162 37 39 37
0.630142 -0.695773 1.82283 38 39 38
0.629982 -0.685214 1.79517 37 39 37
0.644657 -0.690864 1.80997 37 39 37
0.654137 -0.690864 1.80997 37 38 37
0.668332 -0.695773 1.82283 37 39 37
0.667593 -0.685214 1.79517 37 38 37
0.682578 -0.690864 1.80997 36 38 36
0.709511 -0.708287 1.85562 36 38 35
0.689134 -0.678648 1.77797 36 38 35
0.74069 -0.719695 1.8855 36 38 35
0.728671 -0.6987 1.8305 36 38 34
0.717072 -0.678648 1.77797 36 38 35
0.733412 -0.685214 1.79517 36 38 34
0.763038 -0.70387 1.84404 36 39 34
0.767022 -0.6987 1.8305 36 39 35
0.787266 -0.708287 1.85562 36 39 35
0.771023 -0.685214 1.79517 36 39 36
0.78881 -0.692575 1.81445 36 38 36
0.82466 -0.715432 1.87433 35 38 36
0.814961 -0.6987 1.8305 36 39 37
0.844295 -0.715432 1.87433 37 39 38
0.840308 -0.70387 1.84404 36 38 37
0.827439 -0.685214 1.79517 36 38 37
0.867433 -0.710263 1.86079 36 38 37
0.87718 -0.710263 1.86079 35 37 36
0.910222 -0.728918 1.90967 36 38 37
0.804495 -0.637248 1.6695 36 38 37
0.89826 -0.70387 1.84404 35 38 37
0.907919 -0.70387 1.84404 34 37 36
0.925912 -0.710263 1.86079 35 37 36
0.927237 -0.70387 1.84404 36 39 37
0.95796 -0.719695 1.8855 36 39 36
0.980239 -0.728918 1.90967 35 38 35
0.990241 -0.728918 1.90967 36 39 36
0.965871 -0.70387 1.84404 37 40 37
1.01025 -0.728918 1.90967 36 38 36
0.959077 -0.685214 1.79517 35 38 35
1.07899 -0.763399 2 36 38 36
1.08946 -0.763399 2 36 38 36
1.04212 -0.723268 1.89486 37 38 36
1.11041 -0.763399 2 37 39 37
0.976427 -0.665011 1.74224 38 39 37
1.03114 -0.695773 1.82283 38 39 36
1.14184 -0.763399 2 38 39 36
1.15232 -0.763399 2 38 39 37
1.16279 -0.763399 2 37 38 35
1.17327 -0.763399 2 36 37 34
1.30498 -0.841583 2.20483 36 38 35
1.11918 -0.715432 1.87433 36 39 36
1.0269 -0.650734 1.70483 36 39 36
1.12041 -0.70387 1.84404 34 38 35
1.10012 -0.685214 1.79517 35 38 36
1.13973 -0.70387 1.84404 36 39 37
1.32492 -0.811365 2.12567 36 38 36
-0.514075 -0.307913 0.817894 36 33 27
-0.495626 -0.299357 0.795167 35 34 28
-0.511451 -0.311533 0.82751 35 36 30
-0.507116 -0.311533 0.82751 36 36 31
-0.494849 -0.306618 0.814453 36 37 31
-0.522779 -0.32674 0.867904 37 38 33
-0.512158 -0.32291 0.85773 37 38 33
-0.52095 -0.33136 0.880174 37 38 33
-0.454805 -0.29187 0.775279 37 38 33
-0.523433 -0.338938 0.900304 39 39 34
-0.490422 -0.32045 0.851194 39 38 34
-0.510895 -0.33689 0.894863 39 38 34
-0.500912 -0.333365 0.885502 39 38 34
-0.490015 -0.329161 0.874334 39 38 35
-0.479545 -0.325167 0.863725 39 38 34
-0.489681 -0.335202 0.89038 39 37 34
-0.463672 -0.32045 0.851194 38 37 34
-0.471697 -0.329161 0.874334 38 37 35
-0.450934 -0.317757 0.844042 38 37 35
-0.481229 -0.342462 0.909666 39 38 36
-0.437975 -0.314798 0.836183 39 39 37
-0.473802 -0.343989 0.91372 39 38 36
-0.479032 -0.351335 0.933233 37 37 35
-0.46217 -0.342462 0.909666 38 37 36
-0.442577 -0.33136 0.880174 38 38 36
-0.454659 -0.343989 0.91372 37 37 35
-0.443267 -0.338938 0.900304 37 37 35
-0.440943 -0.340786 0.905214 37 37 35
-0.438347 -0.342462 0.909666 37 38 35
-0.447827 -0.353714 0.939552 37 37 34
-0.445371 -0.355682 0.944781 37 37 34
-0.466164 -0.376471 1 38 38 34
-0.445496 -0.363868 0.966525 38 38 34
-0.440434 -0.363868 0.966525 38 38 34
-0.436124 -0.364497 0.968195 37 38 34
-0.431726 -0.365066 0.969708 36 37 33
-0.439975 -0.376471 1 36 37 33
-0.434737 -0.376471 1 36 37 33
-0.429499 -0.376471 1 36 37 32
-0.424261 -0.376471 1 36 37 31
-0.433051 -0.389073 1.03348 37 38 33
-0.427638 -0.389073 1.03348 38 39 33
-0.435825 -0.401606 1.06677 38 39 34
-0.430238 -0.401606 1.06677 37 39 34
-0.42465 -0.401606 1.06677 36 38 33
-0.423934 -0.406275 1.07917 36 38 33
-0.402999 -0.39143 1.03974 36 38 34
-0.397553 -0.39143 1.03974 36 39 34
-0.419057 -0.418334 1.1112 37 39 35
-0.385794 -0.390552 1.03741 37 39 35
-0.397585 -0.408239 1.08438 37 39 36
-0.421367 -0.438929 1.1659 37 39 36
-0.407596 -0.430827 1.14438 37 39 37
-0.382634 -0.410479 1.09033 38 38 36
-0.421186 -0.458683 1.21838 38 38 36
-0.405154 -0.448011 1.19003 37 37 35
-0.41947 -0.47109 1.25133 37 37 35
-0.392688 -0.448011 1.19003 38 38 36
-0.391261 -0.453584 1.20483 38 38 36
-0.406283 -0.47872 1.2716 37 37 35
-0.367537 -0.440283 1.1695 37 38 35
-0.36637 -0.446324 1.18555 37 38 35
-0.408309 -0.505992 1.34404 37 38 34
-0.359708 -0.453584 1.20483 37 38 33
-0.39423 -0.505992 1.34404 38 39 34
-0.347087 -0.453584 1.20483 39 39 35
-0.388718 -0.517396 1.37433 38 39 34
-0.339241 -0.46006 1.22203 37 38 33
-0.344883 -0.476706 1.26625 38 38 34
-0.355413 -0.500894 1.3305 38 39 34
-0.331618 -0.476706 1.26625 37 39 34
-0.361794 -0.530698 1.40967 38 39 34
-0.377121 -0.564706 1.5 37 38 34
-0.31884 -0.487592 1.29517 37 38 33
-0.391686 -0.612015 1.62567 37 38 33
-0.383171 -0.612015 1.62567 38 39 34
-0.332393 -0.542978 1.44228 37 37 33
-0.353704 -0.591227 1.57045 36 36 31
-0.329981 -0.564706 1.5 35 36 30
-0.30973 -0.542978 1.44228 35 35 30
-0.344518 -0.619062 1.64438 36 37 32
-0.316395 -0.583106 1.54887 37 38 34
-0.327292 -0.619062 1.64438 37 38 34
-0.323547 -0.628518 1.6695 37 38 34
-0.312249 -0.62342 1.65596 36 37 34
-0.319392 -0.655901 1.74224 35 37 34
-0.303605 -0.641819 1.70483 36 37 34
-0.277444 -0.604287 1.60514 36 37 34
-0.275614 -0.619062 1.64438 35 36 33
-0.276817 -0.641819 1.70483 35 37 33
-0.272431 -0.652706 1.73375 37 39 35
-0.258957 -0.641819 1.70483 38 40 36
-0.246695 -0.633263 1.68211 38 41 36
-0.241098 -0.641819 1.70483 39 41 37
-0.239377 -0.661746 1.75776 38 39 36
-0.23017 -0.661746 1.75776 37 38 34
-0.21841 -0.654099 1.73745 36 37 34
-0.207452 -0.648295 1.72203 36 36 33
-0.19452 -0.635514 1.68808 36 36 34
-0.191109 -0.654099 1.73745 35 36 33
-0.180393 -0.648295 1.72203 37 38 35
-0.174929 -0.661746 1.75776 37 39 35
-0.170645 -0.6814 1.80997 37 38 35
-0.157748 -0.666955 1.7716 37 38 35
-0.146008 -0.655901 1.74224 36 37 35
-0.135506 -0.649307 1.72472 35 37 34
-0.130645 -0.670729 1.78162 36 37 34
-0.118631 -0.655901 1.74224 37 37 35
-0.109506 -0.655901 1.74224 38 38 35
-0.10038 -0.655901 1.74224 38 38 35
-0.0965871 -0.694227 1.84404 37 37 35
-0.0851906 -0.680349 1.80718 37 37 34
-0.0730039 -0.655901 1.74224 37 37 35
-0.0612116 -0.628518 1.6695 36 37 35
-0.0556757 -0.666955 1.7716 36 37 35
-0.0442092 -0.635514 1.68808 36 37 36
-0.0376109 -0.675828 1.79517 37 38 36
-0.0273765 -0.655901 1.74224 37 38 35
-0.0176571 -0.634559 1.68555 37 39 36
-0.00910042 -0.654099 1.73745 37 38 35
0 -0.649307 1.72472 36 38 35
0.00912549 -0.655901 1.74224 36 38 35
0.0178591 -0.641819 1.70483 36 37 34
0.0273012 -0.654099 1.73745 36 37 34
0.0371171 -0.666955 1.7716 36 38 35
0.0442092 -0.635514 1.68808 37 38 36
0.054118 -0.648295 1.72203 37 38 35
0.0631377 -0.648295 1.72203 38 38 36
0.0736544 -0.661746 1.75776 37 38 36
0.0803661 -0.641819 1.70483 37 38 36
0.0901967 -0.648295 1.72203 37 37 35
0.0982252 -0.641819 1.70483 37 37 35
0.108236 -0.648295 1.72203 37 37 35
0.116084 -0.641819 1.70483 37 37 35
0.127757 -0.655901 1.74224 37 37 36
0.139977 -0.670729 1.78162 37 37 35
0.14454 -0.649307 1.72472 37 37 35
0.157271 -0.664941 1.76625 37 37 36
0.171392 -0.684384 1.81789 38 38 37
0.179847 -0.680349 1.80718 38 38 37
0.186636 -0.670729 1.78162 37 38 36
0.201739 -0.690483 1.8341 37 37 36
0.19645 -0.641819 1.70483 37 37 36
0.214631 -0.670729 1.78162 37 37 36
0.223963 -0.670729 1.78162 36 37 35
0.225492 -0.648295 1.72203 36 37 36
0.229542 -0.634559 1.68555 37 38 36
0.243531 -0.648295 1.72203 37 38 36
0.270444 -0.694227 1.84404 37 38 35
0.274503 -0.680349 1.80718 36 37 34
0.276204 -0.661746 1.75776 35 37 34
0.274097 -0.635514 1.68808 35 36 33
0.292016 -0.655901 1.74224 36 37 34
0.302713 -0.659325 1.75133 36 37 34
0.303605 -0.641819 1.70483 37 38 35
0.329095 -0.675828 1.79517 37 39 36
0.334054 -0.666955 1.7716 37 38 35
0.343333 -0.666955 1.7716 37 38 35
0.346768 -0.655901 1.74224 36 37 35
0.361892 -0.666955 1.7716 37 37 35
0.373271 -0.670729 1.78162 37 37 35
0.370383 -0.649307 1.72472 37 37 35
0.386686 -0.661746 1.75776 37 37 35
0.415325 -0.694227 1.84404 37 37 35
0.401521 -0.655901 1.74224 38 38 35
0.40183 -0.641819 1.70483 39 39 35
0.426847 -0.666955 1.7716 38 39 35
0.423924 -0.648295 1.72203 38 38 35
0.45435 -0.680349 1.80718 37 38 34
0.447149 -0.655901 1.74224 37 37 34
0.482936 -0.694227 1.84404 37 38 35
0.473243 -0.666955 1.7716 38 39 36
0.492213 -0.680349 1.80718 37 38 36
0.506023 -0.686241 1.82283 37 38 36
0.518757 -0.690483 1.8341 36 37 36
0.495492 -0.647525 1.71999 36 37 36
0.540888 -0.694227 1.84404 37 38 37
0.535955 -0.675828 1.79517 37 38 37
0.545358 -0.675828 1.79517 38 39 37
0.55476 -0.675828 1.79517 38 39 38
0.547529 -0.655901 1.74224 38 39 38
0.556655 -0.655901 1.74224 37 38 37
0.570822 -0.661746 1.75776 37 38 37
0.601499 -0.686241 1.82283 37 38 37
0.630883 -0.708519 1.882 38 39 38
0.62443 -0.690483 1.8341 39 40 38
0.620579 -0.675828 1.79517 38 39 38
0.625229 -0.670729 1.78162 37 39 37
0.643663 -0.680349 1.80718 36 38 36
0.674248 -0.702349 1.86561 36 38 36
0.684019 -0.702349 1.86561 37 38 37
0.641395 -0.649307 1.72472 37 38 37
0.695427 -0.694227 1.84404 36 38 36
0.679821 -0.669352 1.77797 36 38 35
0.695801 -0.675828 1.79517 36 37 35
0.705204 -0.675828 1.79517 36 37 35
0.728671 -0.689129 1.8305 36 37 35
0.729979 -0.6814 1.80997 36 38 35
0.762193 -0.702349 1.86561 36 38 35
0.757434 -0.689129 1.8305 36 39 34
0.75842 -0.6814 1.80997 35 39 35
0.76162 -0.675828 1.79517 36 39 35
0.809822 -0.709836 1.8855 36 39 36
0.819697 -0.709836 1.8855 36 39 37
0.811332 -0.694227 1.84404 36 39 37
0.839449 -0.709836 1.8855 36 38 37
0.755482 -0.631406 1.67717 36 39 37
0.854112 -0.705632 1.87433 36 38 37
0.799131 -0.652706 1.73375 36 37 36
0.873747 -0.705632 1.87433 35 37 36
0.87718 -0.700533 1.86079 35 37 36
0.915545 -0.723137 1.92083 35 38 36
0.903199 -0.705632 1.87433 36 38 37
0.887927 -0.686241 1.82283 36 39 38
0.932941 -0.71336 1.89486 35 38 36
0.925912 -0.700533 1.86079 34 37 35
0.935659 -0.700533 1.86079 35 38 36
0.912064 -0.675828 1.79517 36 39 37
0.946554 -0.694227 1.84404 36 38 36
0.996032 -0.723137 1.92083 35 37 35
0.965871 -0.694227 1.84404 36 38 36
1.05803 -0.752941 2 36 38 35
1.02025 -0.718933 1.90967 35 37 35
1.01119 -0.705632 1.87433 36 37 35
1.04025 -0.718933 1.90967 36 38 36
0.974324 -0.666955 1.7716 37 38 36
1.04064 -0.705632 1.87433 37 39 37
1.06196 -0.71336 1.89486 38 39 37
1.06028 -0.705632 1.87433 38 39 37
1.04069 -0.686241 1.82283 37 38 36
1.15232 -0.752941 2 37 38 36
1.10166 -0.71336 1.89486 36 37 35
1.12027 -0.718933 1.90967 36 37 34
1.09143 -0.694227 1.84404 36 38 36
1.19422 -0.752941 2 37 39 37
1.28039 -0.800251 2.12567 36 39 36
1.21517 -0.752941 2 34 37 35
1.22564 -0.752941 2 34 37 35
1.23612 -0.752941 2 35 38 36
1.16827 -0.705632 1.87433 36 39 36
-0.499791 -0.295199 0.795167 36 33 28
-0.488665 -0.291053 0.784 36 35 30
-0.516811 -0.310426 0.836183 37 38 33
-0.512431 -0.310426 0.836183 37 38 33
-0.508051 -0.310426 0.836183 36 37 31
-0.526652 -0.324589 0.874334 37 38 33
-0.480835 -0.29895 0.805271 37 38 33
-0.487009 -0.305468 0.822829 37 38 33
-0.499339 -0.315999 0.851194 36 37 32
-0.462306 -0.295199 0.795167 38 38 33
-0.521546 -0.336053 0.905214 38 38 34
-0.459745 -0.29895 0.805271 39 38 34
-0.462668 -0.303636 0.817894 39 37 34
-0.496274 -0.328735 0.885502 38 37 34
-0.488678 -0.326758 0.880174 38 36 32
-0.447923 -0.302359 0.814453 38 37 33
-0.479458 -0.326758 0.880174 38 37 34
-0.448048 -0.308316 0.830499 38 37 35
-0.473084 -0.328735 0.885502 37 37 35
-0.481229 -0.337706 0.909666 39 38 36
-0.474132 -0.336053 0.905214 39 38 36
-0.461699 -0.330546 0.89038 39 38 36
-0.469016 -0.339211 0.91372 38 37 35
-0.46423 -0.339211 0.91372 38 37 36
-0.459445 -0.339211 0.91372 38 38 36
-0.456504 -0.340588 0.917429 38 38 36
-0.449873 -0.339211 0.91372 38 38 36
-0.425901 -0.324589 0.874334 37 38 36
-0.451302 -0.347686 0.936549 38 38 36
-0.42912 -0.334231 0.900304 37 37 35
-0.442906 -0.348801 0.939552 37 37 33
-0.451338 -0.359435 0.968195 37 37 33
-0.446964 -0.359996 0.969708 37 37 32
-0.412495 -0.336053 0.905214 38 38 34
-0.423222 -0.348801 0.939552 38 39 35
-0.445213 -0.371242 1 37 38 34
-0.439975 -0.371242 1 36 37 33
-0.42091 -0.359435 0.968195 37 37 34
-0.429499 -0.371242 1 36 37 33
-0.394374 -0.345089 0.929553 37 38 32
-0.445611 -0.394798 1.06345 37 38 33
-0.426946 -0.383049 1.0318 38 39 34
-0.394872 -0.358814 0.966525 38 39 34
-0.435239 -0.400632 1.07917 37 38 33
-0.412137 -0.384358 1.03533 36 37 32
-0.407529 -0.385128 1.03741 36 38 33
-0.402999 -0.385994 1.03974 36 38 34
-0.424877 -0.412524 1.1112 36 38 34
-0.408945 -0.402569 1.08438 37 39 35
-0.386661 -0.385994 1.03974 37 39 35
-0.402276 -0.407319 1.09718 37 39 35
-0.417773 -0.42914 1.15596 37 38 35
-0.400929 -0.417894 1.12567 36 38 35
-0.380546 -0.402569 1.08438 36 37 35
-0.379289 -0.407319 1.09718 37 37 35
-0.405154 -0.441789 1.19003 36 36 34
-0.383619 -0.424843 1.14438 36 36 34
-0.392688 -0.441789 1.19003 37 38 35
-0.396848 -0.45367 1.22203 38 38 36
-0.369335 -0.42914 1.15596 38 38 36
-0.384046 -0.45367 1.22203 38 39 36
-0.392962 -0.472071 1.2716 38 38 35
-0.366019 -0.447284 1.20483 37 38 34
-0.386678 -0.48082 1.29517 37 38 33
-0.371412 -0.470085 1.26625 37 37 32
-0.395916 -0.51021 1.37433 38 38 33
-0.358147 -0.470085 1.26625 38 38 34
-0.367222 -0.491089 1.32283 38 38 33
-0.344883 -0.470085 1.26625 37 38 33
-0.355413 -0.493937 1.3305 37 38 33
-0.348444 -0.493937 1.3305 37 38 33
-0.370165 -0.535436 1.44228 37 38 33
-0.364834 -0.538718 1.45113 37 38 33
-0.369265 -0.556863 1.5 36 37 32
-0.33113 -0.51021 1.37433 36 37 32
-0.367155 -0.578289 1.55772 36 37 31
-0.358996 -0.578289 1.55772 36 36 31
-0.337838 -0.556863 1.5 36 36 31
-0.367269 -0.619789 1.6695 36 36 31
-0.337253 -0.583015 1.57045 36 36 31
-0.32636 -0.578289 1.55772 36 37 32
-0.348253 -0.632905 1.70483 36 37 32
-0.329596 -0.614761 1.65596 36 37 33
-0.311073 -0.595894 1.60514 36 38 34
-0.328517 -0.646792 1.74224 36 38 34
-0.301453 -0.610464 1.64438 36 38 34
-0.29284 -0.610464 1.64438 37 38 35
-0.315071 -0.67671 1.82283 36 38 34
-0.285746 -0.632905 1.70483 35 36 32
-0.281512 -0.643641 1.73375 36 38 34
-0.278378 -0.657692 1.7716 37 39 35
-0.266997 -0.652555 1.75776 34 36 32
-0.250028 -0.632905 1.70483 31 34 29
-0.241098 -0.632905 1.70483 35 37 32
-0.241261 -0.657692 1.7716 38 39 36
-0.233606 -0.662295 1.784 37 39 36
-0.220155 -0.650168 1.75133 37 38 35
-0.212494 -0.654827 1.76388 36 37 34
-0.205299 -0.661413 1.78162 36 37 34
-0.193343 -0.652555 1.75776 36 38 35
-0.184136 -0.652555 1.75776 37 38 35
-0.171374 -0.639291 1.72203 37 39 35
-0.159153 -0.626687 1.68808 37 38 34
-0.150311 -0.626687 1.68808 36 38 34
-0.150444 -0.666441 1.79517 36 38 35
-0.131168 -0.619789 1.6695 36 37 34
-0.126275 -0.639291 1.72203 35 37 34
-0.119251 -0.650168 1.75133 37 38 35
-0.107155 -0.632905 1.70483 39 39 36
-0.0982252 -0.632905 1.70483 39 39 36
-0.0910042 -0.645015 1.73745 38 38 35
-0.0869284 -0.684585 1.84404 37 37 34
-0.0721573 -0.639291 1.72203 37 37 35
-0.062507 -0.632905 1.70483 36 37 35
-0.0556757 -0.657692 1.7716 36 37 35
-0.0456274 -0.646792 1.74224 37 38 36
-0.0373271 -0.661413 1.78162 36 38 36
-0.027059 -0.639291 1.72203 37 38 35
-0.0186884 -0.662295 1.784 38 39 36
-0.00927928 -0.657692 1.7716 36 37 34
0 -0.661413 1.78162 35 36 34
0.0092068 -0.652555 1.75776 36 37 35
0.0184136 -0.652555 1.75776 37 38 35
0.0282082 -0.666441 1.79517 37 38 35
0.0360787 -0.639291 1.72203 37 38 36
0.0463964 -0.657692 1.7716 37 38 35
0.0546025 -0.645015 1.73745 37 37 35
0.0649549 -0.657692 1.7716 38 38 36
0.0742342 -0.657692 1.7716 38 38 36
0.0819037 -0.645015 1.73745 38 38 36
0.0885203 -0.62741 1.69003 37 38 36
0.0992163 -0.639291 1.72203 37 37 35
0.112833 -0.666441 1.79517 36 36 35
0.117256 -0.639291 1.72203 37 37 35
0.129518 -0.655706 1.76625 37 38 36
0.135295 -0.639291 1.72203 37 38 36
0.150444 -0.666441 1.79517 37 38 36
0.160916 -0.6709 1.80718 38 39 37
0.163807 -0.645015 1.73745 39 39 37
0.171374 -0.639291 1.72203 38 39 37
0.182008 -0.645015 1.73745 38 38 36
0.189413 -0.639291 1.72203 38 38 37
0.200761 -0.646792 1.74224 38 38 37
0.20538 -0.632905 1.70483 38 38 36
0.225665 -0.666441 1.79517 37 37 36
0.22751 -0.645015 1.73745 37 38 36
0.232169 -0.632905 1.70483 38 39 36
0.243241 -0.638531 1.71999 37 38 35
0.26129 -0.661413 1.78162 36 38 35
0.256413 -0.626687 1.68808 37 38 35
0.278378 -0.657692 1.7716 37 38 35
0.27108 -0.619789 1.6695 36 38 35
0.292016 -0.646792 1.74224 36 38 35
0.31029 -0.666441 1.79517 37 38 35
0.311886 -0.650168 1.75133 37 38 35
0.318515 -0.645015 1.73745 37 38 35
0.336392 -0.662295 1.784 37 38 35
0.343333 -0.657692 1.7716 36 38 35
0.352612 -0.657692 1.7716 35 36 34
0.366706 -0.666441 1.79517 36 37 35
0.364017 -0.645015 1.73745 38 38 36
0.382603 -0.661413 1.78162 38 38 36
0.391935 -0.661413 1.78162 38 38 36
0.383971 -0.632905 1.70483 38 38 36
0.405099 -0.652555 1.75776 38 38 35
0.423122 -0.666441 1.79517 38 38 35
0.415552 -0.640288 1.72472 38 38 35
0.431137 -0.650168 1.75133 38 38 35
0.461118 -0.680893 1.8341 38 38 35
0.457867 -0.662295 1.784 37 38 35
0.470136 -0.666441 1.79517 37 38 35
0.469547 -0.652555 1.75776 37 38 36
0.469023 -0.639291 1.72203 37 38 36
0.491802 -0.657692 1.7716 37 38 36
0.503916 -0.661413 1.78162 37 38 37
0.51715 -0.666441 1.79517 38 39 37
0.519639 -0.657692 1.7716 38 39 38
0.532621 -0.662295 1.784 37 38 37
0.553761 -0.67671 1.82283 37 38 37
0.547477 -0.657692 1.7716 37 38 37
0.586302 -0.692594 1.86561 37 38 37
0.580827 -0.674878 1.81789 37 38 37
0.582969 -0.666441 1.79517 36 38 37
0.601499 -0.67671 1.82283 38 39 38
0.597234 -0.661413 1.78162 38 40 38
0.611177 -0.666441 1.79517 38 39 38
0.620579 -0.666441 1.79517 37 38 37
0.635177 -0.671936 1.80997 36 37 36
0.680166 -0.708948 1.90967 35 36 35
0.654137 -0.671936 1.80997 36 37 36
0.663618 -0.671936 1.80997 37 39 37
0.67788 -0.67671 1.82283 37 38 37
0.687428 -0.67671 1.82283 36 38 36
0.692058 -0.671936 1.80997 36 38 35
0.701539 -0.671936 1.80997 36 37 35
0.732878 -0.692594 1.86561 36 38 35
0.693537 -0.646792 1.74224 35 37 35
0.748389 -0.688882 1.85562 35 37 35
0.758108 -0.688882 1.85562 36 38 35
0.730849 -0.655706 1.76625 35 38 34
0.740101 -0.655706 1.76625 35 38 35
0.803917 -0.703452 1.89486 36 39 35
0.792015 -0.684585 1.84404 37 40 37
0.795786 -0.679558 1.8305 37 39 37
0.811332 -0.684585 1.84404 37 39 38
0.814961 -0.679558 1.8305 37 40 38
0.874903 -0.721057 1.94228 37 39 38
0.834137 -0.679558 1.8305 36 38 37
0.892606 -0.718928 1.93655 36 37 36
0.853312 -0.679558 1.8305 36 37 36
0.87718 -0.690803 1.86079 36 37 36
0.953279 -0.742484 2 36 38 37
0.882076 -0.679558 1.8305 36 38 37
0.906419 -0.690803 1.86079 36 39 38
0.945728 -0.713094 1.92083 36 39 38
0.950232 -0.708948 1.90967 35 38 36
0.965849 -0.713094 1.92083 35 38 36
1.01613 -0.742484 2 35 38 36
0.985971 -0.713094 1.92083 35 38 36
0.956213 -0.684585 1.84404 36 39 36
0.965871 -0.684585 1.84404 38 40 37
1.01025 -0.708948 1.90967 36 38 36
1.10615 -0.768636 2.07045 35 37 35
1.03628 -0.713094 1.92083 35 37 35
0.949051 -0.646792 1.74224 36 38 35
1.01416 -0.684585 1.84404 36 38 36
1.06026 -0.708948 1.90967 36 38 36
1.12089 -0.742484 2 37 38 36
1.13136 -0.742484 2 37 38 36
1.14184 -0.742484 2 37 38 36
1.10027 -0.708948 1.90967 37 38 35
1.16279 -0.742484 2 36 37 35
1.11159 -0.703452 1.89486 35 36 34
1.18374 -0.742484 2 36 38 36
1.11918 -0.695831 1.87433 37 40 37
1.20469 -0.742484 2 36 39 36
1.13882 -0.695831 1.87433 35 38 35
1.10012 -0.666441 1.79517 35 38 36
0.92709 -0.556863 1.5 35 39 36
1.11892 -0.666441 1.79517 35 38 36
-0.520119 -0.302879 0.82751 37 34 29
-0.476127 -0.279591 0.763883 36 35 29
-0.53202 -0.315061 0.860791 36 37 32
-0.460433 -0.274997 0.751332 38 38 34
-0.527325 -0.317664 0.867904 37 38 33
-0.508406 -0.30893 0.844042 37 38 33
-0.543169 -0.332949 0.909666 37 38 33
-0.482051 -0.2981 0.814453 37 38 33
-0.454805 -0.283762 0.775279 37 38 33
-0.482848 -0.303973 0.830499 38 38 33
-0.50082 -0.318154 0.869241 39 38 34
-0.485964 -0.311548 0.851194 39 38 34
-0.473013 -0.306054 0.836183 39 37 34
-0.490015 -0.320018 0.874334 38 36 33
-0.50258 -0.33132 0.905214 37 36 32
-0.484068 -0.322155 0.880174 37 36 32
-0.472774 -0.317664 0.867904 38 37 34
-0.45185 -0.306553 0.837546 38 38 36
-0.483615 -0.33132 0.905214 38 38 35
-0.471026 -0.325891 0.89038 38 37 35
-0.463808 -0.324105 0.885502 38 37 35
-0.44138 -0.311548 0.851194 38 37 35
-0.46465 -0.33132 0.905214 38 37 35
-0.449893 -0.324105 0.885502 38 38 36
-0.431291 -0.31394 0.85773 38 38 36
-0.454659 -0.334434 0.91372 38 39 37
-0.462591 -0.343888 0.939552 38 38 36
-0.456207 -0.342789 0.936549 37 37 35
-0.452749 -0.343888 0.939552 37 38 35
-0.462201 -0.354926 0.969708 38 39 36
-0.442906 -0.343888 0.939552 39 39 36
-0.424053 -0.332949 0.909666 37 37 34
-0.445496 -0.353761 0.966525 36 37 33
-0.428143 -0.343888 0.939552 37 38 34
-0.464777 -0.377654 1.0318 37 38 35
-0.445213 -0.366013 1 37 37 34
-0.453303 -0.3771 1.03029 36 37 34
-0.447906 -0.3771 1.03029 36 37 34
-0.429499 -0.366013 1 37 38 34
-0.424261 -0.366013 1 38 39 34
-0.419024 -0.366013 1 37 38 34
-0.399934 -0.353761 0.966525 37 38 33
-0.422983 -0.378945 1.03533 37 38 34
-0.40331 -0.366013 1 37 38 33
-0.426115 -0.391797 1.07045 36 38 33
-0.422122 -0.393301 1.07455 36 38 34
-0.402999 -0.380557 1.03974 36 38 34
-0.438611 -0.41986 1.14712 36 38 34
-0.408945 -0.396899 1.08438 37 39 35
-0.401324 -0.394989 1.07917 37 39 35
-0.412721 -0.412008 1.12567 37 38 35
-0.409976 -0.4152 1.13439 36 38 35
-0.404034 -0.4152 1.13439 36 37 34
