ply
format ascii 1.0
element vertex 1438
property float x
property float y
property float z
property uchar red
property uchar green
property uchar blue
end_header
0.238417 -0.0510013 1.62567 0 0 0
0.254756 -0.0526171 1.67717 0 0 0
0.267887 -0.0534849 1.70483 0 0 0
0.26978 -0.0521253 1.66149 0 0 0
0.275614 -0.0515885 1.64438 0 0 0
0.292117 -0.0530206 1.69003 0 0 0
0.311886 -0.0549437 1.75133 0 0 0
0.306846 -0.0525115 1.6738 0 0 0
0.313292 -0.0521253 1.66149 0 0 0
0.316742 -0.0512749 1.63439 0 0 0
0.345816 -0.0545083 1.73745 0 0 0
0.351349 -0.0539604 1.71999 0 0 0
0.353673 -0.0529595 1.68808 0 0 0
0.359448 -0.0525115 1.6738 0 0 0
0.365508 -0.0521253 1.66149 0 0 0
0.372964 -0.0519516 1.65596 0 0 0
0.374656 -0.0510013 1.62567 0 0 0
0.394517 -0.0525115 1.6738 0 0 0
0.396196 -0.0515885 1.64438 0 0 0
0.404809 -0.0515885 1.64438 0 0 0
0.432429 -0.0539604 1.71999 0 0 0
0.441438 -0.0539604 1.71999 0 0 0
0.454051 -0.0543922 1.73375 0 0 0
0.466483 -0.0547857 1.74629 0 0 0
0.460306 -0.0530206 1.69003 0 0 0
0.477474 -0.0539604 1.71999 0 0 0
0.482197 -0.0534849 1.70483 0 0 0
0.473712 -0.0515885 1.64438 0 0 0
0.479393 -0.0512749 1.63439 0 0 0
0.504566 -0.0530206 1.69003 0 0 0
0.517915 -0.0534849 1.70483 0 0 0
0.548615 -0.055695 1.77528 0 0 0
0.531122 -0.0530206 1.69003 0 0 0
0.553943 -0.0543922 1.73375 0 0 0
0.564226 -0.0545083 1.73745 0 0 0
0.567032 -0.0539098 1.71838 0 0 0
0.591287 -0.0553375 1.76388 0 0 0
0.585581 -0.0539604 1.71999 0 0 0
0.59459 -0.0539604 1.71999 0 0 0
0.593627 -0.0530689 1.69157 0 0 0
0.628243 -0.0553375 1.76388 0 0 0
0.626591 -0.0543922 1.73375 0 0 0
0.642118 -0.0549437 1.75133 0 0 0
0.655959 -0.0553375 1.76388 0 0 0
0.658564 -0.0547857 1.74629 0 0 0
0.667711 -0.0547857 1.74629 0 0 0
0.670854 -0.0542997 1.7308 0 0 0
0.681077 -0.0543922 1.73375 0 0 0
0.718629 -0.056636 1.80527 0 0 0
0.700732 -0.0545083 1.73745 0 0 0
0.70832 -0.0543922 1.73375 0 0 0
0.717401 -0.0543922 1.73375 0 0 0
0.76577 -0.0573336 1.82751 0 0 0
0.775342 -0.0573336 1.82751 0 0 0
0.739613 -0.0540246 1.72203 0 0 0
0.755334 -0.0545083 1.73745 0 0 0
0.757652 -0.0540246 1.72203 0 0 0
0.794259 -0.0559686 1.784 0 0 0
0.803603 -0.0559686 1.784 0 0 0
0.807297 -0.0555796 1.7716 0 0 0
0.832975 -0.0566958 1.80718 0 0 0
0.842441 -0.0566958 1.80718 0 0 0
0.869284 -0.0578523 1.84404 0 0 0
0.830419 -0.0546584 1.74224 0 0 0
0.858524 -0.0558941 1.78162 0 0 0
0.880303 -0.0566958 1.80718 0 0 0
0.857796 -0.0546584 1.74224 0 0 0
0.838712 -0.0528799 1.68555 0 0 0
0.960234 -0.0599111 1.90967 0 0 0
0.947855 -0.0585291 1.86561 0 0 0
0.912637 -0.0557793 1.77797 0 0 0
0.921949 -0.0557793 1.77797 0 0 0
0.965871 -0.0578523 1.84404 0 0 0
0.991555 -0.0588026 1.87433 0 0 0
0.994137 -0.0583778 1.86079 0 0 0
1.01721 -0.059153 1.8855 0 0 0
1.02709 -0.059153 1.8855 0 0 0
0.987286 -0.056319 1.79517 0 0 0
0.946534 -0.0534849 1.70483 0 0 0
1.00609 -0.056319 1.79517 0 0 0
1.0264 -0.056924 1.81445 0 0 0
1.04069 -0.0571868 1.82283 0 0 0
1.0038 -0.0546584 1.74224 0 0 0
1.05491 -0.056924 1.81445 0 0 0
1.08178 -0.0578523 1.84404 0 0 0
1.07888 -0.0571868 1.82283 0 0 0
1.08843 -0.0571868 1.82283 0 0 0
1.25238 -0.0652288 2.07917 0 0 0
1.21517 -0.0627451 2 0 0 0
1.22564 -0.0627451 2 0 0 0
1.23612 -0.0627451 2 0 0 0
1.06262 -0.0534849 1.70483 0 0 0
-0.607495 -0.0252686 0.966525 0 0 0
-0.557766 -0.0233951 0.894863 0 0 0
-0.61806 -0.0261438 1 0 0 0
-0.612822 -0.0261438 1 0 0 0
-0.587245 -0.0252686 0.966525 0 0 0
-0.602347 -0.0261438 1 0 0 0
-0.57712 -0.0252686 0.966525 0 0 0
-0.591871 -0.0261438 1 0 0 0
-0.545307 -0.0243021 0.929553 0 0 0
-0.561933 -0.0252686 0.966525 0 0 0
-0.55687 -0.0252686 0.966525 0 0 0
-0.549564 -0.0251659 0.962595 0 0 0
-0.548546 -0.0253518 0.969708 0 0 0
-0.597863 -0.0278893 1.06677 0 0 0
-0.572864 -0.0269753 1.0318 0 0 0
-0.549969 -0.0261438 1 0 0 0
-0.562056 -0.0269753 1.0318 0 0 0
-0.575513 -0.0278893 1.06677 0 0 0
-0.584895 -0.0286219 1.09479 0 0 0
-0.568458 -0.0280929 1.07455 0 0 0
-0.592969 -0.0295973 1.1321 0 0 0
-0.518542 -0.0261438 1 0 0 0
-0.549465 -0.0279855 1.07045 0 0 0
-0.571913 -0.0294292 1.12567 0 0 0
-0.558743 -0.029051 1.1112 0 0 0
-0.534688 -0.0280929 1.07455 0 0 0
-0.550449 -0.0292287 1.118 0 0 0
-0.598372 -0.032115 1.2284 0 0 0
-0.552769 -0.02999 1.14712 0 0 0
-0.561086 -0.0307757 1.17717 0 0 0
-0.534752 -0.0296572 1.13439 0 0 0
-0.52881 -0.0296572 1.13439 0 0 0
-0.549803 -0.0311849 1.19282 0 0 0
-0.549028 -0.0314989 1.20483 0 0 0
-0.53605 -0.0311119 1.19003 0 0 0
-0.542436 -0.031853 1.21838 0 0 0
-0.542819 -0.0322549 1.23375 0 0 0
-0.51735 -0.0311119 1.19003 0 0 0
-0.566034 -0.0344547 1.31789 0 0 0
-0.539491 -0.0332444 1.2716 0 0 0
-0.58194 -0.0363085 1.3888 0 0 0
-0.587921 -0.037146 1.42083 0 0 0
-0.538423 -0.0344547 1.31789 0 0 0
-0.546734 -0.0354409 1.35562 0 0 0
-0.561149 -0.036854 1.40967 0 0 0
-0.539886 -0.0359303 1.37433 0 0 0
-0.540645 -0.036467 1.39486 0 0 0
-0.533339 -0.036467 1.39486 0 0 0
-0.531615 -0.036854 1.40967 0 0 0
-0.536362 -0.0377068 1.44228 0 0 0
-0.497031 -0.0354409 1.35562 0 0 0
-0.526796 -0.0381077 1.45762 0 0 0
-0.534255 -0.0392157 1.5 0 0 0
-0.482298 -0.0359303 1.37433 0 0 0
-0.535437 -0.0404935 1.54887 0 0 0
-0.559842 -0.0429904 1.64438 0 0 0
-0.538072 -0.0419644 1.60514 0 0 0
-0.514017 -0.0407246 1.55772 0 0 0
-0.521258 -0.0419644 1.60514 0 0 0
-0.533415 -0.0436471 1.6695 0 0 0
-0.527081 -0.0438476 1.67717 0 0 0
-0.535781 -0.0453268 1.73375 0 0 0
-0.493865 -0.0425011 1.62567 0 0 0
-0.498437 -0.0436471 1.6695 0 0 0
-0.466471 -0.0415774 1.59033 0 0 0
-0.46832 -0.0425011 1.62567 0 0 0
-0.482197 -0.0445708 1.70483 0 0 0
-0.45505 -0.0428551 1.63921 0 0 0
-0.452533 -0.0434377 1.66149 0 0 0
-0.448019 -0.0438476 1.67717 0 0 0
-0.4213 -0.0420573 1.60869 0 0 0
-0.44497 -0.0453268 1.73375 0 0 0
-0.44633 -0.0464125 1.77528 0 0 0
-0.404809 -0.0429904 1.64438 0 0 0
-0.414411 -0.044967 1.71999 0 0 0
-0.409519 -0.0454236 1.73745 0 0 0
-0.400418 -0.0454236 1.73745 0 0 0
-0.376983 -0.0437595 1.6738 0 0 0
-0.368216 -0.0437595 1.6738 0 0 0
-0.362933 -0.0441838 1.69003 0 0 0
-0.345858 -0.0431577 1.65078 0 0 0
-0.334249 -0.0427784 1.63628 0 0 0
-0.34234 -0.044967 1.71999 0 0 0
-0.327525 -0.0441838 1.69003 0 0 0
-0.321464 -0.0445708 1.70483 0 0 0
-0.309821 -0.0441838 1.69003 0 0 0
-0.301244 -0.0442241 1.69157 0 0 0
-0.287185 -0.0434377 1.66149 0 0 0
-0.275614 -0.0429904 1.64438 0 0 0
-0.272325 -0.0438476 1.67717 0 0 0
-0.273012 -0.0454236 1.73745 0 0 0
-0.254244 -0.0437595 1.6738 0 0 0
-0.25225 -0.044967 1.71999 0 0 0
-0.239005 -0.0441838 1.69003 0 0 0
-0.223937 -0.0429904 1.64438 0 0 0
-0.223239 -0.0445708 1.70483 0 0 0
-0.207515 -0.0431577 1.65078 0 0 0
-0.203597 -0.0441838 1.69003 0 0 0
-0.193263 -0.0438476 1.67717 0 0 0
-0.189188 -0.044967 1.71999 0 0 0
-0.171212 -0.0427291 1.63439 0 0 0
-0.162651 -0.0427291 1.63439 0 0 0
-0.151333 -0.0419644 1.60514 0 0 0
-0.14553 -0.0427291 1.63439 0 0 0
-0.133851 -0.0417563 1.59718 0 0 0
-0.13177 -0.0438476 1.67717 0 0 0
-0.123928 -0.0441838 1.69003 0 0 0
-0.115181 -0.0442241 1.69157 0 0 0
-0.108006 -0.0449249 1.71838 0 0 0
-0.0947425 -0.0429904 1.64438 0 0 0
-0.0864646 -0.0431577 1.65078 0 0 0
-0.0778182 -0.0431577 1.65078 0 0 0
-0.0687778 -0.0429119 1.64138 0 0 0
-0.0634591 -0.0452497 1.7308 0 0 0
-0.0531122 -0.0441838 1.69003 0 0 0
-0.0439234 -0.0438476 1.67717 0 0 0
-0.0351955 -0.0439184 1.67988 0 0 0
-0.026354 -0.0438476 1.67717 0 0 0
-0.0172929 -0.0431577 1.65078 0 0 0
-0.00861295 -0.0429904 1.64438 0 0 0
0 -0.0429904 1.64438 0 0 0
0.00856058 -0.0427291 1.63439 0 0 0
0.0183462 -0.0457865 1.75133 0 0 0
0.026354 -0.0438476 1.67717 0 0 0
0.0340596 -0.0425011 1.62567 0 0 0
0.0436283 -0.0435531 1.6659 0 0 0
0.0535774 -0.0445708 1.70483 0 0 0
0.0605252 -0.0431577 1.65078 0 0 0
0.0702774 -0.0438476 1.67717 0 0 0
0.0770452 -0.0427291 1.63439 0 0 0
0.0878468 -0.0438476 1.67717 0 0 0
0.0954093 -0.043293 1.65596 0 0 0
0.104431 -0.0434377 1.66149 0 0 0
0.112404 -0.0431577 1.65078 0 0 0
0.12143 -0.043293 1.65596 0 0 0
0.129697 -0.0431577 1.65078 0 0 0
0.141762 -0.0442241 1.69157 0 0 0
0.153152 -0.044967 1.71999 0 0 0
0.156646 -0.0434377 1.66149 0 0 0
0.166909 -0.0438476 1.67717 0 0 0
0.18001 -0.0449249 1.71838 0 0 0
0.187521 -0.0445708 1.70483 0 0 0
0.193263 -0.0438476 1.67717 0 0 0
0.196893 -0.0427291 1.63439 0 0 0
0.199916 -0.0415774 1.59033 0 0 0
0.216162 -0.0431577 1.65078 0 0 0
0.226267 -0.0434377 1.66149 0 0 0
0.241098 -0.0445708 1.70483 0 0 0
0.254269 -0.0453268 1.73375 0 0 0
0.256709 -0.0441838 1.69003 0 0 0
0.26354 -0.0438476 1.67717 0 0 0
0.270496 -0.0435531 1.6659 0 0 0
0.288286 -0.044967 1.71999 0 0 0
0.300314 -0.0454236 1.73745 0 0 0
0.306304 -0.044967 1.71999 0 0 0
0.312535 -0.0445708 1.70483 0 0 0
0.324018 -0.0449249 1.71838 0 0 0
0.333331 -0.044967 1.71999 0 0 0
0.333147 -0.0437595 1.6738 0 0 0
0.348253 -0.0445708 1.70483 0 0 0
0.360358 -0.044967 1.71999 0 0 0
0.369367 -0.044967 1.71999 0 0 0
0.365508 -0.0434377 1.66149 0 0 0
0.370357 -0.0429904 1.64438 0 0 0
0.382913 -0.0434377 1.66149 0 0 0
0.387583 -0.0429904 1.64438 0 0 0
0.427733 -0.0464125 1.77528 0 0 0
0.404809 -0.0429904 1.64438 0 0 0
0.44031 -0.0457865 1.75133 0 0 0
0.423677 -0.0431577 1.65078 0 0 0
0.446478 -0.0445708 1.70483 0 0 0
0.451454 -0.0441838 1.69003 0 0 0
0.468465 -0.044967 1.71999 0 0 0
0.481295 -0.0453268 1.73375 0 0 0
0.477459 -0.0441329 1.68808 0 0 0
0.478641 -0.0434377 1.66149 0 0 0
0.500056 -0.0445708 1.70483 0 0 0
0.508985 -0.0445708 1.70483 0 0 0
0.509511 -0.0438476 1.67717 0 0 0
0.541214 -0.0457865 1.75133 0 0 0
0.554332 -0.0461146 1.76388 0 0 0
0.549546 -0.044967 1.71999 0 0 0
0.57651 -0.0464125 1.77528 0 0 0
0.580028 -0.0459546 1.75776 0 0 0
0.580198 -0.0452497 1.7308 0 0 0
0.575382 -0.0441838 1.69003 0 0 0
0.603684 -0.0456547 1.74629 0 0 0
0.593086 -0.0441838 1.69003 0 0 0
0.61751 -0.0453268 1.73375 0 0 0
0.637481 -0.0461146 1.76388 0 0 0
0.640271 -0.0456547 1.74629 0 0 0
0.62246 -0.0437595 1.6738 0 0 0
0.652723 -0.0452497 1.7308 0 0 0
0.657653 -0.044967 1.71999 0 0 0
0.676858 -0.0456547 1.74629 0 0 0
0.675671 -0.044967 1.71999 0 0 0
0.718629 -0.0471966 1.80527 0 0 0
0.724009 -0.0469325 1.79517 0 0 0
0.720631 -0.0461146 1.76388 0 0 0
0.722591 -0.0456547 1.74629 0 0 0
0.701363 -0.0437595 1.6738 0 0 0
0.76162 -0.0469325 1.79517 0 0 0
0.766226 -0.0466405 1.784 0 0 0
0.747742 -0.044967 1.71999 0 0 0
0.770542 -0.0457865 1.75133 0 0 0
0.804578 -0.0472465 1.80718 0 0 0
0.814044 -0.0472465 1.80718 0 0 0
0.812948 -0.0466405 1.784 0 0 0
0.816576 -0.0463163 1.7716 0 0 0
0.842441 -0.0472465 1.80718 0 0 0
0.846245 -0.0469325 1.79517 0 0 0
0.793041 -0.0434985 1.66382 0 0 0
0.82152 -0.0445708 1.70483 0 0 0
0.84867 -0.0455487 1.74224 0 0 0
0.883856 -0.0469325 1.79517 0 0 0
0.923337 -0.0485128 1.85562 0 0 0
0.952791 -0.0495389 1.89486 0 0 0
0.912064 -0.0469325 1.79517 0 0 0
0.906623 -0.0461765 1.76625 0 0 0
0.906758 -0.0457168 1.74867 0 0 0
0.950373 -0.0474367 1.81445 0 0 0
0.929887 -0.0459546 1.75776 0 0 0
1.03768 -0.0507787 1.94228 0 0 0
1.05262 -0.0510098 1.95113 0 0 0
1.02101 -0.0490022 1.87433 0 0 0
1.06504 -0.0506287 1.93655 0 0 0
1.04684 -0.0492942 1.8855 0 0 0
1.08533 -0.0506287 1.93655 0 0 0
1.09872 -0.0507787 1.94228 0 0 0
1.0528 -0.0482102 1.84404 0 0 0
1.02072 -0.0463163 1.7716 0 0 0
1.11027 -0.0499259 1.90967 0 0 0
1.12682 -0.0502179 1.92083 0 0 0
1.09143 -0.0482102 1.84404 0 0 0
1.08843 -0.0476557 1.82283 0 0 0
1.11075 -0.0482102 1.84404 0 0 0
1.16028 -0.0499259 1.90967 0 0 0
1.22564 -0.0522876 2 0 0 0
1.18029 -0.0499259 1.90967 0 0 0
1.03215 -0.043293 1.65596 0 0 0
-0.606328 -0.0201761 0.964669 0 0 0
-0.579388 -0.0194416 0.929553 0 0 0
-0.599337 -0.0202815 0.969708 0 0 0
-0.612822 -0.020915 1 0 0 0
-0.564782 -0.0194416 0.929553 0 0 0
-0.56213 -0.0195186 0.933233 0 0 0
-0.576012 -0.0201761 0.964669 0 0 0
-0.570959 -0.0201761 0.964669 0 0 0
-0.566995 -0.0202149 0.966525 0 0 0
-0.581395 -0.020915 1 0 0 0
-0.576158 -0.020915 1 0 0 0
-0.591091 -0.021654 1.03533 0 0 0
-0.585668 -0.021654 1.03533 0 0 0
-0.560444 -0.020915 1 0 0 0
-0.594319 -0.0223884 1.07045 0 0 0
-0.549969 -0.020915 1 0 0 0
-0.565106 -0.0216974 1.03741 0 0 0
-0.558554 -0.021654 1.03533 0 0 0
-0.534255 -0.020915 1 0 0 0
-0.587844 -0.0232408 1.1112 0 0 0
-0.52378 -0.020915 1 0 0 0
-0.555071 -0.0223884 1.07045 0 0 0
-0.58882 -0.023992 1.14712 0 0 0
-0.541988 -0.0223115 1.06677 0 0 0
-0.520594 -0.021654 1.03533 0 0 0
-0.560121 -0.0235433 1.12567 0 0 0
-0.544117 -0.023114 1.10514 0 0 0
-0.544593 -0.0233829 1.118 0 0 0
-0.538737 -0.0233829 1.118 0 0 0
-0.561086 -0.0246206 1.17717 0 0 0
-0.534752 -0.0237257 1.13439 0 0 0
-0.543503 -0.0243849 1.1659 0 0 0
-0.542589 -0.0246206 1.17717 0 0 0
-0.562205 -0.0258039 1.23375 0 0 0
-0.520702 -0.0241769 1.15596 0 0 0
-0.529817 -0.0248895 1.19003 0 0 0
-0.553384 -0.0263061 1.25776 0 0 0
-0.536357 -0.0258039 1.23375 0 0 0
-0.556273 -0.0270885 1.29517 0 0 0
-0.539491 -0.0265955 1.2716 0 0 0
-0.520527 -0.0259814 1.24224 0 0 0
-0.547368 -0.027667 1.32283 0 0 0
-0.529138 -0.0270885 1.29517 0 0 0
-0.533511 -0.027667 1.32283 0 0 0
-0.539633 -0.0283527 1.35562 0 0 0
-0.547951 -0.0291736 1.39486 0 0 0
-0.546382 -0.0294832 1.40967 0 0 0
-0.589742 -0.0322589 1.54238 0 0 0
-0.54725 -0.0303503 1.45113 0 0 0
-0.504131 -0.0283527 1.35562 0 0 0
-0.549969 -0.0313726 1.5 0 0 0
-0.526796 -0.0304862 1.45762 0 0 0
-0.534255 -0.0313726 1.5 0 0 0
-0.54355 -0.0323948 1.54887 0 0 0
-0.49859 -0.0301654 1.44228 0 0 0
-0.559842 -0.0343924 1.64438 0 0 0
-0.519212 -0.0323948 1.54887 0 0 0
-0.529665 -0.0335715 1.60514 0 0 0
-0.527924 -0.0340009 1.62567 0 0 0
-0.497699 -0.0325797 1.55772 0 0 0
-0.527081 -0.0350781 1.67717 0 0 0
-0.563309 -0.0381245 1.82283 0 0 0
-0.538198 -0.0370531 1.7716 0 0 0
-0.535955 -0.037546 1.79517 0 0 0
-0.491942 -0.0350781 1.67717 0 0 0
-0.491126 -0.0356566 1.70483 0 0 0
-0.482197 -0.0356566 1.70483 0 0 0
-0.467913 -0.0352533 1.68555 0 0 0
-0.469023 -0.0360164 1.72203 0 0 0
-0.469547 -0.0367636 1.75776 0 0 0
-0.438352 -0.0350076 1.6738 0 0 0
-0.426426 -0.0347502 1.66149 0 0 0
-0.413422 -0.0343924 1.64438 0 0 0
-0.41969 -0.0356566 1.70483 0 0 0
-0.400318 -0.0347502 1.66149 0 0 0
-0.394517 -0.0350076 1.6738 0 0 0
-0.386526 -0.0350781 1.67717 0 0 0
-0.390484 -0.0362614 1.73375 0 0 0
-0.357626 -0.0340009 1.62567 0 0 0
-0.366112 -0.0356566 1.70483 0 0 0
-0.360358 -0.0359736 1.71999 0 0 0
-0.341914 -0.0350076 1.6738 0 0 0
-0.330698 -0.0347502 1.66149 0 0 0
-0.330394 -0.0356566 1.70483 0 0 0
-0.318964 -0.0353793 1.69157 0 0 0
-0.309821 -0.035347 1.69003 0 0 0
-0.303605 -0.0356566 1.70483 0 0 0
-0.297017 -0.0359399 1.71838 0 0 0
-0.288016 -0.0359399 1.71838 0 0 0
-0.279277 -0.0359736 1.71999 0 0 0
-0.261077 -0.0347502 1.66149 0 0 0
-0.258957 -0.0356566 1.70483 0 0 0
-0.23424 -0.0334051 1.59718 0 0 0
-0.244771 -0.0361998 1.7308 0 0 0
-0.226867 -0.0348425 1.6659 0 0 0
-0.219617 -0.0350781 1.67717 0 0 0
-0.21431 -0.0356566 1.70483 0 0 0
-0.20538 -0.0356566 1.70483 0 0 0
-0.19645 -0.0356566 1.70483 0 0 0
-0.182754 -0.0347502 1.66149 0 0 0
-0.178591 -0.0356566 1.70483 0 0 0
-0.162839 -0.0342228 1.63628 0 0 0
-0.157807 -0.0350076 1.6738 0 0 0
-0.151803 -0.0356566 1.70483 0 0 0
-0.140273 -0.0350076 1.6738 0 0 0
-0.130885 -0.0348425 1.6659 0 0 0
-0.124041 -0.0353793 1.69157 0 0 0
-0.115076 -0.035347 1.69003 0 0 0
-0.103758 -0.0345262 1.65078 0 0 0
-0.0966315 -0.0350781 1.67717 0 0 0
-0.0878468 -0.0350781 1.67717 0 0 0
-0.0778182 -0.0345262 1.65078 0 0 0
-0.0689036 -0.0343924 1.64438 0 0 0
-0.0614928 -0.0350781 1.67717 0 0 0
-0.0527081 -0.0350781 1.67717 0 0 0
-0.0442602 -0.035347 1.69003 0 0 0
-0.0338691 -0.0338107 1.61657 0 0 0
-0.0267887 -0.0356566 1.70483 0 0 0
-0.0177202 -0.0353793 1.69157 0 0 0
-0.00842601 -0.0336459 1.60869 0 0 0
0 -0.0356566 1.70483 0 0 0
0.00856058 -0.0341832 1.63439 0 0 0
0.0175341 -0.0350076 1.6738 0 0 0
0.0258389 -0.0343924 1.64438 0 0 0
0.0344518 -0.0343924 1.64438 0 0 0
0.0442602 -0.035347 1.69003 0 0 0
0.0518788 -0.0345262 1.65078 0 0 0
0.0592709 -0.0338107 1.61657 0 0 0
0.0698053 -0.0348425 1.6659 0 0 0
0.0778182 -0.0345262 1.65078 0 0 0
0.0878468 -0.0350781 1.67717 0 0 0
0.09314 -0.0338107 1.61657 0 0 0
0.108006 -0.0359399 1.71838 0 0 0
0.110075 -0.0338107 1.61657 0 0 0
0.119848 -0.0341832 1.63439 0 0 0
0.127724 -0.0340009 1.62567 0 0 0
0.140555 -0.0350781 1.67717 0 0 0
0.14934 -0.0350781 1.67717 0 0 0
0.152411 -0.0338107 1.61657 0 0 0
0.164283 -0.0345262 1.65078 0 0 0
0.177202 -0.0353793 1.69157 0 0 0
0.184478 -0.0350781 1.67717 0 0 0
0.189485 -0.0343924 1.64438 0 0 0
0.196893 -0.0341832 1.63439 0 0 0
0.210409 -0.0350076 1.6738 0 0 0
0.217564 -0.0347502 1.66149 0 0 0
0.224808 -0.0345262 1.65078 0 0 0
0.234186 -0.0346344 1.65596 0 0 0
0.243672 -0.0347502 1.66149 0 0 0
0.254244 -0.0350076 1.6738 0 0 0
0.265561 -0.035347 1.69003 0 0 0
0.268881 -0.0346344 1.65596 0 0 0
0.292695 -0.0365238 1.74629 0 0 0
0.292117 -0.035347 1.69003 0 0 0
0.294901 -0.0346344 1.65596 0 0 0
0.312535 -0.0356566 1.70483 0 0 0
0.316248 -0.0350781 1.67717 0 0 0
0.333019 -0.0359399 1.71838 0 0 0
0.329596 -0.0346344 1.65596 0 0 0
0.345229 -0.035347 1.69003 0 0 0
0.357183 -0.0356566 1.70483 0 0 0
0.359448 -0.0350076 1.6738 0 0 0
0.381403 -0.0362614 1.73375 0 0 0
0.394444 -0.0366292 1.75133 0 0 0
0.382913 -0.0347502 1.66149 0 0 0
0.398342 -0.035347 1.69003 0 0 0
0.41076 -0.0356566 1.70483 0 0 0
0.412051 -0.0350076 1.6738 0 0 0
0.428619 -0.0356566 1.70483 0 0 0
0.430449 -0.0350781 1.67717 0 0 0
0.457336 -0.0365238 1.74629 0 0 0
0.459456 -0.0359736 1.71999 0 0 0
0.468465 -0.0359736 1.71999 0 0 0
0.473267 -0.0356566 1.70483 0 0 0
0.491422 -0.0363389 1.73745 0 0 0
0.486862 -0.035347 1.69003 0 0 0
0.500056 -0.0356566 1.70483 0 0 0
0.504566 -0.035347 1.69003 0 0 0
0.513418 -0.035347 1.69003 0 0 0
0.53103 -0.0359399 1.71838 0 0 0
0.527081 -0.0350781 1.67717 0 0 0
0.539974 -0.035347 1.69003 0 0 0
0.553633 -0.0356566 1.70483 0 0 0
0.595706 -0.0377573 1.80527 0 0 0
0.598589 -0.0373473 1.78567 0 0 0
0.580422 -0.0356566 1.70483 0 0 0
0.594033 -0.0359399 1.71838 0 0 0
0.612831 -0.0365238 1.74629 0 0 0
0.596159 -0.0350076 1.6738 0 0 0
0.631124 -0.0365238 1.74629 0 0 0
0.62507 -0.0356566 1.70483 0 0 0
0.649417 -0.0365238 1.74629 0 0 0
0.658564 -0.0365238 1.74629 0 0 0
0.657653 -0.0359736 1.71999 0 0 0
0.670854 -0.0361998 1.7308 0 0 0
0.692915 -0.0368917 1.76388 0 0 0
0.672755 -0.035347 1.69003 0 0 0
0.708924 -0.0367636 1.75776 0 0 0
0.715503 -0.0366292 1.75133 0 0 0
0.742815 -0.037546 1.79517 0 0 0
0.756451 -0.0377573 1.80527 0 0 0
0.76162 -0.037546 1.79517 0 0 0
0.780784 -0.0380213 1.81789 0 0 0
0.780426 -0.037546 1.79517 0 0 0
0.804058 -0.0382224 1.82751 0 0 0
0.788738 -0.0370531 1.7716 0 0 0
0.798018 -0.0370531 1.7716 0 0 0
0.818037 -0.037546 1.79517 0 0 0
0.793731 -0.0360164 1.72203 0 0 0
0.778261 -0.0349177 1.6695 0 0 0
0.859285 -0.0381245 1.82283 0 0 0
0.868832 -0.0381245 1.82283 0 0 0
0.86505 -0.037546 1.79517 0 0 0
0.926892 -0.0397975 1.90282 0 0 0
0.907919 -0.0385682 1.84404 0 0 0
0.900624 -0.0378556 1.80997 0 0 0
0.87928 -0.0365735 1.74867 0 0 0
0.912064 -0.037546 1.79517 0 0 0
0.912637 -0.0371862 1.77797 0 0 0
0.956213 -0.0385682 1.84404 0 0 0
0.940272 -0.037546 1.79517 0 0 0
0.940575 -0.0371862 1.77797 0 0 0
0.939093 -0.0367636 1.75776 0 0 0
0.994848 -0.0385682 1.84404 0 0 0
0.909429 -0.0349177 1.6695 0 0 0
1.03082 -0.0392018 1.87433 0 0 0
0.975921 -0.0367636 1.75776 0 0 0
1.05672 -0.0394353 1.8855 0 0 0
1.01549 -0.037546 1.79517 0 0 0
1.0249 -0.037546 1.79517 0 0 0
1.0038 -0.036439 1.74224 0 0 0
1.07212 -0.0385682 1.84404 0 0 0
1.06933 -0.0381245 1.82283 0 0 0
1.06251 -0.037546 1.79517 0 0 0
1.05784 -0.0370531 1.7716 0 0 0
1.0269 -0.0356566 1.70483 0 0 0
1.10752 -0.0381245 1.82283 0 0 0
1.14033 -0.0389185 1.86079 0 0 0
1.18719 -0.0401743 1.92083 0 0 0
1.2466 -0.0418301 2 0 0 0
-0.605025 -0.0150995 0.962595 0 0 0
-0.557766 -0.0140371 0.894863 0 0 0
-0.594941 -0.0150995 0.962595 0 0 0
-0.59117 -0.0151321 0.964669 0 0 0
-0.586118 -0.0151321 0.964669 0 0 0
-0.582183 -0.0151612 0.966525 0 0 0
-0.576012 -0.0151321 0.964669 0 0 0
-0.591871 -0.0156863 1 0 0 0
-0.586633 -0.0156863 1 0 0 0
-0.581395 -0.0156863 1 0 0 0
-0.595445 -0.0162114 1.03348 0 0 0
-0.57092 -0.0156863 1 0 0 0
-0.544523 -0.0150995 0.962595 0 0 0
-0.560444 -0.0156863 1 0 0 0
-0.613579 -0.0173355 1.10514 0 0 0
-0.5694 -0.0162405 1.03533 0 0 0
-0.565106 -0.016273 1.03741 0 0 0
-0.539493 -0.0156863 1 0 0 0
-0.587518 -0.0172501 1.0997 0 0 0
-0.566285 -0.0167913 1.07045 0 0 0
-0.562829 -0.0168557 1.07455 0 0 0
-0.557201 -0.0168557 1.07455 0 0 0
-0.513304 -0.0156863 1 0 0 0
-0.568016 -0.0175372 1.118 0 0 0
-0.56216 -0.0175372 1.118 0 0 0
-0.560121 -0.0176575 1.12567 0 0 0
-0.58729 -0.0187109 1.19282 0 0 0
-0.554926 -0.0178699 1.13921 0 0 0
-0.587108 -0.0191118 1.21838 0 0 0
-0.555716 -0.0182887 1.1659 0 0 0
-0.534752 -0.0177943 1.13439 0 0 0
-0.533471 -0.0179511 1.14438 0 0 0
-0.555339 -0.0188993 1.20483 0 0 0
-0.5552 -0.0191118 1.21838 0 0 0
-0.542717 -0.0188993 1.20483 0 0 0
-0.56777 -0.0200044 1.27528 0 0 0
-0.542819 -0.0193529 1.23375 0 0 0
-0.523785 -0.0188993 1.20483 0 0 0
-0.556273 -0.0203163 1.29517 0 0 0
-0.549489 -0.0203163 1.29517 0 0 0
-0.542706 -0.0203163 1.29517 0 0 0
-0.535922 -0.0203163 1.29517 0 0 0
-0.538423 -0.0206728 1.31789 0 0 0
-0.522354 -0.0203163 1.29517 0 0 0
-0.539633 -0.0212646 1.35562 0 0 0
-0.558152 -0.0222876 1.42083 0 0 0
-0.55071 -0.0222876 1.42083 0 0 0
-0.525489 -0.0215582 1.37433 0 0 0
-0.511231 -0.0212646 1.35562 0 0 0
-0.557825 -0.0235294 1.5 0 0 0
-0.549969 -0.0235294 1.5 0 0 0
-0.559775 -0.0242961 1.54887 0 0 0
-0.585681 -0.0257943 1.64438 0 0 0
-0.526398 -0.0235294 1.5 0 0 0
-0.518542 -0.0235294 1.5 0 0 0
-0.527325 -0.0242961 1.54887 0 0 0
-0.53311 -0.0249464 1.59033 0 0 0
-0.529665 -0.0251786 1.60514 0 0 0
-0.542159 -0.0261883 1.6695 0 0 0
-0.479258 -0.0235294 1.5 0 0 0
-0.516777 -0.0257943 1.64438 0 0 0
-0.515926 -0.0261883 1.6695 0 0 0
-0.538198 -0.0277898 1.7716 0 0 0
-0.500727 -0.0263086 1.67717 0 0 0
-0.519639 -0.0277898 1.7716 0 0 0
-0.483157 -0.0263086 1.67717 0 0 0
-0.499568 -0.0277059 1.76625 0 0 0
-0.473267 -0.0267425 1.70483 0 0 0
-0.455886 -0.0262557 1.6738 0 0 0
-0.455408 -0.0267425 1.70483 0 0 0
-0.432323 -0.0258946 1.65078 0 0 0
-0.44592 -0.0272541 1.73745 0 0 0
-0.443465 -0.0276688 1.76388 0 0 0
-0.42342 -0.0269802 1.71999 0 0 0
-0.414411 -0.0269802 1.71999 0 0 0
-0.40183 -0.0267425 1.70483 0 0 0
-0.38575 -0.0262557 1.6738 0 0 0
-0.370357 -0.0257943 1.64438 0 0 0
-0.381403 -0.0271961 1.73375 0 0 0
-0.353131 -0.0257943 1.64438 0 0 0
-0.354081 -0.0265103 1.69003 0 0 0
-0.348253 -0.0267425 1.70483 0 0 0
-0.328566 -0.0258946 1.65078 0 0 0
-0.330394 -0.0267425 1.70483 0 0 0
-0.321464 -0.0267425 1.70483 0 0 0
-0.296355 -0.025358 1.61657 0 0 0
-0.298679 -0.0263086 1.67717 0 0 0
-0.297295 -0.0269802 1.71999 0 0 0
-0.275614 -0.0257943 1.64438 0 0 0
-0.274413 -0.0265103 1.69003 0 0 0
-0.265803 -0.0265345 1.69157 0 0 0
-0.254756 -0.0263086 1.67717 0 0 0
-0.242101 -0.0258946 1.65078 0 0 0
-0.241098 -0.0267425 1.70483 0 0 0
-0.216576 -0.0249464 1.59033 0 0 0
-0.214015 -0.0256374 1.63439 0 0 0
-0.21431 -0.0267425 1.70483 0 0 0
-0.200159 -0.0260627 1.66149 0 0 0
-0.189485 -0.0257943 1.64438 0 0 0
-0.185679 -0.0264797 1.68808 0 0 0
-0.175694 -0.0263086 1.67717 0 0 0
-0.164798 -0.0259758 1.65596 0 0 0
-0.159337 -0.0265103 1.69003 0 0 0
-0.147944 -0.0260627 1.66149 0 0 0
-0.141762 -0.0265345 1.69157 0 0 0
-0.13278 -0.0265103 1.69003 0 0 0
-0.11712 -0.0250538 1.59718 0 0 0
-0.113133 -0.0260627 1.66149 0 0 0
-0.103167 -0.0257472 1.64138 0 0 0
-0.0947425 -0.0257943 1.64438 0 0 0
-0.0878468 -0.0263086 1.67717 0 0 0
-0.0790621 -0.0263086 1.67717 0 0 0
-0.0702774 -0.0263086 1.67717 0 0 0
-0.0620207 -0.0265345 1.69157 0 0 0
-0.0522154 -0.0260627 1.66149 0 0 0
-0.0435128 -0.0260627 1.66149 0 0 0
-0.0354081 -0.0265103 1.69003 0 0 0
-0.0255447 -0.0255006 1.62567 0 0 0
-0.0171944 -0.0257472 1.64138 0 0 0
-0.00878468 -0.0263086 1.67717 0 0 0
0 -0.0260627 1.66149 0 0 0
0.00885203 -0.0265103 1.69003 0 0 0
0.0174051 -0.0260627 1.66149 0 0 0
0.0248961 -0.0248531 1.58438 0 0 0
0.0334628 -0.0250538 1.59718 0 0 0
0.0446478 -0.0267425 1.70483 0 0 0
0.0531122 -0.0265103 1.69003 0 0 0
0.0605252 -0.0258946 1.65078 0 0 0
0.0669256 -0.0250538 1.59718 0 0 0
0.0758341 -0.0252344 1.60869 0 0 0
0.0908103 -0.0271961 1.73375 0 0 0
0.0973724 -0.0265103 1.69003 0 0 0
0.105416 -0.0263086 1.67717 0 0 0
0.116084 -0.0267425 1.70483 0 0 0
0.119209 -0.0255006 1.62567 0 0 0
0.124948 -0.0249464 1.59033 0 0 0
0.140555 -0.0263086 1.67717 0 0 0
0.150485 -0.0265103 1.69003 0 0 0
0.159337 -0.0265103 1.69003 0 0 0
0.160094 -0.0252344 1.60869 0 0 0
0.164514 -0.0246345 1.57045 0 0 0
0.182754 -0.0260627 1.66149 0 0 0
0.194745 -0.0265103 1.69003 0 0 0
0.20538 -0.0267425 1.70483 0 0 0
0.208862 -0.0260627 1.66149 0 0 0
0.212873 -0.0255006 1.62567 0 0 0
0.230363 -0.0265345 1.69157 0 0 0
0.243241 -0.0269802 1.71999 0 0 0
0.250028 -0.0267425 1.70483 0 0 0
0.254244 -0.0262557 1.6738 0 0 0
0.261077 -0.0260627 1.66149 0 0 0
0.271778 -0.0262557 1.6738 0 0 0
0.283265 -0.0265103 1.69003 0 0 0
0.287185 -0.0260627 1.66149 0 0 0
0.29398 -0.0258946 1.65078 0 0 0
0.307464 -0.0263086 1.67717 0 0 0
0.326917 -0.0271961 1.73375 0 0 0
0.327525 -0.0265103 1.69003 0 0 0
0.336377 -0.0265103 1.69003 0 0 0
0.342602 -0.0263086 1.67717 0 0 0
0.357183 -0.0267425 1.70483 0 0 0
0.362933 -0.0265103 1.69003 0 0 0
0.368957 -0.0263086 1.67717 0 0 0
0.383971 -0.0267425 1.70483 0 0 0
0.384758 -0.0261883 1.6695 0 0 0
0.405402 -0.0269802 1.71999 0 0 0
0.393787 -0.0256374 1.63439 0 0 0
0.41969 -0.0267425 1.70483 0 0 0
0.441926 -0.0275727 1.75776 0 0 0
0.429585 -0.0262557 1.6738 0 0 0
0.446478 -0.0267425 1.70483 0 0 0
0.459026 -0.0269549 1.71838 0 0 0
0.464337 -0.0267425 1.70483 0 0 0
0.456486 -0.0257943 1.64438 0 0 0
0.482197 -0.0267425 1.70483 0 0 0
0.508137 -0.0276688 1.76388 0 0 0
0.513695 -0.0274719 1.75133 0 0 0
0.482635 -0.025358 1.61657 0 0 0
0.508488 -0.0262557 1.6738 0 0 0
0.52227 -0.0265103 1.69003 0 0 0
0.560654 -0.0279843 1.784 0 0 0
0.549546 -0.0269802 1.71999 0 0 0
0.558554 -0.0269802 1.71999 0 0 0
0.572105 -0.0271961 1.73375 0 0 0
0.581186 -0.0271961 1.73375 0 0 0
0.604406 -0.0278475 1.77528 0 0 0
0.584767 -0.0265345 1.69157 0 0 0
0.588574 -0.0263086 1.67717 0 0 0
0.632301 -0.0278475 1.77528 0 0 0
0.606143 -0.0263086 1.67717 0 0 0
0.630035 -0.0269549 1.71838 0 0 0
0.639635 -0.0269802 1.71999 0 0 0
0.669496 -0.0278475 1.77528 0 0 0
0.674437 -0.0276688 1.76388 0 0 0
0.678811 -0.0274719 1.75133 0 0 0
0.663903 -0.0265103 1.69003 0 0 0
0.690158 -0.0271961 1.73375 0 0 0
0.715988 -0.0278475 1.77528 0 0 0
0.713444 -0.0273928 1.74629 0 0 0
0.711706 -0.0269802 1.71999 0 0 0
0.726482 -0.0271961 1.73375 0 0 0
0.771262 -0.028516 1.81789 0 0 0
0.757587 -0.0276688 1.76388 0 0 0
0.747742 -0.0269802 1.71999 0 0 0
0.779459 -0.0277898 1.7716 0 0 0
0.773535 -0.0272541 1.73745 0 0 0
0.808634 -0.0281595 1.79517 0 0 0
0.812948 -0.0279843 1.784 0 0 0
0.810198 -0.0275727 1.75776 0 0 0
0.842441 -0.0283479 1.80718 0 0 0
0.828612 -0.0275727 1.75776 0 0 0
0.830419 -0.0273292 1.74224 0 0 0
0.872183 -0.0283917 1.80997 0 0 0
0.908768 -0.0292645 1.86561 0 0 0
0.891144 -0.0283917 1.80997 0 0 0
0.878869 -0.0277059 1.76625 0 0 0
0.895851 -0.027947 1.78162 0 0 0
0.919584 -0.0283917 1.80997 0 0 0
0.921467 -0.0281595 1.79517 0 0 0
0.930869 -0.0281595 1.79517 0 0 0
0.958778 -0.0287137 1.8305 0 0 0
0.997463 -0.0295765 1.8855 0 0 0
1.00137 -0.0294013 1.87433 0 0 0
0.935346 -0.0271961 1.73375 0 0 0
0.944427 -0.0271961 1.73375 0 0 0
0.987286 -0.0281595 1.79517 0 0 0
1.04684 -0.0295765 1.8855 0 0 0
1.03348 -0.0289261 1.84404 0 0 0
1.09547 -0.0303772 1.93655 0 0 0
1.0528 -0.0289261 1.84404 0 0 0
1.11576 -0.0303772 1.93655 0 0 0
1.11027 -0.0299555 1.90967 0 0 0
1.12027 -0.0299555 1.90967 0 0 0
1.18374 -0.0313726 2 0 0 0
1.19422 -0.0313726 2 0 0 0
1.14136 -0.0297233 1.89486 0 0 0
1.16028 -0.0299555 1.90967 0 0 0
1.16121 -0.0297233 1.89486 0 0 0
1.18029 -0.0299555 1.90967 0 0 0
1.19029 -0.0299555 1.90967 0 0 0
-0.58657 -0.0097593 0.933233 0 0 0
-0.599983 -0.0100664 0.962595 0 0 0
-0.57452 -0.00972082 0.929553 0 0 0
-0.612822 -0.0104575 1 0 0 0
-0.567018 -0.0097593 0.933233 0 0 0
-0.602347 -0.0104575 1 0 0 0
-0.573381 -0.010042 0.960263 0 0 0
-0.545014 -0.00962963 0.920833 0 0 0
-0.651867 -0.0116204 1.1112 0 0 0
-0.581395 -0.0104575 1 0 0 0
-0.576158 -0.0104575 1 0 0 0
-0.57092 -0.0104575 1 0 0 0
-0.565682 -0.0104575 1 0 0 0
-0.579205 -0.0108076 1.03348 0 0 0
-0.590435 -0.0111211 1.06345 0 0 0
-0.549969 -0.0104575 1 0 0 0
-0.544731 -0.0104575 1 0 0 0
-0.575513 -0.0111557 1.06677 0 0 0
-0.55214 -0.0108076 1.03348 0 0 0
-0.584637 -0.011557 1.10514 0 0 0
-0.560678 -0.0111942 1.07045 0 0 0
-0.576204 -0.0116204 1.1112 0 0 0
-0.533701 -0.0108731 1.03974 0 0 0
-0.561483 -0.011557 1.10514 0 0 0
-0.56216 -0.0116915 1.118 0 0 0
-0.58342 -0.0122613 1.17249 0 0 0
-0.574036 -0.0121925 1.1659 0 0 0
-0.544593 -0.0116915 1.118 0 0 0
-0.546635 -0.0118629 1.13439 0 0 0
-0.563438 -0.0123619 1.18211 0 0 0
-0.544921 -0.0120885 1.15596 0 0 0
-0.52881 -0.0118629 1.13439 0 0 0
-0.568668 -0.012902 1.23375 0 0 0
-0.512953 -0.0117717 1.12567 0 0 0
-0.555743 -0.012902 1.23375 0 0 0
-0.514647 -0.0120885 1.15596 0 0 0
-0.591345 -0.0140553 1.34404 0 0 0
-0.508426 -0.0122301 1.1695 0 0 0
-0.546151 -0.0132978 1.2716 0 0 0
-0.539491 -0.0132978 1.2716 0 0 0
-0.58194 -0.0145234 1.3888 0 0 0
-0.547368 -0.0138335 1.32283 0 0 0
-0.567392 -0.0145234 1.3888 0 0 0
-0.568533 -0.0147416 1.40967 0 0 0
-0.535026 -0.0140553 1.34404 0 0 0
-0.508787 -0.0135442 1.29517 0 0 0
-0.581395 -0.0156863 1.5 0 0 0
-0.589742 -0.0161294 1.54238 0 0 0
-0.565682 -0.0156863 1.5 0 0 0
-0.536362 -0.0150827 1.44228 0 0 0
-0.567888 -0.0161974 1.54887 0 0 0
-0.526796 -0.0152431 1.45762 0 0 0
-0.534255 -0.0156863 1.5 0 0 0
-0.577068 -0.0171962 1.64438 0 0 0
-0.602282 -0.0182195 1.74224 0 0 0
-0.510685 -0.0156863 1.5 0 0 0
-0.519212 -0.0161974 1.54887 0 0 0
-0.52478 -0.0166309 1.59033 0 0 0
-0.563024 -0.0181307 1.73375 0 0 0
-0.519409 -0.0170004 1.62567 0 0 0
-0.547529 -0.0182195 1.74224 0 0 0
-0.508164 -0.0171962 1.64438 0 0 0
-0.5267 -0.0181307 1.73375 0 0 0
-0.500727 -0.017539 1.67717 0 0 0
-0.534666 -0.0190623 1.82283 0 0 0
-0.503754 -0.0182867 1.74867 0 0 0
-0.477459 -0.0176532 1.68808 0 0 0
-0.481295 -0.0181307 1.73375 0 0 0
-0.468465 -0.0179868 1.71999 0 0 0
-0.43659 -0.0170916 1.63439 0 0 0
-0.442602 -0.0176735 1.69003 0 0 0
-0.430449 -0.017539 1.67717 0 0 0
-0.424898 -0.0176735 1.69003 0 0 0
-0.41969 -0.0178283 1.70483 0 0 0
-0.379727 -0.0164814 1.57603 0 0 0
-0.391615 -0.0173751 1.66149 0 0 0
-0.389489 -0.0176735 1.69003 0 0 0
-0.37421 -0.0173751 1.66149 0 0 0
-0.371357 -0.0176532 1.68808 0 0 0
-0.360172 -0.017539 1.67717 0 0 0
-0.344518 -0.0171962 1.64438 0 0 0
-0.357752 -0.0183146 1.75133 0 0 0
-0.330698 -0.0173751 1.66149 0 0 0
-0.32438 -0.0175038 1.6738 0 0 0
-0.321464 -0.0178283 1.70483 0 0 0
-0.317836 -0.0181307 1.73375 0 0 0
-0.298679 -0.017539 1.67717 0 0 0
-0.286228 -0.0173172 1.65596 0 0 0
-0.285746 -0.0178283 1.70483 0 0 0
-0.26978 -0.0173751 1.66149 0 0 0
-0.265561 -0.0176735 1.69003 0 0 0
-0.249776 -0.0171962 1.64438 0 0 0
-0.247857 -0.0176735 1.69003 0 0 0
-0.237186 -0.017539 1.67717 0 0 0
-0.230363 -0.0176896 1.69157 0 0 0
-0.225013 -0.0179699 1.71838 0 0 0
-0.216012 -0.0179699 1.71838 0 0 0
-0.198869 -0.0172631 1.65078 0 0 0
-0.198197 -0.0179868 1.71999 0 0 0
-0.179772 -0.0170916 1.63439 0 0 0
-0.177041 -0.0176735 1.69003 0 0 0
-0.165349 -0.0173751 1.66149 0 0 0
-0.15409 -0.0170916 1.63439 0 0 0
-0.14934 -0.017539 1.67717 0 0 0
-0.144143 -0.0179868 1.71999 0 0 0
-0.127009 -0.0169053 1.61657 0 0 0
-0.119848 -0.0170916 1.63439 0 0 0
-0.109538 -0.0168229 1.60869 0 0 0
-0.104431 -0.0173751 1.66149 0 0 0
-0.0957282 -0.0173751 1.66149 0 0 0
-0.0870257 -0.0173751 1.66149 0 0 0
-0.0783231 -0.0173751 1.66149 0 0 0
-0.0702774 -0.017539 1.67717 0 0 0
-0.0602907 -0.0171962 1.64438 0 0 0
-0.052354 -0.0174212 1.6659 0 0 0
-0.0439234 -0.017539 1.67717 0 0 0
-0.0342423 -0.0170916 1.63439 0 0 0
-0.0261077 -0.0173751 1.66149 0 0 0
-0.0171212 -0.0170916 1.63439 0 0 0
-0.00878468 -0.017539 1.67717 0 0 0
0 -0.0168229 1.60869 0 0 0
0.00872567 -0.0174212 1.6659 0 0 0
0.016852 -0.0168229 1.60869 0 0 0
0.0265803 -0.0176896 1.69157 0 0 0
0.0354404 -0.0176896 1.69157 0 0 0
0.0418285 -0.0167025 1.59718 0 0 0
0.0527081 -0.017539 1.67717 0 0 0
0.0601806 -0.0171648 1.64138 0 0 0
0.0689036 -0.0171962 1.64438 0 0 0
0.0790621 -0.017539 1.67717 0 0 0
0.0885203 -0.0176735 1.69003 0 0 0
0.0957282 -0.0173751 1.66149 0 0 0
0.105416 -0.017539 1.67717 0 0 0
0.118053 -0.0181307 1.73375 0 0 0
0.120581 -0.0171962 1.64438 0 0 0
0.129697 -0.0172631 1.65078 0 0 0
0.136969 -0.0170916 1.63439 0 0 0
0.14553 -0.0170916 1.63439 0 0 0
0.160732 -0.0178283 1.70483 0 0 0
0.165349 -0.0173751 1.66149 0 0 0
0.177041 -0.0176735 1.69003 0 0 0
0.181576 -0.0172631 1.65078 0 0 0
0.187328 -0.0170004 1.62567 0 0 0
0.202048 -0.017539 1.67717 0 0 0
0.205454 -0.0170916 1.63439 0 0 0
0.21065 -0.0168229 1.60869 0 0 0
0.223937 -0.0171962 1.64438 0 0 0
0.229902 -0.0170004 1.62567 0 0 0
0.245971 -0.017539 1.67717 0 0 0
0.256943 -0.0176896 1.69157 0 0 0
0.267887 -0.0178283 1.70483 0 0 0
0.26804 -0.0172631 1.65078 0 0 0
0.283265 -0.0176735 1.69003 0 0 0
0.291781 -0.0176532 1.68808 0 0 0
0.295887 -0.0173751 1.66149 0 0 0
0.315313 -0.0179868 1.71999 0 0 0
0.318306 -0.0176532 1.68808 0 0 0
0.330394 -0.0178283 1.70483 0 0 0
0.325678 -0.0171114 1.63628 0 0 0
0.344832 -0.0176532 1.68808 0 0 0
0.348103 -0.0173751 1.66149 0 0 0
0.350984 -0.0170916 1.63439 0 0 0
0.355625 -0.0169053 1.61657 0 0 0
0.37421 -0.0173751 1.66149 0 0 0
0.389489 -0.0176735 1.69003 0 0 0
0.395311 -0.017539 1.67717 0 0 0
0.414411 -0.0179868 1.71999 0 0 0
0.404809 -0.0171962 1.64438 0 0 0
0.417723 -0.0173751 1.66149 0 0 0
0.441438 -0.0179868 1.71999 0 0 0
0.458656 -0.0183146 1.75133 0 0 0
0.450934 -0.0176532 1.68808 0 0 0
0.459775 -0.0176532 1.68808 0 0 0
0.495707 -0.0186736 1.78567 0 0 0
0.47342 -0.0175038 1.6738 0 0 0
0.486862 -0.0176735 1.69003 0 0 0
0.505101 -0.0180082 1.72203 0 0 0
0.504566 -0.0176735 1.69003 0 0 0
0.535854 -0.0184458 1.76388 0 0 0
0.517255 -0.0175038 1.6738 0 0 0
0.546025 -0.0181694 1.73745 0 0 0
0.539974 -0.0176735 1.69003 0 0 0
0.558554 -0.0179868 1.71999 0 0 0
0.567563 -0.0179868 1.71999 0 0 0
0.56222 -0.017539 1.67717 0 0 0
0.585033 -0.0179699 1.71838 0 0 0
0.579789 -0.017539 1.67717 0 0 0
0.608429 -0.0181307 1.73375 0 0 0
0.585681 -0.0171962 1.64438 0 0 0
0.621035 -0.0179699 1.71838 0 0 0
0.635672 -0.0181307 1.73375 0 0 0
0.653683 -0.0183818 1.75776 0 0 0
0.652723 -0.0180999 1.7308 0 0 0
0.657037 -0.0179699 1.71838 0 0 0
0.688093 -0.018565 1.77528 0 0 0
0.675671 -0.0179868 1.71999 0 0 0
0.678647 -0.0178283 1.70483 0 0 0
0.740551 -0.0192019 1.83618 0 0 0
0.715503 -0.0183146 1.75133 0 0 0
0.733063 -0.0185265 1.7716 0 0 0
0.721573 -0.0180082 1.72203 0 0 0
0.771262 -0.0190107 1.81789 0 0 0
0.744644 -0.0181307 1.73375 0 0 0
0.785647 -0.0188986 1.80718 0 0 0
0.773371 -0.0183818 1.75776 0 0 0
0.820991 -0.0192841 1.84404 0 0 0
0.808634 -0.018773 1.79517 0 0 0
0.82351 -0.0188986 1.80718 0 0 0
0.827439 -0.018773 1.79517 0 0 0
0.809937 -0.0181694 1.73745 0 0 0
0.83986 -0.0186314 1.78162 0 0 0
0.849192 -0.0186314 1.78162 0 0 0
0.839545 -0.0182195 1.74224 0 0 0
0.887927 -0.0190623 1.82283 0 0 0
0.883856 -0.018773 1.79517 0 0 0
0.878869 -0.0184706 1.76625 0 0 0
0.91657 -0.0190623 1.82283 0 0 0
0.912064 -0.018773 1.79517 0 0 0
0.929065 -0.0189278 1.80997 0 0 0
0.956213 -0.0192841 1.84404 0 0 0
0.987587 -0.0197177 1.8855 0 0 0
1.00663 -0.0198988 1.90282 0 0 0
0.959077 -0.018773 1.79517 0 0 0
0.935346 -0.0181307 1.73375 0 0 0
1.02101 -0.0196009 1.87433 0 0 0
0.966714 -0.0183818 1.75776 0 0 0
0.975921 -0.0183818 1.75776 0 0 0
1.03348 -0.0192841 1.84404 0 0 0
1.03114 -0.0190623 1.82283 0 0 0
1.10561 -0.0202515 1.93655 0 0 0
1.06246 -0.0192841 1.84404 0 0 0
1.12183 -0.0201783 1.92955 0 0 0
1.08178 -0.0192841 1.84404 0 0 0
1.09143 -0.0192841 1.84404 0 0 0
1.14695 -0.0200871 1.92083 0 0 0
1.16226 -0.0201783 1.92955 0 0 0
1.10752 -0.0190623 1.82283 0 0 0
1.17713 -0.0200871 1.92083 0 0 0
1.05369 -0.0178283 1.70483 0 0 0
1.01327 -0.0170004 1.62567 0 0 0
-0.628536 -0.00522876 1 0 0 0
-0.576828 -0.00483893 0.925446 0 0 0
-0.576794 -0.00487965 0.933233 0 0 0
-0.59117 -0.00504402 0.964669 0 0 0
-0.58826 -0.00506246 0.968195 0 0 0
-0.581065 -0.00504402 0.964669 0 0 0
-0.597109 -0.00522876 1 0 0 0
-0.572058 -0.00505372 0.966525 0 0 0
-0.568863 -0.00507037 0.969708 0 0 0
-0.581395 -0.00522876 1 0 0 0
-0.594482 -0.00539506 1.0318 0 0 0
-0.609038 -0.00557786 1.06677 0 0 0
-0.565682 -0.00522876 1 0 0 0
-0.579205 -0.00540379 1.03348 0 0 0
-0.574823 -0.0054135 1.03533 0 0 0
-0.56746 -0.00539506 1.0318 0 0 0
-0.563977 -0.0054135 1.03533 0 0 0
-0.558554 -0.0054135 1.03533 0 0 0
-0.534255 -0.00522876 1 0 0 0
-0.625355 -0.00618095 1.18211 0 0 0
-0.573427 -0.00572437 1.09479 0 0 0
-0.537938 -0.00542434 1.03741 0 0 0
-0.533701 -0.00543653 1.03974 0 0 0
-0.545944 -0.00561858 1.07455 0 0 0
-0.542636 -0.0056427 1.07917 0 0 0
-0.560121 -0.00588583 1.12567 0 0 0
-0.564786 -0.005998 1.14712 0 0 0
-0.56793 -0.00609623 1.1659 0 0 0
-0.598606 -0.00649536 1.24224 0 0 0
-0.555716 -0.00609623 1.1659 0 0 0
-0.527025 -0.00584573 1.118 0 0 0
-0.561649 -0.00629978 1.20483 0 0 0
-0.561581 -0.00637059 1.21838 0 0 0
-0.516926 -0.00593143 1.13439 0 0 0
-0.530257 -0.00615514 1.17717 0 0 0
-0.536407 -0.00629978 1.20483 0 0 0
-0.561091 -0.00666813 1.27528 0 0 0
-0.544 -0.00654291 1.25133 0 0 0
-0.568154 -0.00691675 1.32283 0 0 0
-0.527034 -0.00649536 1.24224 0 0 0
-0.563185 -0.00702767 1.34404 0 0 0
-0.545326 -0.00689095 1.31789 0 0 0
-0.59754 -0.00764755 1.46259 0 0 0
-0.546734 -0.00708818 1.35562 0 0 0
-0.561149 -0.0073708 1.40967 0 0 0
-0.539886 -0.00718606 1.37433 0 0 0
-0.562452 -0.00758758 1.45113 0 0 0
-0.533339 -0.0072934 1.39486 0 0 0
-0.526033 -0.0072934 1.39486 0 0 0
-0.557825 -0.00784314 1.5 0 0 0
-0.549969 -0.00784314 1.5 0 0 0
-0.594294 -0.00859809 1.64438 0 0 0
-0.513699 -0.00754135 1.44228 0 0 0
-0.506144 -0.00754135 1.44228 0 0 0
-0.554887 -0.00839287 1.60514 0 0 0
-0.530335 -0.00814492 1.55772 0 0 0
-0.56222 -0.00876952 1.67717 0 0 0
-0.550904 -0.00872942 1.6695 0 0 0
-0.54465 -0.00876952 1.67717 0 0 0
-0.494874 -0.00809869 1.54887 0 0 0
-0.52467 -0.00872942 1.6695 0 0 0
-0.534128 -0.00903739 1.7284 0 0 0
-0.509511 -0.00876952 1.67717 0 0 0
-0.498437 -0.00872942 1.6695 0 0 0
-0.472592 -0.00842457 1.6112 0 0 0
-0.496855 -0.00901815 1.72472 0 0 0
-0.472203 -0.00872942 1.6695 0 0 0
-0.464653 -0.00875191 1.6738 0 0 0
-0.464337 -0.00891416 1.70483 0 0 0
-0.459456 -0.0089934 1.71999 0 0 0
-0.435128 -0.00868755 1.66149 0 0 0
-0.448189 -0.00913094 1.74629 0 0 0
-0.428619 -0.00891416 1.70483 0 0 0
-0.431137 -0.00915729 1.75133 0 0 0
-0.414023 -0.00898497 1.71838 0 0 0
-0.394517 -0.00875191 1.6738 0 0 0
-0.392901 -0.00891416 1.70483 0 0 0
-0.387385 -0.0089934 1.71999 0 0 0
-0.375042 -0.00891416 1.70483 0 0 0
-0.360172 -0.00876952 1.67717 0 0 0
-0.350681 -0.00875191 1.6738 0 0 0
-0.348253 -0.00891416 1.70483 0 0 0
-0.336684 -0.00884482 1.69157 0 0 0
-0.338429 -0.00913094 1.74629 0 0 0
-0.313292 -0.00868755 1.66149 0 0 0
-0.301453 -0.00859809 1.64438 0 0 0
-0.29284 -0.00859809 1.64438 0 0 0
-0.292117 -0.00883676 1.69003 0 0 0
-0.275614 -0.00859809 1.64438 0 0 0
-0.270496 -0.00871061 1.6659 0 0 0
-0.25278 -0.00841147 1.60869 0 0 0
-0.254756 -0.00876952 1.67717 0 0 0
-0.243672 -0.00868755 1.66149 0 0 0
-0.23255 -0.00859809 1.64438 0 0 0
-0.234013 -0.00898497 1.71838 0 0 0
-0.221503 -0.00884482 1.69157 0 0 0
-0.210832 -0.00876952 1.67717 0 0 0
-0.208864 -0.00906536 1.73375 0 0 0
-0.180409 -0.00818627 1.56562 0 0 0
-0.189011 -0.00898497 1.71838 0 0 0
-0.177041 -0.00883676 1.69003 0 0 0
-0.165788 -0.00871061 1.6659 0 0 0
-0.160732 -0.00891416 1.70483 0 0 0
-0.143944 -0.00845266 1.61657 0 0 0
-0.139241 -0.00868755 1.66149 0 0 0
-0.130538 -0.00868755 1.66149 0 0 0
-0.122739 -0.00875191 1.6738 0 0 0
-0.110694 -0.00850021 1.62567 0 0 0
-0.104431 -0.00868755 1.66149 0 0 0
-0.0957282 -0.00868755 1.66149 0 0 0
-0.0878468 -0.00876952 1.67717 0 0 0
-0.0783231 -0.00868755 1.66149 0 0 0
-0.0693886 -0.0086586 1.65596 0 0 0
-0.0605252 -0.00863154 1.65078 0 0 0
-0.050556 -0.00841147 1.60869 0 0 0
-0.0435128 -0.00868755 1.66149 0 0 0
-0.0357183 -0.00891416 1.70483 0 0 0
-0.0261077 -0.00868755 1.66149 0 0 0
-0.0177041 -0.00883676 1.69003 0 0 0
-0.00879887 -0.00878369 1.67988 0 0 0
0 -0.00854581 1.63439 0 0 0
0.00864646 -0.00863154 1.65078 0 0 0
0.0175694 -0.00876952 1.67717 0 0 0
0.0261077 -0.00868755 1.66149 0 0 0
0.036002 -0.00898497 1.71838 0 0 0
0.0446478 -0.00891416 1.70483 0 0 0
0.0513635 -0.00854581 1.63439 0 0 0
0.0614928 -0.00876952 1.67717 0 0 0
0.0677382 -0.00845266 1.61657 0 0 0
0.0766342 -0.00850021 1.62567 0 0 0
0.0870257 -0.00868755 1.66149 0 0 0
0.0982252 -0.00891416 1.70483 0 0 0
0.106321 -0.00884482 1.69157 0 0 0
0.108288 -0.00831547 1.59033 0 0 0
0.127134 -0.00906536 1.73375 0 0 0
0.130538 -0.00868755 1.66149 0 0 0
0.135476 -0.00845266 1.61657 0 0 0
0.150622 -0.00884482 1.69157 0 0 0
0.156646 -0.00868755 1.66149 0 0 0
0.17254 -0.00906536 1.73375 0 0 0
0.174051 -0.00868755 1.66149 0 0 0
0.190377 -0.00904995 1.7308 0 0 0
0.19645 -0.00891416 1.70483 0 0 0
0.200159 -0.00868755 1.66149 0 0 0
0.210832 -0.00876952 1.67717 0 0 0
0.217564 -0.00868755 1.66149 0 0 0
0.230153 -0.00883676 1.69003 0 0 0
0.234186 -0.0086586 1.65596 0 0 0
0.245971 -0.00876952 1.67717 0 0 0
0.250747 -0.00863154 1.65078 0 0 0
0.265561 -0.00883676 1.69003 0 0 0
0.272325 -0.00876952 1.67717 0 0 0
0.28111 -0.00876952 1.67717 0 0 0
0.292384 -0.00884482 1.69157 0 0 0
0.29284 -0.00859809 1.64438 0 0 0
0.317836 -0.00906536 1.73375 0 0 0
0.313292 -0.00868755 1.66149 0 0 0
0.327525 -0.00883676 1.69003 0 0 0
0.333147 -0.00875191 1.6738 0 0 0
0.342602 -0.00876952 1.67717 0 0 0
0.344518 -0.00859809 1.64438 0 0 0
0.359448 -0.00875191 1.6738 0 0 0
0.361744 -0.00859809 1.64438 0 0 0
0.376983 -0.00875191 1.6738 0 0 0
0.392901 -0.00891416 1.70483 0 0 0
0.41279 -0.00915729 1.75133 0 0 0
0.414411 -0.0089934 1.71999 0 0 0
0.400201 -0.00850021 1.62567 0 0 0
0.432429 -0.0089934 1.71999 0 0 0
0.437549 -0.00891416 1.70483 0 0 0
0.438352 -0.00875191 1.6738 0 0 0
0.459456 -0.0089934 1.71999 0 0 0
0.480421 -0.00922292 1.76388 0 0 0
0.482322 -0.00908471 1.73745 0 0 0
0.491422 -0.00908471 1.73745 0 0 0
0.495492 -0.0089934 1.71999 0 0 0
0.504501 -0.0089934 1.71999 0 0 0
0.503985 -0.00882658 1.68808 0 0 0
0.513418 -0.00883676 1.69003 0 0 0
0.531528 -0.0089934 1.71999 0 0 0
0.535774 -0.00891416 1.70483 0 0 0
0.553943 -0.00906536 1.73375 0 0 0
0.548826 -0.00883676 1.69003 0 0 0
0.572105 -0.00906536 1.73375 0 0 0
0.582427 -0.00908471 1.73745 0 0 0
0.600526 -0.00922292 1.76388 0 0 0
0.589351 -0.00891416 1.70483 0 0 0
0.608429 -0.00906536 1.73375 0 0 0
0.628243 -0.00922292 1.76388 0 0 0
0.655758 -0.00948733 1.81445 0 0 0
0.62507 -0.00891416 1.70483 0 0 0
0.644753 -0.00906536 1.73375 0 0 0
0.662889 -0.00919091 1.75776 0 0 0
0.682766 -0.00933682 1.78567 0 0 0
0.695801 -0.00938649 1.79517 0 0 0
0.669717 -0.00891416 1.70483 0 0 0
0.666295 -0.00875191 1.6738 0 0 0
0.711392 -0.00922292 1.76388 0 0 0
0.720631 -0.00922292 1.76388 0 0 0
0.705436 -0.00891416 1.70483 0 0 0
0.733849 -0.00915729 1.75133 0 0 0
0.743023 -0.00915729 1.75133 0 0 0
0.738733 -0.0089934 1.71999 0 0 0
0.761369 -0.00915729 1.75133 0 0 0
0.757652 -0.0090041 1.72203 0 0 0
0.782578 -0.00919091 1.75776 0 0 0
0.782636 -0.00908471 1.73745 0 0 0
0.800991 -0.00919091 1.75776 0 0 0
0.814111 -0.00923529 1.76625 0 0 0
0.842441 -0.00944929 1.80718 0 0 0
0.81177 -0.0090041 1.72203 0 0 0
0.844414 -0.00926326 1.7716 0 0 0
0.86505 -0.00938649 1.79517 0 0 0
0.874453 -0.00938649 1.79517 0 0 0
0.869618 -0.00923529 1.76625 0 0 0
0.899235 -0.00944929 1.80718 0 0 0
0.933056 -0.00970256 1.85562 0 0 0
0.95796 -0.00985883 1.8855 0 0 0
0.921467 -0.00938649 1.79517 0 0 0
0.962214 -0.00970256 1.85562 0 0 0
0.948025 -0.00946389 1.80997 0 0 0
0.968366 -0.00957123 1.8305 0 0 0
1.01234 -0.00990778 1.89486 0 0 0
0.978885 -0.00948733 1.81445 0 0 0
0.988388 -0.00948733 1.81445 0 0 0
1.03697 -0.00985883 1.8855 0 0 0
0.962589 -0.00906536 1.73375 0 0 0
1.00609 -0.00938649 1.79517 0 0 0
1.05262 -0.00972963 1.86079 0 0 0
1.01144 -0.00926326 1.7716 0 0 0
1.06246 -0.00964205 1.84404 0 0 0
1.08186 -0.00972963 1.86079 0 0 0
1.06933 -0.00953113 1.82283 0 0 0
1.09143 -0.00964205 1.84404 0 0 0
1.08843 -0.00953113 1.82283 0 0 0
1.11075 -0.00964205 1.84404 0 0 0
1.17237 -0.0100892 1.92955 0 0 0
1.22564 -0.0104575 2 0 0 0
1.18719 -0.0100436 1.92083 0 0 0
1.3029 -0.0109299 2.09033 0 0 0
-0.584257 0 0.929553 0 0 0
-0.599983 0 0.962595 0 0 0
-0.61806 0 1 0 0 0
-0.569651 0 0.929553 0 0 0
-0.586118 0 0.964669 0 0 0
-0.623628 0 1.03533 0 0 0
-0.576012 0 0.964669 0 0 0
-0.61401 0 1.03741 0 0 0
-0.627959 0 1.07045 0 0 0
-0.581395 0 1 0 0 0
-0.596514 0 1.03533 0 0 0
-0.591091 0 1.03533 0 0 0
-0.585668 0 1.03533 0 0 0
-0.579205 0 1.03348 0 0 0
-0.53559 0 0.964669 0 0 0
-0.549969 0 1 0 0 0
-0.583105 0 1.07045 0 0 0
-0.575513 0 1.06677 0 0 0
-0.587518 0 1.0997 0 0 0
-0.587844 0 1.1112 0 0 0
-0.562829 0 1.07455 0 0 0
-0.576204 0 1.1112 0 0 0
-0.564478 0 1.0997 0 0 0
-0.558718 0 1.0997 0 0 0
-0.576803 0 1.14712 0 0 0
-0.560121 0 1.12567 0 0 0
-0.550449 0 1.118 0 0 0
-0.581042 0 1.19282 0 0 0
-0.574794 0 1.19282 0 0 0
-0.532881 0 1.118 0 0 0
-0.517212 0 1.09718 0 0 0
-0.567963 0 1.21838 0 0 0
-0.548516 0 1.19003 0 0 0
-0.542283 0 1.19003 0 0 0
-0.555743 0 1.23375 0 0 0
-0.549281 0 1.23375 0 0 0
-0.569841 0 1.29517 0 0 0
-0.584305 0 1.34404 0 0 0
-0.556273 0 1.29517 0 0 0
-0.583077 0 1.37433 0 0 0
-0.512061 0 1.22203 0 0 0
-0.56868 0 1.37433 0 0 0
-0.575916 0 1.40967 0 0 0
-0.522354 0 1.29517 0 0 0
-0.561149 0 1.40967 0 0 0
-0.553766 0 1.40967 0 0 0
-0.546382 0 1.40967 0 0 0
-0.55147 0 1.44228 0 0 0
-0.54725 0 1.45113 0 0 0
-0.611519 0 1.64438 0 0 0
-0.516848 0 1.40967 0 0 0
-0.496695 0 1.37433 0 0 0
-0.551663 0 1.54887 0 0 0
-0.585882 0 1.6695 0 0 0
-0.554887 0 1.60514 0 0 0
-0.568393 0 1.6695 0 0 0
-0.593874 0 1.7716 0 0 0
-0.511099 0 1.54887 0 0 0
-0.56578 0 1.74224 0 0 0
-0.544704 0 1.70483 0 0 0
-0.504443 0 1.60514 0 0 0
-0.543201 0 1.75776 0 0 0
-0.507181 0 1.6695 0 0 0
-0.48535 0 1.62567 0 0 0
-0.48572 0 1.65596 0 0 0
-0.501902 0 1.74224 0 0 0
-0.491422 0 1.73745 0 0 0
-0.465588 0 1.67717 0 0 0
-0.44515 0 1.63439 0 0 0
-0.451454 0 1.69003 0 0 0
-0.454051 0 1.73375 0 0 0
-0.430449 0 1.67717 0 0 0
-0.421665 0 1.67717 0 0 0
-0.423024 0 1.71838 0 0 0
-0.417727 0 1.73375 0 0 0
-0.405402 0 1.71999 0 0 0
-0.392901 0 1.70483 0 0 0
-0.381266 0 1.69282 0 0 0
-0.378021 0 1.71838 0 0 0
-0.360172 0 1.67717 0 0 0
-0.346943 0 1.65596 0 0 0
-0.330224 0 1.61657 0 0 0
-0.336377 0 1.69003 0 0 0
-0.327525 0 1.69003 0 0 0
-0.313292 0 1.66149 0 0 0
-0.30459 0 1.66149 0 0 0
-0.29284 0 1.64438 0 0 0
-0.294676 0 1.70483 0 0 0
-0.288016 0 1.71838 0 0 0
-0.272325 0 1.67717 0 0 0
-0.267887 0 1.70483 0 0 0
-0.261259 0 1.71999 0 0 0
-0.245971 0 1.67717 0 0 0
-0.239005 0 1.69003 0 0 0
-0.230153 0 1.69003 0 0 0
-0.216162 0 1.65078 0 0 0
-0.209416 0 1.6659 0 0 0
-0.200159 0 1.66149 0 0 0
-0.194745 0 1.69003 0 0 0
-0.185893 0 1.69003 0 0 0
-0.175341 0 1.6738 0 0 0
-0.165349 0 1.66149 0 0 0
-0.156646 0 1.66149 0 0 0
-0.147944 0 1.66149 0 0 0
-0.137807 0 1.64438 0 0 0
-0.133943 0 1.70483 0 0 0
-0.126125 0 1.71999 0 0 0
-0.109538 0 1.60869 0 0 0
-0.105416 0 1.67717 0 0 0
-0.0990984 0 1.71999 0 0 0
-0.0856058 0 1.63439 0 0 0
-0.0803661 0 1.70483 0 0 0
-0.0696205 0 1.66149 0 0 0
-0.0602907 0 1.64438 0 0 0
-0.0518788 0 1.65078 0 0 0
-0.0442602 0 1.69003 0 0 0
-0.0346943 0 1.65596 0 0 0
-0.0261077 0 1.66149 0 0 0
-0.0173471 0 1.65596 0 0 0
-0.00878468 0 1.67717 0 0 0
0 0 1.66149 0 0 0
0.00885203 0 1.69003 0 0 0
0.0175694 0 1.67717 0 0 0
0.026354 0 1.67717 0 0 0
0.0348103 0 1.66149 0 0 0
0.0442602 0 1.69003 0 0 0
0.0527081 0 1.67717 0 0 0
0.0596043 0 1.62567 0 0 0
0.0720715 0 1.71999 0 0 0
0.0796683 0 1.69003 0 0 0
0.0870257 0 1.66149 0 0 0
0.0982252 0 1.70483 0 0 0
0.104431 0 1.66149 0 0 0
0.113133 0 1.66149 0 0 0
0.12105 0 1.65078 0 0 0
0.130538 0 1.66149 0 0 0
0.138777 0 1.65596 0 0 0
0.139407 0 1.56562 0 0 0
0.160732 0 1.70483 0 0 0
0.166909 0 1.67717 0 0 0
0.166597 0 1.59033 0 0 0
0.178813 0 1.62567 0 0 0
0.190222 0 1.65078 0 0 0
0.20069 0 1.6659 0 0 0
0.212449 0 1.69003 0 0 0
0.219617 0 1.67717 0 0 0
