ply
format ascii 1.0
element vertex 1328
property float x
property float y
property float z
property uchar red
property uchar green
property uchar blue
end_header
-0.520119 -0.285572 0.82751 38 36 34
-0.540962 -0.299512 0.867904 39 36 35
-0.461254 -0.257544 0.746293 38 36 34
-0.531871 -0.299512 0.867904 37 35 33
-0.499938 -0.283957 0.822829 39 37 35
-0.516651 -0.296001 0.85773 40 38 35
-0.528741 -0.305585 0.885502 39 37 35
-0.52699 -0.307268 0.89038 38 36 34
-0.522326 -0.307268 0.89038 37 36 33
-0.517663 -0.307268 0.89038 36 35 32
-0.50082 -0.299973 0.869241 36 35 32
-0.523778 -0.316603 0.917429 37 36 33
-0.503672 -0.307268 0.89038 37 36 33
-0.465448 -0.286603 0.830499 37 37 33
-0.482608 -0.299973 0.869241 38 37 34
-0.486998 -0.305585 0.885502 38 37 34
-0.501606 -0.317778 0.920833 37 37 34
-0.508356 -0.32518 0.942284 37 37 34
-0.48816 -0.315323 0.91372 38 38 35
-0.497039 -0.324237 0.939552 38 38 36
-0.478588 -0.315323 0.91372 37 37 35
-0.502834 -0.334644 0.969708 37 37 36
-0.469016 -0.315323 0.91372 37 37 36
-0.452372 -0.307268 0.89038 37 37 35
-0.455167 -0.312387 0.905214 37 36 35
-0.467512 -0.324237 0.939552 38 36 35
-0.45948 -0.322057 0.933233 38 37 34
-0.487115 -0.345098 1 37 36 33
-0.433836 -0.310693 0.900304 38 37 34
-0.476639 -0.345098 1 39 38 34
-0.471402 -0.345098 1 39 37 34
-0.466164 -0.345098 1 38 38 34
-0.460926 -0.345098 1 37 37 33
-0.455688 -0.345098 1 36 36 33
-0.45045 -0.345098 1 37 37 34
-0.432897 -0.335552 0.972338 39 38 35
-0.439975 -0.345098 1 39 38 35
-0.475944 -0.377809 1.09479 39 38 35
-0.443159 -0.356074 1.0318 37 37 33
-0.424261 -0.345098 1 36 36 32
-0.433828 -0.357291 1.03533 37 36 33
-0.441413 -0.368139 1.06677 37 36 32
-0.422983 -0.357291 1.03533 37 37 34
-0.445713 -0.381381 1.10514 37 36 34
-0.450656 -0.390684 1.1321 37 36 34
-0.422122 -0.370826 1.07455 38 38 35
-0.416494 -0.370826 1.07455 39 38 36
-0.445794 -0.402351 1.1659 39 38 36
-0.42162 -0.385818 1.118 37 37 33
-0.403265 -0.374219 1.08438 37 36 33
-0.427474 -0.402351 1.1659 38 38 34
-0.425439 -0.406239 1.17717 38 38 35
-0.41526 -0.402351 1.1659 38 37 34
-0.422815 -0.415785 1.20483 38 37 34
-0.421186 -0.420459 1.21838 38 37 34
-0.426024 -0.431832 1.25133 38 38 34
-0.41947 -0.431832 1.25133 38 38 34
-0.412916 -0.431832 1.25133 38 38 34
-0.420597 -0.44696 1.29517 37 37 34
-0.390447 -0.421722 1.22203 37 37 33
-0.36328 -0.398919 1.15596 37 37 34
-0.400245 -0.44696 1.29517 37 37 33
-0.366019 -0.415785 1.20483 37 38 34
-0.379642 -0.438826 1.2716 37 38 34
-0.388008 -0.456506 1.32283 37 38 35
-0.418038 -0.500781 1.45113 38 39 37
-0.388718 -0.47428 1.37433 37 38 36
-0.391328 -0.486473 1.40967 36 37 34
-0.408548 -0.517647 1.5 37 37 35
-0.400691 -0.517647 1.5 36 37 33
-0.405634 -0.534514 1.54887 37 37 34
-0.399791 -0.537565 1.55772 37 37 34
-0.345527 -0.47428 1.37433 37 37 34
-0.383473 -0.537565 1.55772 37 37 33
-0.349632 -0.500781 1.45113 36 36 32
-0.378332 -0.55393 1.60514 37 37 33
-0.392901 -0.588334 1.70483 38 38 35
-0.370357 -0.567474 1.64438 38 38 36
-0.367269 -0.576142 1.6695 37 37 35
-0.358525 -0.576142 1.6695 37 38 35
-0.32636 -0.537565 1.55772 38 38 36
-0.348253 -0.588334 1.70483 39 39 37
-0.357303 -0.619509 1.79517 39 39 35
-0.335998 -0.598314 1.73375 38 38 34
-0.310066 -0.567474 1.64438 38 38 34
-0.306058 -0.576142 1.6695 38 39 34
-0.297313 -0.576142 1.6695 38 38 33
-0.306216 -0.611375 1.7716 38 39 33
-0.296937 -0.611375 1.7716 38 39 34
-0.291484 -0.619509 1.79517 39 39 34
-0.277538 -0.609529 1.76625 38 39 33
-0.261259 -0.593564 1.71999 37 38 32
-0.256847 -0.604381 1.75133 37 38 32
-0.255302 -0.622996 1.80527 38 39 34
-0.24295 -0.615655 1.784 39 39 35
-0.225224 -0.593564 1.71999 39 40 36
-0.229731 -0.63067 1.82751 39 39 35
-0.20538 -0.588334 1.70483 39 39 35
-0.204144 -0.611375 1.7716 39 39 36
-0.187521 -0.588334 1.70483 39 39 36
-0.183462 -0.604381 1.75133 39 39 36
-0.174289 -0.604381 1.75133 39 39 36
-0.165722 -0.6066 1.75776 38 39 35
-0.154707 -0.599591 1.73745 38 38 35
-0.144315 -0.594271 1.72203 37 38 35
-0.137597 -0.604381 1.75133 37 37 35
-0.126125 -0.593564 1.71999 37 38 35
-0.122235 -0.619509 1.79517 38 38 36
-0.109205 -0.599591 1.73745 37 38 35
-0.10038 -0.601243 1.74224 37 38 35
-0.0910042 -0.599591 1.73745 37 38 35
-0.0813036 -0.595198 1.72472 37 38 34
-0.0730039 -0.601243 1.74224 37 38 35
-0.0612116 -0.576142 1.6695 37 37 34
-0.0547529 -0.601243 1.74224 36 36 33
-0.0446478 -0.588334 1.70483 36 37 34
-0.0364017 -0.599591 1.73745 36 37 34
-0.0278378 -0.611375 1.7716 36 37 34
-0.0183462 -0.604381 1.75133 37 38 34
-0.00927928 -0.611375 1.7716 37 38 35
0 -0.594271 1.72203 37 38 34
0.00892957 -0.588334 1.70483 37 38 34
0.0183462 -0.604381 1.75133 38 38 35
0.0265255 -0.582554 1.68808 39 38 35
0.0373769 -0.615655 1.784 39 39 36
0.046034 -0.6066 1.75776 40 40 36
0.0552408 -0.6066 1.75776 39 39 36
0.0644476 -0.6066 1.75776 39 39 36
0.0742342 -0.611375 1.7716 38 38 36
0.0795765 -0.582554 1.68808 38 38 35
0.0910042 -0.599591 1.73745 37 38 35
0.102786 -0.615655 1.784 38 38 35
0.111351 -0.611375 1.7716 38 38 35
0.121475 -0.615655 1.784 37 37 34
0.12991 -0.611375 1.7716 36 36 33
0.135295 -0.594271 1.72203 36 36 32
0.146008 -0.601243 1.74224 37 37 33
0.157748 -0.611375 1.7716 38 38 35
0.165722 -0.6066 1.75776 38 38 35
0.171374 -0.594271 1.72203 38 38 36
0.186885 -0.615655 1.784 38 38 36
0.193343 -0.6066 1.75776 37 37 35
0.198433 -0.594271 1.72203 38 37 35
0.209886 -0.601243 1.74224 37 37 35
0.225665 -0.619509 1.79517 36 36 34
0.230972 -0.608713 1.76388 35 35 32
0.234233 -0.593564 1.71999 35 36 33
0.243241 -0.593564 1.71999 35 36 33
0.261638 -0.615655 1.784 35 36 32
0.276131 -0.627352 1.81789 35 35 32
0.267887 -0.588334 1.70483 36 36 33
0.289671 -0.615655 1.784 38 38 35
0.285746 -0.588334 1.70483 38 39 35
0.306216 -0.611375 1.7716 38 38 35
0.311886 -0.604381 1.75133 37 39 35
0.312535 -0.588334 1.70483 38 39 36
0.347714 -0.636375 1.84404 38 39 36
0.333728 -0.594271 1.72203 38 40 37
0.359694 -0.623653 1.80718 39 41 38
0.354916 -0.599591 1.73745 39 40 37
0.371171 -0.611375 1.7716 37 39 36
0.393871 -0.632943 1.8341 37 38 36
0.38973 -0.611375 1.7716 37 39 36
0.408661 -0.626164 1.81445 37 39 36
0.421173 -0.63067 1.82751 37 39 36
0.423122 -0.619509 1.79517 37 38 36
0.438001 -0.627352 1.81789 37 38 36
0.441928 -0.619509 1.79517 36 38 35
0.448523 -0.615655 1.784 37 38 35
0.473277 -0.636375 1.84404 38 39 37
0.461943 -0.608713 1.76388 38 39 37
0.492594 -0.636375 1.84404 38 39 37
0.482522 -0.611375 1.7716 37 38 36
0.501678 -0.623653 1.80718 36 37 35
0.524071 -0.639426 1.85288 37 38 37
0.495492 -0.593564 1.71999 38 39 38
0.526552 -0.619509 1.79517 38 39 37
0.545611 -0.63067 1.82751 38 38 37
0.523141 -0.594271 1.72203 38 38 37
0.543201 -0.6066 1.75776 38 38 37
0.552408 -0.6066 1.75776 38 38 37
0.566036 -0.611375 1.7716 39 39 37
0.59561 -0.632943 1.8341 38 38 36
0.611416 -0.639426 1.85288 37 37 35
0.609393 -0.627352 1.81789 37 38 35
0.615266 -0.623653 1.80718 37 39 36
0.650598 -0.649476 1.882 37 38 36
0.637958 -0.627352 1.81789 36 38 36
0.643663 -0.623653 1.80718 37 39 37
0.662857 -0.632943 1.8341 37 39 37
0.653225 -0.614835 1.78162 36 39 37
0.662557 -0.614835 1.78162 37 39 37
0.691676 -0.632943 1.8341 37 39 37
0.709511 -0.640369 1.85562 37 40 38
0.706523 -0.629055 1.82283 37 39 37
0.720496 -0.632943 1.8341 36 37 36
0.742649 -0.64382 1.86561 35 37 35
0.752421 -0.64382 1.86561 35 36 35
0.744713 -0.629055 1.82283 35 36 35
0.737211 -0.614835 1.78162 35 36 35
0.772697 -0.636375 1.84404 36 38 36
0.829263 -0.67453 1.9546 36 39 37
0.758603 -0.609529 1.76625 36 39 38
0.806705 -0.640369 1.85562 36 38 38
0.837193 -0.65666 1.90282 36 38 37
0.862176 -0.668299 1.93655 36 39 38
0.830649 -0.636375 1.84404 36 39 37
0.818037 -0.619509 1.79517 36 39 37
0.843725 -0.631702 1.8305 36 38 36
0.878953 -0.650683 1.8855 36 38 36
0.893242 -0.653913 1.89486 36 38 36
0.898704 -0.650683 1.8855 36 38 36
0.882076 -0.631702 1.8305 36 38 36
0.939914 -0.665885 1.92955 36 38 36
0.893351 -0.626164 1.81445 36 37 35
0.963609 -0.668299 1.93655 36 38 35
0.976636 -0.670278 1.94228 37 38 36
0.97591 -0.662876 1.92083 36 38 35
0.955151 -0.642155 1.86079 36 37 35
0.956213 -0.636375 1.84404 37 38 36
0.954761 -0.629055 1.82283 37 38 36
1.01025 -0.659022 1.90967 38 39 37
0.985189 -0.636375 1.84404 37 38 36
1.07899 -0.690196 2 37 38 36
0.992951 -0.629055 1.82283 36 38 35
1.0564 -0.662876 1.92083 36 38 35
1.02382 -0.636375 1.84404 36 38 35
1.00609 -0.619509 1.79517 36 38 35
1.08026 -0.659022 1.90967 35 38 35
1.14184 -0.690196 2 36 39 36
1.0343 -0.619509 1.79517 36 39 36
1.16279 -0.690196 2 36 39 36
1.12027 -0.659022 1.90967 35 38 35
1.18374 -0.690196 2 35 38 35
1.19422 -0.690196 2 36 39 36
1.26802 -0.726479 2.10514 37 40 38
1.15129 -0.653913 1.89486 36 40 37
1.13007 -0.636375 1.84404 34 38 36
1.15845 -0.646829 1.87433 33 37 35
1.3438 -0.744017 2.15596 34 38 35
-0.506142 -0.273687 0.805271 37 36 34
-0.468303 -0.255355 0.751332 37 36 34
-0.536417 -0.294974 0.867904 37 35 34
-0.521631 -0.289295 0.851194 38 36 34
-0.53478 -0.299144 0.880174 39 36 34
-0.473243 -0.267024 0.785666 39 37 35
-0.469128 -0.267024 0.785666 39 37 35
-0.52095 -0.299144 0.880174 38 37 34
-0.519465 -0.300955 0.885502 38 36 34
-0.49868 -0.291516 0.85773 37 36 34
-0.481773 -0.284193 0.836183 38 37 34
-0.523778 -0.311806 0.917429 38 37 35
-0.549324 -0.330041 0.971083 38 37 34
-0.48071 -0.291516 0.85773 38 37 34
-0.491636 -0.300955 0.885502 38 38 34
-0.504557 -0.311806 0.917429 38 37 33
-0.497732 -0.310545 0.91372 37 37 34
-0.490758 -0.309167 0.909666 38 38 34
-0.473084 -0.300955 0.885502 38 38 35
-0.481229 -0.309167 0.909666 38 38 36
-0.474132 -0.307654 0.905214 37 37 35
-0.453379 -0.297159 0.874334 37 36 35
-0.499696 -0.330859 0.973489 37 37 35
-0.493374 -0.330041 0.971083 37 37 35
-0.445255 -0.300955 0.885502 37 36 35
-0.483202 -0.330041 0.971083 38 37 35
-0.476694 -0.32906 0.968195 38 37 35
-0.459001 -0.320253 0.942284 38 37 33
-0.481877 -0.339869 1 37 36 32
-0.46148 -0.32906 0.968195 38 37 33
-0.456409 -0.32906 0.968195 39 37 34
-0.452043 -0.329574 0.969708 38 37 33
-0.447597 -0.330041 0.971083 36 36 32
-0.442511 -0.330041 0.971083 37 37 34
-0.437425 -0.330041 0.971083 39 38 35
-0.472125 -0.360414 1.06045 39 39 35
-0.439975 -0.339869 1 38 38 34
-0.448564 -0.350679 1.0318 38 37 34
-0.443877 -0.351247 1.03348 37 36 33
-0.438464 -0.351247 1.03348 37 36 32
-0.460799 -0.373753 1.0997 37 36 33
-0.45729 -0.375602 1.10514 37 37 34
-0.435825 -0.362561 1.06677 38 38 34
-0.448158 -0.377663 1.1112 37 37 33
-0.456636 -0.38987 1.14712 36 36 32
-0.445626 -0.385543 1.13439 37 36 33
-0.418282 -0.366776 1.07917 38 37 34
-0.410865 -0.365208 1.07455 38 38 35
-0.406977 -0.366776 1.07917 37 37 33
-0.387643 -0.354272 1.04238 37 37 34
-0.397585 -0.368549 1.08438 38 38 35
-0.414577 -0.38987 1.14712 38 38 35
-0.411718 -0.392875 1.15596 37 37 33
-0.405663 -0.392875 1.15596 37 37 33
-0.395608 -0.388941 1.14438 37 37 33
-0.426024 -0.425289 1.25133 37 37 33
-0.408423 -0.414089 1.21838 37 37 33
-0.381444 -0.392875 1.15596 37 37 33
-0.396848 -0.415332 1.22203 37 37 33
-0.413813 -0.440188 1.29517 37 37 33
-0.37864 -0.409486 1.20483 37 38 34
-0.415349 -0.456798 1.34404 37 37 34
-0.411825 -0.460732 1.35562 36 37 33
-0.394936 -0.449589 1.32283 37 38 34
-0.425639 -0.493193 1.45113 37 38 35
-0.366321 -0.432178 1.2716 38 38 36
-0.394524 -0.474071 1.39486 36 37 35
-0.367222 -0.449589 1.32283 37 37 35
-0.362382 -0.452196 1.3305 38 39 36
-0.387636 -0.493193 1.45113 38 38 35
-0.392835 -0.509804 1.5 38 38 34
-0.352726 -0.467094 1.37433 38 38 34
-0.340821 -0.460732 1.35562 37 37 34
-0.381296 -0.526415 1.54887 36 37 33
-0.349632 -0.493193 1.45113 36 36 31
-0.353551 -0.509804 1.5 37 37 33
-0.356958 -0.526415 1.54887 37 38 35
-0.324839 -0.490188 1.44228 37 37 35
-0.35311 -0.545537 1.60514 37 37 35
-0.344703 -0.545537 1.60514 37 38 35
-0.32636 -0.52942 1.55772 39 38 36
-0.332081 -0.552514 1.62567 38 38 36
-0.327292 -0.558876 1.64438 38 38 35
-0.335998 -0.589248 1.73375 38 38 34
-0.326917 -0.589248 1.73375 38 38 34
-0.301453 -0.558876 1.64438 38 38 34
-0.315495 -0.602112 1.7716 38 38 33
-0.284227 -0.558876 1.64438 38 38 33
-0.292016 -0.592133 1.74224 39 39 34
-0.276817 -0.57942 1.70483 38 39 34
-0.265255 -0.573728 1.68808 38 38 33
-0.258957 -0.57942 1.70483 37 38 32
-0.254812 -0.590506 1.73745 36 37 31
-0.258447 -0.621114 1.82751 37 37 33
-0.24021 -0.59949 1.76388 37 38 34
-0.227026 -0.589248 1.73375 39 39 35
-0.222703 -0.602112 1.7716 39 39 35
-0.217709 -0.614204 1.80718 39 39 35
-0.204144 -0.602112 1.7716 38 38 35
-0.189413 -0.585267 1.72203 38 38 35
-0.176837 -0.573728 1.68808 38 38 35
-0.171374 -0.585267 1.72203 38 38 35
-0.169249 -0.610122 1.79517 39 39 36
-0.151803 -0.57942 1.70483 38 38 35
-0.14677 -0.595224 1.75133 37 38 35
-0.140163 -0.606327 1.784 38 38 36
-0.125014 -0.57942 1.70483 38 39 36
-0.120631 -0.602112 1.7716 37 38 35
-0.110077 -0.595224 1.75133 37 37 35
-0.100105 -0.590506 1.73745 38 38 35
-0.092068 -0.597409 1.75776 38 38 35
-0.0819037 -0.590506 1.73745 38 38 35
-0.0747538 -0.606327 1.784 38 38 35
-0.065819 -0.610122 1.79517 37 37 34
-0.0552408 -0.597409 1.75776 36 36 33
-0.0446478 -0.57942 1.70483 36 37 34
-0.0360787 -0.585267 1.72203 37 38 34
-0.0262335 -0.567412 1.6695 37 38 34
-0.0182008 -0.590506 1.73745 37 38 35
-0.00923886 -0.59949 1.76388 37 38 34
0 -0.584571 1.71999 37 38 34
0.00900894 -0.584571 1.71999 37 37 34
0.0176837 -0.573728 1.68808 38 38 34
0.0280327 -0.606327 1.784 38 38 35
0.0378625 -0.614204 1.80718 38 38 35
0.0450447 -0.584571 1.71999 39 38 35
0.0554332 -0.59949 1.76388 39 39 36
0.0649549 -0.602112 1.7716 39 38 35
0.0714365 -0.57942 1.70483 38 38 35
0.0825581 -0.595224 1.75133 38 38 35
0.0885203 -0.574389 1.69003 37 37 34
0.100105 -0.590506 1.73745 38 38 34
0.108236 -0.585267 1.72203 38 37 34
0.119251 -0.595224 1.75133 37 37 33
0.126275 -0.585267 1.72203 37 37 33
0.135295 -0.585267 1.72203 37 37 34
0.147309 -0.597409 1.75776 37 37 34
0.157061 -0.59949 1.76388 38 38 34
0.163807 -0.590506 1.73745 38 38 35
0.169662 -0.57942 1.70483 38 38 36
0.175341 -0.568874 1.6738 38 38 36
0.187521 -0.57942 1.70483 38 38 35
0.19645 -0.57942 1.70483 38 37 35
0.217709 -0.614204 1.80718 37 37 34
0.210409 -0.568874 1.6738 36 36 34
0.225492 -0.585267 1.72203 36 36 33
0.232169 -0.57942 1.70483 36 37 34
0.245188 -0.589248 1.73375 36 37 35
0.254812 -0.590506 1.73745 37 38 35
0.274503 -0.614204 1.80718 36 37 34
0.267887 -0.57942 1.70483 35 36 32
0.289671 -0.606327 1.784 36 37 34
0.285746 -0.57942 1.70483 37 38 35
0.300314 -0.590506 1.73745 37 38 35
0.317704 -0.606327 1.784 37 38 35
0.315313 -0.584571 1.71999 37 39 36
0.331445 -0.597409 1.75776 38 39 36
0.339405 -0.595224 1.75133 37 38 35
0.359694 -0.614204 1.80718 36 38 35
0.362643 -0.603363 1.77528 37 38 35
0.373769 -0.606327 1.784 36 38 35
0.385511 -0.610122 1.79517 37 38 36
0.385271 -0.595224 1.75133 37 39 36
0.397271 -0.59949 1.76388 37 39 36
0.400418 -0.590506 1.73745 37 38 35
0.409519 -0.590506 1.73745 37 38 35
0.429834 -0.606327 1.784 37 38 35
0.439179 -0.606327 1.784 37 38 35
0.443465 -0.59949 1.76388 36 37 35
0.466566 -0.617846 1.81789 36 37 35
0.473281 -0.614204 1.80718 36 37 35
0.48561 -0.617846 1.81789 37 38 36
0.49775 -0.621114 1.82751 38 39 36
0.48966 -0.59949 1.76388 37 38 36
0.507747 -0.610122 1.79517 37 38 36
0.513932 -0.606327 1.784 38 38 37
0.519639 -0.602112 1.7716 38 38 37
0.539541 -0.614204 1.80718 38 39 37
0.523141 -0.585267 1.72203 38 39 37
0.561784 -0.617846 1.81789 38 38 36
0.546025 -0.590506 1.73745 37 37 35
0.55956 -0.595224 1.75133 37 38 36
0.582969 -0.610122 1.79517 38 38 36
0.573326 -0.590506 1.73745 37 38 36
0.593874 -0.602112 1.7716 37 38 35
0.615266 -0.614204 1.80718 37 38 35
0.602282 -0.592133 1.74224 36 38 35
0.637958 -0.617846 1.81789 36 38 36
0.626062 -0.597409 1.75776 37 39 37
0.61614 -0.57942 1.70483 37 39 37
0.632361 -0.58618 1.72472 36 38 36
0.67788 -0.619524 1.82283 36 39 37
0.687428 -0.619524 1.82283 37 39 37
0.719601 -0.639635 1.882 37 39 37
0.71089 -0.623353 1.8341 37 39 37
0.711019 -0.615153 1.80997 36 37 36
0.734062 -0.626733 1.84404 34 36 35
0.712347 -0.600294 1.76625 35 37 35
0.727879 -0.605519 1.78162 35 37 35
0.742815 -0.610122 1.79517 36 37 36
0.74501 -0.604276 1.77797 36 38 37
0.787266 -0.630667 1.85562 37 39 38
0.777381 -0.615153 1.80997 37 39 38
0.786861 -0.615153 1.80997 36 39 38
0.801999 -0.619524 1.82283 36 39 37
0.805821 -0.615153 1.80997 36 39 38
0.857126 -0.64671 1.90282 37 39 38
0.859201 -0.640824 1.8855 37 39 37
0.849967 -0.626733 1.84404 36 38 36
0.909544 -0.663128 1.95113 36 38 36
0.893242 -0.644006 1.89486 36 37 35
0.872488 -0.62213 1.8305 36 37 36
0.90858 -0.640824 1.8855 36 37 36
0.866074 -0.604276 1.77797 36 37 35
0.883856 -0.610122 1.79517 35 37 35
0.902855 -0.616677 1.81445 37 38 35
0.973752 -0.658173 1.93655 37 39 36
0.945405 -0.632426 1.86079 37 38 36
0.955151 -0.632426 1.86079 36 38 35
0.990241 -0.649037 1.90967 37 38 36
1.00609 -0.652832 1.92083 36 38 36
1.01025 -0.649037 1.90967 36 38 36
1.02025 -0.649037 1.90967 36 37 35
0.994848 -0.626733 1.84404 36 38 36
1.03219 -0.644006 1.89486 36 38 35
1.06119 -0.655796 1.92955 36 38 35
1.06026 -0.649037 1.90967 36 37 35
1.07652 -0.652832 1.92083 35 38 35
1.13136 -0.679739 2 35 38 35
1.06236 -0.632426 1.86079 35 38 35
1.15232 -0.679739 2 35 38 35
1.16279 -0.679739 2 35 38 35
1.17327 -0.679739 2 35 38 35
1.13028 -0.649037 1.90967 36 39 36
1.14028 -0.649037 1.90967 36 39 36
1.20469 -0.679739 2 36 40 38
1.21517 -0.679739 2 36 40 37
1.14863 -0.637029 1.87433 34 38 36
1.10952 -0.610122 1.79517 33 37 35
1.43057 -0.780057 2.29517 35 39 36
-0.520119 -0.276918 0.82751 37 36 34
-0.526089 -0.282451 0.844042 37 36 34
-0.521668 -0.282451 0.844042 37 36 34
-0.542655 -0.296325 0.885502 38 36 34
-0.53478 -0.294542 0.880174 38 36 34
-0.564127 -0.313407 0.936549 38 36 34
-0.540511 -0.302921 0.905214 39 37 34
-0.499564 -0.282451 0.844042 38 37 34
-0.519465 -0.296325 0.885502 38 37 35
-0.502165 -0.289037 0.863725 38 37 35
-0.490422 -0.284844 0.851194 38 37 35
-0.510895 -0.299457 0.894863 37 37 34
-0.488593 -0.289037 0.863725 37 36 33
-0.528098 -0.315326 0.942284 37 36 33
-0.491636 -0.296325 0.885502 37 37 33
-0.489681 -0.297957 0.89038 38 37 33
-0.467232 -0.287031 0.85773 38 37 34
-0.539493 -0.334641 1 38 38 34
-0.48816 -0.305768 0.91372 38 37 34
-0.468446 -0.296325 0.885502 37 37 35
-0.508633 -0.324964 0.971083 36 36 34
-0.504198 -0.325384 0.972338 36 36 34
-0.482276 -0.314412 0.939552 37 36 35
-0.493374 -0.324964 0.971083 37 36 35
-0.502828 -0.334641 1 36 36 34
-0.483826 -0.325384 0.972338 37 37 34
-0.462591 -0.314412 0.939552 38 38 35
-0.473029 -0.324964 0.971083 39 38 34
-0.481877 -0.334641 1 38 37 33
-0.460684 -0.323438 0.966525 37 37 32
-0.458362 -0.325384 0.972338 38 37 33
-0.466164 -0.334641 1 38 37 34
-0.475586 -0.345284 1.0318 37 37 33
-0.428143 -0.314412 0.939552 38 38 34
-0.437425 -0.324964 0.971083 39 39 35
-0.458699 -0.344778 1.03029 39 39 35
-0.439975 -0.334641 1 39 38 35
-0.434737 -0.334641 1 38 38 34
-0.443159 -0.345284 1.0318 37 37 33
-0.451181 -0.355874 1.06345 37 36 33
-0.432351 -0.345284 1.0318 37 37 33
-0.45729 -0.369824 1.10514 38 37 34
-0.437329 -0.358215 1.07045 38 37 34
-0.41756 -0.346464 1.03533 38 37 34
-0.42465 -0.356983 1.06677 37 36 32
-0.434136 -0.369824 1.10514 35 35 31
-0.448046 -0.38683 1.15596 37 36 33
-0.441991 -0.38683 1.15596 39 38 35
-0.42162 -0.374127 1.118 38 37 34
-0.429882 -0.38683 1.15596 38 37 34
-0.395672 -0.361133 1.07917 38 38 35
-0.431095 -0.399167 1.19282 38 38 35
-0.404034 -0.379612 1.13439 37 37 34
-0.422815 -0.403186 1.20483 37 37 33
-0.406942 -0.393929 1.17717 38 38 34
-0.414804 -0.407718 1.21838 37 38 34
-0.434165 -0.433415 1.29517 37 37 33
-0.392688 -0.398232 1.19003 36 37 32
-0.391261 -0.403186 1.20483 37 37 33
-0.373662 -0.391363 1.1695 37 37 33
-0.407029 -0.433415 1.29517 37 37 33
-0.386699 -0.418746 1.25133 37 38 34
-0.401865 -0.442672 1.32283 36 38 34
-0.379642 -0.425529 1.2716 37 38 34
-0.397624 -0.453644 1.35562 37 38 35
-0.406095 -0.471731 1.40967 37 37 35
-0.398711 -0.471731 1.40967 36 37 35
-0.359542 -0.433415 1.29517 36 37 34
-0.352759 -0.433415 1.29517 37 38 35
-0.362122 -0.453644 1.35562 38 39 35
-0.392835 -0.501961 1.5 38 38 35
-0.397522 -0.518316 1.54887 38 38 34
-0.391632 -0.521275 1.55772 37 37 34
-0.383473 -0.521275 1.55772 37 37 33
-0.396196 -0.550278 1.64438 37 37 34
-0.387583 -0.550278 1.64438 38 38 35
-0.37897 -0.550278 1.64438 37 37 35
-0.392396 -0.583023 1.74224 36 37 34
-0.35311 -0.537144 1.60514 37 37 35
-0.344703 -0.537144 1.60514 37 37 35
-0.380149 -0.607189 1.81445 38 38 36
-0.37669 -0.617091 1.84404 37 37 35
-0.308282 -0.518316 1.54887 37 37 35
-0.318679 -0.550278 1.64438 38 38 34
-0.314802 -0.558683 1.6695 38 39 34
-0.341126 -0.622696 1.86079 38 39 34
-0.303605 -0.570506 1.70483 37 38 33
-0.299674 -0.580183 1.73375 37 37 32
-0.285746 -0.570506 1.70483 37 38 33
-0.289285 -0.596204 1.78162 37 38 33
-0.276204 -0.588218 1.75776 37 37 32
-0.254244 -0.560122 1.6738 37 38 33
-0.258688 -0.590267 1.76388 37 37 33
-0.239005 -0.565553 1.69003 37 37 33
-0.234013 -0.575038 1.71838 37 37 33
-0.225224 -0.575577 1.71999 38 38 34
-0.230821 -0.614461 1.83618 39 39 35
-0.203597 -0.565553 1.69003 39 38 35
-0.192379 -0.558683 1.6695 38 38 34
-0.182145 -0.554151 1.65596 38 38 35
-0.178591 -0.570506 1.70483 38 38 34
-0.172908 -0.581422 1.73745 37 37 34
-0.157807 -0.560122 1.6738 38 37 34
-0.154377 -0.580183 1.73375 38 38 35
-0.147309 -0.588218 1.75776 38 38 35
-0.135134 -0.575577 1.71999 38 38 36
-0.130819 -0.596999 1.784 38 38 36
-0.120631 -0.592849 1.7716 37 38 35
-0.106224 -0.565553 1.69003 37 38 35
-0.102072 -0.592849 1.7716 38 39 36
-0.0910042 -0.581422 1.73745 38 38 35
-0.0803661 -0.570506 1.70483 37 38 35
-0.0742342 -0.592849 1.7716 37 38 35
-0.0654096 -0.596999 1.784 37 37 34
-0.0556757 -0.592849 1.7716 36 37 34
-0.0463964 -0.592849 1.7716 37 38 35
-0.0360787 -0.576263 1.72203 37 38 35
-0.0273012 -0.581422 1.73745 37 38 35
-0.0180179 -0.575577 1.71999 37 38 35
-0.00957212 -0.611559 1.82751 37 38 35
0 -0.575577 1.71999 37 38 34
0.00934422 -0.596999 1.784 36 37 33
0.0185586 -0.592849 1.7716 37 37 34
0.0265255 -0.564901 1.68808 38 38 35
0.0371171 -0.592849 1.7716 37 37 34
0.0455021 -0.581422 1.73745 37 37 34
0.0564163 -0.600736 1.79517 38 37 35
0.0642118 -0.586067 1.75133 37 37 35
0.075725 -0.604755 1.80718 37 37 35
0.0819037 -0.581422 1.73745 37 37 34
0.0910042 -0.581422 1.73745 37 37 34
0.101275 -0.588218 1.75776 37 37 34
0.110077 -0.586067 1.75133 37 37 33
0.119251 -0.586067 1.75133 36 36 33
0.125014 -0.570506 1.70483 38 37 34
0.139189 -0.592849 1.7716 38 38 35
0.145607 -0.581422 1.73745 37 37 34
0.155943 -0.586067 1.75133 37 38 34
0.162354 -0.576263 1.72203 38 38 35
0.172908 -0.581422 1.73745 38 38 36
0.180393 -0.576263 1.72203 38 38 36
0.192636 -0.586067 1.75133 38 38 36
0.198197 -0.575577 1.71999 39 39 36
0.214917 -0.596999 1.784 38 38 36
0.21841 -0.581422 1.73745 38 38 35
0.240439 -0.614461 1.83618 37 38 35
0.24021 -0.590267 1.76388 37 38 35
0.243531 -0.576263 1.72203 37 38 35
0.25225 -0.575577 1.71999 37 38 35
0.263912 -0.581422 1.73745 37 38 35
0.260207 -0.554151 1.65596 36 37 34
0.29942 -0.617091 1.84404 36 37 34
0.291213 -0.581422 1.73745 36 37 34
0.297649 -0.576263 1.72203 37 38 35
0.321492 -0.604117 1.80527 37 38 35
0.318515 -0.581422 1.73745 37 38 35
0.349381 -0.62005 1.85288 37 38 35
0.339405 -0.586067 1.75133 36 37 34
0.349858 -0.588218 1.75776 36 37 34
0.361892 -0.592849 1.7716 35 37 34
0.369554 -0.590267 1.76388 36 37 35
0.383113 -0.596999 1.784 36 38 35
0.394914 -0.600736 1.79517 37 38 35
0.393309 -0.58438 1.74629 37 38 35
0.389041 -0.564901 1.68808 37 38 35
0.415749 -0.590267 1.76388 37 38 35
0.414905 -0.576263 1.72203 37 38 35
0.42342 -0.575577 1.71999 37 38 36
0.451331 -0.600736 1.79517 36 37 35
0.463327 -0.604117 1.80527 36 37 35
0.463964 -0.592849 1.7716 36 37 35
0.459456 -0.575577 1.71999 36 38 35
0.482522 -0.592849 1.7716 37 38 36
0.48966 -0.590267 1.76388 37 38 36
0.504588 -0.596999 1.784 37 38 37
0.496082 -0.576263 1.72203 37 38 37
0.517376 -0.590267 1.76388 38 38 37
0.555547 -0.622696 1.86079 39 39 37
0.555183 -0.611559 1.82751 38 39 37
0.564755 -0.611559 1.82751 38 39 36
0.571306 -0.608341 1.81789 37 38 36
0.580827 -0.608341 1.81789 37 37 35
0.575315 -0.592849 1.7716 37 38 36
0.587902 -0.596204 1.78162 37 38 36
0.59803 -0.596999 1.784 37 38 36
0.615266 -0.604755 1.80718 37 38 35
0.600627 -0.581422 1.73745 36 37 35
0.629982 -0.600736 1.79517 35 37 35
0.656793 -0.617091 1.84404 36 39 36
0.61614 -0.570506 1.70483 37 40 37
0.65819 -0.600736 1.79517 36 39 37
0.64791 -0.583023 1.74224 36 38 36
0.682578 -0.605689 1.80997 37 39 37
0.690991 -0.604755 1.80718 37 39 37
0.700456 -0.604755 1.80718 37 39 37
0.724404 -0.617091 1.84404 37 38 37
0.730103 -0.613763 1.8341 36 38 36
0.729979 -0.605689 1.80997 36 38 36
0.727879 -0.596204 1.78162 36 38 36
0.754261 -0.609992 1.82283 37 38 37
0.797327 -0.636761 1.90282 37 39 37
0.755874 -0.596204 1.78162 37 39 37
0.777381 -0.605689 1.80997 36 39 37
0.786861 -0.605689 1.80997 36 38 37
0.777105 -0.591059 1.76625 35 38 37
0.778529 -0.585175 1.74867 36 38 37
0.778559 -0.578393 1.7284 36 39 37
0.810198 -0.594979 1.77797 36 39 37
0.819511 -0.594979 1.77797 36 38 36
0.878953 -0.630965 1.8855 36 37 35
0.893242 -0.634098 1.89486 36 37 35
0.837819 -0.588218 1.75776 36 37 36
0.896673 -0.622696 1.86079 36 37 35
0.874453 -0.600736 1.79517 36 37 35
0.893351 -0.607189 1.81445 36 37 35
0.960128 -0.645707 1.92955 37 38 36
0.935659 -0.622696 1.86079 37 39 36
0.88086 -0.580183 1.73375 37 39 36
0.990448 -0.645707 1.92955 37 38 36
0.930869 -0.600736 1.79517 36 38 36
0.912549 -0.583023 1.74224 36 38 35
1.05803 -0.669281 2 36 37 35
0.946486 -0.592849 1.7716 36 37 35
0.994848 -0.617091 1.84404 36 38 35
1.04634 -0.642789 1.92083 36 38 35
1.09994 -0.669281 2 36 38 35
1.01205 -0.609992 1.82283 36 37 35
1.12089 -0.669281 2 35 37 35
1.04314 -0.617091 1.84404 35 38 35
1.14184 -0.669281 2 35 38 35
1.15232 -0.669281 2 35 38 35
1.0437 -0.600736 1.79517 35 39 36
1.11159 -0.634098 1.89486 35 39 36
1.18374 -0.669281 2 36 39 37
1.257 -0.704464 2.10514 36 39 37
1.129 -0.627228 1.87433 35 38 37
1.21517 -0.669281 2 34 38 36
1.14863 -0.627228 1.87433 33 37 35
1.17114 -0.634098 1.89486 34 38 36
1.01327 -0.544014 1.62567 36 40 38
-0.514075 -0.269424 0.817894 38 37 35
-0.54497 -0.288016 0.874334 38 37 35
-0.521668 -0.278037 0.844042 37 36 34
-0.557463 -0.299655 0.909666 38 36 34
-0.517172 -0.280393 0.851194 38 36 34
-0.516651 -0.282546 0.85773 39 37 35
-0.495898 -0.273576 0.830499 39 37 35
-0.52095 -0.28994 0.880174 40 38 36
-0.487198 -0.273576 0.830499 40 39 36
-0.514827 -0.291695 0.885502 40 39 36
-0.494188 -0.282546 0.85773 39 38 35
-0.493117 -0.284521 0.863725 37 36 33
-0.488593 -0.284521 0.863725 36 35 32
-0.484069 -0.284521 0.863725 36 36 32
-0.494345 -0.293302 0.89038 37 36 32
-0.506429 -0.303333 0.920833 37 37 33
-0.463672 -0.280393 0.851194 37 37 33
-0.506882 -0.309499 0.939552 37 37 33
-0.48816 -0.30099 0.91372 37 37 33
-0.483374 -0.30099 0.91372 37 36 34
-0.463808 -0.291695 0.885502 36 36 34
-0.4717 -0.299655 0.909666 37 36 34
-0.482276 -0.309499 0.939552 37 37 35
-0.477355 -0.309499 0.939552 36 36 34
-0.488288 -0.319886 0.971083 36 36 33
-0.467512 -0.309499 0.939552 37 37 34
-0.462591 -0.309499 0.939552 38 38 35
-0.473029 -0.319886 0.971083 39 38 34
-0.467943 -0.319886 0.971083 38 37 32
-0.463455 -0.3203 0.972338 38 37 33
-0.458905 -0.320679 0.973489 38 37 33
-0.452043 -0.319433 0.969708 37 37 32
-0.447597 -0.319886 0.971083 36 36 31
-0.455688 -0.329412 1 38 37 34
-0.45045 -0.329412 1 39 38 35
-0.469797 -0.347602 1.05522 38 37 34
-0.463262 -0.346847 1.05293 36 36 32
-0.44929 -0.340439 1.03348 37 36 32
-0.443159 -0.339889 1.0318 37 37 33
-0.448748 -0.348424 1.05772 37 36 33
-0.444353 -0.349324 1.06045 37 36 33
-0.465785 -0.370808 1.12567 37 37 33
-0.422983 -0.34105 1.03533 37 37 33
-0.433379 -0.353971 1.07455 38 37 34
-0.456636 -0.377874 1.14712 38 37 34
-0.447521 -0.375269 1.13921 37 36 32
-0.441554 -0.375269 1.13921 36 36 32
-0.410865 -0.353971 1.07455 37 37 33
-0.42962 -0.375269 1.13921 37 37 33
-0.413237 -0.366042 1.1112 38 38 34
-0.441747 -0.396886 1.20483 38 38 34
-0.425439 -0.387774 1.17717 37 37 33
-0.404034 -0.37368 1.13439 36 36 32
-0.405663 -0.380786 1.15596 37 37 34
-0.411387 -0.39201 1.19003 38 38 35
-0.405154 -0.39201 1.19003 37 38 34
-0.434165 -0.426643 1.29517 37 37 32
-0.412916 -0.412203 1.25133 36 37 32
-0.400652 -0.406412 1.23375 36 36 32
-0.426918 -0.440154 1.33618 37 37 32
-0.384046 -0.402553 1.22203 37 37 33
-0.400245 -0.426643 1.29517 37 37 34
-0.377382 -0.409208 1.24224 36 37 33
-0.393463 -0.43413 1.31789 37 38 34
-0.427544 -0.480158 1.45762 37 38 35
-0.390524 -0.446556 1.35562 38 38 35
-0.398711 -0.46436 1.40967 36 37 34
-0.367222 -0.435755 1.32283 36 37 34
-0.374321 -0.452722 1.37433 36 37 33
-0.372606 -0.459484 1.39486 37 37 34
-0.377719 -0.475105 1.44228 38 38 35
-0.397522 -0.510217 1.54887 38 38 34
-0.391632 -0.51313 1.55772 37 37 33
-0.383473 -0.51313 1.55772 37 37 34
-0.361408 -0.494118 1.5 37 38 35
-0.353551 -0.494118 1.5 37 37 35
-0.356958 -0.510217 1.54887 37 37 35
-0.377741 -0.55248 1.67717 37 38 35
-0.361744 -0.54168 1.64438 38 38 36
-0.33262 -0.510217 1.54887 38 38 36
-0.314268 -0.494118 1.5 38 38 37
-0.348253 -0.561592 1.70483 38 37 36
-0.333818 -0.55248 1.67717 37 37 35
-0.318679 -0.54168 1.64438 38 38 34
-0.338498 -0.591349 1.79517 39 39 35
-0.324775 -0.583586 1.7716 38 39 34
-0.319692 -0.591349 1.79517 38 38 33
-0.303824 -0.579027 1.75776 38 38 33
-0.293093 -0.576032 1.74867 38 38 33
-0.291484 -0.591349 1.79517 36 36 31
-0.282082 -0.591349 1.79517 34 34 28
-0.261259 -0.566584 1.71999 35 35 30
-0.25225 -0.566584 1.71999 37 37 33
-0.245188 -0.571118 1.73375 37 37 33
-0.236107 -0.571118 1.73375 36 37 33
-0.230972 -0.581044 1.76388 38 38 34
-0.21431 -0.561592 1.70483 38 38 35
-0.207206 -0.566584 1.71999 38 37 34
-0.20686 -0.591349 1.79517 36 36 33
-0.192636 -0.576909 1.75133 37 37 34
-0.185971 -0.584798 1.77528 38 37 34
-0.169662 -0.561592 1.70483 37 37 34
-0.167027 -0.583586 1.7716 37 37 34
-0.154377 -0.571118 1.73375 38 38 35
-0.149508 -0.58767 1.784 38 38 36
-0.133943 -0.561592 1.70483 38 38 36
-0.126125 -0.566584 1.71999 38 38 36
-0.119251 -0.576909 1.75133 37 38 35
-0.108107 -0.566584 1.71999 38 38 36
-0.101627 -0.581044 1.76388 38 39 36
-0.0917312 -0.576909 1.75133 38 38 35
-0.0819037 -0.572337 1.73745 38 38 35
-0.0714365 -0.561592 1.70483 39 39 36
-0.0631377 -0.567258 1.72203 38 38 35
-0.054118 -0.567258 1.72203 37 37 34
-0.0450983 -0.567258 1.72203 37 38 34
-0.0364017 -0.572337 1.73745 37 38 34
-0.0267887 -0.561592 1.70483 37 38 35
-0.0176837 -0.556075 1.68808 37 38 35
-0.00917312 -0.576909 1.75133 37 38 35
0 -0.571118 1.73375 36 37 34
0.00935296 -0.588219 1.78567 36 37 33
0.0182008 -0.572337 1.73745 37 37 33
0.0270268 -0.566584 1.71999 37 37 34
0.0363241 -0.571118 1.73375 37 37 34
0.0463964 -0.583586 1.7716 37 37 35
0.0535774 -0.561592 1.70483 37 37 35
0.0654096 -0.58767 1.784 38 38 35
0.0726482 -0.571118 1.73375 38 38 35
0.0825581 -0.576909 1.75133 38 38 35
0.0946563 -0.595306 1.80718 38 38 35
0.0982252 -0.561592 1.70483 38 37 34
0.108107 -0.566584 1.71999 37 36 33
0.118305 -0.572337 1.73745 37 37 34
0.128424 -0.576909 1.75133 38 37 34
0.137597 -0.576909 1.75133 37 37 34
0.14677 -0.576909 1.75133 36 37 33
0.150311 -0.556075 1.68808 36 37 33
0.168196 -0.58767 1.784 37 37 34
0.174289 -0.576909 1.75133 37 37 35
0.190435 -0.598836 1.81789 37 38 35
0.189188 -0.566584 1.71999 39 39 36
0.200209 -0.572337 1.73745 39 39 37
0.207206 -0.566584 1.71999 38 38 36
0.220963 -0.579027 1.75776 37 38 35
0.231982 -0.583586 1.7716 37 38 35
0.237815 -0.575249 1.74629 37 38 36
0.247674 -0.576909 1.75133 37 38 35
0.254269 -0.571118 1.73375 36 37 34
0.263912 -0.572337 1.73745 36 37 34
0.27059 -0.567258 1.72203 37 38 35
0.271778 -0.55137 1.6738 37 38 35
0.295644 -0.581044 1.76388 37 38 35
0.299674 -0.571118 1.73375 37 38 35
0.306669 -0.567258 1.72203 37 39 35
0.306846 -0.55137 1.6738 37 39 36
0.330232 -0.576909 1.75133 37 38 36
0.341838 -0.581044 1.76388 37 38 35
0.363741 -0.602003 1.82751 36 38 35
0.348253 -0.561592 1.70483 36 38 35
0.360358 -0.566584 1.71999 36 38 35
0.369367 -0.566584 1.71999 36 38 35
0.382217 -0.572337 1.73745 36 38 35
0.404317 -0.591349 1.79517 37 38 35
0.403617 -0.576909 1.75133 36 38 35
0.405402 -0.566584 1.71999 36 37 35
0.432525 -0.591349 1.79517 37 38 35
0.436126 -0.583586 1.7716 37 38 36
0.448523 -0.58767 1.784 37 38 36
0.441438 -0.566584 1.71999 36 38 35
0.458656 -0.576909 1.75133 37 38 36
0.471182 -0.581044 1.76388 37 38 36
0.488941 -0.591349 1.79517 38 39 37
0.486175 -0.576909 1.75133 37 38 36
0.521571 -0.607449 1.84404 37 38 37
0.499457 -0.571118 1.73375 37 38 37
0.526552 -0.591349 1.79517 37 38 36
0.539541 -0.595306 1.80718 37 38 36
0.545358 -0.591349 1.79517 37 38 36
0.558472 -0.595306 1.80718 38 38 36
0.560654 -0.58767 1.784 38 38 36
0.577403 -0.595306 1.80718 38 38 36
0.582969 -0.591349 1.79517 38 38 36
0.588686 -0.58767 1.784 38 39 36
0.601774 -0.591349 1.79517 37 38 35
0.615266 -0.595306 1.80718 37 38 35
0.620579 -0.591349 1.79517 37 39 36
0.660456 -0.619954 1.882 36 38 36
0.635407 -0.58767 1.784 36 39 36
0.662857 -0.604173 1.8341 36 39 36
0.702352 -0.631026 1.91561 36 38 36
0.67206 -0.595306 1.80718 36 38 37
0.676996 -0.591349 1.79517 37 39 38
0.713334 -0.614555 1.86561 37 39 37
0.70461 -0.598836 1.81789 37 39 37
0.732878 -0.614555 1.86561 36 38 36
0.699717 -0.579027 1.75776 36 38 36
0.739709 -0.604173 1.8341 36 38 36
0.758108 -0.611261 1.85562 36 39 36
0.754261 -0.600461 1.82283 36 38 36
0.781736 -0.614555 1.86561 36 38 36
0.773356 -0.600461 1.82283 35 37 35
0.758603 -0.581823 1.76625 33 36 34
0.767854 -0.581823 1.76625 33 36 35
0.833692 -0.62419 1.89486 33 36 35
0.843617 -0.62419 1.89486 34 36 35
0.815302 -0.596225 1.80997 34 37 35
0.810198 -0.585683 1.77797 35 38 36
0.843725 -0.602988 1.8305 36 38 36
0.845832 -0.597702 1.81445 36 38 36
0.893242 -0.62419 1.89486 36 37 36
0.847448 -0.585683 1.77797 36 37 35
0.882076 -0.602988 1.8305 35 37 35
0.918456 -0.621106 1.8855 36 37 35
0.901251 -0.602988 1.8305 36 37 35
0.932651 -0.617428 1.87433 37 38 36
0.91657 -0.600461 1.82283 37 39 36
1.01613 -0.658824 2 36 38 36
0.931366 -0.597702 1.81445 36 38 36
1.03708 -0.658824 2 36 38 35
1.01432 -0.637922 1.93655 36 38 36
0.991555 -0.617428 1.87433 36 38 36
1.06851 -0.658824 2 36 37 35
0.994848 -0.607449 1.84404 36 37 35
1.08946 -0.658824 2 35 37 35
0.974324 -0.583586 1.7716 35 37 34
1.05204 -0.62419 1.89486 34 36 34
1.08141 -0.635618 1.92955 34 36 34
1.00216 -0.583586 1.7716 34 37 34
1.14184 -0.658824 2 34 37 34
1.10027 -0.629066 1.90967 34 37 34
1.10166 -0.62419 1.89486 35 38 35
1.11159 -0.62419 1.89486 35 38 36
1.25812 -0.700219 2.12567 34 38 36
1.14028 -0.629066 1.90967 34 38 36
1.14136 -0.62419 1.89486 34 38 36
1.06799 -0.579027 1.75776 34 38 36
1.30266 -0.700219 2.12567 34 38 36
1.15845 -0.617428 1.87433 34 38 36
1.18106 -0.62419 1.89486 35 40 38
-0.511913 -0.264032 0.814453 38 37 34
-0.526089 -0.273624 0.844042 38 37 34
-0.491461 -0.25778 0.795167 37 37 34
-0.512431 -0.271076 0.836183 38 37 35
-0.517172 -0.275943 0.851194 39 37 35
-0.500248 -0.269234 0.830499 40 39 37
-0.512158 -0.278062 0.85773 40 38 36
-0.511214 -0.280005 0.863725 40 39 36
-0.509926 -0.281793 0.869241 40 38 36
-0.505373 -0.281793 0.869241 39 38 36
-0.512999 -0.288646 0.89038 39 38 35
-0.467772 -0.265613 0.819331 37 36 32
-0.500912 -0.287065 0.885502 36 36 32
-0.490015 -0.283444 0.874334 36 36 32
-0.494345 -0.288646 0.89038 37 37 32
-0.46813 -0.275943 0.851194 37 37 33
-0.499752 -0.297415 0.917429 37 37 33
-0.508356 -0.305472 0.942284 37 37 33
-0.519477 -0.315216 0.972338 37 37 33
-0.471026 -0.288646 0.89038 37 36 34
-0.493549 -0.305472 0.942284 36 36 34
-0.504198 -0.315216 0.972338 38 38 36
-0.469016 -0.296213 0.91372 38 38 36
-0.46423 -0.296213 0.91372 38 38 36
-0.488288 -0.314808 0.971083 37 37 35
-0.471253 -0.307024 0.947071 38 38 35
-0.478115 -0.314808 0.971083 39 38 35
-0.472359 -0.314363 0.969708 39 38 34
-0.467943 -0.314808 0.971083 39 37 33
-0.476639 -0.324183 1 38 37 33
-0.471402 -0.324183 1 38 37 33
-0.454299 -0.315932 0.974549 38 37 33
-0.474255 -0.333558 1.02892 37 37 32
-0.468866 -0.333558 1.02892 37 37 33
-0.45045 -0.324183 1 37 37 33
-0.457528 -0.33315 1.02766 37 36 32
-0.465368 -0.342894 1.05772 36 36 32
-0.434737 -0.324183 1 35 35 31
-0.443159 -0.334493 1.0318 36 35 31
-0.451181 -0.344753 1.06345 37 36 32
-0.433828 -0.335637 1.03533 37 36 33
-0.427638 -0.335035 1.03348 37 36 33
-0.453979 -0.360232 1.1112 37 37 34
-0.445713 -0.358267 1.10514 38 37 34
-0.456636 -0.371876 1.14712 38 38 34
-0.434136 -0.358267 1.10514 37 37 34
-0.430698 -0.360232 1.1112 37 37 33
-0.412629 -0.349848 1.07917 38 37 34
-0.435937 -0.374742 1.15596 38 37 34
-0.415764 -0.362435 1.118 38 38 34
-0.409908 -0.362435 1.118 38 38 34
-0.406825 -0.364922 1.12567 37 37 32
-0.404034 -0.367749 1.13439 36 37 32
-0.395033 -0.364922 1.12567 37 37 33
-0.389137 -0.364922 1.12567 38 38 34
-0.393554 -0.374742 1.15596 38 38 34
-0.41947 -0.405661 1.25133 37 38 34
-0.402041 -0.394977 1.21838 37 37 33
-0.406362 -0.405661 1.25133 36 37 32
-0.396902 -0.402712 1.24224 36 37 32
-0.399623 -0.412231 1.2716 37 37 33
-0.361411 -0.379132 1.1695 37 37 34
-0.386302 -0.412231 1.2716 36 38 34
-0.386678 -0.419871 1.29517 37 37 34
-0.403115 -0.445536 1.37433 37 38 35
-0.36478 -0.410497 1.26625 38 38 36
-0.383424 -0.439467 1.35562 36 37 35
-0.400383 -0.467564 1.44228 37 37 35
-0.395236 -0.47043 1.45113 37 38 35
-0.400691 -0.486275 1.5 37 37 34
-0.416492 -0.515559 1.59033 37 38 34
-0.384978 -0.486275 1.5 38 39 35
-0.399833 -0.515559 1.59033 38 38 35
-0.383473 -0.504985 1.55772 37 38 34
-0.386739 -0.520358 1.60514 37 38 35
-0.383171 -0.527013 1.62567 37 37 35
-0.356958 -0.502119 1.54887 38 38 36
-0.383971 -0.552678 1.70483 39 39 36
-0.35311 -0.520358 1.60514 38 38 36
-0.353131 -0.533081 1.64438 38 38 36
-0.34978 -0.541224 1.6695 38 38 36
-0.338269 -0.536833 1.65596 37 37 36
-0.345079 -0.562052 1.73375 37 37 35
-0.330394 -0.552678 1.70483 37 37 34
-0.314802 -0.541224 1.6695 39 39 35
-0.301453 -0.533081 1.64438 39 39 35
-0.310267 -0.564804 1.74224 38 38 34
-0.303824 -0.569837 1.75776 38 38 34
-0.285746 -0.552678 1.70483 38 38 33
-0.27961 -0.558254 1.72203 36 36 31
-0.273012 -0.563252 1.73745 35 35 29
-0.256413 -0.547248 1.68808 35 35 30
-0.25225 -0.557591 1.71999 36 37 32
-0.245188 -0.562052 1.73375 38 38 35
-0.236107 -0.562052 1.73375 38 38 35
-0.225492 -0.558254 1.72203 37 38 35
-0.21841 -0.563252 1.73745 38 38 35
-0.216263 -0.581963 1.79517 37 37 34
-0.199783 -0.562052 1.73375 37 36 34
-0.192636 -0.567752 1.75133 37 37 34
-0.184777 -0.571821 1.76388 38 37 34
-0.17754 -0.578342 1.784 38 38 35
-0.159337 -0.547879 1.69003 38 38 35
-0.155943 -0.567752 1.75133 39 39 35
-0.144143 -0.557591 1.71999 38 39 36
-0.143582 -0.592448 1.82751 37 38 35
-0.126125 -0.557591 1.71999 38 37 35
-0.120631 -0.574322 1.7716 37 37 35
-0.109205 -0.563252 1.73745 38 38 36
-0.106755 -0.600673 1.85288 39 39 37
-0.0917312 -0.567752 1.75133 39 39 36
-0.0825581 -0.567752 1.75133 38 38 35
-0.0742342 -0.574322 1.7716 38 39 36
-0.0662594 -0.585856 1.80718 38 38 35
-0.0535774 -0.552678 1.70483 37 37 34
-0.0454051 -0.562052 1.73375 37 37 34
-0.0357183 -0.552678 1.70483 37 38 35
-0.027059 -0.558254 1.72203 37 38 35
-0.0185586 -0.574322 1.7716 37 38 34
-0.00901967 -0.558254 1.72203 37 38 35
0 -0.592448 1.82751 37 38 35
0.00901967 -0.558254 1.72203 37 38 35
0.0183462 -0.567752 1.75133 37 37 34
0.0265255 -0.547248 1.68808 37 37 34
0.0364017 -0.563252 1.73745 37 37 35
0.0458656 -0.567752 1.75133 37 37 35
0.0540537 -0.557591 1.71999 38 38 36
0.0649549 -0.574322 1.7716 39 39 37
0.0714365 -0.552678 1.70483 38 38 36
0.081177 -0.558254 1.72203 38 39 36
0.0927928 -0.574322 1.7716 38 38 35
0.100105 -0.563252 1.73745 38 38 35
0.106102 -0.547248 1.68808 38 38 35
0.120631 -0.574322 1.7716 38 38 35
0.127406 -0.563252 1.73745 38 37 34
0.135134 -0.557591 1.71999 37 37 34
0.145296 -0.562052 1.73375 36 37 34
0.16187 -0.58933 1.81789 36 36 33
0.165116 -0.567752 1.75133 36 36 33
0.172908 -0.563252 1.73745 35 35 33
0.184136 -0.569837 1.75776 37 37 35
0.192636 -0.567752 1.75133 38 38 36
0.201228 -0.566118 1.74629 38 38 35
0.20538 -0.552678 1.70483 37 37 35
0.221733 -0.571821 1.76388 36 38 35
0.233824 -0.578883 1.78567 37 38 35
0.239377 -0.569837 1.75776 37 38 35
0.249449 -0.571821 1.76388 37 38 35
0.258688 -0.571821 1.76388 36 37 34
0.272679 -0.581963 1.79517 35 36 32
0.277166 -0.571821 1.76388 36 37 34
0.284367 -0.567752 1.75133 38 39 36
0.285746 -0.552678 1.70483 37 38 35
0.304882 -0.571821 1.76388 38 39 36
0.311886 -0.567752 1.75133 38 39 36
0.312535 -0.552678 1.70483 38 40 37
0.336392 -0.578342 1.784 38 39 37
0.333019 -0.557068 1.71838 37 39 36
0.348578 -0.567752 1.75133 37 38 36
0.362643 -0.575515 1.77528 38 39 37
0.373769 -0.578342 1.784 38 39 36
0.366112 -0.552678 1.70483 37 39 36
0.375042 -0.552678 1.70483 37 38 36
0.399009 -0.574322 1.7716 37 38 36
0.396865 -0.558254 1.72203 36 37 35
0.425953 -0.585856 1.80718 35 37 34
0.406724 -0.547248 1.68808 36 38 35
0.416046 -0.547879 1.69003 38 39 37
0.448523 -0.578342 1.784 37 38 36
0.469034 -0.592448 1.82751 37 38 35
0.464928 -0.575515 1.77528 37 38 36
0.471182 -0.571821 1.76388 37 38 35
0.480421 -0.571821 1.76388 37 38 36
0.477474 -0.557591 1.71999 36 37 35
0.516895 -0.592448 1.82751 37 38 36
0.508137 -0.571821 1.76388 37 38 37
0.526552 -0.581963 1.79517 36 37 36
0.528919 -0.574322 1.7716 36 36 34
0.527824 -0.563252 1.73745 37 37 35
0.536925 -0.563252 1.73745 37 38 36
0.550387 -0.567752 1.75133 38 38 36
0.5502 -0.558254 1.72203 38 39 37
0.590349 -0.58933 1.81789 39 39 37
0.582048 -0.571821 1.76388 39 40 36
0.593874 -0.574322 1.7716 38 39 36
0.611177 -0.581963 1.79517 37 38 35
0.612432 -0.574322 1.7716 36 38 35
0.609728 -0.563252 1.73745 36 38 35
0.630991 -0.574322 1.7716 36 38 35
0.643893 -0.577572 1.78162 36 38 36
0.65819 -0.581963 1.79517 36 38 36
0.67206 -0.585856 1.80718 36 38 37
0.698762 -0.600673 1.85288 36 38 37
0.686399 -0.581963 1.79517 36 38 37
0.690552 -0.577572 1.78162 36 38 36
0.71607 -0.59093 1.82283 36 38 36
0.699717 -0.569837 1.75776 36 38 36
0.728853 -0.585856 1.80718 36 38 36
0.765756 -0.607627 1.87433 36 38 36
0.758923 -0.594582 1.8341 36 38 36
0.78539 -0.607627 1.87433 36 38 35
0.7679 -0.586761 1.80997 35 37 35
0.777381 -0.586761 1.80997 34 37 35
0.806705 -0.601559 1.85562 34 37 35
0.833692 -0.614282 1.89486 34 37 35
0.84716 -0.616862 1.90282 33 36 34
0.815302 -0.586761 1.80997 34 37 35
0.840308 -0.597807 1.84404 35 38 36
0.827439 -0.581963 1.79517 36 38 36
0.887026 -0.616862 1.90282 36 38 36
0.814771 -0.560318 1.7284 36 37 35
0.903166 -0.614282 1.89486 35 36 35
0.935942 -0.629655 1.94228 36 37 35
0.89826 -0.597807 1.84404 36 37 35
0.922834 -0.607627 1.87433 36 37 35
0.893258 -0.581963 1.79517 36 38 35
0.912358 -0.588215 1.81445 37 38 36
0.921862 -0.588215 1.81445 36 38 35
0.946554 -0.597807 1.84404 36 38 35
0.918648 -0.574322 1.7716 35 37 35
1.00609 -0.622701 1.92083 36 38 36
0.964308 -0.59093 1.82283 37 39 37
1.03087 -0.625528 1.92955 37 38 36
1.04475 -0.627796 1.93655 35 37 35
1.08946 -0.648366 2 35 37 35
1.09994 -0.648366 2 34 37 34
1.02382 -0.597807 1.84404 34 36 34
1.03348 -0.597807 1.84404 33 36 33
1.08658 -0.622701 1.92083 34 36 34
1.09664 -0.622701 1.92083 34 38 35
1.20436 -0.677651 2.09033 35 38 36
1.02195 -0.569837 1.75776 35 39 36
1.17327 -0.648366 2 35 38 36
1.24597 -0.68245 2.10514 34 37 35
1.19422 -0.648366 2 34 38 36
1.14136 -0.614282 1.89486 34 38 36
1.21517 -0.648366 2 34 38 36
1.10012 -0.581963 1.79517 35 39 37
1.23612 -0.648366 2 35 39 37
1.2466 -0.648366 2 36 40 38
-0.52557 -0.266704 0.836183 37 36 33
-0.489704 -0.250592 0.785666 37 36 33
-0.521668 -0.269211 0.844042 37 36 34
-0.542655 -0.282435 0.885502 37 36 34
-0.517172 -0.271492 0.851194 38 37 35
-0.526652 -0.278873 0.874334 39 38 36
-0.508256 -0.271492 0.851194 39 38 35
-0.514479 -0.277248 0.869241 39 38 35
-0.487198 -0.264891 0.830499 38 37 35
-0.533389 -0.292618 0.917429 39 38 35
-0.497642 -0.275489 0.863725 39 39 36
-0.50555 -0.282435 0.885502 39 38 35
-0.518973 -0.292618 0.917429 38 37 34
-0.499008 -0.28399 0.89038 37 37 33
-0.523162 -0.300546 0.942284 38 37 33
-0.492147 -0.28542 0.894863 38 38 34
-0.487459 -0.28542 0.894863 38 38 34
-0.496783 -0.293704 0.920833 38 38 34
-0.458247 -0.273577 0.85773 38 37 34
-0.51372 -0.309731 0.971083 37 37 34
-0.494857 -0.301342 0.944781 36 36 33
-0.488614 -0.300546 0.942284 38 37 35
-0.498461 -0.309731 0.971083 38 38 36
-0.477355 -0.299674 0.939552 38 38 36
-0.487597 -0.309292 0.969708 37 37 35
-0.497591 -0.318954 1 38 38 36
-0.461112 -0.298716 0.936549 39 39 36
-0.487115 -0.318954 1 39 38 34
-0.481877 -0.318954 1 38 37 33
-0.476639 -0.318954 1 38 37 33
-0.458362 -0.310131 0.972338 38 37 32
-0.452684 -0.309731 0.971083 38 37 33
-0.448707 -0.310499 0.973489 37 37 33
-0.455688 -0.318954 1 36 37 32
-0.462911 -0.327777 1.02766 37 37 33
-0.457528 -0.327777 1.02766 36 36 31
-0.453303 -0.328616 1.03029 36 36 31
-0.462322 -0.339192 1.06345 35 35 31
-0.443159 -0.329098 1.0318 36 36 31
-0.437755 -0.329098 1.0318 37 37 33
-0.444353 -0.338234 1.06045 37 37 34
-0.441413 -0.34025 1.06677 37 37 34
-0.437329 -0.341423 1.07045 38 38 34
-0.418396 -0.330885 1.03741 38 38 34
-0.42775 -0.342733 1.07455 38 38 35
-0.454101 -0.368698 1.15596 38 38 35
-0.433332 -0.35659 1.118 37 37 34
-0.441991 -0.368698 1.15596 38 38 35
-0.42162 -0.35659 1.118 38 38 34
-0.429882 -0.368698 1.15596 39 38 35
-0.427474 -0.37187 1.1659 38 38 35
-0.404053 -0.35659 1.118 38 38 34
-0.424848 -0.380456 1.19282 38 38 34
-0.395033 -0.359036 1.12567 37 38 34
-0.411387 -0.379565 1.19003 37 37 33
-0.414804 -0.388606 1.21838 37 37 34
-0.408423 -0.388606 1.21838 37 38 34
-0.397572 -0.384287 1.20483 37 37 33
-0.420597 -0.413099 1.29517 36 36 32
-0.399807 -0.399118 1.25133 36 37 32
-0.414172 -0.420348 1.31789 37 37 33
-0.383889 -0.396217 1.24224 37 37 33
-0.405922 -0.426181 1.33618 36 37 33
-0.410313 -0.43835 1.37433 38 38 34
-0.427544 -0.464915 1.45762 38 38 35
-0.381079 -0.421922 1.32283 38 37 35
-0.394524 -0.444898 1.39486 36 37 34
-0.416405 -0.478431 1.5 37 38 35
-0.379912 -0.444898 1.39486 39 39 36
-0.413747 -0.49402 1.54887 38 38 34
-0.40795 -0.49684 1.55772 37 37 34
-0.347921 -0.432379 1.35562 38 38 34
-0.362611 -0.460023 1.44228 38 38 35
-0.369265 -0.478431 1.5 38 38 35
-0.361408 -0.478431 1.5 38 39 35
-0.378332 -0.511965 1.60514 39 39 36
-0.384758 -0.532495 1.6695 40 40 37
-0.366141 -0.518513 1.62567 39 39 36
-0.347397 -0.503682 1.57917 38 38 36
-0.344703 -0.511965 1.60514 38 38 36
-0.357183 -0.543764 1.70483 38 38 36
-0.348253 -0.543764 1.70483 38 37 36
-0.345079 -0.552987 1.73375 37 37 35
-0.335998 -0.552987 1.73375 38 38 35
-0.326917 -0.552987 1.73375 39 40 36
-0.338055 -0.588165 1.84404 39 39 35
-0.303605 -0.543764 1.70483 37 37 33
-0.290747 -0.536515 1.68211 37 37 32
-0.293093 -0.557745 1.74867 36 36 31
-0.288255 -0.566233 1.77528 37 37 32
-0.270015 -0.548083 1.71838 37 37 32
-0.26602 -0.558595 1.75133 37 37 33
-0.258688 -0.562598 1.76388 37 37 33
-0.239005 -0.539042 1.69003 38 38 34
-0.234511 -0.54925 1.72203 38 38 35
-0.230972 -0.562598 1.76388 38 38 35
-0.21841 -0.554167 1.73745 38 38 35
-0.211756 -0.560646 1.75776 37 37 35
-0.205573 -0.569014 1.784 37 37 34
-0.197457 -0.572576 1.79517 37 37 34
-0.181312 -0.552047 1.7308 37 37 34
-0.171374 -0.54925 1.72203 37 37 34
-0.165722 -0.560646 1.75776 38 37 34
-0.154377 -0.552987 1.73375 38 38 35
-0.147822 -0.562598 1.76388 38 38 35
-0.133943 -0.543764 1.70483 37 37 35
-0.127134 -0.552987 1.73375 38 37 35
-0.119251 -0.558595 1.75133 38 38 36
-0.109205 -0.554167 1.73745 38 38 36
-0.0998913 -0.552987 1.73375 39 39 36
-0.0910042 -0.554167 1.73745 38 38 36
-0.0817293 -0.552987 1.73375 37 38 35
-0.0733849 -0.558595 1.75133 37 38 35
-0.0618929 -0.538421 1.68808 37 38 35
-0.0535774 -0.543764 1.70483 37 38 35
-0.0450983 -0.54925 1.72203 37 38 35
-0.0373769 -0.569014 1.784 37 38 35
-0.0278957 -0.566233 1.77528 37 38 34
-0.0181621 -0.552987 1.73375 36 37 34
-0.00923886 -0.562598 1.76388 37 38 35
0 -0.562598 1.76388 38 39 36
0.00908103 -0.552987 1.73375 37 38 35
0.0188054 -0.572576 1.79517 37 37 34
0.0275194 -0.558595 1.75133 37 37 35
0.0371942 -0.566233 1.77528 37 38 35
0.0470136 -0.572576 1.79517 38 38 36
0.0554332 -0.562598 1.76388 38 38 36
0.060715 -0.528175 1.65596 38 38 36
