ply
format ascii 1.0
element vertex 1362
property float x
property float y
property float z
property uchar red
property uchar green
property uchar blue
end_header
0.99645 0.2696 1.77797 38 42 42
1.05262 0.282159 1.86079 37 42 42
1.0528 0.279619 1.84404 36 41 41
1.08635 0.285906 1.8855 36 41 41
1.08186 0.282159 1.86079 36 41 40
1.0531 0.272208 1.79517 36 41 40
1.11597 0.285906 1.8855 35 40 40
1.11109 0.282159 1.86079 35 40 39
1.16226 0.292586 1.92955 35 40 39
1.16028 0.28957 1.90967 34 39 39
1.16121 0.287326 1.89486 34 39 39
1.18029 0.28957 1.90967 34 39 39
1.2466 0.303268 2 34 39 39
-0.628536 0.156863 1 37 36 32
-0.672642 0.169281 1.07917 38 37 32
-0.650773 0.165165 1.05293 38 37 33
-0.668181 0.171033 1.09033 38 37 33
-0.63728 0.164529 1.04887 38 37 32
-0.656759 0.171033 1.09033 36 35 30
-0.64438 0.169281 1.07917 36 36 31
-0.618739 0.163984 1.0454 37 36 32
-0.613264 0.163984 1.0454 37 37 34
-0.672069 0.181327 1.15596 37 37 35
-0.648561 0.176575 1.12567 37 37 35
-0.622493 0.171033 1.09033 37 37 35
-0.641702 0.177943 1.13439 37 37 35
-0.63576 0.177943 1.13439 38 38 35
-0.609161 0.172107 1.09718 37 37 34
-0.603414 0.172107 1.09718 37 36 34
-0.692679 0.199467 1.2716 37 37 34
-0.617387 0.179511 1.14438 37 37 34
-0.63578 0.186671 1.19003 37 37 33
-0.60011 0.177943 1.13439 37 37 33
-0.646213 0.193529 1.23375 37 37 32
-0.624756 0.188993 1.20483 37 36 32
-0.664814 0.203163 1.29517 36 36 31
-0.646057 0.199467 1.2716 37 37 32
-0.629205 0.196287 1.25133 37 37 32
-0.655772 0.206728 1.31789 37 37 32
-0.601672 0.191692 1.22203 37 37 33
-0.669459 0.215582 1.37433 37 37 32
-0.66226 0.215582 1.37433 36 36 31
-0.617328 0.203163 1.29517 36 36 30
-0.647863 0.215582 1.37433 36 36 30
-0.640665 0.215582 1.37433 36 36 30
-0.713917 0.242961 1.54887 35 36 30
-0.617738 0.212646 1.35562 35 35 30
-0.649678 0.226241 1.44228 35 35 31
-0.627601 0.221124 1.40967 36 36 31
-0.659962 0.235294 1.5 37 37 32
-0.652106 0.235294 1.5 37 37 33
-0.720344 0.263086 1.67717 36 36 31
-0.680998 0.251786 1.60514 36 36 31
-0.65272 0.244348 1.55772 37 37 33
-0.638214 0.241942 1.54238 38 38 35
-0.67181 0.257943 1.64438 38 38 35
-0.647368 0.251786 1.60514 38 38 35
-0.678647 0.267425 1.70483 37 37 34
-0.630553 0.251786 1.60514 36 36 33
-0.616409 0.249464 1.59033 37 36 33
-0.677387 0.277898 1.7716 37 37 33
-0.584114 0.242961 1.54887 36 36 32
-0.623712 0.263086 1.67717 36 36 32
-0.665261 0.28462 1.81445 36 36 32
-0.594294 0.257943 1.64438 37 37 33
-0.626062 0.275727 1.75776 37 37 33
-0.625229 0.27947 1.78162 37 37 33
-0.605426 0.274719 1.75133 36 37 32
-0.614617 0.28318 1.80527 37 37 33
-0.58539 0.273928 1.74629 37 37 33
-0.574906 0.273292 1.74224 36 36 32
-0.553633 0.267425 1.70483 36 36 32
-0.564977 0.277378 1.76828 36 36 31
-0.54003 0.269549 1.71838 37 37 32
-0.538404 0.273292 1.74224 37 38 33
-0.537191 0.277378 1.76828 37 37 33
-0.5054 0.265541 1.69282 37 38 33
-0.515581 0.275727 1.75776 37 38 34
-0.495028 0.269549 1.71838 37 37 33
-0.475139 0.263511 1.67988 37 37 33
-0.469586 0.265345 1.69157 36 37 32
-0.460726 0.265345 1.69157 36 37 32
-0.459026 0.269549 1.71838 37 37 33
-0.454051 0.271961 1.73375 36 37 32
-0.457867 0.279843 1.784 36 37 32
-0.439043 0.273928 1.74629 36 37 32
-0.416046 0.265103 1.69003 36 37 32
-0.413709 0.269345 1.71707 36 37 33
-0.40183 0.267425 1.70483 36 37 33
-0.396393 0.269802 1.71999 36 37 33
-0.381266 0.265541 1.69282 37 38 34
-0.386686 0.275727 1.75776 38 38 35
-0.352486 0.257472 1.64138 37 38 34
-0.364017 0.272541 1.73745 36 37 33
-0.345544 0.265345 1.69157 36 37 33
-0.333818 0.263086 1.67717 36 37 34
-0.327525 0.265103 1.69003 36 37 34
-0.321464 0.267425 1.70483 36 37 34
-0.310104 0.265345 1.69157 35 36 33
-0.306017 0.269549 1.71838 35 37 34
-0.297295 0.269802 1.71999 36 37 34
-0.285746 0.267425 1.70483 36 37 34
-0.272325 0.263086 1.67717 36 37 34
-0.261077 0.260626 1.66149 37 37 34
-0.254756 0.263086 1.67717 37 38 35
-0.247857 0.265103 1.69003 37 37 34
-0.245188 0.271961 1.73375 37 37 34
-0.223937 0.257943 1.64438 36 37 34
-0.225224 0.269802 1.71999 36 36 33
-0.212449 0.265103 1.69003 36 37 34
-0.210375 0.273928 1.74629 36 37 34
-0.193575 0.263511 1.67988 36 37 34
-0.187521 0.267425 1.70483 36 37 34
-0.177202 0.265345 1.69157 36 37 34
-0.168189 0.265103 1.69003 37 37 35
-0.157807 0.262557 1.6738 37 37 34
-0.150485 0.265103 1.69003 37 38 35
-0.141633 0.265103 1.69003 37 38 35
-0.130885 0.261318 1.6659 37 37 33
-0.12105 0.258946 1.65078 36 36 32
-0.117116 0.269802 1.71999 36 35 31
-0.102179 0.255006 1.62567 36 36 31
-0.0974612 0.265345 1.69157 36 36 31
-0.0914672 0.273928 1.74629 37 36 32
-0.0810045 0.269549 1.71838 38 37 34
-0.0702774 0.263086 1.67717 38 37 34
-0.0599241 0.256374 1.63439 38 38 34
-0.0527081 0.263086 1.67717 37 37 34
-0.0428029 0.256374 1.63439 37 38 34
-0.0354666 0.265541 1.69282 37 37 33
-0.0265803 0.265345 1.69157 37 37 34
-0.018001 0.269549 1.71838 37 37 34
-0.00892957 0.267425 1.70483 37 37 34
0 0.265345 1.69157 36 36 33
0.00842601 0.252344 1.60869 35 35 32
0.018001 0.269549 1.71838 35 35 32
0.026354 0.263086 1.67717 35 35 32
0.036002 0.269549 1.71838 36 36 33
0.0442602 0.265103 1.69003 37 37 34
0.0531122 0.265103 1.69003 37 37 35
0.0610797 0.261318 1.6659 38 38 35
0.0714365 0.267425 1.70483 37 37 34
0.078531 0.261318 1.6659 36 37 34
0.092068 0.275727 1.75776 35 36 32
0.0974612 0.265345 1.69157 36 36 33
0.102727 0.256374 1.63439 35 36 33
0.113133 0.260626 1.66149 35 35 33
0.122159 0.261318 1.6659 35 36 33
0.129697 0.258946 1.65078 36 36 34
0.137556 0.257472 1.64138 35 36 33
0.151803 0.267425 1.70483 35 35 32
0.162009 0.269549 1.71838 35 36 33
0.166909 0.263086 1.67717 36 37 34
0.173471 0.259758 1.65596 36 37 34
0.189011 0.269549 1.71838 36 36 33
0.193263 0.263086 1.67717 35 36 32
0.198869 0.258946 1.65078 35 35 32
0.207515 0.258946 1.65078 36 36 32
0.221503 0.265345 1.69157 35 35 32
0.228402 0.263086 1.67717 35 35 31
0.245188 0.271961 1.73375 35 35 31
0.244319 0.261318 1.6659 36 35 32
0.258957 0.267425 1.70483 36 36 33
0.26354 0.263086 1.67717 36 36 34
0.28289 0.273292 1.74224 37 37 34
0.290593 0.271961 1.73375 36 36 34
0.27942 0.25358 1.61657 36 36 33
0.303605 0.267425 1.70483 36 36 33
0.310104 0.265345 1.69157 37 36 34
0.318673 0.265103 1.69003 36 36 34
0.330394 0.267425 1.70483 36 36 34
0.342019 0.269549 1.71838 35 36 33
0.35102 0.269549 1.71838 34 35 33
0.369554 0.276688 1.76388 34 35 33
0.369367 0.269802 1.71999 33 35 32
0.378021 0.269549 1.71838 34 35 32
0.390484 0.271961 1.73375 36 37 35
0.389489 0.265103 1.69003 36 37 35
0.395311 0.263086 1.67717 36 37 35
0.421963 0.274719 1.75133 36 37 34
0.416046 0.265103 1.69003 36 37 34
0.410908 0.256374 1.63439 36 37 34
0.437549 0.267425 1.70483 36 37 34
0.450447 0.269802 1.71999 35 36 34
0.455408 0.267425 1.70483 35 36 33
0.459775 0.264797 1.68808 35 36 33
0.473267 0.267425 1.70483 34 36 33
0.482197 0.267425 1.70483 34 36 33
0.487306 0.265345 1.69157 34 35 32
0.487344 0.260626 1.66149 34 35 32
0.508985 0.267425 1.70483 34 35 32
0.525804 0.271498 1.7308 34 35 32
0.536925 0.272541 1.73745 34 35 33
0.54003 0.269549 1.71838 34 35 33
0.55795 0.273928 1.74629 34 36 34
0.567097 0.273928 1.74629 33 36 33
0.567032 0.269549 1.71838 34 36 33
0.56653 0.265103 1.69003 33 36 34
0.604406 0.278475 1.77528 32 35 32
0.603684 0.273928 1.74629 32 35 32
0.608429 0.271961 1.73375 32 34 32
0.607211 0.267425 1.70483 33 35 33
0.639072 0.277378 1.76828 33 36 34
0.650899 0.278475 1.77528 32 35 34
0.657596 0.277378 1.76828 33 36 34
0.668108 0.277898 1.7716 32 35 34
0.682766 0.280104 1.78567 31 34 33
0.660788 0.267425 1.70483 30 34 33
0.687984 0.274719 1.75133 30 35 34
0.68468 0.269802 1.71999 31 36 35
0.699239 0.271961 1.73375 31 36 35
0.73754 0.28318 1.80527 30 35 34
0.742815 0.281595 1.79517 30 35 34
0.752218 0.281595 1.79517 31 36 34
0.769802 0.28462 1.81445 32 36 35
0.771023 0.281595 1.79517 33 36 35
0.775571 0.279843 1.784 34 37 36
0.804058 0.286668 1.82751 34 37 36
0.813631 0.286668 1.82751 33 36 35
0.794542 0.276688 1.76388 33 37 36
0.828393 0.28516 1.81789 35 38 37
0.863929 0.294013 1.87433 35 38 37
0.819405 0.275727 1.75776 34 37 36
0.864596 0.287701 1.8341 34 37 37
0.861372 0.283479 1.80718 34 36 37
0.872183 0.283917 1.80997 34 36 36
0.860367 0.277059 1.76625 33 37 37
0.91854 0.292645 1.86561 34 38 38
0.907022 0.285934 1.82283 34 38 38
0.895851 0.27947 1.78162 34 38 37
0.912064 0.281595 1.79517 35 39 38
0.929065 0.283917 1.80997 36 40 39
0.921949 0.278897 1.77797 37 41 40
0.97717 0.292645 1.86561 36 39 39
0.997463 0.295765 1.8855 35 39 38
0.949887 0.278897 1.77797 35 38 38
0.987541 0.287137 1.8305 35 38 38
1.02709 0.295765 1.8855 35 38 38
1.06504 0.303772 1.93655 37 41 41
1.04064 0.294013 1.87433 38 43 43
1.08533 0.303772 1.93655 40 44 44
1.06659 0.295765 1.8855 38 43 42
1.0249 0.281595 1.79517 36 41 40
1.11576 0.303772 1.93655 35 40 39
1.08186 0.291889 1.86079 35 40 39
1.01708 0.271961 1.73375 35 40 40
1.04856 0.277898 1.7716 35 40 40
1.10109 0.289261 1.84404 35 40 39
1.11075 0.289261 1.84404 35 40 39
1.16028 0.299555 1.90967 35 40 39
1.17713 0.301307 1.92083 35 40 40
1.12662 0.285934 1.82283 35 40 40
1.18106 0.297233 1.89486 34 39 39
-0.600003 0.154733 0.954604 37 37 33
-0.623298 0.162092 1 37 36 32
-0.61806 0.162092 1 36 35 30
-0.638793 0.168961 1.04238 38 37 33
-0.702342 0.187371 1.15596 39 38 34
-0.602347 0.162092 1 38 37 32
-0.683322 0.185495 1.14438 36 36 31
-0.645337 0.176734 1.09033 37 36 32
-0.613264 0.16945 1.0454 37 37 34
-0.677852 0.188983 1.1659 37 37 35
-0.671745 0.188983 1.1659 37 37 35
-0.596837 0.16945 1.0454 37 37 35
-0.636769 0.182461 1.12567 38 38 35
-0.63576 0.183874 1.13439 37 37 34
-0.653573 0.190809 1.17717 36 36 33
-0.635741 0.187371 1.15596 37 36 34
-0.648246 0.192894 1.19003 37 37 34
-0.6656 0.19998 1.23375 37 37 34
-0.643688 0.195293 1.20483 37 37 34
-0.611522 0.187371 1.15596 37 37 32
-0.667965 0.206712 1.27528 36 36 32
-0.61708 0.192894 1.19003 37 37 32
-0.664814 0.209936 1.29517 37 37 32
-0.646057 0.206115 1.2716 37 37 33
-0.605824 0.195293 1.20483 37 37 32
-0.632736 0.206115 1.2716 37 37 33
-0.637679 0.209936 1.29517 38 37 33
-0.669459 0.222768 1.37433 37 37 33
-0.563556 0.189566 1.1695 36 36 31
-0.596434 0.20283 1.25133 36 36 31
-0.687125 0.236268 1.45762 36 37 32
-0.662341 0.230305 1.42083 36 36 31
-0.649752 0.228495 1.40967 36 36 31
-0.666487 0.237074 1.46259 35 36 31
-0.610638 0.219734 1.35562 35 35 31
-0.627601 0.228495 1.40967 35 35 31
-0.585386 0.215663 1.3305 35 35 30
-0.606399 0.226095 1.39486 36 36 31
-0.623257 0.235215 1.45113 35 35 30
-0.708305 0.270612 1.6695 36 36 31
-0.628536 0.243137 1.5 37 37 33
-0.685212 0.268417 1.65596 37 37 33
-0.612822 0.243137 1.5 37 37 33
-0.624677 0.251059 1.54887 37 37 34
-0.638961 0.260179 1.60514 37 37 33
-0.695946 0.287161 1.7716 37 37 34
-0.647094 0.270612 1.6695 37 37 34
-0.613739 0.260179 1.60514 38 37 34
-0.642929 0.276339 1.70483 37 37 34
-0.644753 0.281026 1.73375 37 37 33
-0.614928 0.271855 1.67717 36 36 32
-0.598476 0.268417 1.65596 36 36 32
-0.607211 0.276339 1.70483 37 36 32
-0.611408 0.282402 1.74224 37 37 32
-0.589351 0.276339 1.70483 36 36 32
-0.589263 0.280548 1.7308 36 36 32
-0.595107 0.287758 1.77528 37 37 33
-0.589236 0.289441 1.78567 36 36 32
-0.562067 0.280548 1.7308 37 37 33
-0.560026 0.284112 1.75279 37 37 33
-0.561177 0.289441 1.78567 37 37 33
-0.543201 0.284918 1.75776 37 37 32
-0.514266 0.274392 1.69282 37 37 32
-0.535955 0.290981 1.79517 37 37 32
-0.504028 0.278534 1.71838 37 37 33
-0.491126 0.276339 1.70483 37 38 34
-0.485659 0.278323 1.71707 38 38 34
-0.473267 0.276339 1.70483 37 38 34
-0.47563 0.283059 1.74629 37 37 34
-0.448019 0.271855 1.67717 36 37 33
-0.443005 0.274189 1.69157 36 37 33
-0.453834 0.286624 1.76828 37 38 34
-0.428619 0.276339 1.70483 37 38 34
-0.410106 0.270029 1.6659 37 37 33
-0.414411 0.278795 1.71999 36 37 32
-0.40183 0.276339 1.70483 36 37 32
-0.396022 0.278534 1.71838 36 37 32
-0.390484 0.281026 1.73375 36 37 32
-0.375042 0.276339 1.70483 36 37 32
-0.366112 0.276339 1.70483 36 36 32
-0.365869 0.283059 1.74629 35 36 31
-0.36877 0.292619 1.80527 35 36 32
-0.349858 0.284918 1.75776 35 36 32
-0.338429 0.283059 1.74629 35 37 34
-0.329282 0.283059 1.74629 36 37 34
-0.317296 0.280548 1.7308 36 37 34
-0.30823 0.280548 1.7308 36 37 34
-0.289894 0.271855 1.67717 35 37 33
-0.283265 0.27394 1.69003 35 37 33
-0.274663 0.274189 1.69157 36 37 33
-0.271968 0.280548 1.7308 36 37 33
-0.256709 0.27394 1.69003 37 37 34
-0.243672 0.269314 1.66149 37 37 34
-0.239223 0.274189 1.69157 37 37 34
-0.221388 0.263507 1.62567 36 36 33
-0.225224 0.278795 1.71999 36 37 34
-0.216215 0.278795 1.71999 37 38 35
-0.200159 0.269314 1.66149 36 37 34
-0.198011 0.278534 1.71838 36 37 34
-0.180542 0.266054 1.64138 36 37 34
-0.174051 0.269314 1.66149 36 37 34
-0.169662 0.276339 1.70483 37 38 35
-0.152411 0.262033 1.61657 37 38 35
-0.150485 0.27394 1.69003 37 38 35
-0.139611 0.270029 1.6659 38 38 35
-0.130885 0.270029 1.6659 37 37 34
-0.121836 0.269314 1.66149 36 36 32
-0.113434 0.270029 1.6659 36 36 31
-0.104708 0.270029 1.6659 36 36 32
-0.0974612 0.274189 1.69157 37 36 32
-0.0885203 0.27394 1.69003 37 37 33
-0.0783231 0.269314 1.66149 38 37 34
-0.0681193 0.263507 1.62567 38 38 34
-0.0634591 0.280548 1.7308 37 37 34
-0.0531122 0.27394 1.69003 37 37 33
-0.0443005 0.274189 1.69157 36 37 33
-0.0350681 0.271309 1.6738 36 36 32
-0.0254018 0.262033 1.61657 36 36 32
-0.0171212 0.26492 1.63439 36 36 33
-0.00861295 0.266541 1.64438 36 37 34
0 0.276339 1.70483 36 36 33
0.00870257 0.269314 1.66149 36 36 33
0.0175694 0.271855 1.67717 36 36 34
0.0259394 0.267578 1.65078 35 36 33
0.0351955 0.272294 1.67988 35 35 32
0.0446478 0.276339 1.70483 36 36 33
0.054003 0.278534 1.71838 36 37 34
0.0620207 0.274189 1.69157 36 37 34
0.0691717 0.267578 1.65078 35 36 33
0.0790621 0.271855 1.67717 35 35 31
0.0878468 0.271855 1.67717 34 35 31
0.0982252 0.276339 1.70483 35 35 32
0.104708 0.270029 1.6659 35 36 33
0.114201 0.271855 1.67717 35 35 33
0.119848 0.26492 1.63439 35 35 33
0.128409 0.26492 1.63439 35 36 33
0.144008 0.278534 1.71838 36 36 34
0.150622 0.274189 1.69157 36 36 34
0.155636 0.267578 1.65078 35 36 33
0.166909 0.271855 1.67717 36 37 34
0.178591 0.276339 1.70483 36 37 34
0.184478 0.271855 1.67717 36 36 33
0.193263 0.271855 1.67717 35 36 32
0.198869 0.267578 1.65078 36 36 33
0.21431 0.276339 1.70483 36 36 34
0.218142 0.270029 1.6659 36 36 33
0.228402 0.271855 1.67717 35 35 32
0.241098 0.276339 1.70483 36 35 32
0.245971 0.271855 1.67717 36 35 32
0.256943 0.274189 1.69157 36 36 33
0.270015 0.278534 1.71838 36 36 33
0.274663 0.274189 1.69157 36 36 33
0.285746 0.276339 1.70483 36 36 33
0.299674 0.281026 1.73375 35 35 32
0.298679 0.271855 1.67717 34 34 31
0.312535 0.276339 1.70483 35 35 32
0.321464 0.276339 1.70483 36 36 33
0.330394 0.276339 1.70483 36 36 34
0.339324 0.276339 1.70483 36 37 34
0.333863 0.26492 1.63439 35 36 34
0.363241 0.281026 1.73375 35 36 34
0.359448 0.271309 1.6738 34 35 32
0.363151 0.267578 1.65078 33 35 32
0.397271 0.28591 1.76388 35 36 34
0.386526 0.271855 1.67717 36 37 35
0.405023 0.278534 1.71838 36 37 34
0.423513 0.284918 1.75776 36 37 34
0.416046 0.27394 1.69003 36 37 34
0.413422 0.266541 1.64438 36 37 34
0.441438 0.278795 1.71999 35 36 33
0.438352 0.271309 1.6738 34 35 32
0.464121 0.281626 1.73745 34 36 33
0.451026 0.268417 1.65596 35 36 34
0.477474 0.278795 1.71999 35 36 33
0.47801 0.27394 1.69003 34 36 33
0.478641 0.269314 1.66149 34 36 33
0.490954 0.271309 1.6738 34 36 33
0.526615 0.28591 1.76388 34 36 33
0.539316 0.287758 1.77528 34 36 33
0.526844 0.276339 1.70483 34 35 33
0.544862 0.281026 1.73375 33 35 33
0.553943 0.281026 1.73375 32 35 32
0.558031 0.278534 1.71838 31 34 31
0.572105 0.281026 1.73375 34 36 34
0.58708 0.283876 1.75133 34 37 35
0.600526 0.28591 1.76388 33 36 33
0.598329 0.280548 1.7308 32 35 33
0.598281 0.276339 1.70483 32 35 32
0.628243 0.28591 1.76388 32 35 33
0.632945 0.283876 1.75133 32 35 34
0.644476 0.284918 1.75776 32 35 33
0.660197 0.287758 1.77528 31 35 33
0.665198 0.28591 1.76388 30 34 33
0.657653 0.278795 1.71999 29 33 32
0.64399 0.269314 1.66149 29 33 32
0.709173 0.292619 1.80527 31 36 35
0.702153 0.28591 1.76388 33 37 36
0.699239 0.281026 1.73375 32 37 36
0.746626 0.296224 1.82751 31 36 35
0.769969 0.301618 1.86079 31 36 34
0.761741 0.294665 1.81789 31 36 34
0.76162 0.290981 1.79517 32 36 35
0.752196 0.283876 1.75133 32 36 35
0.780426 0.290981 1.79517 32 36 35
0.789828 0.290981 1.79517 32 36 34
0.766672 0.279127 1.72203 32 36 35
0.782636 0.281626 1.73745 33 36 35
0.811865 0.288786 1.78162 36 39 38
0.816576 0.287161 1.7716 37 40 39
0.812168 0.282402 1.74224 36 39 37
0.856958 0.294665 1.81789 34 37 36
0.861372 0.292928 1.80718 34 37 36
0.847025 0.284918 1.75776 35 37 37
0.867856 0.288786 1.78162 35 38 38
0.877188 0.288786 1.78162 35 39 38
0.928312 0.3024 1.86561 34 39 38
0.927237 0.298903 1.84404 34 38 37
0.926118 0.295465 1.82283 34 38 37
0.952495 0.300779 1.85562 35 39 38
0.915874 0.286294 1.76625 35 39 38
0.965871 0.298903 1.84404 34 38 37
0.981653 0.300779 1.85562 34 38 37
0.969381 0.294107 1.81445 35 38 38
0.994848 0.298903 1.84404 34 38 38
1.0549 0.313898 1.93655 33 37 37
0.997892 0.294107 1.81445 36 40 40
1.0163 0.296708 1.8305 37 42 41
1.03348 0.298903 1.84404 38 42 42
1.04314 0.298903 1.84404 37 42 41
1.07009 0.303814 1.87433 36 40 40
1.1067 0.311351 1.92083 34 39 38
1.05491 0.294107 1.81445 35 39 39
1.13604 0.313898 1.93655 35 40 40
1.18374 0.324183 2 35 40 39
1.08843 0.295465 1.82283 35 40 39
1.11075 0.298903 1.84404 35 40 39
1.21517 0.324183 2 35 40 40
1.17029 0.309541 1.90967 35 40 40
1.17114 0.307141 1.89486 35 40 40
1.18106 0.307141 1.89486 35 40 40
-0.659255 0.175498 1.04887 37 37 33
-0.623298 0.16732 1 38 37 33
-0.648267 0.175498 1.04887 37 36 32
-0.612822 0.16732 1 38 37 33
-0.666629 0.18358 1.09718 39 37 34
-0.656759 0.182435 1.09033 38 37 33
-0.655136 0.18358 1.09718 37 36 32
-0.645337 0.182435 1.09033 37 37 33
-0.665469 0.189806 1.13439 37 37 34
-0.672069 0.193415 1.15596 37 37 35
-0.628204 0.182435 1.09033 37 37 35
-0.647644 0.189806 1.13439 37 37 35
-0.591362 0.174916 1.0454 37 37 35
-0.614908 0.18358 1.09718 37 36 34
-0.660712 0.199116 1.19003 36 35 32
-0.654479 0.199116 1.19003 37 37 34
-0.641241 0.196965 1.17717 38 37 34
-0.675085 0.209373 1.25133 38 37 34
-0.643688 0.201593 1.20483 38 37 34
-0.637377 0.201593 1.20483 38 37 33
-0.655422 0.209373 1.25133 37 37 33
-0.624756 0.201593 1.20483 37 37 33
-0.633289 0.206431 1.23375 37 37 33
-0.658031 0.216708 1.29517 37 37 33
-0.629205 0.209373 1.25133 37 37 32
-0.677117 0.227688 1.36079 37 36 32
-0.661743 0.224885 1.34404 37 37 33
-0.692109 0.237734 1.42083 37 37 33
-0.647663 0.224885 1.34404 36 37 32
-0.640623 0.224885 1.34404 36 37 32
-0.623584 0.221336 1.32283 36 37 32
-0.616655 0.221336 1.32283 36 36 31
-0.609726 0.221336 1.32283 36 36 31
-0.683532 0.25098 1.5 35 36 31
-0.610638 0.226822 1.35562 35 36 31
-0.708037 0.266095 1.59033 35 35 30
-0.678608 0.258071 1.54238 36 36 30
-0.606399 0.233389 1.39486 36 36 31
-0.683047 0.266095 1.59033 36 36 31
-0.636392 0.25098 1.5 37 37 32
-0.649015 0.259158 1.54887 36 36 32
-0.664183 0.268572 1.60514 35 35 31
-0.592854 0.242803 1.45113 35 35 30
-0.699239 0.290092 1.73375 36 36 32
-0.690158 0.290092 1.73375 37 37 33
-0.638618 0.272007 1.62567 38 38 34
-0.637358 0.275139 1.64438 38 38 34
-0.651858 0.285253 1.70483 38 38 35
-0.620132 0.275139 1.64438 38 38 34
-0.644753 0.290092 1.73375 37 37 33
-0.644476 0.294109 1.75776 36 36 32
-0.626591 0.290092 1.73375 36 36 32
-0.587255 0.275879 1.64881 37 37 33
-0.592403 0.282451 1.68808 37 37 33
-0.589351 0.285253 1.70483 37 37 32
-0.589263 0.289598 1.7308 36 36 32
-0.592762 0.29587 1.76828 36 37 32
-0.5835 0.29587 1.76828 36 36 32
-0.558031 0.287519 1.71838 37 37 33
-0.553001 0.289598 1.7308 39 39 35
-0.532 0.283244 1.69282 38 38 34
-0.539657 0.29219 1.74629 37 37 32
-0.533994 0.294109 1.75776 37 37 32
-0.520153 0.291512 1.74224 37 37 32
-0.515581 0.294109 1.75776 37 37 33
-0.51142 0.29704 1.77528 37 37 34
-0.482197 0.285253 1.70483 37 38 34
-0.473267 0.285253 1.70483 37 38 34
-0.478754 0.294109 1.75776 37 37 33
-0.463133 0.290092 1.73375 36 36 32
-0.461943 0.295133 1.76388 36 37 33
-0.434466 0.283244 1.69282 37 38 34
-0.440676 0.293277 1.75279 37 38 34
-0.413547 0.281078 1.67988 36 37 32
-0.41076 0.285253 1.70483 36 37 32
-0.405023 0.287519 1.71838 36 37 32
-0.392901 0.285253 1.70483 36 37 32
-0.383971 0.285253 1.70483 37 37 33
-0.366478 0.27874 1.6659 36 37 32
-0.357752 0.27874 1.6659 35 36 31
-0.357183 0.285253 1.70483 35 36 31
-0.3458 0.283244 1.69282 35 36 32
-0.342019 0.287519 1.71838 35 37 33
-0.338429 0.29219 1.74629 35 37 33
-0.318673 0.282776 1.69003 36 37 34
-0.30459 0.278002 1.66149 36 37 34
-0.310989 0.29219 1.74629 36 37 34
-0.292117 0.282776 1.69003 35 37 33
-0.288016 0.287519 1.71838 35 37 33
-0.274663 0.283034 1.69157 35 36 32
-0.26177 0.27874 1.6659 35 36 32
-0.252374 0.278002 1.66149 36 37 33
-0.245971 0.280625 1.67717 37 37 34
-0.241098 0.285253 1.70483 37 37 34
-0.237815 0.29219 1.74629 36 37 34
-0.217564 0.278002 1.66149 37 38 35
-0.207515 0.276209 1.65078 37 38 35
-0.207206 0.287789 1.71999 37 38 35
-0.191456 0.278002 1.66149 37 38 35
-0.182754 0.278002 1.66149 36 37 34
-0.174513 0.27874 1.6659 37 37 34
-0.169662 0.285253 1.70483 37 38 35
-0.158124 0.280625 1.67717 37 38 35
-0.150622 0.283034 1.69157 37 38 35
-0.141633 0.282776 1.69003 37 38 35
-0.135008 0.287519 1.71838 37 37 34
-0.125014 0.285253 1.70483 36 36 32
-0.116084 0.285253 1.70483 36 35 31
-0.110077 0.293033 1.75133 36 36 31
-0.0982252 0.285253 1.70483 37 36 33
-0.0878468 0.280625 1.67717 37 37 33
-0.0770452 0.273466 1.63439 38 37 34
-0.0720715 0.287789 1.71999 38 38 34
-0.0642118 0.293033 1.75133 37 37 34
-0.0513635 0.273466 1.63439 37 37 34
-0.04213 0.269167 1.60869 36 37 33
-0.0354081 0.282776 1.69003 36 36 32
-0.0270015 0.287519 1.71838 36 36 32
-0.0180179 0.287789 1.71999 36 37 33
-0.00892957 0.285253 1.70483 37 37 34
0 0.282776 1.69003 36 37 33
0.00870257 0.278002 1.66149 36 36 33
0.0177202 0.283034 1.69157 36 36 33
0.0267887 0.285253 1.70483 35 36 33
0.0349027 0.27874 1.6659 35 35 32
0.0436283 0.27874 1.6659 35 36 32
0.0527081 0.280625 1.67717 36 36 33
0.0605252 0.276209 1.65078 35 35 32
0.0684846 0.273466 1.63439 34 35 32
0.0783231 0.278002 1.66149 34 35 31
0.0885203 0.282776 1.69003 34 35 31
0.0951111 0.276209 1.65078 34 35 31
0.108972 0.290092 1.73375 35 36 33
0.116084 0.285253 1.70483 34 35 32
0.122986 0.280625 1.67717 34 35 32
0.130885 0.27874 1.6659 34 35 33
0.141762 0.283034 1.69157 35 36 34
0.151803 0.285253 1.70483 36 37 35
0.157062 0.27874 1.6659 36 37 34
0.166909 0.280625 1.67717 35 36 33
0.173471 0.277075 1.65596 36 37 34
0.184478 0.280625 1.67717 36 37 34
0.19645 0.285253 1.70483 36 36 34
0.20069 0.27874 1.6659 36 36 33
0.212449 0.282776 1.69003 36 36 33
0.225013 0.287519 1.71838 36 36 33
0.219076 0.269167 1.60869 36 36 33
0.235593 0.27874 1.6659 37 36 34
0.244319 0.27874 1.6659 36 36 33
0.253044 0.27874 1.6659 36 36 32
0.277166 0.295133 1.76388 36 36 33
0.272325 0.280625 1.67717 36 35 32
0.276687 0.276209 1.65078 35 35 32
0.297017 0.287519 1.71838 34 34 31
0.295887 0.278002 1.66149 34 35 31
0.310104 0.283034 1.69157 35 35 32
0.316248 0.280625 1.67717 35 36 33
0.327525 0.282776 1.69003 35 36 34
0.336377 0.282776 1.69003 36 37 34
0.348253 0.285253 1.70483 36 37 34
0.351387 0.280625 1.67717 35 36 34
0.347158 0.270485 1.61657 34 35 33
0.381403 0.290092 1.73375 34 35 33
0.387022 0.287519 1.71838 34 35 32
0.400418 0.290711 1.73745 35 36 34
0.398342 0.282776 1.69003 36 37 34
0.404095 0.280625 1.67717 36 37 34
0.426808 0.290092 1.73375 35 36 33
0.44031 0.293033 1.75133 36 36 34
0.426426 0.278002 1.66149 35 36 33
0.438352 0.280061 1.6738 34 35 32
0.451454 0.282776 1.69003 34 35 33
0.459775 0.282451 1.68808 34 36 33
0.477474 0.287789 1.71999 35 36 33
0.47342 0.280061 1.6738 35 36 33
0.50307 0.29219 1.74629 35 37 34
0.508538 0.290092 1.73375 35 36 34
0.520153 0.291512 1.74224 35 36 33
0.545358 0.300368 1.79517 34 36 33
0.548615 0.29704 1.77528 32 34 32
0.548803 0.29219 1.74629 32 35 32
0.55795 0.29219 1.74629 32 34 32
0.562067 0.289598 1.7308 31 35 32
0.571132 0.289598 1.7308 34 36 34
0.589235 0.294109 1.75776 34 36 34
0.585581 0.287789 1.71999 33 36 33
0.599348 0.290092 1.73375 31 35 32
0.626063 0.298499 1.784 31 35 32
0.642984 0.302058 1.80527 32 35 33
0.621035 0.287519 1.71838 31 35 33
0.62507 0.285253 1.70483 31 35 33
0.671351 0.302058 1.80527 30 34 33
0.653834 0.290092 1.73375 28 33 32
0.667711 0.29219 1.74629 28 33 32
0.695801 0.300368 1.79517 28 33 32
0.686004 0.29219 1.74629 32 36 36
0.695151 0.29219 1.74629 34 38 37
0.724009 0.300368 1.79517 34 38 36
0.750169 0.307231 1.83618 32 37 35
0.733063 0.296424 1.7716 31 36 34
0.739109 0.295133 1.76388 31 36 34
0.756882 0.298499 1.784 31 35 34
0.766226 0.298499 1.784 31 35 34
0.775571 0.298499 1.784 31 35 34
0.764435 0.290711 1.73745 31 35 34
0.799231 0.300368 1.79517 33 36 35
0.775691 0.288131 1.72203 34 37 36
0.844337 0.310025 1.85288 37 40 38
0.822292 0.298499 1.784 37 40 38
0.830529 0.298102 1.78162 37 40 38
0.846245 0.300368 1.79517 35 38 37
0.893382 0.313614 1.87433 34 37 37
0.883809 0.306881 1.8341 35 38 37
0.881663 0.302845 1.80997 36 39 39
0.889769 0.302377 1.80718 36 40 39
0.866921 0.291512 1.74224 35 39 38
0.933056 0.310482 1.85562 35 39 38
0.936895 0.308546 1.84404 34 38 37
0.946554 0.308546 1.84404 34 38 37
0.962214 0.310482 1.85562 34 38 37
0.931262 0.29749 1.77797 34 38 37
0.964308 0.304996 1.82283 34 38 37
0.994137 0.311348 1.86079 35 38 38
1.01119 0.313614 1.87433 35 39 39
0.997129 0.30628 1.8305 34 39 38
0.997892 0.303595 1.81445 35 39 39
1.08103 0.325784 1.94707 36 40 40
1.04287 0.311348 1.86079 36 40 40
1.09151 0.322853 1.92955 36 40 39
1.0249 0.300368 1.79517 36 40 39
1.07991 0.313614 1.87433 35 39 38
1.12183 0.322853 1.92955 35 39 39
1.12682 0.321394 1.92083 34 39 39
1.10936 0.313614 1.87433 35 40 39
1.08843 0.304996 1.82283 34 39 39
1.11075 0.308546 1.84404 34 39 39
1.21517 0.334641 2 34 39 39
1.17713 0.321394 1.92083 34 39 39
1.13973 0.308546 1.84404 35 39 39
1.32492 0.355667 2.12567 34 39 39
-0.657068 0.180382 1.0454 35 35 30
-0.70706 0.195737 1.13439 36 35 31
-0.678123 0.189317 1.09718 36 35 31
-0.640642 0.180382 1.0454 37 37 33
-0.639743 0.181682 1.05293 38 37 34
-0.689316 0.197462 1.14438 37 37 33
-0.659887 0.19069 1.10514 36 36 32
-0.677328 0.197462 1.14438 37 36 33
-0.665469 0.195737 1.13439 37 37 34
-0.66534 0.197462 1.14438 37 37 35
-0.694174 0.207893 1.20483 37 36 34
-0.622493 0.188136 1.09033 37 37 35
-0.647358 0.197462 1.14438 37 37 34
-0.675241 0.207893 1.20483 36 36 33
-0.63537 0.197462 1.14438 35 34 31
-0.678524 0.212882 1.23375 37 36 33
-0.663687 0.21023 1.21838 38 37 35
-0.6656 0.212882 1.23375 38 37 35
-0.611393 0.197462 1.14438 38 37 34
-0.685166 0.22348 1.29517 38 37 33
-0.640077 0.210861 1.22203 37 37 33
-0.659377 0.219413 1.2716 37 37 32
-0.625397 0.21023 1.21838 36 36 32
-0.631139 0.214347 1.24224 37 37 32
-0.614474 0.210861 1.22203 36 36 31
-0.644463 0.22348 1.29517 37 37 32
-0.611619 0.214347 1.24224 38 38 34
-0.619415 0.219413 1.2716 37 38 34
-0.684667 0.245163 1.42083 36 37 32
-0.69476 0.251511 1.45762 36 37 32
-0.610544 0.22348 1.29517 36 37 32
-0.631939 0.23391 1.35562 36 37 32
-0.649752 0.243236 1.40967 36 37 32
-0.612464 0.231913 1.34404 36 36 32
-0.634984 0.243236 1.40967 36 36 32
-0.646059 0.25039 1.45113 36 36 31
-0.699707 0.274411 1.59033 36 36 31
-0.652106 0.258824 1.5 37 37 31
-0.720344 0.289394 1.67717 37 37 33
-0.674718 0.274411 1.59033 37 37 32
-0.666388 0.274411 1.59033 37 37 32
-0.664183 0.276965 1.60514 35 35 31
-0.63279 0.267257 1.54887 34 34 30
-0.663197 0.283737 1.64438 35 35 31
-0.664583 0.288071 1.6695 36 36 32
-0.645971 0.283737 1.64438 37 37 33
-0.650066 0.289394 1.67717 37 37 34
-0.662915 0.299157 1.73375 38 38 34
-0.632497 0.289394 1.67717 38 38 34
-0.596924 0.276965 1.60514 37 37 34
-0.651883 0.306786 1.77797 37 37 33
-0.648788 0.309754 1.79517 38 38 34
-0.613337 0.297135 1.72203 39 38 35
-0.598281 0.294167 1.70483 38 38 35
-0.599348 0.299157 1.73375 37 37 34
-0.594537 0.301321 1.74629 37 37 34
-0.584031 0.300621 1.74224 37 38 34
-0.580028 0.3033 1.75776 37 37 34
-0.558031 0.296504 1.71838 37 37 33
-0.556655 0.300621 1.74224 37 38 34
-0.552408 0.3033 1.75776 38 38 34
-0.53487 0.298648 1.7308 38 38 34
-0.517915 0.294167 1.70483 37 37 33
-0.521363 0.301321 1.74629 37 37 32
-0.507673 0.298648 1.7308 36 36 32
-0.498608 0.298648 1.7308 37 37 34
-0.485659 0.296279 1.71707 37 37 34
-0.48796 0.3033 1.75776 37 38 34
-0.478754 0.3033 1.75776 38 38 34
-0.455408 0.294167 1.70483 37 37 34
-0.439234 0.289394 1.67717 36 37 33
-0.447149 0.300621 1.74224 36 37 33
-0.439043 0.301321 1.74629 37 38 33
-0.428898 0.300621 1.74224 36 37 32
-0.397737 0.284841 1.65078 37 37 33
-0.408646 0.299157 1.73375 37 37 33
-0.396393 0.296782 1.71999 36 37 32
-0.393309 0.301321 1.74629 36 36 31
-0.372125 0.291879 1.69157 36 36 31
-0.369021 0.296504 1.71838 36 36 32
-0.354666 0.292095 1.69282 35 36 32
-0.3458 0.292095 1.69282 36 37 34
-0.339324 0.294167 1.70483 37 38 34
-0.339405 0.302191 1.75133 36 38 34
-0.318964 0.291879 1.69157 36 38 34
-0.310104 0.291879 1.69157 36 38 34
-0.308755 0.299157 1.73375 36 37 34
-0.292384 0.291879 1.69157 35 37 34
-0.28111 0.289394 1.67717 36 37 33
-0.272325 0.289394 1.67717 35 37 32
-0.265803 0.291879 1.69157 35 36 31
-0.255167 0.289862 1.67988 35 36 31
-0.239696 0.282012 1.63439 36 36 33
-0.243241 0.296782 1.71999 36 36 33
-0.226867 0.28745 1.6659 35 36 33
-0.225224 0.296782 1.71999 37 38 34
-0.207515 0.284841 1.65078 37 38 35
-0.202048 0.289394 1.67717 38 39 36
-0.194922 0.291879 1.69157 38 39 36
-0.184478 0.289394 1.67717 37 38 35
-0.182934 0.301321 1.74629 37 37 34
-0.163646 0.283737 1.64438 37 37 34
-0.160732 0.294167 1.70483 36 37 34
-0.149581 0.289862 1.67988 37 37 34
-0.141762 0.291879 1.69157 37 38 34
-0.13177 0.289394 1.67717 36 37 33
-0.124041 0.291879 1.69157 36 36 31
-0.115076 0.291613 1.69003 36 36 31
-0.108972 0.299157 1.73375 36 36 31
-0.102882 0.308115 1.78567 36 36 32
-0.0870257 0.286689 1.66149 36 36 32
-0.0789033 0.288813 1.6738 38 38 34
-0.0702774 0.289394 1.67717 39 39 35
-0.0635672 0.299157 1.73375 38 38 35
-0.0535774 0.294167 1.70483 37 37 34
-0.0446478 0.294167 1.70483 35 36 32
-0.036002 0.296504 1.71838 35 35 32
-0.026354 0.289394 1.67717 36 36 33
-0.0177202 0.291879 1.69157 37 37 34
-0.00822568 0.270979 1.57045 37 37 34
0 0.291879 1.69157 37 37 34
0.00878468 0.289394 1.67717 37 37 34
0.0177041 0.291613 1.69003 36 36 33
0.0259394 0.284841 1.65078 35 36 32
0.0351387 0.289394 1.67717 35 35 31
0.0443005 0.291879 1.69157 36 36 33
0.0518788 0.284841 1.65078 36 37 34
0.0610797 0.28745 1.6659 36 36 33
0.0725247 0.298648 1.7308 35 36 32
0.0783231 0.286689 1.66149 35 36 32
0.0870257 0.286689 1.66149 35 36 34
0.0982252 0.294167 1.70483 35 36 34
0.106224 0.291613 1.69003 35 37 34
0.111288 0.282012 1.63439 34 36 33
0.119848 0.282012 1.63439 34 35 32
0.129697 0.284841 1.65078 34 35 32
0.141867 0.292095 1.69282 35 36 33
0.151803 0.294167 1.70483 36 37 34
0.155636 0.284841 1.65078 36 37 35
0.163646 0.283737 1.64438 36 37 34
0.178591 0.294167 1.70483 35 36 34
0.182754 0.286689 1.66149 35 36 34
0.194922 0.291879 1.69157 36 37 35
0.20538 0.294167 1.70483 36 36 34
0.209416 0.28745 1.6659 35 35 33
0.219617 0.289394 1.67717 35 35 33
0.236107 0.299157 1.73375 36 36 33
0.23671 0.288813 1.6738 36 36 33
0.250028 0.294167 1.70483 36 36 33
0.251534 0.285734 1.65596 36 36 33
0.26177 0.28745 1.6659 36 36 33
0.279016 0.296504 1.71838 35 35 32
0.288016 0.296504 1.71838 34 34 31
0.287947 0.28745 1.6659 35 35 32
0.298679 0.289394 1.67717 35 35 33
0.307464 0.289394 1.67717 35 36 33
0.321464 0.294167 1.70483 35 36 33
0.325033 0.289394 1.67717 35 36 33
0.336684 0.291879 1.69157 35 36 33
0.353558 0.298648 1.7308 35 36 33
0.353673 0.291277 1.68808 35 36 34
0.366112 0.294167 1.70483 35 36 34
0.371785 0.291613 1.69003 35 36 34
0.387022 0.296504 1.71838 34 36 33
0.38575 0.288813 1.6738 35 36 33
0.405402 0.296782 1.71999 35 36 33
0.404095 0.289394 1.67717 35 36 32
0.41288 0.289394 1.67717 35 36 33
0.432024 0.296504 1.71838 35 36 33
0.430449 0.289394 1.67717 34 35 31
0.450447 0.296782 1.71999 34 35 31
0.455408 0.294167 1.70483 34 35 32
0.471411 0.298648 1.7308 34 36 33
0.48966 0.304356 1.76388 34 36 33
0.498898 0.304356 1.76388 34 36 33
0.50307 0.301321 1.74629 34 36 33
0.512217 0.301321 1.74629 34 36 33
0.51351 0.296782 1.71999 34 36 33
0.513418 0.291613 1.69003 34 36 33
0.539657 0.301321 1.74629 33 35 33
0.54003 0.296504 1.71838 32 35 32
0.561615 0.3033 1.75776 32 35 32
0.567097 0.301321 1.74629 32 35 32
0.598735 0.313082 1.81445 33 36 34
0.58539 0.301321 1.74629 34 36 34
0.617743 0.313082 1.81445 32 35 33
0.603684 0.301321 1.74629 32 35 32
0.619004 0.304356 1.76388 33 36 33
0.607211 0.294167 1.70483 33 36 34
0.626591 0.299157 1.73375 31 35 33
0.62507 0.294167 1.70483 30 34 32
0.649417 0.301321 1.74629 28 33 31
0.665198 0.304356 1.76388 26 31 30
0.682766 0.308115 1.78567 27 32 32
0.671996 0.299157 1.73375 29 34 33
0.692915 0.304356 1.76388 33 37 37
0.702153 0.304356 1.76388 35 39 38
0.704298 0.301321 1.74629 35 39 37
0.742697 0.313676 1.81789 34 38 37
0.738194 0.307827 1.784 32 37 35
0.752218 0.309754 1.79517 32 36 34
0.729724 0.296782 1.71999 31 36 34
0.766226 0.307827 1.784 31 35 34
0.761369 0.302191 1.75133 30 34 34
0.815222 0.319713 1.85288 30 35 34
0.788738 0.305688 1.7716 32 36 35
0.830649 0.318188 1.84404 34 37 36
0.830642 0.314527 1.82283 36 39 37
0.849967 0.318188 1.84404 36 39 37
0.849737 0.314527 1.82283 36 39 37
0.859285 0.314527 1.82283 35 38 37
0.893382 0.323415 1.87433 34 37 37
0.898997 0.32191 1.86561 34 37 37
0.874453 0.309754 1.79517 35 39 39
0.891144 0.312308 1.80997 36 40 39
0.946826 0.32833 1.90282 36 40 39
0.933056 0.320185 1.85562 35 39 38
0.926118 0.314527 1.82283 34 38 37
0.921467 0.309754 1.79517 34 38 36
0.930869 0.309754 1.79517 34 37 36
0.958778 0.315851 1.8305 33 37 36
0.997463 0.325341 1.8855 34 38 37
0.977953 0.315851 1.8305 34 38 38
1.00109 0.320185 1.85562 35 39 39
1.0549 0.33415 1.93655 35 39 39
0.977825 0.306786 1.77797 35 39 39
0.983603 0.305688 1.7716 36 40 39
1.05046 0.323415 1.87433 35 40 39
1.05262 0.321078 1.86079 34 39 38
1.0528 0.318188 1.84404 35 39 38
1.11906 0.335139 1.94228 35 39 38
1.03 0.305688 1.7716 35 40 39
1.13194 0.332943 1.92955 34 39 39
1.10135 0.321078 1.86079 34 39 39
1.14695 0.331438 1.92083 35 40 39
1.14136 0.326957 1.89486 34 39 39
1.21517 0.345098 2 34 39 38
1.16121 0.326957 1.89486 34 39 39
1.15845 0.323415 1.87433 35 39 39
1.03215 0.285734 1.65596 34 39 39
-0.689616 0.195054 1.09718 35 35 31
-0.679603 0.193837 1.09033 35 35 31
-0.683041 0.196469 1.10514 36 36 31
-0.672376 0.195054 1.09718 37 36 32
-0.633333 0.185312 1.04238 37 37 33
-0.637111 0.188038 1.05772 38 37 34
-0.677352 0.201669 1.13439 37 36 33
-0.67141 0.201669 1.13439 37 37 33
-0.671334 0.203446 1.14438 37 37 34
-0.691878 0.211561 1.19003 37 36 34
-0.659346 0.203446 1.14438 37 36 34
-0.653352 0.203446 1.14438 38 37 35
-0.625156 0.196469 1.10514 38 37 35
-0.64785 0.205504 1.15596 37 37 34
-0.653573 0.209275 1.17717 36 35 32
-0.654479 0.211561 1.19003 36 35 32
-0.623381 0.203446 1.14438 37 36 33
-0.642013 0.211561 1.19003 37 36 33
-0.643688 0.214192 1.20483 37 36 33
-0.629547 0.211561 1.19003 37 37 33
-0.640077 0.217251 1.22203 37 37 33
-0.671598 0.230252 1.29517 37 37 33
-0.67648 0.234292 1.31789 37 37 33
-0.646057 0.226062 1.2716 37 37 34
-0.698328 0.246898 1.3888 37 37 33
-0.683856 0.244326 1.37433 37 37 32
-0.637679 0.230252 1.29517 38 38 34
-0.654703 0.238941 1.34404 38 38 34
-0.610177 0.225111 1.26625 36 37 33
-0.655062 0.244326 1.37433 35 37 32
-0.664519 0.250607 1.40967 35 36 31
-0.676462 0.257978 1.45113 35 37 32
-0.649752 0.250607 1.40967 36 37 33
-0.683532 0.266667 1.5 36 37 32
-0.723035 0.285358 1.60514 36 36 32
-0.667819 0.266667 1.5 36 36 31
-0.681466 0.275355 1.54887 36 36 31
-0.691377 0.282726 1.59033 37 37 32
-0.644249 0.266667 1.5 37 37 32
-0.680998 0.285358 1.60514 37 37 32
-0.649015 0.275355 1.54887 37 37 32
-0.705436 0.303081 1.70483 37 36 33
-0.696506 0.303081 1.70483 36 36 32
-0.647368 0.285358 1.60514 35 35 31
-0.613979 0.274201 1.54238 36 36 32
-0.645971 0.292335 1.64438 36 36 32
-0.660788 0.303081 1.70483 36 37 33
-0.651858 0.303081 1.70483 37 37 33
-0.662889 0.312491 1.75776 37 37 34
-0.653683 0.312491 1.75776 37 37 34
-0.62507 0.303081 1.70483 37 37 34
-0.607926 0.299041 1.68211 38 38 34
-0.643663 0.321276 1.80718 39 39 35
-0.593086 0.30045 1.69003 38 38 35
-0.598329 0.307698 1.7308 37 37 33
-0.580422 0.303081 1.70483 37 37 34
-0.598589 0.317452 1.78567 37 38 34
-0.595706 0.320937 1.80527 37 38 34
-0.579883 0.317452 1.78567 37 37 33
-0.549031 0.305489 1.71838 36 36 32
-0.550845 0.311607 1.75279 37 37 33
-0.53487 0.307698 1.7308 38 38 34
-0.533994 0.312491 1.75776 37 37 33
-0.530819 0.316083 1.77797 37 37 33
-0.515581 0.312491 1.75776 37 37 33
-0.495028 0.305489 1.71838 37 38 34
-0.488862 0.307271 1.7284 37 37 33
-0.477027 0.305489 1.71838 36 37 33
-0.47563 0.310452 1.74629 37 37 33
-0.466483 0.310452 1.74629 37 37 33
-0.458656 0.311348 1.75133 36 37 33
-0.44497 0.308222 1.73375 36 37 32
-0.418832 0.296161 1.6659 36 37 33
-0.426808 0.308222 1.73375 36 37 32
-0.417017 0.307698 1.7308 36 37 32
-0.411603 0.310452 1.74629 37 38 33
-0.399565 0.308222 1.73375 36 37 32
-0.380985 0.300724 1.69157 36 36 31
-0.366478 0.296161 1.6659 36 36 32
-0.374145 0.309731 1.74224 36 37 33
-0.354404 0.300724 1.69157 36 38 34
-0.348253 0.303081 1.70483 36 38 34
-0.331575 0.296161 1.6659 36 38 34
-0.335427 0.307698 1.7308 36 37 33
-0.329282 0.310452 1.74629 36 38 34
-0.317296 0.307698 1.7308 36 37 34
-0.306017 0.305489 1.71838 36 37 34
-0.292384 0.300724 1.69157 36 37 34
-0.285746 0.303081 1.70483 36 37 33
-0.272325 0.298164 1.67717 36 37 33
-0.271968 0.307698 1.7308 35 36 32
-0.258957 0.303081 1.70483 35 36 31
-0.239696 0.290558 1.63439 36 36 32
-0.243014 0.305489 1.71838 35 36 32
-0.230363 0.300724 1.69157 35 36 32
-0.221503 0.300724 1.69157 36 37 34
-0.209416 0.296161 1.6659 37 38 35
-0.202374 0.298645 1.67988 37 39 35
-0.19645 0.303081 1.70483 37 38 35
-0.190702 0.308222 1.73375 36 38 34
-0.175694 0.298164 1.67717 36 37 34
-0.166909 0.298164 1.67717 36 37 34
-0.164259 0.309731 1.74224 36 37 34
-0.150622 0.300724 1.69157 36 37 34
-0.145049 0.307698 1.7308 36 37 34
-0.135134 0.305776 1.71999 36 37 33
-0.120361 0.291801 1.64138 36 36 32
-0.116084 0.303081 1.70483 36 36 32
-0.103167 0.291801 1.64138 36 36 32
-0.0990055 0.305489 1.71838 36 36 31
-0.0892957 0.303081 1.70483 36 36 32
-0.0783231 0.295377 1.66149 38 38 34
-0.0731738 0.310452 1.74629 38 38 35
-0.0599241 0.290558 1.63439 38 38 35
-0.0508036 0.287391 1.61657 36 37 33
-0.0446478 0.303081 1.70483 35 35 31
-0.0348103 0.295377 1.66149 35 35 31
-0.0261077 0.295377 1.66149 36 36 33
-0.0178591 0.303081 1.70483 36 37 33
-0.00876704 0.297565 1.6738 37 37 34
0 0.289007 1.62567 36 37 34
0.00861295 0.292335 1.64438 37 37 34
0.0175694 0.298164 1.67717 36 36 33
0.0258389 0.292335 1.64438 36 36 33
0.0342423 0.290558 1.63439 36 36 32
0.0446478 0.303081 1.70483 37 37 34
0.0527932 0.298645 1.67988 37 38 35
0.0605252 0.293472 1.65078 37 37 35
0.0708809 0.300724 1.69157 36 37 34
0.0778182 0.293472 1.65078 35 36 33
0.0859722 0.291801 1.64138 35 36 34
0.0998913 0.308222 1.73375 36 37 35
0.104431 0.295377 1.66149 36 37 35
0.118907 0.310452 1.74629 35 36 34
0.119848 0.290558 1.63439 35 36 34
0.13177 0.298164 1.67717 34 35 32
0.141762 0.300724 1.69157 35 36 33
0.14699 0.293472 1.65078 35 37 34
0.156646 0.295377 1.66149 36 37 34
0.166909 0.298164 1.67717 36 37 34
0.175694 0.298164 1.67717 35 36 34
0.182754 0.295377 1.66149 34 35 32
0.199783 0.308222 1.73375 35 36 34
0.194919 0.287644 1.618 35 36 34
0.212643 0.300724 1.69157 35 36 33
0.22664 0.307698 1.7308 35 35 32
0.228402 0.298164 1.67717 35 35 32
0.243014 0.305489 1.71838 35 36 32
0.252014 0.305489 1.71838 35 36 32
0.256943 0.300724 1.69157 36 36 32
0.265803 0.300724 1.69157 36 36 33
0.272325 0.298164 1.67717 36 36 33
0.280545 0.297565 1.6738 35 36 33
0.292117 0.30045 1.69003 35 36 33
0.298679 0.298164 1.67717 35 36 33
0.301453 0.292335 1.64438 35 36 33
0.321464 0.303081 1.70483 35 36 34
0.327824 0.300724 1.69157 35 36 34
0.344492 0.307698 1.7308 34 36 32
0.35102 0.305489 1.71838 34 35 32
0.363241 0.308222 1.73375 35 36 33
0.368741 0.305258 1.71707 35 37 34
0.375042 0.303081 1.70483 35 36 33
0.377741 0.298164 1.67717 34 35 32
0.389489 0.30045 1.69003 34 36 32
0.398342 0.30045 1.69003 34 35 32
0.417017 0.307698 1.7308 35 36 32
0.41969 0.303081 1.70483 35 36 33
0.424898 0.30045 1.69003 35 36 32
0.452704 0.313579 1.76388 34 35 32
0.439234 0.298164 1.67717 35 36 32
0.455408 0.303081 1.70483 35 36 33
0.456803 0.298164 1.67717 34 36 33
0.484776 0.310452 1.74629 34 36 33
0.492776 0.309731 1.74224 34 36 33
0.504522 0.311348 1.75133 34 36 33
0.520719 0.315605 1.77528 34 36 34
0.517619 0.308222 1.73375 34 37 34
0.5267 0.308222 1.73375 34 36 34
0.543201 0.312491 1.75776 33 35 33
0.548803 0.310452 1.74629 33 35 33
0.561615 0.312491 1.75776 32 35 33
0.558031 0.305489 1.71838 32 35 33
0.577906 0.311348 1.75133 32 35 32
0.571492 0.303081 1.70483 32 35 33
0.604406 0.315605 1.77528 32 35 33
0.607649 0.312491 1.75776 33 36 34
0.603034 0.305489 1.71838 33 36 34
0.635407 0.317155 1.784 33 36 34
0.637481 0.313579 1.76388 30 34 33
0.635672 0.308222 1.73375 29 34 32
0.66344 0.317155 1.784 29 34 32
0.662889 0.312491 1.75776 28 33 32
0.651858 0.303081 1.70483 28 34 33
0.726486 0.333215 1.87433 30 35 34
0.700817 0.317155 1.784 33 37 37
0.691632 0.30888 1.73745 35 39 38
0.711392 0.313579 1.76388 35 40 38
0.720631 0.313579 1.76388 34 38 36
0.738194 0.317155 1.784 33 37 35
0.742342 0.314951 1.7716 33 37 35
0.756882 0.317155 1.784 32 36 35
0.766226 0.317155 1.784 32 36 35
0.748632 0.306139 1.72203 30 34 34
0.794274 0.320937 1.80527 30 35 34
0.804578 0.321276 1.80718 32 35 35
0.798018 0.314951 1.7716 33 36 35
0.863467 0.336865 1.89486 36 39 37
0.832975 0.321276 1.80718 36 39 38
0.843742 0.321772 1.80997 36 39 37
0.859285 0.324058 1.82283 34 37 36
0.849192 0.316733 1.78162 33 36 36
0.858524 0.316733 1.78162 33 36 36
0.903898 0.329887 1.85562 35 38 38
0.891144 0.321772 1.80997 36 40 39
0.837 0.299041 1.68211 36 40 39
0.960234 0.339496 1.90967 35 40 38
0.962716 0.336865 1.89486 34 38 37
0.912637 0.316083 1.77797 34 38 37
1.00716 0.345295 1.94228 34 38 36
0.958778 0.325422 1.8305 34 38 37
1.00242 0.336865 1.89486 34 38 37
0.959077 0.319141 1.79517 35 39 38
0.9483 0.312491 1.75776 35 40 39
1.00451 0.32783 1.84404 35 39 39
1.00672 0.325422 1.8305 35 39 39
1.02382 0.32783 1.84404 35 40 39
1.05672 0.3352 1.8855 35 40 39
1.06659 0.3352 1.8855 34 39 38
1.01144 0.314951 1.7716 34 39 38
1.07211 0.330807 1.86079 35 40 39
1.05978 0.324058 1.82283 36 41 41
1.22626 0.371615 2.09033 35 40 40
1.13689 0.341481 1.92083 34 39 39
1.14028 0.339496 1.90967 35 40 39
1.20469 0.355556 2 35 39 39
1.09072 0.319141 1.79517 34 39 38
1.29007 0.374247 2.10514 35 39 39
1.23612 0.355556 2 35 39 39
1.03215 0.294393 1.65596 35 39 39
-0.685314 0.199538 1.09033 36 35 31
-0.651593 0.191314 1.0454 36 36 32
-0.648267 0.191951 1.04887 37 36 33
-0.701304 0.20943 1.14438 37 36 33
-0.639743 0.192693 1.05293 36 36 32
-0.629691 0.191314 1.0454 37 37 33
-0.683322 0.20943 1.14438 37 36 33
-0.654098 0.202247 1.10514 37 37 33
-0.671334 0.20943 1.14438 37 36 34
-0.684402 0.21543 1.17717 37 36 34
-0.653585 0.2076 1.13439 37 36 34
-0.659959 0.211548 1.15596 37 36 34
-0.647358 0.20943 1.14438 37 37 34
-0.641364 0.20943 1.14438 37 37 33
-0.660712 0.217783 1.19003 36 36 32
-0.643189 0.214026 1.1695 36 35 31
-0.717897 0.241183 1.31789 36 35 31
-0.649999 0.220492 1.20483 36 35 32
-0.63578 0.217783 1.19003 36 35 32
-0.637377 0.220492 1.20483 36 36 33
-0.690286 0.241183 1.31789 37 36 33
-0.683383 0.241183 1.31789 37 36 33
-0.627275 0.22364 1.22203 37 36 33
-0.658031 0.237024 1.29517 37 37 33
-0.698328 0.25416 1.3888 36 37 33
-0.630074 0.231732 1.26625 37 37 34
-0.593203 0.220492 1.20483 38 38 34
-0.64437 0.242086 1.32283 36 37 32
-0.66226 0.251512 1.37433 35 36 31
-0.5921 0.227338 1.24224 35 36 31
-0.664519 0.257978 1.40967 34 35 30
-0.657135 0.257978 1.40967 36 37 32
-0.671856 0.266754 1.45762 37 38 34
-0.683532 0.27451 1.5 37 38 34
-0.675676 0.27451 1.5 37 37 33
-0.667819 0.27451 1.5 36 36 32
-0.70622 0.293751 1.60514 36 36 30
-0.630858 0.265565 1.45113 36 36 30
-0.66524 0.283454 1.54887 37 37 32
-0.636392 0.27451 1.5 36 36 30
-0.689036 0.300933 1.64438 35 35 30
-0.680423 0.300933 1.64438 37 36 33
-0.63279 0.283454 1.54887 37 37 34
-0.647368 0.293751 1.60514 36 36 33
-0.647133 0.297507 1.62567 36 36 32
-0.669717 0.311996 1.70483 36 36 32
-0.647094 0.30553 1.6695 36 36 32
-0.693772 0.332057 1.81445 37 37 33
-0.642929 0.311996 1.70483 38 37 34
-0.644753 0.317288 1.73375 38 37 34
-0.651883 0.325379 1.77797 37 37 34
-0.643893 0.326049 1.78162 38 38 35
-0.623772 0.320505 1.75133 38 39 35
-0.608429 0.317288 1.73375 36 36 32
-0.611286 0.323607 1.76828 34 35 29
-0.590267 0.317288 1.73375 36 36 32
-0.584031 0.318841 1.74224 37 38 34
-0.5835 0.323607 1.76828 37 38 34
-0.567097 0.319583 1.74629 37 38 34
-0.573566 0.328527 1.79517 36 37 33
-0.535774 0.311996 1.70483 37 37 34
-0.526844 0.311996 1.70483 37 37 34
-0.533994 0.321682 1.75776 37 37 33
-0.516739 0.316748 1.7308 37 37 34
-0.511027 0.318841 1.74224 38 38 35
-0.51142 0.324888 1.77528 38 38 34
-0.489542 0.316748 1.7308 37 37 33
-0.490881 0.323607 1.76828 36 37 32
-0.47563 0.319583 1.74629 36 36 32
-0.462345 0.316748 1.7308 37 37 33
-0.446478 0.311996 1.70483 36 37 33
-0.451133 0.321682 1.75776 36 37 33
-0.44633 0.324888 1.77528 36 37 33
-0.429896 0.319583 1.74629 36 37 31
-0.427733 0.324888 1.77528 35 36 30
-0.389091 0.302104 1.65078 35 36 31
-0.396022 0.314474 1.71838 36 36 32
-0.38982 0.316748 1.7308 36 37 33
-0.380755 0.316748 1.7308 37 37 33
-0.372322 0.317288 1.73375 37 38 34
-0.368272 0.321682 1.75776 38 38 35
-0.345229 0.309287 1.69003 37 39 35
-0.349858 0.321682 1.75776 37 38 34
-0.335998 0.317288 1.73375 37 38 34
-0.314124 0.304871 1.6659 37 38 34
-0.320135 0.319583 1.74629 36 38 34
-0.29398 0.302104 1.65078 36 38 34
-0.297017 0.314474 1.71838 36 37 34
-0.290099 0.316748 1.7308 36 37 33
-0.279016 0.314474 1.71838 37 38 33
-0.259394 0.302104 1.65078 36 37 33
-0.262902 0.316748 1.7308 36 37 33
-0.250028 0.311996 1.70483 37 38 34
-0.246962 0.319583 1.74629 35 36 32
-0.223937 0.300933 1.64438 34 35 31
-0.223239 0.311996 1.70483 35 36 32
-0.208862 0.304064 1.66149 35 37 33
-0.20538 0.311996 1.70483 35 36 32
-0.201228 0.319583 1.74629 35 36 32
-0.186062 0.309569 1.69157 35 37 33
-0.18001 0.314474 1.71838 36 37 34
-0.168342 0.309569 1.69157 35 37 34
-0.159482 0.309569 1.69157 35 36 32
-0.151803 0.311996 1.70483 35 36 32
-0.139611 0.304871 1.6659 35 36 33
-0.135984 0.316748 1.7308 36 37 33
-0.125912 0.314236 1.71707 37 37 33
-0.117853 0.316748 1.7308 37 37 33
-0.106321 0.309569 1.69157 37 37 33
-0.0951111 0.302104 1.65078 36 36 31
-0.0864646 0.302104 1.65078 35 35 30
-0.0803661 0.311996 1.70483 36 36 32
-0.0714365 0.311996 1.70483 37 37 34
-0.0599241 0.299103 1.63439 36 37 33
-0.0535774 0.311996 1.70483 36 36 33
-0.0443005 0.309569 1.69157 36 36 33
-0.0351387 0.306933 1.67717 36 37 33
-0.0256817 0.299103 1.63439 36 37 33
-0.0175694 0.306933 1.67717 36 36 33
-0.00878468 0.306933 1.67717 36 36 33
0 0.309569 1.69157 35 35 31
0.00892957 0.311996 1.70483 35 36 32
0.0181621 0.317288 1.73375 36 36 32
0.026354 0.306933 1.67717 36 36 33
0.0351387 0.306933 1.67717 35 36 32
0.04213 0.294401 1.60869 37 37 34
0.0513635 0.299103 1.63439 37 38 35
0.0614928 0.306933 1.67717 37 37 34
0.0708809 0.309569 1.69157 36 36 33
0.0809431 0.314236 1.71707 35 36 33
0.0864646 0.302104 1.65078 35 36 33
0.0954093 0.303051 1.65596 36 37 34
0.103758 0.302104 1.65078 36 37 35
0.116084 0.311996 1.70483 36 37 35
0.122986 0.306933 1.67717 36 38 35
0.136215 0.317288 1.73375 36 37 35
0.141633 0.309287 1.69003 37 38 35
0.148336 0.304871 1.6659 36 37 35
0.156646 0.304064 1.66149 36 37 35
0.165788 0.304871 1.6659 37 38 35
0.187059 0.326789 1.78567 37 38 35
0.179772 0.299103 1.63439 36 37 35
0.193263 0.306933 1.67717 36 37 35
0.210375 0.319583 1.74629 36 36 34
0.209416 0.304871 1.6659 35 36 33
0.223239 0.311996 1.70483 35 36 33
0.230153 0.309287 1.69003 35 36 33
0.237186 0.306933 1.67717 35 36 32
0.244319 0.304871 1.6659 34 35 32
