ply
format ascii 1.0
element vertex 1367
property float x
property float y
property float z
property uchar red
property uchar green
property uchar blue
end_header
-0.781439 0.599438 1.57045 37 37 32
-0.783006 0.60703 1.59033 37 37 32
-0.806642 0.632078 1.65596 37 36 31
-0.903199 0.715432 1.87433 36 35 31
-0.953279 0.763399 2 36 35 30
-0.846245 0.685214 1.79517 36 35 30
-0.883317 0.723268 1.89486 37 36 30
-0.827439 0.685214 1.79517 37 35 30
-0.830642 0.695773 1.82283 37 36 31
-0.808634 0.685214 1.79517 38 36 32
-0.775666 0.665011 1.74224 38 36 32
-0.801999 0.695773 1.82283 37 36 31
-0.764164 0.670937 1.75776 36 35 31
-0.771023 0.685214 1.79517 36 35 31
-0.76162 0.685214 1.79517 37 36 32
-0.746543 0.680045 1.78162 37 36 31
-0.757434 0.6987 1.8305 37 36 30
-0.733412 0.685214 1.79517 37 36 31
-0.712347 0.674176 1.76625 37 36 30
-0.703095 0.674176 1.76625 36 35 30
-0.724404 0.70387 1.84404 35 35 30
-0.695801 0.685214 1.79517 35 35 30
-0.686399 0.685214 1.79517 36 36 32
-0.735811 0.744743 1.95113 38 37 34
-0.633999 0.650734 1.70483 37 37 33
-0.687217 0.715432 1.87433 36 36 31
-0.654137 0.690864 1.80997 35 35 31
-0.634561 0.680045 1.78162 35 35 30
-0.651195 0.708287 1.85562 36 36 32
-0.625697 0.690864 1.80997 37 37 33
-0.586278 0.657299 1.72203 36 37 32
-0.597234 0.680045 1.78162 36 36 31
-0.587902 0.680045 1.78162 36 36 31
-0.578571 0.680045 1.78162 36 35 31
-0.564327 0.674176 1.76625 36 36 31
-0.542024 0.658325 1.72472 35 35 30
-0.573441 0.708287 1.85562 36 36 32
-0.549855 0.690864 1.80997 37 37 34
-0.518724 0.663184 1.73745 37 36 33
-0.530894 0.690864 1.80997 36 36 32
-0.539956 0.715432 1.87433 36 35 31
-0.503916 0.680045 1.78162 35 35 31
-0.5179 0.712104 1.86561 37 36 33
-0.496475 0.695773 1.82283 37 36 32
-0.483493 0.690864 1.80997 37 36 32
-0.470136 0.685214 1.79517 37 36 32
-0.453312 0.674176 1.76625 36 35 31
-0.44406 0.674176 1.76625 35 34 29
-0.424586 0.658325 1.72472 36 35 31
-0.43919 0.695773 1.82283 36 36 32
-0.429642 0.695773 1.82283 36 36 32
-0.405099 0.670937 1.75776 36 36 32
-0.397804 0.674176 1.76625 36 36 31
-0.375042 0.650734 1.70483 36 36 32
-0.377479 0.670937 1.75776 35 35 31
-0.36212 0.659729 1.7284 35 34 30
-0.348253 0.650734 1.70483 35 35 31
-0.33116 0.635078 1.66382 35 35 32
-0.330394 0.650734 1.70483 35 35 31
-0.321464 0.650734 1.70483 35 35 31
-0.326612 0.680045 1.78162 35 35 31
-0.310267 0.665011 1.74224 35 35 31
-0.301141 0.665011 1.74224 35 35 30
-0.276355 0.629348 1.64881 34 34 30
-0.291484 0.685214 1.79517 34 35 30
-0.283969 0.689798 1.80718 34 34 30
-0.264639 0.665011 1.74224 35 35 31
-0.247199 0.643372 1.68555 35 35 32
-0.249784 0.674176 1.76625 35 35 33
-0.242626 0.680045 1.78162 35 35 32
-0.241468 0.70387 1.84404 34 35 32
-0.21982 0.667466 1.74867 35 35 33
-0.207452 0.657299 1.72203 36 36 34
-0.19452 0.64434 1.68808 36 37 34
-0.197457 0.685214 1.79517 36 37 34
-0.183183 0.667466 1.74867 36 37 34
-0.175774 0.674176 1.76625 36 36 33
-0.164259 0.665011 1.74224 35 35 32
-0.15864 0.680045 1.78162 35 36 33
-0.142873 0.650734 1.70483 36 36 33
-0.132428 0.643372 1.68555 37 37 34
-0.129518 0.674176 1.76625 36 36 34
-0.118631 0.665011 1.74224 36 36 33
-0.108405 0.658325 1.72472 35 35 32
-0.0982252 0.650734 1.70483 35 35 32
-0.0892957 0.650734 1.70483 34 35 31
-0.0828612 0.670937 1.75776 35 35 33
-0.0746543 0.680045 1.78162 35 36 34
-0.0647588 0.674176 1.76625 35 36 34
-0.0572856 0.695773 1.82283 34 35 33
-0.0456274 0.665011 1.74224 34 35 33
-0.034978 0.637248 1.6695 34 35 32
-0.0276204 0.670937 1.75776 34 35 33
-0.0178591 0.650734 1.70483 35 36 34
-0.00903373 0.658325 1.72472 36 36 34
0 0.674176 1.76625 36 36 34
0.00903373 0.658325 1.72472 36 36 34
0.0176211 0.642059 1.68211 35 36 33
0.0261442 0.635078 1.66382 35 35 32
0.0376109 0.685214 1.79517 34 34 31
0.0431805 0.629348 1.64881 35 35 32
0.0535774 0.650734 1.70483 35 35 33
0.0610031 0.635078 1.66382 35 35 33
0.0706284 0.643372 1.68555 34 34 31
0.079457 0.643372 1.68555 34 35 31
0.0933178 0.680045 1.78162 33 35 31
0.100751 0.667466 1.74867 33 35 31
0.111015 0.674176 1.76625 33 35 31
0.119069 0.667466 1.74867 34 36 32
0.133666 0.695773 1.82283 35 35 32
0.135506 0.658325 1.72472 35 36 33
0.142873 0.650734 1.70483 35 35 32
0.153334 0.657299 1.72203 35 36 33
0.167972 0.680045 1.78162 34 35 33
0.177304 0.680045 1.78162 34 35 33
0.180675 0.658325 1.72472 33 34 33
0.193343 0.670937 1.75776 33 34 33
0.208566 0.690864 1.80997 34 35 33
0.202642 0.642059 1.68211 34 35 33
0.223963 0.680045 1.78162 34 35 34
0.225843 0.658325 1.72472 33 34 33
0.238138 0.667466 1.74867 32 34 32
0.241098 0.650734 1.70483 32 34 33
0.25779 0.670937 1.75776 32 34 33
0.264639 0.665011 1.74224 32 34 33
0.284408 0.690864 1.80997 32 34 33
0.286789 0.674176 1.76625 32 34 34
0.314156 0.715432 1.87433 33 34 34
0.301141 0.665011 1.74224 33 35 35
0.322329 0.690864 1.80997 33 34 35
0.316181 0.658325 1.72472 32 34 34
0.321464 0.650734 1.70483 30 32 34
0.342296 0.674176 1.76625 28 30 33
0.349858 0.670937 1.75776 29 31 32
0.359065 0.670937 1.75776 29 32 33
0.373271 0.680045 1.78162 31 33 34
0.374145 0.665011 1.74224 35 36 37
0.397556 0.689798 1.80718 36 38 37
0.383971 0.650734 1.70483 36 37 36
0.392901 0.650734 1.70483 35 36 36
0.410647 0.665011 1.74224 35 36 35
0.421322 0.667466 1.74867 34 36 35
0.434809 0.674176 1.76625 34 35 35
0.455052 0.690864 1.80997 33 34 35
0.442653 0.658325 1.72472 32 34 35
0.457958 0.667466 1.74867 33 35 35
0.483493 0.690864 1.80997 34 36 36
0.470756 0.659729 1.7284 34 36 36
0.502453 0.690864 1.80997 36 38 38
0.518757 0.700073 1.8341 36 38 38
0.525118 0.695773 1.82283 37 39 40
0.512913 0.667466 1.74867 38 39 40
0.522073 0.667466 1.74867 37 38 40
0.536573 0.674176 1.76625 36 37 39
0.55476 0.685214 1.79517 33 34 36
0.535774 0.650734 1.70483 32 34 36
0.564327 0.674176 1.76625 34 36 38
0.602599 0.708287 1.85562 35 38 40
0.612318 0.708287 1.85562 36 38 41
0.586187 0.667466 1.74867 35 38 40
0.620594 0.695773 1.82283 34 37 40
0.625697 0.690864 1.80997 35 37 40
0.613664 0.667466 1.74867 34 37 40
0.634561 0.680045 1.78162 34 37 40
0.648788 0.685214 1.79517 34 37 40
0.663618 0.690864 1.80997 34 37 40
0.685769 0.70387 1.84404 34 36 39
0.703563 0.712104 1.86561 33 36 39
0.686399 0.685214 1.79517 34 36 39
0.689134 0.678648 1.77797 35 37 40
0.705204 0.685214 1.79517 34 37 39
0.734062 0.70387 1.84404 34 36 38
0.743721 0.70387 1.84404 35 38 40
0.726384 0.678648 1.77797 36 39 41
0.757434 0.6987 1.8305 35 38 40
0.732733 0.667466 1.74867 34 37 39
0.795208 0.715432 1.87433 34 37 39
0.809822 0.719695 1.8855 35 38 40
0.78881 0.692575 1.81445 35 38 41
0.829573 0.719695 1.8855 35 38 41
0.811546 0.695773 1.82283 35 38 41
0.872319 0.739179 1.93655 35 38 41
0.840308 0.70387 1.84404 35 39 40
0.885362 0.733181 1.92083 34 38 40
0.853312 0.6987 1.8305 34 37 39
0.855336 0.692575 1.81445 33 36 38
0.893382 0.715432 1.87433 33 36 38
0.903199 0.715432 1.87433 33 36 39
0.89826 0.70387 1.84404 35 38 40
0.922834 0.715432 1.87433 36 39 41
0.917578 0.70387 1.84404 35 38 41
1.00566 0.763399 2 35 38 40
0.97591 0.733181 1.92083 36 39 41
0.980239 0.728918 1.90967 37 40 42
0.971921 0.715432 1.87433 35 38 40
1.00024 0.728918 1.90967 34 37 39
0.949675 0.685214 1.79517 33 37 39
0.959077 0.685214 1.79517 34 37 40
1.02227 0.723268 1.89486 35 38 40
0.977883 0.685214 1.79517 35 39 41
1.04212 0.723268 1.89486 36 39 42
1.04064 0.715432 1.87433 36 39 42
0.928072 0.632078 1.65596 36 39 41
1.13136 0.763399 2 36 39 41
1.07009 0.715432 1.87433 35 38 40
1.24217 0.822928 2.15596 34 38 40
1.08973 0.715432 1.87433 34 37 40
1.08178 0.70387 1.84404 35 38 40
1.09143 0.70387 1.84404 33 37 40
1.26925 0.811365 2.12567 34 37 40
1.0269 0.650734 1.70483 35 39 41
1.39451 0.876064 2.29517 38 41 43
1.22564 0.763399 2 38 42 43
1.36272 0.841583 2.20483 37 41 43
1.2466 0.763399 2 36 40 42
-0.707521 0.435552 1.12567 32 33 30
-0.837738 0.520047 1.34404 33 33 30
-0.871258 0.545439 1.40967 34 35 32
-0.689833 0.435552 1.12567 35 36 33
-0.786923 0.501137 1.29517 35 36 32
-0.748258 0.480657 1.24224 36 36 32
-0.820627 0.531768 1.37433 37 36 32
-0.766572 0.501137 1.29517 36 35 31
-0.759788 0.501137 1.29517 36 35 30
-0.945155 0.629016 1.62567 36 35 31
-0.81219 0.545439 1.40967 36 35 31
-0.76734 0.520047 1.34404 36 36 31
-0.91961 0.629016 1.62567 36 36 32
-0.928072 0.640737 1.65596 37 36 32
-1.02382 0.713512 1.84404 37 36 32
-0.775272 0.545439 1.40967 36 36 31
-0.767888 0.545439 1.40967 36 36 31
-0.80924 0.580392 1.5 36 35 30
-0.753121 0.545439 1.40967 36 35 30
-0.793526 0.580392 1.5 36 35 30
-0.892957 0.659648 1.70483 36 35 30
-0.956213 0.713512 1.84404 37 36 32
-0.816325 0.615345 1.59033 38 37 32
-0.797891 0.60765 1.57045 38 37 32
-0.789665 0.60765 1.57045 38 37 32
-0.874646 0.680128 1.75776 38 37 32
-0.932941 0.733176 1.89486 37 37 32
-0.774676 0.615345 1.59033 37 36 32
-0.82152 0.659648 1.70483 37 36 31
-0.789295 0.640737 1.65596 37 35 30
-0.859285 0.705304 1.82283 36 35 29
-0.873747 0.725233 1.87433 36 35 29
-0.873392 0.733176 1.89486 37 35 30
-0.840308 0.713512 1.84404 37 35 30
-0.808634 0.694601 1.79517 38 36 32
-0.843617 0.733176 1.89486 38 36 32
-0.779459 0.685482 1.7716 36 35 30
-0.823767 0.733176 1.89486 36 34 29
-0.777381 0.700328 1.80997 36 35 31
-0.773356 0.705304 1.82283 37 36 32
-0.777547 0.71799 1.85562 37 37 31
-0.758923 0.709663 1.8341 38 37 31
-0.758108 0.71799 1.85562 37 37 32
-0.748389 0.71799 1.85562 38 37 32
-0.703095 0.683412 1.76625 36 36 30
-0.693844 0.683412 1.76625 35 34 30
-0.71089 0.709663 1.8341 35 35 30
-0.709511 0.71799 1.85562 36 35 31
-0.66609 0.683412 1.76625 37 36 33
-0.641395 0.667343 1.72472 37 36 33
-0.680353 0.71799 1.85562 36 36 32
-0.638337 0.683412 1.76625 36 35 32
-0.644657 0.700328 1.80997 35 34 30
-0.625229 0.68936 1.78162 35 34 30
-0.615898 0.68936 1.78162 36 36 32
-0.635161 0.721858 1.86561 37 37 33
-0.611047 0.705304 1.82283 36 36 32
-0.580028 0.680128 1.75776 36 36 32
-0.573578 0.683412 1.76625 36 36 32
-0.592879 0.71799 1.85562 36 36 33
-0.568815 0.700328 1.80997 35 35 31
-0.559335 0.700328 1.80997 35 34 31
-0.569408 0.725233 1.87433 36 35 32
-0.540374 0.700328 1.80997 35 35 31
-0.52258 0.68936 1.78162 34 34 30
-0.528364 0.709663 1.8341 35 35 30
-0.501081 0.685482 1.7716 36 36 32
-0.506023 0.705304 1.82283 38 38 34
-0.478754 0.680128 1.75776 37 37 33
-0.46072 0.667343 1.72472 37 36 33
-0.450983 0.666304 1.72203 37 36 32
-0.431716 0.650854 1.68211 36 35 31
-0.43964 0.676609 1.74867 36 35 31
-0.43272 0.680128 1.75776 36 35 31
-0.432525 0.694601 1.79517 36 36 32
-0.426611 0.700328 1.80997 36 36 32
-0.407055 0.683412 1.76625 36 36 32
-0.407651 0.700328 1.80997 36 35 31
-0.38327 0.674121 1.74224 35 35 31
-0.385511 0.694601 1.79517 34 34 30
-0.37921 0.700328 1.80997 34 34 30
-0.360799 0.683412 1.76625 34 34 30
-0.351548 0.683412 1.76625 35 35 31
-0.350769 0.700328 1.80997 34 34 30
-0.32973 0.676609 1.74867 34 34 29
-0.322238 0.680128 1.75776 33 34 29
-0.300171 0.652185 1.68555 34 34 30
-0.298113 0.667343 1.72472 35 35 31
-0.285746 0.659648 1.70483 35 35 30
-0.291484 0.694601 1.79517 35 35 30
-0.273765 0.674121 1.74224 35 35 31
-0.276881 0.705304 1.82283 35 35 31
-0.252945 0.667343 1.72472 35 35 32
-0.244431 0.668767 1.7284 35 36 33
-0.226583 0.643778 1.66382 35 36 33
-0.235068 0.694601 1.79517 35 36 33
-0.21982 0.676609 1.74867 36 36 33
-0.207776 0.667343 1.72472 36 37 34
-0.199166 0.668767 1.7284 36 37 34
-0.192343 0.676609 1.74867 37 37 35
-0.185025 0.683412 1.76625 36 37 34
-0.184667 0.71799 1.85562 36 36 33
-0.164865 0.676609 1.74867 36 36 33
-0.15864 0.68936 1.78162 36 36 33
-0.151684 0.700328 1.80997 37 37 34
-0.137387 0.676609 1.74867 37 37 35
-0.126472 0.667343 1.72472 37 37 34
-0.117439 0.667343 1.72472 36 37 34
-0.104577 0.643778 1.66382 35 36 33
-0.0993711 0.667343 1.72472 36 37 34
-0.0933178 0.68936 1.78162 36 36 34
-0.0853223 0.700328 1.80997 36 36 34
-0.07401 0.683412 1.76625 35 36 34
-0.0638784 0.674121 1.74224 35 36 34
-0.0535774 0.659648 1.70483 35 36 34
-0.0466589 0.68936 1.78162 35 36 34
-0.037921 0.700328 1.80997 34 35 33
-0.0277538 0.683412 1.76625 34 35 32
-0.0180675 0.667343 1.72472 35 35 33
-0.00912549 0.674121 1.74224 35 35 33
0 0.667343 1.72472 35 35 33
0.00901967 0.666304 1.72203 34 34 32
0.0183183 0.676609 1.74867 34 35 32
0.0271012 0.667343 1.72472 35 35 33
0.0381904 0.705304 1.82283 34 35 32
0.0429292 0.634256 1.63921 35 35 32
0.0555075 0.683412 1.76625 35 35 33
0.062507 0.659648 1.70483 35 35 33
0.0752218 0.694601 1.79517 34 34 31
0.0821294 0.674121 1.74224 34 35 32
0.0871473 0.643778 1.66382 33 34 31
0.0949972 0.637969 1.64881 32 33 29
0.108236 0.666304 1.72203 33 35 31
0.118631 0.674121 1.74224 35 36 34
0.128228 0.676609 1.74867 35 36 33
0.135795 0.668767 1.7284 35 36 33
0.136239 0.629016 1.62567 35 35 33
0.159846 0.694601 1.79517 35 35 33
0.167027 0.685482 1.7716 33 34 32
0.167742 0.652185 1.68555 33 34 32
0.184136 0.680128 1.75776 33 34 32
0.192343 0.676609 1.74867 33 34 33
0.201502 0.676609 1.74867 33 35 33
0.223545 0.71799 1.85562 34 35 34
0.211885 0.652185 1.68555 34 36 34
0.237006 0.700328 1.80997 34 35 34
0.234877 0.667343 1.72472 32 34 33
0.247298 0.676609 1.74867 33 34 33
0.255514 0.674121 1.74224 33 35 34
0.266997 0.680128 1.75776 32 34 33
0.274775 0.676609 1.74867 32 34 33
0.280046 0.667343 1.72472 31 33 33
0.285746 0.659648 1.70483 32 34 34
0.305291 0.683412 1.76625 33 35 35
0.314543 0.683412 1.76625 33 34 35
0.326612 0.68936 1.78162 33 35 35
0.321464 0.659648 1.70483 31 33 34
0.308204 0.615345 1.59033 28 31 32
0.357303 0.694601 1.79517 29 32 33
0.348253 0.659648 1.70483 31 33 35
0.361349 0.667343 1.72472 32 35 35
0.391452 0.705304 1.82283 35 38 38
0.375042 0.659648 1.70483 36 38 38
0.392396 0.674121 1.74224 35 37 36
0.401521 0.674121 1.74224 35 36 35
0.416307 0.683412 1.76625 35 36 35
0.432525 0.694601 1.79517 35 36 36
0.434809 0.683412 1.76625 35 36 36
0.447926 0.68936 1.78162 33 35 36
0.460733 0.694601 1.79517 32 34 35
0.480331 0.709663 1.8341 32 35 36
0.483493 0.700328 1.80997 34 36 36
0.520127 0.738903 1.90967 35 37 37
0.515125 0.71799 1.85562 36 38 39
0.511934 0.700328 1.80997 36 38 39
0.508819 0.683412 1.76625 37 39 40
0.51807 0.683412 1.76625 37 38 40
0.540374 0.700328 1.80997 36 37 39
0.580141 0.738903 1.90967 35 36 38
0.55476 0.694601 1.79517 34 35 37
0.564163 0.694601 1.79517 33 35 37
0.578295 0.700328 1.80997 35 37 39
0.602599 0.71799 1.85562 35 38 40
0.562563 0.659648 1.70483 35 38 40
0.613618 0.708271 1.8305 34 37 39
0.635161 0.721858 1.86561 31 35 37
0.604505 0.676609 1.74867 34 36 39
0.629982 0.694601 1.79517 35 37 40
0.656793 0.713512 1.84404 35 37 40
0.661557 0.708271 1.8305 35 38 41
0.647588 0.683412 1.76625 35 37 40
0.722303 0.751524 1.94228 34 36 39
0.69032 0.708271 1.8305 33 36 39
0.679821 0.687945 1.77797 33 35 38
0.695801 0.694601 1.79517 33 35 38
0.744368 0.733176 1.89486 33 36 38
0.699717 0.680128 1.75776 34 36 38
0.738259 0.708271 1.8305 35 37 39
0.75338 0.713512 1.84404 35 38 40
0.757434 0.708271 1.8305 34 36 38
0.808529 0.746598 1.92955 32 35 37
0.769802 0.702063 1.81445 32 35 37
0.754957 0.680128 1.75776 34 36 39
0.753725 0.670837 1.73375 36 38 41
0.78226 0.687945 1.77797 35 38 41
0.807817 0.702063 1.81445 35 39 41
0.838194 0.719992 1.86079 36 40 42
0.847941 0.719992 1.86079 37 40 42
0.827439 0.694601 1.79517 36 40 41
0.859626 0.713512 1.84404 35 38 40
0.87718 0.719992 1.86079 34 36 38
0.886926 0.719992 1.86079 32 35 38
0.929808 0.746598 1.92955 34 37 39
0.887927 0.705304 1.82283 36 39 41
0.950021 0.746598 1.92955 36 39 41
0.960128 0.746598 1.92955 35 38 40
0.965849 0.743224 1.92083 34 38 40
0.936895 0.713512 1.84404 35 38 40
0.962103 0.725233 1.87433 37 40 41
1.03708 0.773856 2 36 39 41
0.992491 0.733176 1.89486 34 37 39
1.01025 0.738903 1.90967 32 36 38
1.01234 0.733176 1.89486 33 36 39
0.983403 0.705304 1.82283 34 37 39
1.04025 0.738903 1.90967 35 39 41
1.09994 0.773856 2 36 39 42
1.11041 0.773856 2 36 39 41
1.00609 0.694601 1.79517 35 39 41
0.994334 0.680128 1.75776 36 39 41
1.07009 0.725233 1.87433 35 38 40
1.0343 0.694601 1.79517 34 37 40
1.07212 0.713512 1.84404 33 37 39
1.08178 0.713512 1.84404 34 37 39
1.06251 0.694601 1.79517 33 37 39
1.19422 0.773856 2 34 37 40
1.28039 0.82248 2.12567 34 38 40
1.21517 0.773856 2 36 39 41
1.13007 0.713512 1.84404 36 40 42
1.23612 0.773856 2 36 40 41
1.2466 0.773856 2 36 40 42
-0.886025 0.55281 1.40967 37 38 35
-0.856619 0.538954 1.37433 36 37 34
-0.88355 0.560609 1.42955 36 36 34
-0.863874 0.55281 1.40967 36 36 33
-0.754764 0.487152 1.24224 36 36 33
-0.849107 0.55281 1.40967 37 36 33
-0.741751 0.487152 1.24224 37 37 33
-0.83434 0.55281 1.40967 36 35 32
-0.759788 0.507909 1.29517 36 35 30
-0.819573 0.55281 1.40967 36 35 30
-0.823648 0.560609 1.42955 36 35 30
-0.804806 0.55281 1.40967 36 36 31
-0.899623 0.623661 1.59033 37 36 31
-0.891294 0.623661 1.59033 37 36 32
-0.882964 0.623661 1.59033 37 36 31
-0.894065 0.637516 1.62567 37 36 31
-0.817096 0.588235 1.5 37 36 31
-0.80924 0.588235 1.5 36 35 30
-0.985189 0.723154 1.84404 36 35 29
-0.876031 0.649395 1.65596 36 35 30
-0.822568 0.615861 1.57045 36 35 30
-0.911473 0.689318 1.75776 37 36 32
-0.902266 0.689318 1.75776 38 37 32
-0.936895 0.723154 1.84404 37 36 31
-0.754243 0.588235 1.5 37 36 31
-0.893258 0.703987 1.79517 37 36 31
-0.907919 0.723154 1.84404 38 36 32
-0.813239 0.654706 1.6695 38 36 32
-0.888602 0.723154 1.84404 37 36 31
-0.830419 0.683231 1.74224 36 35 30
-0.749686 0.623661 1.59033 35 34 28
-0.794731 0.668562 1.70483 36 35 29
-0.873392 0.743084 1.89486 37 35 30
-0.818037 0.703987 1.79517 38 36 31
-0.86021 0.748888 1.90967 38 37 32
-0.799231 0.703987 1.79517 37 36 31
-0.779459 0.694745 1.7716 36 34 29
-0.772947 0.697241 1.77797 36 34 29
-0.792015 0.723154 1.84404 36 35 30
-0.741893 0.685752 1.74867 37 36 31
-0.797327 0.746204 1.90282 37 36 31
-0.742815 0.703987 1.79517 37 37 31
-0.73946 0.709792 1.80997 37 37 32
-0.755938 0.735033 1.87433 37 37 31
-0.725618 0.714835 1.82283 37 36 31
-0.693844 0.692647 1.76625 36 35 31
-0.695801 0.703987 1.79517 36 36 31
-0.696975 0.714835 1.82283 36 36 32
-0.657035 0.683231 1.74224 37 36 33
-0.67788 0.714835 1.82283 36 36 31
-0.668332 0.714835 1.82283 35 35 31
-0.648788 0.703987 1.79517 35 34 30
-0.634561 0.698676 1.78162 34 34 30
-0.613664 0.685752 1.74867 35 34 30
-0.610583 0.692647 1.76625 35 35 31
-0.601332 0.692647 1.76625 36 36 32
-0.606736 0.709792 1.80997 36 36 32
-0.618495 0.735033 1.87433 36 36 32
-0.605846 0.731613 1.86561 36 36 33
-0.573566 0.703987 1.79517 36 35 32
-0.576397 0.719253 1.8341 35 35 32
-0.563309 0.714835 1.82283 35 35 32
-0.549855 0.709792 1.80997 35 35 32
-0.540374 0.709792 1.80997 34 34 30
-0.511027 0.683231 1.74224 33 34 29
-0.508819 0.692647 1.76625 35 35 30
-0.497167 0.689318 1.75776 37 37 33
-0.490317 0.692647 1.76625 37 37 33
-0.492973 0.709792 1.80997 36 36 32
-0.500686 0.735033 1.87433 36 36 32
-0.47738 0.714835 1.82283 36 35 31
-0.464532 0.709792 1.80997 35 35 31
-0.447926 0.698676 1.78162 36 35 31
-0.45927 0.731613 1.86561 36 35 31
-0.429262 0.698676 1.78162 35 35 31
-0.429642 0.714835 1.82283 36 36 32
-0.407055 0.692647 1.76625 37 37 33
-0.388451 0.676361 1.72472 37 36 32
-0.391935 0.698676 1.78162 36 35 31
-0.379302 0.692647 1.76625 35 35 31
-0.361349 0.676361 1.72472 35 35 31
-0.369159 0.708697 1.80718 35 35 31
-0.348048 0.685752 1.74867 35 35 31
-0.338889 0.685752 1.74867 34 34 30
-0.328517 0.683231 1.74224 33 34 29
-0.319392 0.683231 1.74224 34 34 29
-0.328396 0.723154 1.84404 34 34 30
-0.301141 0.683231 1.74224 35 35 30
-0.303368 0.709792 1.80997 35 35 31
-0.280046 0.676361 1.72472 35 36 32
-0.260207 0.649395 1.65596 36 36 33
-0.274927 0.709792 1.80997 36 36 32
-0.256457 0.685752 1.74867 35 36 32
-0.241098 0.668562 1.70483 35 35 32
-0.248238 0.714835 1.82283 35 35 32
-0.223239 0.668562 1.70483 35 36 33
-0.211885 0.660999 1.68555 36 36 33
-0.207776 0.676361 1.72472 36 36 34
-0.204878 0.697241 1.77797 36 36 33
-0.197457 0.703987 1.79517 36 36 33
-0.185025 0.692647 1.76625 35 36 32
-0.16558 0.652477 1.66382 36 36 33
-0.160732 0.668562 1.70483 36 36 33
-0.155706 0.685752 1.74867 36 35 33
-0.150444 0.703987 1.79517 36 36 32
-0.130721 0.652477 1.66382 37 37 34
-0.126742 0.677804 1.7284 37 37 34
-0.120266 0.692647 1.76625 36 36 33
-0.111981 0.698676 1.78162 35 35 31
-0.0982252 0.668562 1.70483 35 35 32
-0.0912549 0.683231 1.74224 36 36 33
-0.0780621 0.649395 1.65596 35 35 33
-0.0732733 0.685752 1.74867 34 35 33
-0.0663618 0.709792 1.80997 34 35 33
-0.0529713 0.660999 1.68555 34 35 32
-0.0456274 0.683231 1.74224 34 35 32
-0.036212 0.677804 1.7284 34 35 32
-0.0271012 0.676361 1.72472 34 35 33
-0.0185025 0.692647 1.76625 35 35 33
-0.00960662 0.719253 1.8341 35 35 33
0 0.675308 1.72203 35 35 33
0.00903373 0.676361 1.72472 34 35 32
0.0189605 0.709792 1.80997 35 35 33
0.0279954 0.698676 1.78162 34 35 32
0.0353142 0.660999 1.68555 34 34 31
0.0457958 0.685752 1.74867 34 35 32
0.0522884 0.652477 1.66382 35 35 33
0.065819 0.703987 1.79517 34 35 32
0.0704842 0.659649 1.68211 34 34 31
0.0839861 0.698676 1.78162 34 35 32
0.0971933 0.727692 1.85562 34 35 32
0.100751 0.685752 1.74867 34 35 32
0.113763 0.709792 1.80997 34 35 33
0.114771 0.660999 1.68555 35 36 33
0.127757 0.683231 1.74224 35 36 33
0.132428 0.660999 1.68555 34 35 32
0.156347 0.731613 1.86561 34 35 32
0.150311 0.661994 1.68808 33 34 32
0.172919 0.719253 1.8341 33 34 31
0.171641 0.676361 1.72472 33 35 32
0.18251 0.683231 1.74224 34 36 34
0.187521 0.668562 1.70483 34 35 34
0.200761 0.683231 1.74224 34 35 33
0.214631 0.698676 1.78162 34 35 34
0.227526 0.709792 1.80997 34 35 34
0.231281 0.692647 1.76625 33 34 33
0.248238 0.714835 1.82283 31 33 31
0.253873 0.703987 1.79517 34 35 34
0.263276 0.703987 1.79517 34 36 35
0.268286 0.692647 1.76625 33 34 34
0.284408 0.709792 1.80997 32 34 34
0.270157 0.652477 1.66382 32 33 33
0.29604 0.692647 1.76625 31 33 33
0.291342 0.660999 1.68555 31 33 34
0.314543 0.692647 1.76625 31 33 34
0.323794 0.692647 1.76625 31 34 34
0.321464 0.668562 1.70483 31 34 35
0.319536 0.64659 1.64881 31 34 35
0.335485 0.660999 1.68555 31 34 35
0.381096 0.731613 1.86561 32 34 36
0.386349 0.723154 1.84404 32 35 36
0.375526 0.685752 1.74867 35 37 38
0.379417 0.676361 1.72472 36 38 38
0.400443 0.697241 1.77797 34 36 36
0.397484 0.676361 1.72472 34 35 35
0.412163 0.685752 1.74867 34 34 35
0.425558 0.692647 1.76625 33 34 35
0.441928 0.703987 1.79517 33 35 35
0.43964 0.685752 1.74867 32 35 36
0.453312 0.692647 1.76625 32 35 35
0.46034 0.689318 1.75776 33 35 36
0.467118 0.685752 1.74867 32 35 36
0.481065 0.692647 1.76625 34 36 37
0.473267 0.668562 1.70483 35 36 38
0.507747 0.703987 1.79517 34 36 38
0.51715 0.703987 1.79517 35 36 38
0.512913 0.685752 1.74867 35 36 38
0.522073 0.685752 1.74867 34 35 37
0.536573 0.692647 1.76625 34 35 37
0.540391 0.685752 1.74867 34 35 37
0.54318 0.677804 1.7284 34 35 37
0.582404 0.714835 1.82283 35 38 40
0.578571 0.698676 1.78162 36 39 41
0.597256 0.709792 1.80997 36 39 41
0.606736 0.709792 1.80997 36 39 41
0.588446 0.677804 1.7284 34 37 39
0.637475 0.723154 1.84404 34 37 40
0.616856 0.689318 1.75776 35 37 40
0.646254 0.71155 1.81445 35 37 40
0.642571 0.697241 1.77797 35 37 40
0.633711 0.677804 1.7284 35 37 40
0.680732 0.717843 1.8305 34 36 39
0.642929 0.668562 1.70483 33 36 39
0.686399 0.703987 1.79517 33 36 39
0.703276 0.71155 1.81445 34 36 38
0.724404 0.723154 1.84404 34 37 39
0.750566 0.739412 1.8855 35 37 39
0.724009 0.703987 1.79517 35 38 40
0.793516 0.76168 1.94228 36 38 40
0.727337 0.689318 1.75776 34 37 38
0.779715 0.729722 1.86079 32 35 37
0.789462 0.729722 1.86079 32 35 37
0.779306 0.71155 1.81445 32 35 38
0.741154 0.668562 1.70483 33 36 39
0.78226 0.697241 1.77797 33 36 39
0.859062 0.756688 1.92955 35 38 41
0.817321 0.71155 1.81445 37 40 42
0.882463 0.759431 1.93655 38 41 43
0.885362 0.753268 1.92083 38 42 43
0.899488 0.756688 1.92955 37 40 42
0.87718 0.729722 1.86079 35 38 40
0.919701 0.756688 1.92955 35 38 40
0.835455 0.679902 1.73375 35 38 41
0.89826 0.723154 1.84404 36 39 41
0.897475 0.714835 1.82283 36 39 41
0.995181 0.784314 2 35 38 40
0.952791 0.743084 1.89486 34 37 39
0.970236 0.748888 1.90967 35 38 40
0.980239 0.748888 1.90967 37 40 42
0.990241 0.748888 1.90967 35 38 40
0.992491 0.743084 1.89486 34 37 39
1.05803 0.784314 2 34 37 40
1.00137 0.735033 1.87433 34 37 40
1.07899 0.784314 2 35 38 41
1.04025 0.748888 1.90967 36 39 41
1.09994 0.784314 2 35 38 41
1.11041 0.784314 2 34 38 40
1.05046 0.735033 1.87433 35 38 40
1.20245 0.833594 2.12567 36 39 41
1.0528 0.723154 1.84404 35 39 41
0.982252 0.668562 1.70483 34 38 40
1.16279 0.784314 2 34 38 39
1.24699 0.833594 2.12567 35 38 40
1.09143 0.723154 1.84404 34 38 40
1.19422 0.784314 2 34 37 39
1.08131 0.703987 1.79517 34 38 40
1.13882 0.735033 1.87433 36 38 41
1.53206 0.980392 2.5 34 38 40
1.23612 0.784314 2 34 37 39
1.43057 0.900066 2.29517 34 38 40
-0.942803 0.596078 1.5 36 37 34
-0.720506 0.459361 1.15596 36 37 34
-0.871258 0.560181 1.40967 37 37 35
-0.863874 0.560181 1.40967 36 36 33
-0.835024 0.546141 1.37433 36 36 33
-0.90352 0.596078 1.5 37 36 33
-0.841724 0.560181 1.40967 37 36 32
-0.795499 0.534103 1.34404 36 35 30
-0.80623 0.546141 1.37433 36 35 31
-0.753004 0.514681 1.29517 37 36 32
-0.864236 0.596078 1.5 37 36 31
-0.739437 0.514681 1.29517 37 36 32
-0.91961 0.646016 1.62567 37 36 31
-0.840666 0.596078 1.5 37 36 32
-0.90258 0.646016 1.62567 37 36 31
-0.874634 0.631976 1.59033 37 35 31
-0.817096 0.596078 1.5 36 35 30
-0.649999 0.478783 1.20483 36 34 29
-0.86852 0.646016 1.62567 36 35 30
-0.901886 0.677476 1.70483 37 36 31
-0.832985 0.631976 1.59033 37 36 32
-0.814342 0.624073 1.57045 37 37 32
-0.705451 0.546141 1.37433 37 37 32
-0.912064 0.713374 1.79517 37 36 31
-0.789665 0.624073 1.57045 37 36 31
-0.848309 0.677476 1.70483 38 37 32
-0.839379 0.677476 1.70483 38 36 32
-0.806642 0.658054 1.65596 38 36 32
-0.888602 0.732796 1.84404 37 36 31
-0.953279 0.794771 2 36 35 29
-0.803661 0.677476 1.70483 36 34 29
-0.794731 0.677476 1.70483 36 35 29
-0.863929 0.744833 1.87433 37 35 30
-0.911376 0.794771 2 38 36 32
-0.808634 0.713374 1.79517 37 36 31
-0.859062 0.766777 1.92955 37 36 31
-0.818701 0.739452 1.86079 36 35 30
-0.819697 0.749271 1.8855 35 34 29
-0.751052 0.694896 1.74867 36 35 30
-0.782356 0.732796 1.84404 36 35 31
-0.793992 0.752991 1.89486 37 36 31
-0.74894 0.719256 1.80997 37 36 30
-0.78019 0.758874 1.90967 37 36 30
-0.735166 0.724366 1.82283 36 36 30
-0.75746 0.756153 1.90282 36 35 30
-0.686938 0.694896 1.74867 36 35 30
-0.701539 0.719256 1.80997 36 36 31
-0.686399 0.713374 1.79517 36 36 31
-0.695427 0.732796 1.84404 36 36 31
-0.656839 0.701882 1.76625 35 35 30
-0.668332 0.724366 1.82283 35 34 30
-0.658785 0.724366 1.82283 35 34 29
-0.629085 0.701882 1.76625 35 34 30
-0.60526 0.685379 1.72472 35 35 31
-0.625697 0.719256 1.80997 36 36 31
-0.650158 0.758874 1.90967 36 36 32
-0.586187 0.694896 1.74867 36 36 32
-0.587902 0.707992 1.78162 36 36 32
-0.582969 0.713374 1.79517 35 35 31
-0.582404 0.724366 1.82283 34 34 31
-0.555075 0.701882 1.76625 34 35 31
-0.559335 0.719256 1.80997 34 34 31
-0.536573 0.701882 1.76625 35 35 32
-0.554002 0.737395 1.85562 35 35 32
-0.515581 0.698509 1.75776 35 35 31
-0.51715 0.713374 1.79517 35 36 32
-0.527672 0.741368 1.86561 36 36 32
-0.502453 0.719256 1.80997 36 36 32
-0.458147 0.668445 1.68211 36 36 32
-0.467118 0.694896 1.74867 36 36 32
-0.482936 0.732796 1.84404 36 35 31
-0.442653 0.685379 1.72472 35 35 30
-0.44406 0.701882 1.76625 35 35 30
-0.424586 0.685379 1.72472 35 35 30
-0.419772 0.69234 1.74224 35 35 31
-0.416307 0.701882 1.76625 35 35 31
-0.407055 0.701882 1.76625 37 37 33
-0.397804 0.701882 1.76625 38 38 34
-0.388553 0.701882 1.76625 36 36 33
-0.382603 0.707992 1.78162 36 36 32
-0.37921 0.719256 1.80997 35 35 31
-0.36394 0.707992 1.78162 35 35 31
-0.343282 0.685379 1.72472 35 35 31
-0.342296 0.701882 1.76625 35 35 31
-0.335944 0.707992 1.78162 34 34 30
-0.331809 0.719256 1.80997 34 34 29
-0.303605 0.677476 1.70483 34 35 30
-0.294676 0.677476 1.70483 35 35 30
-0.29604 0.701882 1.76625 35 35 31
-0.291484 0.713374 1.79517 35 36 32
-0.271012 0.685379 1.72472 36 36 33
-0.274927 0.719256 1.80997 36 36 33
-0.255514 0.69234 1.74224 35 36 32
-0.243911 0.685379 1.72472 35 35 32
-0.242128 0.706538 1.77797 35 35 32
-0.241468 0.732796 1.84404 35 36 33
-0.21431 0.677476 1.70483 35 36 33
-0.207776 0.685379 1.72472 35 36 33
-0.198742 0.685379 1.72472 35 36 33
-0.197457 0.713374 1.79517 35 36 33
-0.178591 0.677476 1.70483 35 36 33
-0.172007 0.686841 1.7284 36 36 33
-0.164259 0.69234 1.74224 35 35 32
-0.155133 0.69234 1.74224 35 35 31
-0.142873 0.677476 1.70483 36 35 32
-0.141041 0.713374 1.79517 36 36 33
-0.129518 0.701882 1.76625 36 35 32
-0.114537 0.668445 1.68211 35 35 32
-0.111015 0.701882 1.76625 34 34 31
-0.10265 0.707992 1.78162 34 34 31
-0.0915917 0.694896 1.74867 34 34 32
-0.0839861 0.707992 1.78162 32 33 30
-0.0763808 0.724366 1.82283 33 34 31
-0.0632361 0.685379 1.72472 34 35 33
-0.0555075 0.701882 1.76625 34 35 32
-0.0451687 0.685379 1.72472 34 34 32
-0.037005 0.701882 1.76625 34 35 32
-0.0274775 0.694896 1.74867 34 35 32
-0.0183183 0.694896 1.74867 35 35 33
-0.00915917 0.694896 1.74867 35 35 33
0 0.69234 1.74224 35 35 33
0.00915917 0.694896 1.74867 34 35 33
0.0183183 0.694896 1.74867 35 35 33
0.0274775 0.694896 1.74867 35 35 33
0.037005 0.701882 1.76625 34 34 32
0.0451687 0.685379 1.72472 34 34 32
0.054118 0.684312 1.72203 34 35 32
0.0647588 0.701882 1.76625 35 35 33
0.0746543 0.707992 1.78162 35 35 33
0.0853223 0.719256 1.80997 34 35 33
0.0892957 0.677476 1.70483 34 35 33
0.10343 0.713374 1.79517 34 35 33
0.111015 0.701882 1.76625 35 36 34
0.120266 0.701882 1.76625 35 36 34
0.125014 0.677476 1.70483 34 36 33
0.133943 0.677476 1.70483 33 34 31
0.141257 0.669812 1.68555 33 34 31
0.155133 0.69234 1.74224 33 34 31
0.167627 0.706538 1.77797 33 34 31
0.167742 0.669812 1.68555 34 35 33
0.188054 0.713374 1.79517 35 36 34
0.192343 0.694896 1.74867 35 36 34
0.210047 0.724366 1.82283 34 35 34
0.224749 0.741368 1.86561 34 35 33
0.21681 0.685379 1.72472 33 34 33
0.225843 0.685379 1.72472 32 34 32
0.238138 0.694896 1.74867 32 34 32
0.247298 0.694896 1.74867 34 35 34
0.268458 0.727414 1.8305 34 35 34
0.274927 0.719256 1.80997 33 34 33
0.274775 0.694896 1.74867 32 34 33
0.283934 0.694896 1.74867 31 33 33
0.293093 0.694896 1.74867 31 32 33
0.301141 0.69234 1.74224 29 31 32
0.311412 0.694896 1.74867 29 31 32
0.334166 0.724366 1.82283 30 33 34
0.31373 0.661177 1.66382 31 34 35
0.342296 0.701882 1.76625 32 35 36
0.36025 0.719256 1.80997 33 35 36
0.366706 0.713374 1.79517 33 35 36
0.373271 0.707992 1.78162 33 35 36
0.375526 0.694896 1.74867 35 37 37
0.398171 0.719256 1.80997 34 37 37
0.407651 0.719256 1.80997 33 34 35
0.41372 0.713374 1.79517 34 34 35
0.406518 0.685379 1.72472 33 34 35
0.432525 0.713374 1.79517 33 34 35
0.434809 0.701882 1.76625 33 34 35
0.44406 0.701882 1.76625 32 35 36
0.460733 0.713374 1.79517 32 35 35
0.488585 0.741368 1.86561 31 34 35
0.479539 0.713374 1.79517 31 34 35
0.505405 0.737395 1.85562 33 35 36
0.502453 0.719256 1.80997 34 36 37
0.527672 0.741368 1.86561 33 35 37
0.51715 0.713374 1.79517 34 35 37
0.530894 0.719256 1.80997 34 36 38
0.516021 0.686841 1.7284 34 35 37
0.549855 0.719256 1.80997 34 35 37
0.559335 0.719256 1.80997 33 35 37
0.535774 0.677476 1.70483 34 36 38
0.573566 0.713374 1.79517 36 38 40
0.582969 0.713374 1.79517 37 39 41
0.592371 0.713374 1.79517 38 40 42
0.601774 0.713374 1.79517 37 40 42
0.595346 0.694896 1.74867 34 37 39
0.637475 0.732796 1.84404 34 37 40
0.616856 0.698509 1.75776 34 37 40
0.633258 0.706538 1.77797 34 37 40
0.655758 0.721037 1.81445 34 36 40
0.687217 0.744833 1.87433 34 36 39
0.697034 0.744833 1.87433 33 35 38
0.662889 0.698509 1.75776 33 35 39
0.764718 0.794771 2 34 37 39
0.730815 0.749271 1.8855 35 37 40
0.69051 0.698509 1.75776 35 37 40
0.734062 0.732796 1.84404 35 37 39
0.738259 0.727414 1.8305 34 37 39
0.696506 0.677476 1.70483 35 37 39
0.775573 0.744833 1.87433 36 39 41
0.779715 0.739452 1.86079 35 38 40
0.782356 0.732796 1.84404 35 38 39
0.771023 0.713374 1.79517 33 36 39
0.801673 0.732796 1.84404 32 35 38
0.82466 0.744833 1.87433 32 35 38
0.820991 0.732796 1.84404 35 38 41
0.869168 0.766777 1.92955 37 40 42
0.847941 0.739452 1.86079 37 40 42
0.885362 0.763312 1.92083 37 40 42
0.961906 0.819986 2.06345 37 40 42
0.859285 0.724366 1.82283 36 39 41
0.915545 0.763312 1.92083 35 39 41
0.888602 0.732796 1.84404 36 40 42
0.935667 0.763312 1.92083 36 39 42
0.940229 0.758874 1.90967 35 39 41
0.893258 0.713374 1.79517 35 38 40
0.91657 0.724366 1.82283 35 38 40
0.90009 0.704008 1.7716 35 38 40
1.02661 0.794771 2 35 37 40
0.956213 0.732796 1.84404 34 37 39
0.981738 0.744833 1.87433 35 38 40
0.949675 0.713374 1.79517 36 39 42
1.06851 0.794771 2 36 39 41
0.919745 0.677476 1.70483 35 38 41
0.977883 0.713374 1.79517 35 38 41
1.09994 0.794771 2 34 37 40
1.11041 0.794771 2 34 37 39
1.05046 0.744833 1.87433 34 37 39
1.13136 0.794771 2 35 39 41
1.14184 0.794771 2 36 40 41
1.15232 0.794771 2 36 39 41
1.23585 0.844709 2.12567 35 38 40
1.0531 0.713374 1.79517 35 38 40
1.18374 0.794771 2 35 38 40
1.19422 0.794771 2 35 38 40
1.28039 0.844709 2.12567 35 38 40
1.09072 0.713374 1.79517 36 39 41
1.04476 0.677476 1.70483 35 38 40
1.23612 0.794771 2 34 38 40
1.2466 0.794771 2 35 39 41
-0.886025 0.567552 1.40967 34 36 33
-0.837738 0.541131 1.34404 36 36 34
-0.800491 0.521453 1.29517 37 38 35
-0.708397 0.465405 1.15596 36 37 34
-0.987729 0.654516 1.62567 36 36 34
-0.696288 0.465405 1.15596 36 36 33
-0.895663 0.603922 1.5 36 35 32
-0.83434 0.567552 1.40967 36 34 30
-0.759788 0.521453 1.29517 36 35 30
-0.700484 0.485083 1.20483 37 36 31
-0.666014 0.465405 1.15596 36 35 30
-0.907953 0.640291 1.59033 37 36 31
-0.964393 0.68639 1.70483 37 36 31
-0.790039 0.567552 1.40967 37 36 31
-0.719085 0.521453 1.29517 36 35 30
-0.824953 0.603922 1.5 36 35 30
-0.866304 0.640291 1.59033 36 35 30
-0.80924 0.603922 1.5 36 35 30
-0.849644 0.640291 1.59033 37 35 31
-0.841314 0.640291 1.59033 37 36 32
-0.92068 0.7077 1.75776 37 36 32
-0.911473 0.7077 1.75776 37 36 32
-0.946554 0.742438 1.84404 38 37 33
-0.866168 0.68639 1.70483 37 36 31
-0.799665 0.640291 1.59033 37 36 30
-0.848309 0.68639 1.70483 36 35 30
-0.839379 0.68639 1.70483 36 35 29
-0.791886 0.654516 1.62567 37 36 31
-0.82152 0.68639 1.70483 37 36 31
-0.903166 0.762899 1.89486 37 35 30
-0.883564 0.754634 1.87433 36 34 29
-0.778261 0.672165 1.6695 36 35 29
-0.840189 0.733897 1.82283 37 35 30
-0.776872 0.68639 1.70483 37 36 30
-0.900901 0.805229 2 36 35 30
-0.820991 0.742438 1.84404 37 35 30
-0.789828 0.72276 1.79517 36 35 30
-0.827227 0.766103 1.90282 36 35 30
-0.758603 0.711118 1.76625 36 35 30
-0.77661 0.736985 1.8305 37 36 31
-0.752218 0.72276 1.79517 37 36 31
-0.742815 0.72276 1.79517 37 36 30
-0.744713 0.733897 1.82283 36 36 30
-0.748389 0.747097 1.85562 36 36 30
-0.738669 0.747097 1.85562 36 35 30
-0.711019 0.72872 1.80997 36 36 31
-0.737527 0.766103 1.90282 36 36 31
-0.686399 0.72276 1.79517 37 36 32
-0.720176 0.768859 1.90967 36 36 32
-0.685769 0.742438 1.84404 35 35 29
-0.680353 0.747097 1.85562 35 34 29
-0.648788 0.72276 1.79517 35 35 30
-0.644657 0.72872 1.80997 36 36 31
-0.685934 0.786952 1.9546 37 37 33
-0.620579 0.72276 1.79517 37 37 33
-0.611177 0.72276 1.79517 37 37 33
-0.596008 0.715834 1.77797 37 37 33
-0.601499 0.733897 1.82283 36 36 31
-0.602599 0.747097 1.85562 35 35 31
-0.573566 0.72276 1.79517 35 35 32
-0.579523 0.742438 1.84404 36 36 33
-0.545824 0.711118 1.76625 35 36 33
-0.553761 0.733897 1.82283 36 36 33
-0.540374 0.72872 1.80997 36 37 34
-0.530894 0.72872 1.80997 36 37 34
-0.525118 0.733897 1.82283 36 36 33
-0.51774 0.736985 1.8305 36 36 33
-0.506023 0.733897 1.82283 35 35 32
-0.485253 0.717308 1.78162 36 36 32
-0.483493 0.72872 1.80997 36 36 33
-0.470136 0.72276 1.79517 36 36 33
-0.460733 0.72276 1.79517 35 35 31
-0.428619 0.68639 1.70483 35 35 31
-0.445572 0.72872 1.80997 36 36 31
-0.432525 0.72276 1.79517 36 36 31
-0.412163 0.704039 1.74867 36 36 31
-0.392901 0.68639 1.70483 36 36 32
-0.393844 0.704039 1.74867 36 36 32
-0.384685 0.704039 1.74867 35 35 31
-0.375526 0.704039 1.74867 35 34 29
-0.386349 0.742438 1.84404 34 34 29
-0.366706 0.72276 1.79517 35 34 30
-0.362809 0.733897 1.82283 35 34 31
-0.342296 0.711118 1.76625 35 35 31
-0.32973 0.704039 1.74867 34 34 30
-0.329095 0.72276 1.79517 35 35 31
-0.299558 0.67724 1.68211 36 36 32
-0.302253 0.704039 1.74867 36 36 32
-0.293093 0.704039 1.74867 36 36 32
-0.28289 0.70145 1.74224 36 36 32
-0.277538 0.711118 1.76625 35 36 32
-0.268286 0.711118 1.76625 36 36 32
-0.250028 0.68639 1.70483 35 36 33
-0.249784 0.711118 1.76625 35 36 32
-0.238138 0.704039 1.74867 35 36 33
-0.231281 0.711118 1.76625 35 35 32
-0.217272 0.695879 1.7284 35 35 32
-0.22215 0.742438 1.84404 35 35 33
-0.194228 0.678625 1.68555 35 36 33
-0.195967 0.717308 1.78162 35 35 32
-0.190952 0.733897 1.82283 34 35 31
-0.175774 0.711118 1.76625 34 34 30
-0.154545 0.659969 1.63921 34 34 30
-0.159846 0.72276 1.79517 35 35 31
-0.150444 0.72276 1.79517 35 35 32
-0.139689 0.715834 1.77797 35 35 32
-0.128228 0.704039 1.74867 35 35 31
-0.119069 0.704039 1.74867 34 35 31
-0.112833 0.72276 1.79517 34 35 31
-0.100751 0.704039 1.74867 35 35 33
-0.0903373 0.694397 1.72472 35 35 33
-0.0859284 0.733897 1.82283 33 34 31
-0.0732733 0.704039 1.74867 33 34 32
-0.065819 0.72276 1.79517 34 35 33
-0.0564163 0.72276 1.79517 34 35 33
-0.0456274 0.70145 1.74224 35 36 34
-0.0376109 0.72276 1.79517 36 37 35
-0.0279954 0.717308 1.78162 35 36 34
-0.0185025 0.711118 1.76625 35 36 34
-0.00954761 0.733897 1.82283 35 35 33
0 0.747097 1.85562 34 35 33
0.00881053 0.67724 1.68211 34 35 33
0.018106 0.695879 1.7284 35 35 33
0.0267887 0.68639 1.70483 34 35 32
0.037005 0.711118 1.76625 34 35 32
0.0466589 0.717308 1.78162 34 35 32
0.0542024 0.694397 1.72472 34 34 32
0.0596043 0.654516 1.62567 34 35 33
0.0686867 0.659969 1.63921 35 35 34
0.0772726 0.659969 1.63921 34 35 33
0.0905301 0.695879 1.7284 34 35 33
0.100751 0.704039 1.74867 34 36 34
0.10991 0.704039 1.74867 35 37 34
0.120266 0.711118 1.76625 35 37 34
0.132519 0.727596 1.80718 35 36 34
0.135506 0.694397 1.72472 33 35 31
0.142873 0.68639 1.70483 32 34 30
0.153573 0.694397 1.72472 32 34 30
0.173857 0.742438 1.84404 33 34 31
0.169662 0.68639 1.70483 34 35 34
0.189605 0.72872 1.80997 35 36 34
0.199085 0.72872 1.80997 34 35 33
0.200761 0.70145 1.74224 33 34 32
0.212779 0.711118 1.76625 33 34 33
0.233264 0.747097 1.85562 34 34 33
0.232816 0.715834 1.77797 33 34 33
0.234877 0.694397 1.72472 32 33 32
0.253873 0.72276 1.79517 33 34 32
0.256457 0.704039 1.74867 33 34 33
0.272679 0.72276 1.79517 32 34 32
0.267887 0.68639 1.70483 30 32 32
0.283934 0.704039 1.74867 29 31 31
0.303368 0.72872 1.80997 29 30 32
0.298749 0.695879 1.7284 28 30 32
0.328396 0.742438 1.84404 28 30 32
0.340177 0.747097 1.85562 32 34 35
0.317179 0.67724 1.68211 34 36 38
0.338889 0.704039 1.74867 34 36 37
0.362809 0.733897 1.82283 34 36 37
0.353067 0.695879 1.7284 31 35 35
0.388773 0.747097 1.85562 31 35 35
0.38869 0.72872 1.80997 34 37 37
0.384685 0.704039 1.74867 35 37 37
0.415325 0.742438 1.84404 34 36 36
0.407055 0.711118 1.76625 34 35 36
0.423122 0.72276 1.79517 33 34 35
0.421322 0.704039 1.74867 33 34 35
0.430481 0.704039 1.74867 34 35 36
0.458285 0.733897 1.82283 34 37 37
0.448799 0.704039 1.74867 34 36 37
0.493794 0.75913 1.8855 33 36 37
0.474944 0.715834 1.77797 32 35 35
0.478754 0.7077 1.75776 33 35 36
0.498344 0.72276 1.79517 33 35 37
0.494595 0.704039 1.74867 32 34 36
0.503754 0.704039 1.74867 33 35 37
0.506968 0.695879 1.7284 34 36 38
0.540374 0.72872 1.80997 34 35 37
0.553761 0.733897 1.82283 34 35 37
0.563309 0.733897 1.82283 33 34 37
0.564163 0.72276 1.79517 32 34 37
0.578295 0.72872 1.80997 34 36 38
0.567868 0.704039 1.74867 34 36 38
0.572105 0.698033 1.73375 38 40 42
0.586187 0.704039 1.74867 39 42 44
0.623206 0.736985 1.8305 37 40 42
0.651808 0.75913 1.8855 35 38 40
0.68161 0.781992 1.94228 34 37 39
0.656793 0.742438 1.84404 34 36 39
0.677399 0.754634 1.87433 34 36 39
0.687217 0.754634 1.87433 34 36 39
0.661196 0.715834 1.77797 34 36 39
0.684269 0.730525 1.81445 34 36 39
0.686399 0.72276 1.79517 35 37 39
0.695801 0.72276 1.79517 35 37 39
0.705204 0.72276 1.79517 34 36 39
0.699717 0.7077 1.75776 34 37 39
0.708924 0.7077 1.75776 34 36 39
0.788315 0.776866 1.92955 33 36 38
0.798422 0.776866 1.92955 35 38 40
0.726482 0.698033 1.73375 36 39 41
0.773356 0.733897 1.82283 36 39 41
0.828742 0.776866 1.92955 35 38 41
0.808955 0.749181 1.86079 33 36 39
0.833692 0.762899 1.89486 31 35 38
0.828448 0.749181 1.86079 35 37 40
0.808634 0.72276 1.79517 36 39 42
0.830642 0.733897 1.82283 36 39 42
0.889381 0.776866 1.92955 34 38 40
0.794731 0.68639 1.70483 35 38 41
0.835135 0.713271 1.7716 35 39 41
0.915545 0.773355 1.92083 37 40 43
0.925606 0.773355 1.92083 38 41 43
0.97423 0.805229 2 36 39 42
0.897475 0.733897 1.82283 35 38 41
0.866921 0.70145 1.74224 36 39 41
0.970234 0.776866 1.92955 36 40 42
0.936895 0.742438 1.84404 36 39 41
0.980239 0.768859 1.90967 35 38 40
0.945213 0.733897 1.82283 35 38 40
0.92068 0.7077 1.75776 36 39 41
0.901886 0.68639 1.70483 36 39 41
1.02025 0.768859 1.90967 35 38 41
1.01119 0.754634 1.87433 35 38 40
1.08946 0.805229 2 35 38 41
1.04212 0.762899 1.89486 34 37 40
1.11041 0.805229 2 33 37 39
1.03348 0.742438 1.84404 34 38 39
1.06028 0.754634 1.87433 35 38 40
1.07009 0.754634 1.87433 35 39 41
1.15232 0.805229 2 35 39 41
1.16279 0.805229 2 35 38 40
1.17327 0.805229 2 34 38 40
1.27605 0.86802 2.15596 35 38 40
1.19422 0.805229 2 35 39 41
1.20469 0.805229 2 36 39 42
1.09072 0.72276 1.79517 37 40 42
1.35117 0.887697 2.20483 36 40 41
1.05369 0.68639 1.70483 36 39 41
1.2466 0.805229 2 35 39 41
-0.886025 0.574922 1.40967 34 35 33
-0.934947 0.611765 1.5 34 35 32
-0.744659 0.491383 1.20483 35 36 33
-0.919233 0.611765 1.5 36 36 33
-0.911376 0.611765 1.5 36 36 34
-0.861086 0.583034 1.42955 37 36 34
-0.820627 0.560513 1.37433 36 35 33
-0.83434 0.574922 1.40967 35 34 31
-0.826957 0.574922 1.40967 36 35 31
-0.872093 0.611765 1.5 36 35 31
-0.916283 0.648607 1.59033 36 35 30
-0.784634 0.560513 1.37433 37 35 31
-1.04314 0.75208 1.84404 37 36 32
-0.840666 0.611765 1.5 37 36 32
-0.90258 0.663017 1.62567 37 36 31
-0.910725 0.675371 1.65596 37 35 31
-0.748642 0.560513 1.37433 37 35 31
-0.857974 0.648607 1.59033 37 36 31
-0.801383 0.611765 1.5 37 36 32
-0.860006 0.663017 1.62567 38 36 32
-0.851491 0.663017 1.62567 37 36 31
-0.777813 0.611765 1.5 36 35 31
-0.902266 0.716891 1.75776 37 36 32
-0.866168 0.695304 1.70483 37 36 32
-0.754243 0.611765 1.5 37 36 31
-0.932651 0.764434 1.87433 36 35 30
-0.783006 0.648607 1.59033 36 35 29
-0.97423 0.815686 2 37 36 31
-0.766346 0.648607 1.59033 37 36 31
-0.953279 0.815686 2 37 36 31
-0.869284 0.75208 1.84404 36 35 29
-0.836842 0.732147 1.79517 36 35 30
-0.873392 0.772807 1.89486 37 35 30
-0.776872 0.695304 1.70483 37 36 31
-0.791785 0.716891 1.75776 37 35 30
-0.775666 0.71056 1.74224 36 35 30
-0.854556 0.792147 1.94228 35 34 29
-0.772947 0.725131 1.77797 36 35 30
-0.782904 0.743428 1.82283 36 36 31
-0.7679 0.738184 1.80997 37 37 32
-0.777547 0.7568 1.85562 37 36 32
-0.730849 0.720353 1.76625 37 36 32
-0.765756 0.764434 1.87433 37 36 31
-0.687577 0.695304 1.70483 36 35 30
-0.714607 0.732147 1.79517 36 35 30
-0.705204 0.732147 1.79517 37 36 32
-0.701539 0.738184 1.80997 37 37 32
-0.720939 0.768989 1.8855 37 37 32
-0.69032 0.746556 1.8305 36 36 31
-0.701187 0.768989 1.8855 35 34 29
-0.653225 0.726623 1.78162 35 34 29
-0.638337 0.720353 1.76625 36 35 31
-0.644657 0.738184 1.80997 36 36 32
-0.629982 0.732147 1.79517 37 37 34
-0.637475 0.75208 1.84404 37 37 33
-0.635161 0.760878 1.86561 36 36 32
-0.618158 0.75208 1.84404 36 36 31
-0.592371 0.732147 1.79517 35 35 30
-0.59884 0.75208 1.84404 35 35 31
-0.592879 0.7568 1.85562 36 36 32
-0.568815 0.738184 1.80997 36 36 33
-0.569864 0.75208 1.84404 36 36 33
-0.553761 0.743428 1.82283 36 36 33
-0.527322 0.720353 1.76625 36 37 34
-0.521507 0.725131 1.77797 36 37 34
-0.527328 0.746556 1.8305 35 36 33
-0.511934 0.738184 1.80997 35 36 32
-0.502453 0.738184 1.80997 35 35 32
-0.476277 0.713182 1.74867 35 36 32
-0.467118 0.713182 1.74867 36 36 33
-0.474013 0.738184 1.80997 36 36 32
-0.460733 0.732147 1.79517 35 36 32
-0.422905 0.686035 1.68211 36 36 32
-0.456809 0.7568 1.85562 36 37 33
-0.436092 0.738184 1.80997 35 36 31
-0.40183 0.695304 1.70483 35 36 31
-0.429955 0.760878 1.86561 35 36 31
-0.410547 0.743428 1.82283 35 35 30
-0.394914 0.732147 1.79517 35 35 29
-0.375526 0.713182 1.74867 34 34 29
-0.381904 0.743428 1.82283 34 34 29
-0.357208 0.713182 1.74867 35 35 31
-0.339324 0.695304 1.70483 35 35 31
-0.342296 0.720353 1.76625 34 35 30
-0.343714 0.743428 1.82283 34 35 30
-0.325942 0.725131 1.77797 35 35 31
-0.307802 0.704916 1.7284 36 36 32
-0.298113 0.703416 1.72472 36 37 33
-0.305523 0.743428 1.82283 36 36 33
-0.301299 0.7568 1.85562 36 36 32
-0.27159 0.704916 1.7284 35 36 32
-0.272679 0.732147 1.79517 35 36 32
-0.253484 0.704916 1.7284 35 36 32
-0.237884 0.686035 1.68211 35 36 32
-0.235378 0.704916 1.7284 35 35 32
-0.235068 0.732147 1.79517 34 34 31
-0.21431 0.695304 1.70483 34 34 31
-0.207776 0.703416 1.72472 34 35 31
-0.203528 0.720353 1.76625 34 35 32
-0.194276 0.720353 1.76625 35 36 32
-0.188054 0.732147 1.79517 35 35 32
-0.169662 0.695304 1.70483 34 34 30
-0.166523 0.720353 1.76625 34 34 30
-0.153901 0.704916 1.7284 36 35 32
-0.149002 0.725131 1.77797 36 35 32
-0.132158 0.686035 1.68211 35 35 32
-0.131638 0.732147 1.79517 35 35 31
-0.119069 0.713182 1.74867 34 35 31
-0.111015 0.720353 1.76625 34 35 32
-0.106246 0.75208 1.84404 36 36 34
-0.0915917 0.713182 1.74867 35 36 33
-0.087474 0.7568 1.85562 34 35 32
-0.0768529 0.748023 1.8341 34 35 33
-0.0663618 0.738184 1.80997 35 36 34
-0.0564163 0.732147 1.79517 35 37 34
-0.0435737 0.678577 1.66382 36 37 35
-0.037921 0.738184 1.80997 36 37 35
-0.0276204 0.716891 1.75776 35 36 34
-0.0180675 0.703416 1.72472 35 36 33
-0.00892957 0.695304 1.70483 34 35 33
0 0.738184 1.80997 34 35 32
0.00903373 0.703416 1.72472 34 34 32
0.0178591 0.695304 1.70483 34 34 32
0.0282082 0.732147 1.79517 33 34 32
0.0366367 0.713182 1.74867 34 35 33
0.0451687 0.703416 1.72472 35 35 33
0.0535774 0.695304 1.70483 34 35 33
0.0653225 0.726623 1.78162 34 35 33
0.075842 0.738184 1.80997 34 35 33
0.0824325 0.713182 1.74867 33 34 32
0.0931262 0.725131 1.77797 33 34 32
0.0982252 0.695304 1.70483 34 35 33
0.111751 0.725131 1.77797 34 36 33
0.119069 0.713182 1.74867 35 36 34
0.125014 0.695304 1.70483 35 37 34
0.138769 0.720353 1.76625 34 35 33
0.147309 0.716891 1.75776 32 34 30
0.155706 0.713182 1.74867 31 33 30
0.162954 0.704916 1.7284 34 35 33
0.178652 0.732147 1.79517 35 36 34
0.18251 0.71056 1.74224 34 35 33
0.191635 0.71056 1.74224 33 34 32
0.198742 0.703416 1.72472 33 34 33
0.216263 0.732147 1.79517 34 35 34
0.233264 0.7568 1.85562 34 34 34
0.228979 0.713182 1.74867 34 35 34
0.249282 0.746556 1.8305 31 33 31
0.251441 0.725131 1.77797 31 31 30
0.259035 0.720353 1.76625 32 33 31
0.255505 0.686035 1.68211 32 33 32
0.257575 0.66854 1.63921 29 30 31
0.307672 0.772807 1.89486 28 29 31
0.298004 0.725131 1.77797 28 30 32
0.320738 0.7568 1.85562 27 29 32
0.322329 0.738184 1.80997 29 31 34
0.308368 0.686035 1.68211 34 36 38
0.32973 0.713182 1.74867 35 38 39
0.338889 0.713182 1.74867 35 38 39
0.357303 0.732147 1.79517 33 36 37
0.363192 0.725131 1.77797 30 34 35
0.37005 0.720353 1.76625 31 35 35
0.377479 0.716891 1.75776 34 37 37
0.408212 0.7568 1.85562 35 37 38
0.400443 0.725131 1.77797 35 37 37
0.417131 0.738184 1.80997 34 36 36
0.419068 0.725131 1.77797 33 35 36
0.421322 0.713182 1.74867 33 35 36
0.445572 0.738184 1.80997 34 36 37
0.447006 0.725131 1.77797 35 37 38
0.456318 0.725131 1.77797 35 38 39
0.470136 0.732147 1.79517 34 37 38
0.467118 0.713182 1.74867 34 36 37
0.488941 0.732147 1.79517 34 36 37
0.508152 0.746556 1.8305 34 36 38
0.507747 0.732147 1.79517 34 35 37
0.531229 0.75208 1.84404 33 34 36
0.540888 0.75208 1.84404 33 35 37
0.530819 0.725131 1.77797 33 35 37
0.540132 0.725131 1.77797 33 35 37
0.540391 0.713182 1.74867 32 34 37
0.575267 0.746556 1.8305 32 34 37
0.573566 0.732147 1.79517 33 35 38
0.582969 0.732147 1.79517 34 37 39
0.627895 0.776052 1.90282 37 40 42
0.628312 0.764434 1.87433 38 41 43
0.627816 0.75208 1.84404 38 41 43
0.607649 0.716891 1.75776 37 40 42
0.68161 0.792147 1.94228 34 37 39
0.639385 0.732147 1.79517 33 36 38
0.677399 0.764434 1.87433 33 35 39
0.649549 0.722535 1.7716 34 36 39
0.691998 0.758911 1.86079 36 38 41
