ply
format ascii 1.0
element vertex 1319
property float x
property float y
property float z
property uchar red
property uchar green
property uchar blue
end_header
0.234969 -0.147688 1.66149 37 38 35
0.245971 -0.149082 1.67717 37 38 35
0.256413 -0.150052 1.68808 37 38 35
0.256817 -0.145279 1.63439 36 37 34
0.276817 -0.151541 1.70483 37 38 35
0.275614 -0.146168 1.64438 37 38 35
0.284227 -0.146168 1.64438 37 37 35
0.295887 -0.147688 1.66149 36 37 34
0.30459 -0.147688 1.66149 36 36 34
0.310066 -0.146168 1.64438 36 37 34
0.316742 -0.145279 1.63439 36 37 35
0.339324 -0.151541 1.70483 36 37 35
0.344832 -0.150052 1.68808 36 37 35
0.350681 -0.148782 1.6738 36 37 35
0.369367 -0.152888 1.71999 36 36 34
0.392457 -0.158578 1.784 35 36 34
0.368105 -0.145279 1.63439 37 37 35
0.392901 -0.151541 1.70483 38 38 36
0.408646 -0.154111 1.73375 37 37 35
0.407194 -0.150225 1.69003 36 37 34
0.41969 -0.151541 1.70483 37 38 35
0.424898 -0.150225 1.69003 37 38 35
0.43375 -0.150225 1.69003 36 37 35
0.442602 -0.150225 1.69003 36 37 35
0.471182 -0.15679 1.76388 35 37 34
0.477002 -0.155674 1.75133 35 36 34
0.473267 -0.151541 1.70483 36 37 34
0.47801 -0.150225 1.69003 36 37 35
0.473712 -0.146168 1.64438 36 37 35
0.500056 -0.151541 1.70483 35 37 35
0.508985 -0.151541 1.70483 36 38 35
0.517915 -0.151541 1.70483 37 38 36
0.526844 -0.151541 1.70483 36 37 35
0.540537 -0.152888 1.71999 35 36 33
0.544704 -0.151541 1.70483 35 36 34
0.539559 -0.147688 1.66149 36 37 35
0.548262 -0.147688 1.66149 36 37 35
0.56653 -0.150225 1.69003 36 37 35
0.580422 -0.151541 1.70483 36 37 35
0.613704 -0.157803 1.77528 36 37 35
0.633528 -0.160469 1.80527 35 36 34
0.61751 -0.154111 1.73375 35 36 34
0.621617 -0.152888 1.71999 36 37 35
0.640271 -0.155226 1.74629 37 38 36
0.644753 -0.154111 1.73375 37 38 36
0.642929 -0.151541 1.70483 36 37 35
0.669638 -0.155674 1.75133 36 37 35
0.666662 -0.152888 1.71999 36 37 36
0.692915 -0.15679 1.76388 36 37 35
0.690158 -0.154111 1.73375 36 37 35
0.700732 -0.15444 1.73745 36 37 35
0.696506 -0.151541 1.70483 35 36 34
0.724676 -0.155674 1.75133 35 37 34
0.736544 -0.156246 1.75776 36 36 34
0.753183 -0.157803 1.77528 36 37 34
0.784914 -0.162445 1.82751 36 37 34
0.755334 -0.15444 1.73745 35 37 34
0.773371 -0.156246 1.75776 35 37 35
0.751556 -0.150052 1.68808 34 35 33
0.808634 -0.15957 1.79517 34 35 33
0.828393 -0.161591 1.81789 34 36 34
0.827439 -0.15957 1.79517 35 36 35
0.812168 -0.154866 1.74224 34 35 34
0.83986 -0.158367 1.78162 34 35 33
0.837819 -0.156246 1.75776 34 36 34
0.82152 -0.151541 1.70483 35 36 34
0.913016 -0.166607 1.87433 35 36 35
0.869618 -0.157 1.76625 34 36 34
0.878869 -0.157 1.76625 35 37 35
0.895851 -0.158367 1.78162 36 37 36
0.897372 -0.157 1.76625 34 36 35
0.921467 -0.15957 1.79517 33 35 34
0.94087 -0.161285 1.81445 34 36 34
0.905301 -0.153636 1.7284 34 36 35
0.914354 -0.153636 1.7284 34 36 35
0.934235 -0.155437 1.74867 34 36 35
0.994848 -0.163915 1.84404 34 36 35
0.957507 -0.156246 1.75776 34 36 35
1.03082 -0.166607 1.87433 35 36 36
0.996688 -0.15957 1.79517 36 37 37
1.0169 -0.161285 1.81445 34 36 35
1.06659 -0.1676 1.8855 32 35 34
1.06236 -0.165404 1.86079 33 36 35
1.05024 -0.162029 1.82283 33 36 35
1.03 -0.157476 1.7716 32 36 34
1.13194 -0.171516 1.92955 31 36 34
1.10135 -0.165404 1.86079 33 37 35
1.11109 -0.165404 1.86079 33 37 35
1.15701 -0.170741 1.92083 30 35 32
1.10752 -0.162029 1.82283 27 32 31
1.10012 -0.15957 1.79517 26 31 33
1.09495 -0.157476 1.7716 26 32 34
1.18106 -0.168432 1.89486 26 33 34
-0.588654 -0.0783518 0.936549 36 38 37
-0.579388 -0.0777666 0.929553 36 38 37
-0.556442 -0.0753196 0.900304 36 38 36
-0.573938 -0.0783518 0.936549 36 37 35
-0.552699 -0.0761027 0.909666 37 38 35
-0.585685 -0.0813459 0.972338 38 39 36
-0.528741 -0.0740812 0.885502 37 38 34
-0.591871 -0.0836601 1 37 37 33
-0.568863 -0.0811259 0.969708 37 37 33
-0.531233 -0.076442 0.91372 36 36 32
-0.561494 -0.0815309 0.974549 37 37 32
-0.539394 -0.0790405 0.944781 37 38 33
-0.548546 -0.0811259 0.969708 37 38 34
-0.560444 -0.0836601 1 37 38 34
-0.539151 -0.0812409 0.971083 37 38 34
-0.534756 -0.0813459 0.972338 37 37 34
-0.544731 -0.0836601 1 37 37 34
-0.523892 -0.0812409 0.971083 37 38 34
-0.549034 -0.0859743 1.02766 36 37 34
-0.529017 -0.0836601 1 36 37 34
-0.52378 -0.0836601 1 36 37 34
-0.549887 -0.0887172 1.06045 36 37 33
-0.564478 -0.0920007 1.0997 36 37 34
-0.553962 -0.0912175 1.09033 37 37 34
-0.536401 -0.0892458 1.06677 37 38 34
-0.51198 -0.0860794 1.02892 37 38 35
-0.523593 -0.0889685 1.06345 37 38 35
-0.487115 -0.0836601 1 36 37 35
-0.514051 -0.0892458 1.06677 36 38 35
-0.508463 -0.0892458 1.06677 37 38 35
-0.512074 -0.0908783 1.08628 37 39 36
-0.531058 -0.0953064 1.13921 38 39 36
-0.509386 -0.0924559 1.10514 37 38 35
-0.543555 -0.0997917 1.19282 36 37 34
-0.503602 -0.0935317 1.118 36 37 34
-0.53106 -0.0997917 1.19282 36 37 34
-0.517926 -0.0984823 1.17717 35 37 34
-0.489369 -0.0941734 1.12567 35 36 33
-0.523292 -0.101929 1.21838 36 37 34
-0.494648 -0.0975397 1.1659 38 39 35
-0.527032 -0.105225 1.25776 38 39 36
-0.45729 -0.0924559 1.10514 36 37 34
-0.529138 -0.108354 1.29517 36 37 34
-0.497584 -0.103216 1.23375 37 38 34
-0.51557 -0.108354 1.29517 36 37 34
-0.499528 -0.106382 1.2716 36 37 34
-0.510812 -0.110255 1.31789 36 37 34
-0.513907 -0.112443 1.34404 36 36 33
-0.488435 -0.108354 1.29517 36 36 33
-0.490103 -0.110255 1.31789 37 37 34
-0.464265 -0.105935 1.26625 36 36 33
-0.48993 -0.113411 1.35562 37 37 33
-0.519161 -0.121945 1.45762 36 36 33
-0.494697 -0.117933 1.40967 36 36 32
-0.468629 -0.113411 1.35562 36 36 32
-0.510685 -0.12549 1.5 37 37 34
-0.472547 -0.117933 1.40967 37 37 34
-0.52478 -0.133048 1.59033 37 38 34
-0.502987 -0.129579 1.54887 37 37 34
-0.508121 -0.133048 1.59033 36 36 33
-0.516777 -0.137569 1.64438 35 36 33
-0.491461 -0.133048 1.59033 35 36 32
-0.483131 -0.133048 1.59033 35 36 33
-0.498437 -0.139671 1.6695 36 37 34
-0.482325 -0.137569 1.64438 37 38 35
-0.458142 -0.133048 1.59033 36 37 34
-0.453998 -0.134286 1.60514 36 37 34
-0.498344 -0.150184 1.79517 36 37 34
-0.447873 -0.137569 1.64438 36 37 33
-0.44597 -0.139671 1.6695 34 35 31
-0.429292 -0.137136 1.63921 34 35 30
-0.467833 -0.152498 1.82283 33 34 29
-0.41212 -0.137136 1.63921 34 35 30
-0.41288 -0.140312 1.67717 36 36 32
-0.407194 -0.141388 1.69003 36 37 33
-0.387583 -0.137569 1.64438 37 37 34
-0.389845 -0.141517 1.69157 37 38 34
-0.383971 -0.142627 1.70483 37 37 33
-0.378021 -0.14376 1.71838 37 37 33
-0.366112 -0.142627 1.70483 38 38 34
-0.360358 -0.143894 1.71999 38 38 34
-0.342602 -0.140312 1.67717 38 38 34
-0.333818 -0.140312 1.67717 37 37 33
-0.327824 -0.141517 1.69157 36 36 31
-0.318673 -0.141388 1.69003 35 36 31
-0.309821 -0.141388 1.69003 36 36 33
-0.295887 -0.139001 1.66149 37 37 33
-0.301842 -0.146095 1.74629 37 37 34
-0.278482 -0.139001 1.66149 37 37 34
-0.263962 -0.136003 1.62567 37 38 34
-0.270015 -0.14376 1.71838 37 38 34
-0.249776 -0.137569 1.64438 37 37 34
-0.241163 -0.137569 1.64438 37 37 34
-0.23255 -0.137569 1.64438 36 37 34
-0.226267 -0.139001 1.66149 36 37 34
-0.216162 -0.138105 1.65078 36 36 34
-0.212643 -0.141517 1.69157 36 36 34
-0.20538 -0.142627 1.70483 36 37 34
-0.201228 -0.146095 1.74629 36 37 34
-0.176946 -0.134583 1.60869 37 38 35
-0.172929 -0.138105 1.65078 37 38 35
-0.164283 -0.138105 1.65078 37 38 35
-0.156124 -0.138538 1.65596 37 38 35
-0.151803 -0.142627 1.70483 36 37 34
-0.138343 -0.138105 1.65078 35 36 34
-0.133943 -0.142627 1.70483 35 36 34
-0.12105 -0.138105 1.65078 36 37 34
-0.115181 -0.141517 1.69157 35 36 34
-0.108787 -0.144799 1.7308 36 37 35
-0.0966315 -0.140312 1.67717 37 38 36
-0.0851491 -0.136003 1.62567 37 38 35
-0.0790621 -0.140312 1.67717 36 37 33
-0.0702774 -0.140312 1.67717 36 37 34
-0.060918 -0.139001 1.66149 36 37 33
-0.0493541 -0.131384 1.57045 35 37 34
-0.04213 -0.134583 1.60869 35 36 34
-0.0348103 -0.139001 1.66149 35 36 33
-0.0259394 -0.138105 1.65078 35 36 33
-0.0174051 -0.139001 1.66149 36 37 35
-0.00851491 -0.136003 1.62567 37 39 36
0 -0.141388 1.69003 37 38 35
0.00885203 -0.141388 1.69003 36 37 34
0.0171212 -0.136733 1.63439 36 37 34
0.025278 -0.134583 1.60869 36 37 34
0.0342423 -0.136733 1.63439 37 37 35
0.0436283 -0.13937 1.6659 36 37 35
0.0527081 -0.140312 1.67717 37 37 34
0.0620207 -0.141517 1.69157 36 37 34
0.0698053 -0.13937 1.6659 36 36 34
0.0766342 -0.136003 1.62567 35 35 33
0.0870257 -0.139001 1.66149 35 37 34
0.0941664 -0.136733 1.63439 37 38 35
0.107155 -0.142627 1.70483 37 38 35
0.116084 -0.142627 1.70483 36 37 34
0.12105 -0.138105 1.65078 36 37 34
0.129697 -0.138105 1.65078 37 38 35
0.138343 -0.138105 1.65078 37 38 35
0.14934 -0.140312 1.67717 37 38 35
0.151668 -0.134583 1.60869 37 38 35
0.163646 -0.137569 1.64438 37 38 35
0.16852 -0.134583 1.60869 37 38 35
0.179772 -0.136733 1.63439 36 37 35
0.191456 -0.139001 1.66149 36 36 34
0.198869 -0.138105 1.65078 36 36 34
0.210832 -0.140312 1.67717 36 37 34
0.219617 -0.140312 1.67717 37 37 34
0.217508 -0.13362 1.59718 36 37 34
0.229902 -0.136003 1.62567 37 37 34
0.248083 -0.141517 1.69157 37 37 35
0.252374 -0.139001 1.66149 37 38 35
0.256817 -0.136733 1.63439 37 38 35
0.281033 -0.144799 1.7308 38 39 36
0.273939 -0.136733 1.63439 37 38 36
0.294676 -0.142627 1.70483 37 38 35
0.303605 -0.142627 1.70483 36 37 35
0.305398 -0.13937 1.6659 35 36 34
0.315613 -0.140031 1.6738 36 37 35
0.330394 -0.142627 1.70483 36 37 35
0.336377 -0.141388 1.69003 36 37 36
0.338269 -0.138538 1.65596 37 38 36
0.365869 -0.146095 1.74629 37 38 36
0.360172 -0.140312 1.67717 36 37 35
0.368216 -0.140031 1.6738 36 37 34
0.387385 -0.143894 1.71999 37 37 35
0.380444 -0.138105 1.65078 38 38 36
0.394517 -0.140031 1.6738 38 39 36
0.403284 -0.140031 1.6738 37 38 35
0.41969 -0.142627 1.70483 37 38 35
0.420818 -0.140031 1.6738 36 38 35
0.44497 -0.145046 1.73375 36 37 35
0.436283 -0.13937 1.6659 36 37 35
0.459026 -0.14376 1.71838 36 37 35
0.477002 -0.146517 1.75133 35 37 34
0.469158 -0.141388 1.69003 36 38 35
0.497167 -0.147055 1.75776 36 38 35
0.491126 -0.142627 1.70483 36 38 35
0.508538 -0.145046 1.73375 36 37 35
0.521363 -0.146095 1.74629 36 37 35
0.508488 -0.140031 1.6738 36 37 35
0.541214 -0.146517 1.75133 36 37 35
0.547529 -0.145756 1.74224 35 36 34
0.553943 -0.145046 1.73375 35 36 33
0.564226 -0.145355 1.73745 36 37 34
0.577906 -0.146517 1.75133 36 37 35
0.581186 -0.145046 1.73375 36 37 35
0.585581 -0.143894 1.71999 36 37 35
0.609765 -0.147567 1.76388 36 37 35
0.603599 -0.143894 1.71999 35 36 34
0.623772 -0.146517 1.75133 35 36 34
0.627929 -0.145355 1.73745 35 37 34
0.630626 -0.143894 1.71999 37 37 35
0.649417 -0.146095 1.74629 38 38 36
0.637346 -0.141388 1.69003 37 38 36
0.651858 -0.142627 1.70483 37 37 36
0.660788 -0.142627 1.70483 37 37 35
0.692915 -0.147567 1.76388 36 36 35
0.690158 -0.145046 1.73375 36 36 35
0.719505 -0.14925 1.784 35 36 34
0.715503 -0.146517 1.75133 35 36 34
0.717401 -0.145046 1.73375 36 37 35
0.739109 -0.147567 1.76388 36 37 34
0.723295 -0.142627 1.70483 35 36 34
0.746234 -0.145355 1.73745 35 36 34
0.764164 -0.147055 1.75776 34 36 33
0.757652 -0.144066 1.72203 34 35 32
0.804578 -0.151189 1.80718 33 34 32
0.802533 -0.149051 1.78162 33 35 33
0.807297 -0.148212 1.7716 34 35 34
0.832975 -0.151189 1.80718 35 36 34
0.804002 -0.14429 1.72472 34 35 34
0.853223 -0.151422 1.80997 34 35 34
0.830419 -0.145756 1.74224 35 36 34
0.858524 -0.149051 1.78162 36 37 35
0.89826 -0.154273 1.84404 35 37 35
0.849171 -0.14429 1.72472 34 36 34
0.858205 -0.14429 1.72472 34 36 34
0.91657 -0.152498 1.82283 36 37 36
0.888439 -0.146294 1.74867 35 37 36
0.952495 -0.155241 1.85562 34 36 34
0.971921 -0.156807 1.87433 33 35 34
0.931262 -0.148745 1.77797 33 35 34
0.981653 -0.155241 1.85562 33 35 34
0.959077 -0.150184 1.79517 34 36 35
0.9592 -0.148745 1.77797 35 37 36
1.00451 -0.154273 1.84404 35 36 36
0.966714 -0.147055 1.75776 35 36 36
1.0074 -0.151797 1.81445 35 37 36
1.05046 -0.156807 1.87433 34 36 36
1.00216 -0.148212 1.7716 33 36 35
1.07009 -0.156807 1.87433 33 36 35
1.06246 -0.154273 1.84404 34 36 36
1.07212 -0.154273 1.84404 34 37 36
1.02205 -0.145756 1.74224 33 37 36
1.13028 -0.159763 1.90967 32 37 35
1.08843 -0.152498 1.82283 32 36 35
1.15701 -0.160697 1.92083 30 35 33
1.05856 -0.145756 1.74224 29 34 34
1.22564 -0.16732 2 26 33 34
1.18719 -0.160697 1.92083 26 33 34
1.31213 -0.176116 2.10514 26 33 35
-0.565873 -0.0706121 0.900304 36 37 36
-0.605274 -0.0761633 0.971083 36 37 36
-0.556442 -0.0706121 0.900304 36 38 36
-0.571906 -0.0731948 0.933233 36 37 35
-0.58826 -0.0759369 0.968195 36 37 34
-0.565936 -0.0736903 0.939552 37 38 34
-0.543169 -0.0713463 0.909666 37 37 34
-0.540805 -0.0716643 0.91372 37 37 34
-0.570406 -0.0762618 0.972338 37 37 34
-0.549291 -0.0741004 0.944781 37 37 33
-0.542904 -0.0739046 0.942284 37 37 33
-0.553625 -0.0760555 0.969708 37 37 33
-0.533033 -0.0739046 0.942284 37 37 33
-0.544238 -0.0761633 0.971083 37 38 34
-0.524548 -0.0741004 0.944781 36 37 34
-0.534756 -0.0762618 0.972338 36 37 34
-0.544731 -0.0784314 1 36 37 33
-0.508356 -0.0739046 0.942284 36 37 34
-0.534255 -0.0784314 1 37 38 35
-0.529017 -0.0784314 1 38 39 36
-0.52378 -0.0784314 1 39 39 36
-0.53425 -0.0808072 1.03029 37 38 35
-0.513304 -0.0784314 1 36 37 34
-0.551902 -0.0851984 1.08628 37 38 35
-0.55049 -0.0858656 1.09479 37 39 35
-0.514248 -0.0810569 1.03348 38 39 36
-0.492353 -0.0784314 1 37 39 35
-0.551461 -0.0887919 1.1321 36 38 34
-0.527553 -0.0858656 1.09479 36 37 33
-0.508463 -0.083668 1.06677 35 37 33
-0.502876 -0.083668 1.06677 36 37 34
-0.503069 -0.0846405 1.07917 36 37 34
-0.544863 -0.0927142 1.18211 36 37 34
-0.526757 -0.0906634 1.15596 36 37 34
-0.542717 -0.0944967 1.20483 36 38 34
-0.524091 -0.0923271 1.17717 36 38 35
-0.5035 -0.0897557 1.14438 36 38 34
-0.49316 -0.0889715 1.13439 36 37 34
-0.511117 -0.0933357 1.19003 36 37 34
-0.557672 -0.103094 1.31445 37 38 34
-0.498651 -0.0933357 1.19003 37 38 35
-0.535922 -0.101582 1.29517 37 38 35
-0.492232 -0.0944967 1.20483 37 38 35
-0.542066 -0.105415 1.34404 37 38 34
-0.51557 -0.101582 1.29517 36 37 34
-0.519653 -0.103751 1.32283 36 37 34
-0.538295 -0.108926 1.3888 36 37 34
-0.467256 -0.0958458 1.22203 35 36 32
-0.535826 -0.111438 1.42083 35 36 32
-0.461968 -0.0974304 1.24224 35 35 32
-0.503894 -0.107791 1.37433 35 35 31
-0.48993 -0.106323 1.35562 36 36 33
-0.516848 -0.113814 1.45113 36 36 33
-0.526398 -0.117647 1.5 35 35 31
-0.4751 -0.107791 1.37433 35 35 30
-0.496257 -0.114323 1.45762 35 35 31
-0.519212 -0.12148 1.54887 35 35 31
-0.478844 -0.113814 1.45113 36 36 32
-0.502987 -0.12148 1.54887 36 37 34
-0.492799 -0.120971 1.54238 36 37 33
-0.504443 -0.125893 1.60514 35 37 33
-0.526844 -0.133712 1.70483 35 36 33
-0.483131 -0.124732 1.59033 35 37 33
-0.500727 -0.131543 1.67717 37 38 34
-0.482325 -0.128971 1.64438 37 39 35
-0.483157 -0.131543 1.67717 37 38 35
-0.465099 -0.128971 1.64438 36 37 34
-0.463459 -0.130941 1.6695 36 37 34
-0.472214 -0.13598 1.73375 36 37 34
-0.43426 -0.127503 1.62567 35 36 32
-0.425745 -0.127503 1.62567 34 35 31
-0.447149 -0.136646 1.74224 34 35 30
-0.424408 -0.132399 1.68808 35 35 31
-0.402347 -0.128187 1.63439 36 37 33
-0.400318 -0.130313 1.66149 37 38 34
-0.398705 -0.132672 1.69157 37 38 34
-0.382913 -0.130313 1.66149 38 38 34
-0.375204 -0.130659 1.6659 37 37 34
-0.366478 -0.130659 1.6659 37 37 33
-0.359448 -0.131279 1.6738 37 37 33
-0.350681 -0.131279 1.6738 36 36 32
-0.348253 -0.133712 1.70483 36 36 32
-0.325302 -0.128187 1.63439 36 36 32
-0.325033 -0.131543 1.67717 36 36 32
-0.324018 -0.134775 1.71838 36 36 32
-0.305398 -0.130659 1.6659 37 37 34
-0.316151 -0.139238 1.77528 37 37 34
-0.294676 -0.133712 1.70483 37 37 34
-0.285746 -0.133712 1.70483 38 38 35
-0.276817 -0.133712 1.70483 37 37 35
-0.259394 -0.129473 1.65078 36 37 34
-0.261015 -0.134775 1.71838 36 37 34
-0.245477 -0.131279 1.6738 36 37 34
-0.241098 -0.133712 1.70483 36 37 34
-0.223528 -0.128736 1.64138 36 37 34
-0.217564 -0.130313 1.66149 36 36 34
-0.207515 -0.129473 1.65078 36 36 33
-0.203597 -0.132551 1.69003 36 37 34
-0.194745 -0.132551 1.69003 37 37 34
-0.181576 -0.129473 1.65078 36 37 34
-0.175694 -0.131543 1.67717 35 36 34
-0.17254 -0.13598 1.73375 36 37 34
-0.159337 -0.132551 1.69003 36 37 35
-0.143944 -0.12679 1.61657 36 37 34
-0.140273 -0.131279 1.6738 35 36 34
-0.127724 -0.127503 1.62567 36 37 34
-0.118542 -0.12679 1.61657 37 38 35
-0.111968 -0.128971 1.64438 37 38 35
-0.107155 -0.133712 1.70483 37 38 35
-0.0941664 -0.128187 1.63439 37 38 35
-0.0872567 -0.130659 1.6659 37 38 35
-0.0783231 -0.130313 1.66149 36 37 34
-0.0696205 -0.130313 1.66149 37 38 35
-0.0602907 -0.128971 1.64438 36 37 34
-0.0548803 -0.136964 1.74629 35 37 34
-0.0450447 -0.134901 1.71999 35 37 34
-0.0345858 -0.129473 1.65078 35 37 34
-0.0267887 -0.133712 1.70483 35 37 34
-0.0174513 -0.130659 1.6659 35 37 34
-0.00886011 -0.132672 1.69157 36 37 35
0 -0.128187 1.63439 37 38 35
0.00856058 -0.128187 1.63439 36 37 34
0.0175694 -0.131543 1.67717 36 37 34
0.026354 -0.131543 1.67717 37 37 35
0.0331947 -0.124265 1.58438 37 37 35
0.0435128 -0.130313 1.66149 36 37 35
0.0510894 -0.127503 1.62567 36 36 34
0.0615921 -0.131755 1.67988 36 37 34
0.0702774 -0.131543 1.67717 36 37 34
0.0762726 -0.126902 1.618 36 37 34
0.0885203 -0.132551 1.69003 36 37 34
0.0964374 -0.131279 1.6738 37 38 35
0.105416 -0.131543 1.67717 37 38 35
0.109538 -0.126172 1.60869 36 37 34
0.121836 -0.130313 1.66149 36 37 34
0.130538 -0.130313 1.66149 37 38 35
0.136969 -0.128187 1.63439 37 38 35
0.148336 -0.130659 1.6659 36 37 34
0.162161 -0.134901 1.71999 36 37 34
0.162651 -0.128187 1.63439 36 37 34
0.174051 -0.130313 1.66149 35 36 33
0.182754 -0.130313 1.66149 35 36 33
0.193575 -0.131755 1.67988 35 35 32
0.191586 -0.124732 1.59033 36 37 34
0.205454 -0.128187 1.63439 37 38 35
0.211682 -0.12679 1.61657 37 37 35
0.226267 -0.130313 1.66149 36 37 34
0.239005 -0.132551 1.69003 36 37 34
0.245971 -0.131543 1.67717 37 37 35
0.252374 -0.130313 1.66149 36 37 35
0.26177 -0.130659 1.6659 36 37 34
0.26804 -0.129473 1.65078 37 38 35
0.279221 -0.130659 1.6659 38 38 36
0.306852 -0.139238 1.77528 37 38 36
0.295887 -0.130313 1.66149 37 37 36
0.309821 -0.132551 1.69003 36 37 36
0.321464 -0.133712 1.70483 37 38 36
0.330394 -0.133712 1.70483 36 37 36
0.339324 -0.133712 1.70483 36 37 36
0.341914 -0.131279 1.6738 37 38 37
0.354081 -0.132551 1.69003 38 39 37
0.356805 -0.130313 1.66149 36 37 36
0.365508 -0.130313 1.66149 36 37 35
0.376983 -0.131279 1.6738 37 38 36
0.382913 -0.130313 1.66149 39 39 37
0.405402 -0.134901 1.71999 38 39 37
0.407194 -0.132551 1.69003 37 37 35
0.42342 -0.134901 1.71999 37 37 35
0.432429 -0.134901 1.71999 37 38 35
0.44497 -0.13598 1.73375 37 38 35
0.450447 -0.134901 1.71999 36 38 35
0.451454 -0.132551 1.69003 35 37 34
0.447873 -0.128971 1.64438 35 36 34
0.495244 -0.139922 1.784 36 37 35
0.451748 -0.125269 1.59718 36 38 36
0.499457 -0.13598 1.73375 37 38 36
0.487344 -0.130313 1.66149 36 38 35
0.508985 -0.133712 1.70483 36 37 35
0.522029 -0.134775 1.71838 36 37 34
0.53103 -0.134775 1.71838 36 37 34
0.544862 -0.13598 1.73375 36 37 34
0.544704 -0.133712 1.70483 37 38 35
0.534003 -0.128971 1.64438 36 38 35
0.567563 -0.134901 1.71999 36 38 35
0.56653 -0.132551 1.69003 36 38 35
0.590267 -0.13598 1.73375 35 37 35
0.594033 -0.134775 1.71838 35 37 35
0.588574 -0.131543 1.67717 35 37 35
0.639385 -0.140797 1.79517 35 36 34
0.627929 -0.136271 1.73745 36 37 35
0.619642 -0.132551 1.69003 36 37 35
0.633999 -0.133712 1.70483 36 37 35
0.662889 -0.137864 1.75776 36 37 35
0.657037 -0.134775 1.71838 36 37 35
0.678811 -0.137359 1.75133 36 37 35
0.681077 -0.13598 1.73375 36 37 35
0.70669 -0.139238 1.77528 36 37 35
0.711392 -0.138344 1.76388 36 36 34
0.723784 -0.138949 1.7716 35 36 34
0.705436 -0.133712 1.70483 35 36 34
0.733849 -0.137359 1.75133 35 36 34
0.745751 -0.137864 1.75776 36 38 35
0.760901 -0.138949 1.7716 36 38 35
0.748632 -0.135062 1.72203 35 37 34
0.757652 -0.135062 1.72203 34 35 32
0.813631 -0.143334 1.82751 34 35 33
0.814044 -0.141739 1.80718 35 36 34
0.793917 -0.136646 1.74224 35 36 35
0.803043 -0.136646 1.74224 36 37 35
0.830529 -0.139735 1.78162 35 36 35
0.828612 -0.137864 1.75776 35 36 34
0.82207 -0.135272 1.72472 35 37 35
0.888602 -0.144631 1.84404 37 38 36
0.840137 -0.135272 1.72472 35 37 35
0.913617 -0.145538 1.85562 34 35 33
0.900624 -0.141958 1.80997 35 37 35
0.869089 -0.135561 1.7284 36 38 36
0.936895 -0.144631 1.84404 36 37 36
0.887195 -0.135561 1.7284 34 36 35
0.962214 -0.145538 1.85562 33 35 34
0.92068 -0.137864 1.75776 34 36 35
0.997463 -0.147882 1.8855 34 36 35
1.04023 -0.152711 1.94707 34 36 35
0.9483 -0.137864 1.75776 34 36 35
0.968512 -0.139448 1.77797 34 36 35
1.00672 -0.143569 1.8305 34 36 36
1.04064 -0.147007 1.87433 34 36 36
1.08141 -0.151338 1.92955 32 35 35
1.06028 -0.147007 1.87433 31 35 35
1.07009 -0.147007 1.87433 32 36 35
1.08635 -0.147882 1.8855 33 36 35
1.00799 -0.13598 1.73375 33 37 36
1.08178 -0.144631 1.84404 33 37 36
1.13689 -0.150654 1.92083 33 37 36
1.05784 -0.138949 1.7716 32 37 36
1.20469 -0.156863 2 33 37 36
1.10752 -0.142967 1.82283 33 37 37
1.01481 -0.129879 1.65596 30 36 36
1.05369 -0.133712 1.70483 28 35 36
1.13617 -0.142967 1.82283 29 35 36
-0.590542 -0.0687777 0.939552 34 35 34
-0.566992 -0.0665899 0.909666 35 35 34
-0.526089 -0.0623097 0.851194 36 37 35
-0.557463 -0.0665899 0.909666 36 37 35
-0.552699 -0.0665899 0.909666 36 38 35
-0.584928 -0.0710858 0.971083 37 38 35
-0.562646 -0.0689777 0.942284 37 37 34
-0.538405 -0.0665899 0.909666 38 38 34
-0.603597 -0.0753194 1.02892 37 38 34
-0.533389 -0.0671582 0.917429 38 38 34
-0.528584 -0.0671582 0.917429 37 37 33
-0.55441 -0.0710858 0.971083 37 37 33
-0.533033 -0.0689777 0.942284 37 38 34
-0.576651 -0.0753194 1.02892 37 38 35
-0.555206 -0.0732026 1 37 38 34
-0.520859 -0.069328 0.947071 36 37 34
-0.560483 -0.0753194 1.02892 36 37 33
-0.556651 -0.0755308 1.0318 36 37 34
-0.550439 -0.0754201 1.03029 38 39 35
-0.543651 -0.0752275 1.02766 40 40 37
-0.538926 -0.0753194 1.02892 39 40 37
-0.535034 -0.0755308 1.0318 39 40 36
-0.528853 -0.0754201 1.03029 37 38 35
-0.538778 -0.0776276 1.06045 37 38 35
-0.517369 -0.0753194 1.02892 38 39 35
-0.513416 -0.0755308 1.0318 38 40 36
-0.509748 -0.075789 1.03533 38 39 35
-0.538329 -0.0808989 1.10514 37 38 35
-0.498903 -0.075789 1.03533 36 37 34
-0.510217 -0.0783595 1.07045 35 36 32
-0.540753 -0.083972 1.14712 35 36 33
-0.521169 -0.0818402 1.118 35 37 33
-0.512181 -0.0813427 1.1112 36 37 34
-0.512953 -0.0824017 1.12567 36 38 35
-0.530257 -0.086172 1.17717 36 38 35
-0.522007 -0.0858293 1.17249 38 39 36
-0.499101 -0.08304 1.13439 37 39 36
-0.518564 -0.0873177 1.19282 36 38 34
-0.511117 -0.0871133 1.19003 36 37 34
-0.504884 -0.0871133 1.19003 36 37 34
-0.510528 -0.0891883 1.21838 37 38 34
-0.510508 -0.0903137 1.23375 38 39 35
-0.511229 -0.0916008 1.25133 38 38 35
-0.501007 -0.0909351 1.24224 37 38 35
-0.524617 -0.0964733 1.31789 37 38 35
-0.480058 -0.0894561 1.22203 36 37 34
-0.520946 -0.0983874 1.34404 36 37 34
-0.467256 -0.0894561 1.22203 35 36 32
-0.488435 -0.0948096 1.29517 36 36 33
-0.481651 -0.0948096 1.29517 36 37 33
-0.516848 -0.103191 1.40967 36 37 33
-0.48993 -0.0992346 1.35562 37 37 33
-0.519161 -0.106702 1.45762 37 37 33
-0.464223 -0.0968345 1.32283 35 35 31
-0.501646 -0.106226 1.45113 35 35 30
-0.525113 -0.112906 1.54238 35 35 30
-0.486445 -0.106226 1.45113 35 35 31
-0.475927 -0.105579 1.44228 35 36 32
-0.512824 -0.115599 1.57917 36 37 34
-0.51285 -0.1175 1.60514 37 38 34
-0.48954 -0.114029 1.55772 36 37 34
-0.515926 -0.122212 1.6695 36 37 34
-0.487628 -0.1175 1.60514 36 37 34
-0.490938 -0.120373 1.64438 37 39 35
-0.508538 -0.126915 1.73375 38 39 35
-0.51715 -0.131411 1.79517 37 38 34
-0.465099 -0.120373 1.64438 36 37 33
-0.473267 -0.124798 1.70483 36 37 33
-0.464337 -0.124798 1.70483 36 38 34
-0.424822 -0.116417 1.59033 37 38 34
-0.440526 -0.123135 1.68211 36 37 33
-0.441964 -0.126057 1.72203 35 36 32
-0.416331 -0.12122 1.65596 35 36 32
-0.423024 -0.12579 1.71838 36 37 33
-0.404095 -0.122773 1.67717 37 38 34
-0.398342 -0.123715 1.69003 37 37 34
-0.389489 -0.123715 1.69003 37 37 34
-0.37421 -0.121626 1.66149 37 37 34
-0.371785 -0.123715 1.69003 37 37 34
-0.347158 -0.118337 1.61657 37 37 33
-0.360358 -0.125908 1.71999 36 36 31
-0.348253 -0.124798 1.70483 35 35 31
-0.330698 -0.121626 1.66149 36 36 32
-0.333019 -0.12579 1.71838 37 37 34
-0.313292 -0.121626 1.66149 37 37 34
-0.312535 -0.124798 1.70483 38 38 35
-0.300622 -0.123572 1.68808 37 38 35
-0.289894 -0.122773 1.67717 37 37 34
-0.28111 -0.122773 1.67717 37 37 34
-0.274413 -0.123715 1.69003 36 37 34
-0.261077 -0.121626 1.66149 36 37 34
-0.256709 -0.123715 1.69003 36 36 33
-0.247857 -0.123715 1.69003 36 37 34
-0.23671 -0.122527 1.6738 37 38 35
-0.217508 -0.116918 1.59718 37 37 34
-0.217564 -0.121626 1.66149 36 36 34
-0.212449 -0.123715 1.69003 35 36 33
-0.200159 -0.121626 1.66149 36 36 33
-0.194745 -0.123715 1.69003 36 36 34
-0.186062 -0.123827 1.69157 35 36 33
-0.171944 -0.120153 1.64138 35 36 34
-0.168342 -0.123827 1.69157 36 37 34
-0.15409 -0.119641 1.63439 36 37 35
-0.147944 -0.121626 1.66149 36 37 34
-0.136969 -0.119641 1.63439 36 37 34
-0.127009 -0.118337 1.61657 37 38 35
-0.120581 -0.120373 1.64438 37 38 35
-0.110694 -0.119003 1.62567 37 38 35
-0.104431 -0.121626 1.66149 37 38 35
-0.0957282 -0.121626 1.66149 37 38 35
-0.0900894 -0.125908 1.71999 37 38 35
-0.0810805 -0.125908 1.71999 36 37 34
-0.0702774 -0.122773 1.67717 36 37 35
-0.0614928 -0.122773 1.67717 36 37 34
-0.0522154 -0.121626 1.66149 36 37 34
-0.0446478 -0.124798 1.70483 36 37 34
-0.036002 -0.12579 1.71838 36 37 34
-0.0265561 -0.123715 1.69003 36 37 35
-0.0164514 -0.114961 1.57045 35 37 34
-0.00861295 -0.120373 1.64438 35 37 34
0 -0.120842 1.65078 36 37 34
0.00870257 -0.121626 1.66149 36 37 34
0.0174051 -0.121626 1.66149 36 37 34
0.026354 -0.122773 1.67717 36 37 34
0.0340596 -0.119003 1.62567 36 37 35
0.0428029 -0.119641 1.63439 36 37 35
0.0527081 -0.122773 1.67717 36 37 35
0.060918 -0.121626 1.66149 37 37 35
0.0684846 -0.119641 1.63439 37 38 35
0.0790621 -0.122773 1.67717 37 38 35
0.0870257 -0.121626 1.66149 36 37 34
0.0951111 -0.120842 1.65078 36 37 34
0.103355 -0.120373 1.64438 36 37 34
0.112404 -0.120842 1.65078 36 37 34
0.119848 -0.119641 1.63439 36 37 34
0.13177 -0.122773 1.67717 37 38 35
0.138343 -0.120842 1.65078 36 37 34
0.148336 -0.121949 1.6659 35 36 33
0.156124 -0.12122 1.65596 35 36 33
0.165788 -0.121949 1.6659 35 37 34
0.173471 -0.12122 1.65596 35 37 34
0.176188 -0.117256 1.6018 35 36 33
0.191456 -0.121626 1.66149 35 36 33
0.202048 -0.122773 1.67717 36 37 34
0.206711 -0.120373 1.64438 37 37 35
0.22664 -0.126699 1.7308 37 38 35
0.232169 -0.124798 1.70483 37 38 35
0.243241 -0.125908 1.71999 37 37 35
0.250028 -0.124798 1.70483 36 37 35
0.252374 -0.121626 1.66149 36 37 34
0.261077 -0.121626 1.66149 36 37 34
0.261206 -0.117761 1.60869 37 37 35
0.283265 -0.123715 1.69003 37 38 36
0.289894 -0.122773 1.67717 38 39 37
0.295887 -0.121626 1.66149 37 38 37
0.317836 -0.126915 1.73375 37 37 36
0.315613 -0.122527 1.6738 37 38 36
0.327525 -0.123715 1.69003 37 38 36
0.342747 -0.126057 1.72203 36 37 36
0.326262 -0.116918 1.59718 37 38 37
0.360358 -0.125908 1.71999 37 38 36
0.357752 -0.121949 1.6659 36 37 35
0.385271 -0.128202 1.75133 36 37 35
0.37421 -0.121626 1.66149 38 38 36
0.389489 -0.123715 1.69003 39 39 37
0.405402 -0.125908 1.71999 39 39 37
0.41076 -0.124798 1.70483 37 37 35
0.416425 -0.123827 1.69157 36 37 34
0.428619 -0.124798 1.70483 36 37 35
0.429585 -0.122527 1.6738 37 38 36
0.437225 -0.122212 1.6695 36 38 35
0.451454 -0.123715 1.69003 35 36 34
0.472214 -0.126915 1.73375 35 36 34
0.464653 -0.122527 1.6738 36 38 35
0.490376 -0.126915 1.73375 36 38 35
0.495492 -0.125908 1.71999 37 38 36
0.487344 -0.121626 1.66149 36 38 35
0.496046 -0.121626 1.66149 36 37 35
0.522519 -0.125908 1.71999 36 37 35
0.541214 -0.128202 1.75133 37 37 35
0.540537 -0.125908 1.71999 37 38 36
0.561615 -0.128673 1.75776 38 39 37
0.548826 -0.123715 1.69003 37 39 36
0.582048 -0.129121 1.76388 36 38 35
0.56222 -0.122773 1.67717 36 37 35
0.571004 -0.122773 1.67717 35 37 35
0.605426 -0.128202 1.75133 36 37 35
0.612831 -0.127833 1.74629 37 38 36
0.612034 -0.12579 1.71838 36 37 35
0.626591 -0.126915 1.73375 37 38 36
0.630626 -0.125908 1.71999 36 37 35
0.628494 -0.123715 1.69003 35 35 33
0.648036 -0.12579 1.71838 35 36 34
0.686399 -0.131411 1.79517 36 36 34
0.671996 -0.126915 1.73375 36 37 35
0.681077 -0.126915 1.73375 37 37 35
0.678647 -0.124798 1.70483 37 37 35
0.733175 -0.133075 1.81789 36 37 35
0.720631 -0.129121 1.76388 35 36 34
0.718933 -0.127186 1.73745 35 36 35
0.714365 -0.124798 1.70483 36 38 35
0.755874 -0.13042 1.78162 36 38 35
0.760901 -0.129686 1.7716 36 38 35
0.77018 -0.129686 1.7716 36 38 35
0.811332 -0.134989 1.84404 35 37 34
0.816562 -0.134261 1.8341 35 36 34
0.767943 -0.124798 1.70483 35 36 34
0.793917 -0.127536 1.74224 36 37 35
0.816576 -0.129686 1.7716 35 37 35
0.825856 -0.129686 1.7716 35 36 35
0.835135 -0.129686 1.7716 35 36 34
0.837819 -0.128673 1.75776 35 36 34
0.872183 -0.132495 1.80997 35 37 35
0.903898 -0.135836 1.85562 35 37 35
0.897475 -0.133436 1.82283 34 36 34
0.900624 -0.132495 1.80997 35 36 35
0.888121 -0.129294 1.76625 36 37 36
0.919584 -0.132495 1.80997 36 37 36
0.939602 -0.133997 1.8305 34 36 35
0.906758 -0.128007 1.74867 34 36 34
0.971933 -0.135836 1.85562 34 36 35
0.957505 -0.132495 1.80997 34 36 35
0.991372 -0.135836 1.85562 33 36 35
0.987541 -0.133997 1.8305 34 37 36
0.988388 -0.132823 1.81445 34 36 36
1.02338 -0.136215 1.86079 33 35 35
0.975921 -0.128673 1.75776 33 35 35
1.02589 -0.133997 1.8305 31 35 35
1.08658 -0.14061 1.92083 32 35 35
1.0528 -0.134989 1.84404 32 36 36
1.0343 -0.131411 1.79517 32 36 36
1.0437 -0.131411 1.79517 31 36 35
1.00011 -0.124798 1.70483 33 37 36
1.10135 -0.136215 1.86079 34 38 37
1.08843 -0.133436 1.82283 34 38 38
1.15028 -0.139793 1.90967 34 39 38
1.21517 -0.146405 2 34 38 38
1.10012 -0.131411 1.79517 30 36 36
1.23612 -0.146405 2 31 36 37
1.16827 -0.137206 1.87433 31 37 37
-0.568959 -0.0615309 0.905214 35 37 35
-0.585621 -0.063865 0.939552 36 37 35
-0.544001 -0.0598288 0.880174 37 38 36
-0.575778 -0.063865 0.939552 36 38 35
-0.570857 -0.063865 0.939552 37 38 35
-0.564127 -0.0636608 0.936549 37 37 34
-0.561015 -0.063865 0.939552 36 36 33
-0.559188 -0.0642204 0.944781 37 36 33
-0.569669 -0.0660082 0.971083 37 37 33
-0.533389 -0.0623612 0.917429 37 37 33
-0.542904 -0.0640507 0.942284 37 37 33
-0.57092 -0.0679739 1 37 37 32
-0.565682 -0.0679739 1 36 37 33
-0.560444 -0.0679739 1 37 37 34
-0.555206 -0.0679739 1 36 37 34
-0.566628 -0.0700329 1.03029 36 37 33
-0.562966 -0.0702493 1.03348 36 37 33
-0.539493 -0.0679739 1 37 38 34
-0.534255 -0.0679739 1 38 39 35
-0.560995 -0.0720827 1.06045 38 39 36
-0.538926 -0.0699395 1.02892 38 38 35
-0.533537 -0.0699395 1.02892 37 38 35
-0.513304 -0.0679739 1 37 38 34
-0.523457 -0.0700329 1.03029 36 37 34
-0.55049 -0.0744168 1.09479 36 37 34
-0.549906 -0.0751204 1.10514 36 38 34
-0.541438 -0.0747506 1.0997 37 38 35
-0.541282 -0.0755325 1.1112 37 38 35
-0.515824 -0.0727624 1.07045 37 38 35
-0.526752 -0.0751204 1.10514 37 38 35
-0.50461 -0.0727624 1.07045 36 38 34
-0.551055 -0.0803523 1.18211 37 38 35
-0.528736 -0.077974 1.14712 37 38 35
-0.522728 -0.077974 1.14712 36 38 35
-0.542717 -0.0818971 1.20483 36 38 35
-0.514647 -0.0785749 1.15596 38 39 36
-0.512969 -0.079251 1.1659 38 40 37
-0.529673 -0.0828177 1.21838 37 38 35
-0.53354 -0.0844397 1.24224 36 37 34
-0.51691 -0.0828177 1.21838 37 37 34
-0.498651 -0.0808909 1.19003 37 38 34
-0.545326 -0.0895823 1.31789 37 38 34
-0.519509 -0.0864355 1.2716 37 38 34
-0.522354 -0.0880375 1.29517 37 38 34
-0.498121 -0.0850578 1.25133 37 38 35
-0.508787 -0.0880375 1.29517 37 38 35
-0.525432 -0.0921464 1.35562 38 39 36
-0.495219 -0.0880375 1.29517 37 37 34
-0.506867 -0.0913597 1.34404 37 38 35
-0.472887 -0.0864355 1.2716 38 38 35
-0.497031 -0.0921464 1.35562 39 39 36
-0.509464 -0.0958204 1.40967 38 38 35
-0.4613 -0.0880375 1.29517 37 37 34
-0.506144 -0.0980376 1.44228 36 36 32
-0.518542 -0.101961 1.5 36 35 31
-0.457588 -0.0913597 1.34404 35 35 31
-0.486445 -0.0986386 1.45113 35 35 31
-0.514017 -0.105884 1.55772 36 36 32
-0.505858 -0.105884 1.55772 36 37 34
-0.497699 -0.105884 1.55772 36 37 34
-0.504443 -0.109107 1.60514 35 36 32
-0.515926 -0.113482 1.6695 35 36 31
-0.499551 -0.111775 1.64438 36 37 33
-0.43324 -0.0986386 1.45113 37 38 35
-0.470813 -0.109107 1.60514 38 39 36
-0.525118 -0.123905 1.82283 36 37 34
-0.482197 -0.115884 1.70483 35 36 31
-0.432427 -0.105884 1.55772 36 37 33
-0.447873 -0.111775 1.64438 37 38 34
-0.448019 -0.114004 1.67717 36 37 34
-0.435737 -0.113096 1.66382 36 37 33
-0.43375 -0.114878 1.69003 36 36 32
-0.421665 -0.114004 1.67717 36 36 33
-0.42342 -0.116914 1.71999 37 38 34
-0.391686 -0.110503 1.62567 38 38 35
-0.395311 -0.114004 1.67717 37 37 34
-0.399565 -0.11785 1.73375 36 36 32
-0.390484 -0.11785 1.73375 37 37 33
-0.363151 -0.11221 1.65078 37 37 33
-0.375016 -0.118702 1.74629 36 36 32
-0.345858 -0.11221 1.65078 36 35 31
-0.342602 -0.114004 1.67717 36 36 32
-0.328566 -0.11221 1.65078 37 37 34
-0.325033 -0.114004 1.67717 37 37 34
-0.313292 -0.112938 1.66149 37 37 34
-0.317836 -0.11785 1.73375 37 37 34
-0.300969 -0.114878 1.69003 37 37 34
-0.282499 -0.111096 1.63439 36 37 34
-0.270953 -0.109885 1.61657 36 37 34
-0.272325 -0.114004 1.67717 36 37 34
-0.272431 -0.11785 1.73375 36 37 34
-0.254244 -0.113775 1.6738 36 37 34
-0.243672 -0.112938 1.66149 36 37 34
-0.227502 -0.109349 1.60869 36 37 35
-0.228402 -0.114004 1.67717 36 37 34
-0.221301 -0.114878 1.69003 35 36 33
-0.206711 -0.111775 1.64438 35 35 32
-0.202048 -0.114004 1.67717 35 36 33
-0.194745 -0.114878 1.69003 36 36 34
-0.186062 -0.114983 1.69157 36 36 33
-0.175694 -0.114004 1.67717 35 36 33
-0.165788 -0.113238 1.6659 36 37 34
-0.155636 -0.11221 1.65078 36 37 35
-0.150485 -0.114878 1.69003 36 37 34
-0.139241 -0.112938 1.66149 36 37 34
-0.130885 -0.113238 1.6659 36 37 35
-0.121836 -0.112938 1.66149 36 37 35
-0.113133 -0.112938 1.66149 35 36 34
-0.108006 -0.116805 1.71838 35 36 33
-0.0941664 -0.111096 1.63439 36 36 34
-0.0861295 -0.111775 1.64438 36 37 34
-0.0789033 -0.113775 1.6738 37 38 35
-0.0702774 -0.114004 1.67717 37 38 35
-0.0605252 -0.11221 1.65078 37 38 35
-0.0508036 -0.109885 1.61657 37 38 35
-0.0435128 -0.112938 1.66149 36 38 35
-0.0340596 -0.110503 1.62567 36 37 35
-0.0261077 -0.112938 1.66149 37 38 35
-0.0177041 -0.114878 1.69003 36 38 35
-0.00851491 -0.110503 1.62567 36 37 35
0 -0.111096 1.63439 36 37 35
0.00846727 -0.109885 1.61657 36 37 35
0.016852 -0.109349 1.60869 36 37 34
0.0259394 -0.11221 1.65078 36 37 34
0.0345858 -0.11221 1.65078 36 36 34
0.0439234 -0.114004 1.67717 36 36 35
0.0518788 -0.11221 1.65078 36 36 35
0.0614928 -0.114004 1.67717 37 37 35
0.0708809 -0.114983 1.69157 37 38 36
0.0778182 -0.11221 1.65078 37 37 35
0.0856058 -0.111096 1.63439 36 37 34
0.0966315 -0.114004 1.67717 36 37 34
0.103167 -0.111571 1.64138 36 37 34
0.112404 -0.11221 1.65078 36 37 34
0.117964 -0.109349 1.60869 36 37 34
0.128409 -0.111096 1.63439 36 37 34
0.136969 -0.111096 1.63439 36 37 34
0.14553 -0.111096 1.63439 35 37 34
0.159337 -0.114878 1.69003 35 37 34
0.162651 -0.111096 1.63439 37 38 35
0.17489 -0.113482 1.6695 38 39 36
0.176946 -0.109349 1.60869 36 37 35
0.194922 -0.114983 1.69157 35 36 33
0.196893 -0.111096 1.63439 36 37 34
0.212643 -0.114983 1.69157 36 37 34
0.216839 -0.112562 1.65596 37 38 35
0.219076 -0.109349 1.60869 38 38 36
0.237186 -0.114004 1.67717 37 38 35
0.241163 -0.111775 1.64438 37 37 35
0.249776 -0.111775 1.64438 37 37 36
0.275194 -0.119045 1.75133 36 37 35
0.281512 -0.11785 1.73375 37 37 36
0.266555 -0.108101 1.59033 37 38 36
0.285333 -0.11221 1.65078 38 38 37
0.29398 -0.11221 1.65078 37 38 37
0.301453 -0.111775 1.64438 37 38 37
0.306537 -0.110503 1.62567 37 38 37
0.318679 -0.111775 1.64438 37 38 36
0.34234 -0.116914 1.71999 36 37 36
0.344832 -0.114746 1.68808 36 37 36
0.342423 -0.111096 1.63439 36 37 36
0.353131 -0.111775 1.64438 36 37 36
0.375042 -0.115884 1.70483 36 37 35
0.383971 -0.115884 1.70483 37 38 36
0.389489 -0.114878 1.69003 38 38 36
0.390311 -0.112562 1.65596 37 38 35
0.389495 -0.109885 1.61657 36 36 34
0.416046 -0.114878 1.69003 36 37 34
0.432429 -0.116914 1.71999 36 37 34
0.437549 -0.115884 1.70483 36 37 35
0.454051 -0.11785 1.73375 36 38 35
0.447119 -0.113775 1.6738 35 37 34
0.452533 -0.112938 1.66149 35 37 34
0.461236 -0.112938 1.66149 35 36 33
0.474373 -0.114004 1.67717 34 36 33
0.499457 -0.11785 1.73375 36 37 35
0.523765 -0.121379 1.78567 36 37 35
0.505026 -0.114983 1.69157 36 37 35
0.522519 -0.116914 1.71999 36 37 35
0.517255 -0.113775 1.6738 36 37 35
0.522154 -0.112938 1.66149 37 37 35
0.544704 -0.115884 1.70483 37 38 36
0.568733 -0.119045 1.75133 36 38 35
0.585809 -0.120673 1.77528 35 37 35
0.56653 -0.114878 1.69003 35 37 35
0.580422 -0.115884 1.70483 35 37 35
0.584767 -0.114983 1.69157 36 38 35
0.603034 -0.116805 1.71838 36 37 35
0.612608 -0.116914 1.71999 36 36 34
0.621035 -0.116805 1.71838 36 37 35
0.619642 -0.114878 1.69003 36 37 35
0.633999 -0.115884 1.70483 36 36 34
0.653834 -0.11785 1.73375 35 35 34
0.651858 -0.115884 1.70483 35 35 34
0.666037 -0.116805 1.71838 35 36 34
0.681077 -0.11785 1.73375 36 37 35
0.718629 -0.122711 1.80527 37 37 36
0.711392 -0.119898 1.76388 36 37 35
0.720631 -0.119898 1.76388 35 36 34
0.724676 -0.119045 1.75133 36 37 36
0.728033 -0.118101 1.73745 37 38 36
0.751621 -0.120422 1.7716 36 38 35
0.752196 -0.119045 1.75133 35 37 34
0.77018 -0.120422 1.7716 35 37 34
0.773371 -0.119482 1.75776 35 36 34
0.809349 -0.123569 1.81789 35 36 35
0.791785 -0.119482 1.75776 35 36 34
0.807297 -0.120422 1.7716 35 36 34
0.816576 -0.120422 1.7716 35 36 34
0.819405 -0.119482 1.75776 35 36 34
0.851906 -0.122841 1.80718 35 36 34
0.874202 -0.124671 1.8341 34 35 34
0.888602 -0.125347 1.84404 34 36 34
0.893415 -0.124671 1.8341 35 37 35
0.869618 -0.120059 1.76625 34 36 34
0.917578 -0.125347 1.84404 35 37 35
0.869089 -0.117486 1.7284 34 37 35
0.919584 -0.123031 1.80997 34 36 35
0.935665 -0.123905 1.82283 33 36 34
0.938545 -0.123031 1.80997 34 36 35
0.892957 -0.115884 1.70483 34 36 35
0.940575 -0.120855 1.77797 33 36 35
0.977953 -0.124426 1.8305 32 35 34
0.9592 -0.120855 1.77797 33 36 35
0.952553 -0.118864 1.74867 34 36 36
0.997892 -0.123335 1.81445 34 36 36
0.996688 -0.122024 1.79517 34 36 36
1.08533 -0.131635 1.93655 33 36 36
1.01549 -0.122024 1.79517 32 36 36
1.10561 -0.131635 1.93655 33 37 36
1.1067 -0.130566 1.92083 33 37 37
1.11676 -0.130566 1.92083 32 37 37
1.06933 -0.123905 1.82283 32 36 36
1.09143 -0.125347 1.84404 32 37 36
1.19422 -0.135948 2 33 37 37
1.15701 -0.130566 1.92083 34 38 38
1.13882 -0.127406 1.87433 34 38 38
1.17029 -0.129807 1.90967 34 38 39
1.23612 -0.135948 2 34 39 39
1.18106 -0.128801 1.89486 33 38 38
-0.565873 -0.0564897 0.900304 36 38 35
-0.564218 -0.0567977 0.905214 36 38 36
-0.562228 -0.0570771 0.909666 36 38 36
-0.573938 -0.0587639 0.936549 36 38 35
-0.53478 -0.0552266 0.880174 36 37 35
-0.569085 -0.0592804 0.944781 36 36 34
-0.561015 -0.0589523 0.939552 36 36 33
-0.538405 -0.0570771 0.909666 36 36 32
-0.552775 -0.0591237 0.942284 37 37 33
-0.581395 -0.0627451 1 37 37 33
-0.558704 -0.0608444 0.969708 37 37 32
-0.537969 -0.0591237 0.942284 36 36 31
-0.565682 -0.0627451 1 36 37 33
-0.560444 -0.0627451 1 36 37 33
-0.588768 -0.0665379 1.06045 36 37 33
-0.566628 -0.0646458 1.03029 35 36 32
-0.561232 -0.0646458 1.03029 35 36 33
-0.556651 -0.0647407 1.0318 37 38 34
-0.517263 -0.0607495 0.968195 38 38 35
-0.545043 -0.0646458 1.03029 38 39 35
-0.557014 -0.0667263 1.06345 37 38 34
-0.53425 -0.0646458 1.03029 36 37 33
-0.549465 -0.0671653 1.07045 36 37 33
-0.540304 -0.0667263 1.06345 36 37 34
-0.518821 -0.0647407 1.0318 36 37 33
-0.54254 -0.0684131 1.09033 35 36 31
-0.523593 -0.0667263 1.06345 35 37 32
-0.533287 -0.0686925 1.09479 37 38 34
-0.53254 -0.0693419 1.10514 37 39 35
-0.526752 -0.0693419 1.10514 38 39 35
-0.506546 -0.067423 1.07455 37 39 35
-0.556051 -0.0748438 1.19282 37 39 35
-0.518849 -0.07063 1.12567 36 38 34
-0.536423 -0.0738617 1.17717 36 38 34
-0.510985 -0.0711772 1.13439 36 38 35
-0.519076 -0.0731548 1.1659 36 38 35
-0.523583 -0.0746686 1.19003 36 38 35
-0.51176 -0.0738617 1.17717 36 38 34
-0.517475 -0.0755973 1.20483 37 38 35
-0.549489 -0.0812654 1.29517 38 38 34
-0.516971 -0.0774118 1.23375 37 38 34
-0.505661 -0.0766767 1.22203 37 38 34
-0.519509 -0.0797866 1.2716 38 38 34
-0.512849 -0.0797866 1.2716 37 38 34
-0.506189 -0.0797866 1.2716 37 38 34
-0.532533 -0.0850582 1.35562 37 37 34
-0.502003 -0.0812654 1.29517 37 37 34
-0.495219 -0.0812654 1.29517 37 37 34
-0.518291 -0.0862327 1.37433 37 38 35
-0.524231 -0.0884496 1.40967 37 37 34
-0.516848 -0.0884496 1.40967 38 38 35
-0.524448 -0.091051 1.45113 38 38 35
-0.519161 -0.0914586 1.45762 38 38 34
-0.494697 -0.0884496 1.40967 36 36 32
-0.518542 -0.0941176 1.5 36 36 31
-0.494045 -0.091051 1.45113 34 35 30
-0.486445 -0.091051 1.45113 35 35 30
-0.511099 -0.0971843 1.54887 36 36 32
-0.542159 -0.104753 1.6695 36 37 33
-0.463643 -0.091051 1.45113 36 37 33
-0.52467 -0.104753 1.6695 35 35 31
-0.481381 -0.097739 1.55772 33 34 29
-0.483131 -0.0997857 1.59033 35 36 32
-0.447832 -0.0941176 1.5 37 38 35
-0.470813 -0.100714 1.60514 37 38 34
-0.483157 -0.105234 1.67717 36 37 33
-0.507747 -0.112638 1.79517 36 37 33
-0.441482 -0.0997857 1.59033 36 38 34
-0.456803 -0.105234 1.67717 36 37 33
-0.455408 -0.10697 1.70483 36 37 33
-0.470136 -0.112638 1.79517 36 37 33
-0.43325 -0.105919 1.68808 36 36 32
-0.408716 -0.102003 1.62567 36 37 33
-0.41969 -0.10697 1.70483 38 38 34
-0.401381 -0.104527 1.6659 38 38 35
-0.404716 -0.107738 1.71707 37 37 34
-0.38715 -0.105404 1.67988 37 36 32
-0.376983 -0.105023 1.6738 37 36 32
-0.365508 -0.104251 1.66149 37 36 32
-0.350984 -0.10255 1.63439 36 36 31
-0.36002 -0.10782 1.71838 36 36 32
-0.337212 -0.103579 1.65078 37 37 34
-0.333818 -0.105234 1.67717 37 37 34
-0.316742 -0.10255 1.63439 37 37 34
-0.318964 -0.106138 1.69157 36 37 33
-0.30459 -0.104251 1.66149 35 36 32
-0.303605 -0.10697 1.70483 36 37 33
-0.283708 -0.102989 1.64138 36 36 33
-0.269632 -0.100938 1.60869 36 37 34
-0.26804 -0.103579 1.65078 36 37 34
-0.26354 -0.105234 1.67717 36 37 34
-0.246932 -0.102003 1.62567 36 37 34
-0.245971 -0.105234 1.67717 36 37 35
-0.23255 -0.103177 1.64438 36 37 35
-0.228402 -0.105234 1.67717 36 37 34
-0.214015 -0.10255 1.63439 35 36 33
-0.207515 -0.103579 1.65078 35 36 33
-0.203782 -0.106138 1.69157 36 37 34
-0.188333 -0.10255 1.63439 36 37 34
-0.181576 -0.103579 1.65078 36 36 34
-0.170298 -0.102003 1.62567 35 36 33
-0.160878 -0.101432 1.61657 35 36 33
-0.157062 -0.104527 1.6659 36 37 34
-0.148336 -0.104527 1.6659 36 37 34
-0.134816 -0.100938 1.60869 36 37 35
-0.130538 -0.104251 1.66149 37 38 35
-0.120581 -0.103177 1.64438 36 37 34
-0.111288 -0.10255 1.63439 35 35 33
-0.104708 -0.104527 1.6659 35 36 33
-0.0998913 -0.108784 1.73375 35 36 34
-0.0864646 -0.103579 1.65078 36 37 35
-0.0778182 -0.103579 1.65078 37 38 35
-0.0702774 -0.105234 1.67717 37 38 35
-0.0610797 -0.104527 1.6659 37 38 35
-0.0510894 -0.102003 1.62567 36 38 35
-0.0428029 -0.10255 1.63439 37 38 35
-0.0342423 -0.10255 1.63439 37 38 36
-0.0265561 -0.106041 1.69003 37 38 36
-0.0172259 -0.103177 1.64438 37 38 36
-0.00846727 -0.101432 1.61657 36 38 35
0 -0.10255 1.63439 36 37 35
0.00885203 -0.106041 1.69003 37 38 35
0.0174051 -0.104251 1.66149 36 37 35
0.0256817 -0.10255 1.63439 37 37 35
0.0348103 -0.104251 1.66149 36 37 35
0.0433679 -0.103903 1.65596 36 37 35
0.0527081 -0.105234 1.67717 36 37 35
0.0605252 -0.103579 1.65078 36 37 35
0.0696205 -0.104251 1.66149 36 37 35
0.0790621 -0.105234 1.67717 37 38 35
0.0885203 -0.106041 1.69003 36 37 35
0.0945694 -0.102989 1.64138 37 37 35
0.102727 -0.10255 1.63439 36 37 35
0.110694 -0.102003 1.62567 36 37 35
0.121836 -0.104251 1.66149 36 37 35
0.127009 -0.101432 1.61657 36 37 35
0.135476 -0.101432 1.61657 36 37 34
0.143242 -0.100938 1.60869 36 37 35
0.151668 -0.100938 1.60869 36 38 35
0.160878 -0.101432 1.61657 37 38 35
0.172259 -0.103177 1.64438 37 38 36
0.181576 -0.103579 1.65078 37 38 35
0.191965 -0.104527 1.6659 36 37 35
0.198869 -0.103579 1.65078 37 37 35
0.205454 -0.10255 1.63439 36 37 35
0.211682 -0.101432 1.61657 36 37 35
0.222832 -0.102668 1.63628 37 38 35
0.235593 -0.104527 1.6659 37 38 36
0.241163 -0.103177 1.64438 37 38 36
0.254244 -0.105023 1.6738 37 38 36
0.252221 -0.100714 1.60514 36 37 35
0.271778 -0.105023 1.6738 36 37 35
0.283523 -0.106138 1.69157 37 38 36
0.282499 -0.10255 1.63439 38 39 37
0.303605 -0.10697 1.70483 37 38 37
0.30459 -0.104251 1.66149 37 38 37
0.306537 -0.102003 1.62567 37 38 37
0.321995 -0.104251 1.66149 37 38 37
0.345079 -0.108784 1.73375 36 37 36
0.3394 -0.104251 1.66149 35 36 35
0.344518 -0.103177 1.64438 36 37 36
0.369367 -0.107921 1.71999 36 37 36
0.372125 -0.106138 1.69157 37 37 36
0.370357 -0.103177 1.64438 37 37 35
0.389489 -0.106041 1.69003 37 37 35
0.394517 -0.105023 1.6738 36 37 34
0.403284 -0.105023 1.6738 36 36 34
0.416046 -0.106041 1.69003 36 37 35
0.420818 -0.105023 1.6738 36 37 35
0.441438 -0.107921 1.71999 35 36 34
0.430648 -0.103177 1.64438 35 37 34
0.448019 -0.105234 1.67717 35 37 34
0.464337 -0.10697 1.70483 35 36 34
0.469586 -0.106138 1.69157 34 36 33
0.482197 -0.10697 1.70483 34 36 33
0.483157 -0.105234 1.67717 35 37 35
0.476835 -0.102003 1.62567 36 37 35
0.513029 -0.10782 1.71838 36 37 35
0.522029 -0.10782 1.71838 36 37 35
0.513451 -0.104251 1.66149 37 37 35
0.544862 -0.108784 1.73375 37 37 35
0.540467 -0.106138 1.69157 36 38 35
0.568733 -0.109887 1.75133 35 37 34
0.557678 -0.106041 1.69003 34 36 33
0.56222 -0.105234 1.67717 35 36 34
0.596253 -0.109887 1.75133 35 37 35
0.594033 -0.10782 1.71838 36 37 35
0.598281 -0.10697 1.70483 36 37 35
0.602487 -0.106138 1.69157 36 37 35
0.626591 -0.108784 1.73375 36 36 35
0.630035 -0.10782 1.71838 36 36 35
0.644753 -0.108784 1.73375 37 37 36
0.676996 -0.112638 1.79517 36 37 35
0.669638 -0.109887 1.75133 35 36 34
0.676858 -0.109571 1.74629 35 36 34
0.681077 -0.108784 1.73375 35 36 34
0.695151 -0.109571 1.74629 36 36 34
0.70633 -0.109887 1.75133 36 36 35
0.709832 -0.109017 1.73745 35 36 35
0.738194 -0.111937 1.784 36 37 35
0.714365 -0.10697 1.70483 36 37 35
0.766716 -0.113392 1.80718 35 37 34
0.771023 -0.112638 1.79517 34 36 34
0.766825 -0.110675 1.76388 34 36 33
0.795113 -0.113392 1.80718 35 36 34
0.820991 -0.115705 1.84404 35 37 35
0.826169 -0.11508 1.8341 35 36 34
0.798061 -0.109887 1.75133 35 36 34
0.832975 -0.113392 1.80718 35 36 35
0.859626 -0.115705 1.84404 35 36 35
0.83986 -0.111788 1.78162 34 35 34
0.830419 -0.109317 1.74224 33 35 33
0.842643 -0.10972 1.74867 34 36 34
0.881663 -0.113567 1.80997 35 37 36
0.883856 -0.112638 1.79517 35 38 36
0.866921 -0.109317 1.74224 35 37 36
0.910104 -0.113567 1.80997 34 36 35
0.919584 -0.113567 1.80997 33 36 34
0.897598 -0.10972 1.74867 33 36 34
0.94087 -0.113848 1.81445 33 36 35
0.971933 -0.116431 1.85562 34 37 35
1.00663 -0.119393 1.90282 33 36 35
0.959077 -0.112638 1.79517 32 35 34
0.9483 -0.110291 1.75776 32 35 35
0.957507 -0.110291 1.75776 33 36 36
0.966714 -0.110291 1.75776 34 36 36
0.975921 -0.110291 1.75776 34 36 36
1.03348 -0.115705 1.84404 34 36 36
1.06028 -0.117605 1.87433 33 36 36
1.06236 -0.116756 1.86079 33 37 37
1.0343 -0.112638 1.79517 34 37 37
1.16279 -0.12549 2 33 37 37
1.12682 -0.120523 1.92083 32 36 36
1.10135 -0.116756 1.86079 30 36 35
1.05784 -0.111159 1.7716 31 36 36
1.15701 -0.120523 1.92083 32 37 37
1.21517 -0.12549 2 34 39 39
1.17029 -0.119822 1.90967 35 39 40
1.18029 -0.119822 1.90967 34 39 39
1.2466 -0.12549 2 33 38 39
-0.520119 -0.0475953 0.82751 36 37 35
-0.553987 -0.0511205 0.8888 36 38 35
-0.578843 -0.0538669 0.936549 36 38 35
-0.569651 -0.0534645 0.929553 36 38 35
-0.567018 -0.0536762 0.933233 37 38 35
-0.567582 -0.0541967 0.942284 37 37 35
-0.578118 -0.0556871 0.968195 37 37 34
-0.573047 -0.0556871 0.968195 37 37 34
-0.566995 -0.055591 0.966525 38 38 34
-0.581395 -0.0575163 1 38 38 34
-0.557833 -0.0556871 0.968195 37 37 33
-0.57092 -0.0575163 1 36 37 32
-0.584618 -0.0594417 1.03348 36 37 33
-0.578269 -0.0593456 1.0318 37 37 34
-0.538388 -0.055774 0.969708 36 37 34
-0.566628 -0.0592586 1.03029 36 37 33
-0.561232 -0.0592586 1.03029 37 37 34
-0.555835 -0.0592586 1.03029 37 38 35
-0.534255 -0.0575163 1 38 38 35
-0.529017 -0.0575163 1 37 38 34
-0.539646 -0.0592586 1.03029 37 37 34
-0.567692 -0.0629681 1.09479 36 37 33
-0.530487 -0.0594417 1.03348 35 37 33
-0.556224 -0.0629681 1.09479 36 37 33
-0.520594 -0.0595485 1.03533 36 38 34
-0.532644 -0.0615682 1.07045 36 37 33
