ply
format ascii 1.0
element vertex 1453
property float x
property float y
property float z
property uchar red
property uchar green
property uchar blue
end_header
0.684269 -0.758987 1.81445 0 0 0
0.693772 -0.758987 1.81445 0 0 0
0.721237 -0.77837 1.86079 0 0 0
0.705204 -0.75092 1.79517 0 0 0
0.690158 -0.725229 1.73375 0 0 0
0.748389 -0.776205 1.85562 0 0 0
0.817096 -0.836601 2 0 0 0
0.750795 -0.758987 1.81445 0 0 0
0.772697 -0.771364 1.84404 0 0 0
0.814935 -0.803486 1.92083 0 0 0
0.824996 -0.803486 1.92083 0 0 0
0.814843 -0.784035 1.87433 0 0 0
0.87995 -0.836601 2 0 0 0
0.828448 -0.77837 1.86079 0 0 0
0.872319 -0.81006 1.93655 0 0 0
0.830642 -0.76249 1.82283 0 0 0
0.921852 -0.836601 2 0 0 0
0.932328 -0.836601 2 0 0 0
0.859285 -0.76249 1.82283 0 0 0
0.910222 -0.798814 1.90967 0 0 0
0.925606 -0.803486 1.92083 0 0 0
0.83045 -0.713133 1.70483 0 0 0
0.984706 -0.836601 2 0 0 0
0.942866 -0.792622 1.89486 0 0 0
0.876047 -0.728779 1.74224 0 0 0
0.926118 -0.76249 1.82283 0 0 0
1.02661 -0.836601 2 0 0 0
0.996032 -0.803486 1.92083 0 0 0
1.00024 -0.798814 1.90967 0 0 0
1.00242 -0.792622 1.89486 0 0 0
0.939093 -0.735273 1.75776 0 0 0
1.02227 -0.792622 1.89486 0 0 0
1.08946 -0.836601 2 0 0 0
1.04212 -0.792622 1.89486 0 0 0
1.197 -0.901839 2.15596 0 0 0
1.17981 -0.88058 2.10514 0 0 0
1.13136 -0.836601 2 0 0 0
1.14184 -0.836601 2 0 0 0
1.15232 -0.836601 2 0 0 0
0.991182 -0.713133 1.70483 0 0 0
1.17327 -0.836601 2 0 0 0
1.18374 -0.836601 2 0 0 0
1.19422 -0.836601 2 0 0 0
1.20469 -0.836601 2 0 0 0
1.39451 -0.96007 2.29517 0 0 0
1.40653 -0.96007 2.29517 0 0 0
1.23612 -0.836601 2 0 0 0
1.01327 -0.680017 1.62567 0 0 0
-0.499791 -0.328461 0.795167 0 0 0
-0.553987 -0.367138 0.8888 0 0 0
-0.511451 -0.341821 0.82751 0 0 0
-0.487296 -0.328461 0.795167 0 0 0
-0.468812 -0.318726 0.771599 0 0 0
-0.518494 -0.355569 0.860791 0 0 0
-0.513986 -0.355569 0.860791 0 0 0
-0.477745 -0.333422 0.807177 0 0 0
-0.473517 -0.333422 0.807177 0 0 0
-0.495862 -0.352302 0.852883 0 0 0
-0.495951 -0.355569 0.860791 0 0 0
-0.486928 -0.352302 0.852883 0 0 0
-0.502778 -0.367138 0.8888 0 0 0
-0.490015 -0.361163 0.874334 0 0 0
-0.516094 -0.383972 0.929553 0 0 0
-0.495139 -0.37189 0.900304 0 0 0
-0.468899 -0.355569 0.860791 0 0 0
-0.434438 -0.332635 0.805271 0 0 0
-0.485994 -0.375757 0.909666 0 0 0
-0.476277 -0.37189 0.900304 0 0 0
-0.474132 -0.373918 0.905214 0 0 0
-0.453379 -0.361163 0.874334 0 0 0
-0.448799 -0.361163 0.874334 0 0 0
-0.472275 -0.383972 0.929553 0 0 0
-0.467406 -0.383972 0.929553 0 0 0
-0.466018 -0.386862 0.936549 0 0 0
-0.462591 -0.388102 0.939552 0 0 0
-0.487115 -0.413072 1 0 0 0
-0.438347 -0.375757 0.909666 0 0 0
-0.476639 -0.413072 1 0 0 0
-0.454746 -0.398477 0.964669 0 0 0
-0.466164 -0.413072 1 0 0 0
-0.44261 -0.396658 0.960263 0 0 0
-0.455688 -0.413072 1 0 0 0
-0.435371 -0.399244 0.966525 0 0 0
-0.445213 -0.413072 1 0 0 0
-0.439975 -0.413072 1 0 0 0
-0.463763 -0.440651 1.06677 0 0 0
-0.459756 -0.442171 1.07045 0 0 0
-0.409272 -0.398477 0.964669 0 0 0
-0.40335 -0.397621 0.962595 0 0 0
-0.413786 -0.413072 1 0 0 0
-0.408548 -0.413072 1 0 0 0
-0.420402 -0.430577 1.04238 0 0 0
-0.414942 -0.430577 1.04238 0 0 0
-0.423934 -0.445773 1.07917 0 0 0
-0.433332 -0.461813 1.118 0 0 0
-0.398563 -0.430577 1.04238 0 0 0
-0.424513 -0.464981 1.12567 0 0 0
-0.386661 -0.429486 1.03974 0 0 0
-0.415918 -0.468583 1.13439 0 0 0
-0.391905 -0.447929 1.08438 0 0 0
-0.404034 -0.468583 1.13439 0 0 0
-0.369507 -0.434935 1.05293 0 0 0
-0.395608 -0.472713 1.14438 0 0 0
-0.422928 -0.513134 1.24224 0 0 0
-0.409649 -0.504788 1.22203 0 0 0
-0.347447 -0.434935 1.05293 0 0 0
-0.379788 -0.483088 1.1695 0 0 0
-0.406283 -0.525262 1.2716 0 0 0
-0.372579 -0.489716 1.18555 0 0 0
-0.36637 -0.489716 1.18555 0 0 0
-0.401865 -0.546423 1.32283 0 0 0
-0.378044 -0.523052 1.26625 0 0 0
-0.409136 -0.576179 1.39486 0 0 0
-0.36478 -0.523052 1.26625 0 0 0
-0.347442 -0.507418 1.2284 0 0 0
-0.359542 -0.534997 1.29517 0 0 0
-0.314843 -0.477494 1.15596 0 0 0
-0.355413 -0.549592 1.3305 0 0 0
-0.374385 -0.590508 1.42955 0 0 0
-0.352726 -0.567699 1.37433 0 0 0
-0.337911 -0.555186 1.34404 0 0 0
-0.369265 -0.619608 1.5 0 0 0
-0.361408 -0.619608 1.5 0 0 0
-0.336947 -0.590508 1.42955 0 0 0
-0.332393 -0.595767 1.44228 0 0 0
-0.353704 -0.648707 1.57045 0 0 0
-0.345479 -0.648707 1.57045 0 0 0
-0.349111 -0.671517 1.62567 0 0 0
-0.32636 -0.643449 1.55772 0 0 0
-0.338269 -0.68403 1.65596 0 0 0
-0.346768 -0.719669 1.74224 0 0 0
-0.337643 -0.719669 1.74224 0 0 0
-0.312249 -0.68403 1.65596 0 0 0
-0.303575 -0.68403 1.65596 0 0 0
-0.294901 -0.68403 1.65596 0 0 0
-0.303824 -0.726082 1.75776 0 0 0
-0.263222 -0.648707 1.57045 0 0 0
-0.295976 -0.752959 1.82283 0 0 0
-0.278378 -0.731798 1.7716 0 0 0
-0.253591 -0.689624 1.6695 0 0 0
-0.25982 -0.731798 1.7716 0 0 0
-0.253873 -0.741533 1.79517 0 0 0
-0.223937 -0.679249 1.64438 0 0 0
-0.226325 -0.713954 1.7284 0 0 0
-0.230559 -0.757613 1.8341 0 0 0
-0.216263 -0.741533 1.79517 0 0 0
-0.210047 -0.752959 1.82283 0 0 0
-0.197457 -0.741533 1.79517 0 0 0
-0.190952 -0.752959 1.82283 0 0 0
-0.178652 -0.741533 1.79517 0 0 0
-0.162607 -0.712434 1.72472 0 0 0
-0.161164 -0.747648 1.80997 0 0 0
-0.152762 -0.752959 1.82283 0 0 0
-0.139689 -0.734428 1.77797 0 0 0
-0.129518 -0.729588 1.76625 0 0 0
-0.124119 -0.752959 1.82283 0 0 0
-0.112833 -0.741533 1.79517 0 0 0
-0.101764 -0.729588 1.76625 0 0 0
-0.0925126 -0.729588 1.76625 0 0 0
-0.0832613 -0.729588 1.76625 0 0 0
-0.0752218 -0.741533 1.79517 0 0 0
-0.0647588 -0.729588 1.76625 0 0 0
-0.0535774 -0.704219 1.70483 0 0 0
-0.0446478 -0.704219 1.70483 0 0 0
-0.0384265 -0.757613 1.8341 0 0 0
-0.0284408 -0.747648 1.80997 0 0 0
-0.0188054 -0.741533 1.79517 0 0 0
-0.00925126 -0.729588 1.76625 0 0 0
0 -0.747648 1.80997 0 0 0
0.00948025 -0.747648 1.80997 0 0 0
0.0190952 -0.752959 1.82283 0 0 0
0.0298998 -0.786002 1.90282 0 0 0
0.0383511 -0.756128 1.8305 0 0 0
0.047738 -0.752959 1.82283 0 0 0
0.054118 -0.711324 1.72203 0 0 0
0.0644476 -0.726082 1.75776 0 0 0
0.0732733 -0.722326 1.74867 0 0 0
0.0846245 -0.741533 1.79517 0 0 0
0.0912549 -0.719669 1.74224 0 0 0
0.104283 -0.747648 1.80997 0 0 0
0.108405 -0.712434 1.72472 0 0 0
0.118631 -0.719669 1.74224 0 0 0
0.136804 -0.770633 1.86561 0 0 0
0.138102 -0.726082 1.75776 0 0 0
0.150444 -0.741533 1.79517 0 0 0
0.155706 -0.722326 1.74867 0 0 0
0.166523 -0.729588 1.76625 0 0 0
0.174024 -0.722326 1.74867 0 0 0
0.185025 -0.729588 1.76625 0 0 0
0.189708 -0.712434 1.72472 0 0 0
0.204878 -0.734428 1.77797 0 0 0
0.223545 -0.766503 1.85562 0 0 0
0.21431 -0.704219 1.70483 0 0 0
0.223239 -0.704219 1.70483 0 0 0
0.244471 -0.741533 1.79517 0 0 0
0.248584 -0.726082 1.75776 0 0 0
0.247199 -0.696252 1.68555 0 0 0
0.265616 -0.722326 1.74867 0 0 0
0.279954 -0.735939 1.78162 0 0 0
0.276817 -0.704219 1.70483 0 0 0
0.293093 -0.722326 1.74867 0 0 0
0.307949 -0.735939 1.78162 0 0 0
0.311412 -0.722326 1.74867 0 0 0
0.331809 -0.747648 1.80997 0 0 0
0.338498 -0.741533 1.79517 0 0 0
0.345276 -0.735939 1.78162 0 0 0
0.346768 -0.719669 1.74224 0 0 0
0.36394 -0.735939 1.78162 0 0 0
0.401344 -0.791287 1.91561 0 0 0
0.398493 -0.766503 1.85562 0 0 0
0.405666 -0.761722 1.84404 0 0 0
0.407651 -0.747648 1.80997 0 0 0
0.410598 -0.735939 1.78162 0 0 0
0.426611 -0.747648 1.80997 0 0 0
0.449498 -0.770633 1.86561 0 0 0
0.434809 -0.729588 1.76625 0 0 0
0.433619 -0.712434 1.72472 0 0 0
0.460733 -0.741533 1.79517 0 0 0
0.456274 -0.719669 1.74224 0 0 0
0.495686 -0.766503 1.85562 0 0 0
0.488941 -0.741533 1.79517 0 0 0
0.502453 -0.747648 1.80997 0 0 0
0.511934 -0.747648 1.80997 0 0 0
0.496855 -0.712434 1.72472 0 0 0
0.51807 -0.729588 1.76625 0 0 0
0.540374 -0.747648 1.80997 0 0 0
0.541243 -0.735939 1.78162 0 0 0
0.573441 -0.766503 1.85562 0 0 0
0.564163 -0.741533 1.79517 0 0 0
0.537442 -0.694831 1.68211 0 0 0
0.573578 -0.729588 1.76625 0 0 0
0.597256 -0.747648 1.80997 0 0 0
0.601774 -0.741533 1.79517 0 0 0
0.627816 -0.761722 1.84404 0 0 0
0.620579 -0.741533 1.79517 0 0 0
0.629982 -0.741533 1.79517 0 0 0
0.646254 -0.749499 1.81445 0 0 0
0.666451 -0.761722 1.84404 0 0 0
0.694743 -0.782715 1.89486 0 0 0
0.701187 -0.778848 1.8855 0 0 0
0.706851 -0.774235 1.87433 0 0 0
0.720939 -0.778848 1.8855 0 0 0
0.714745 -0.761722 1.84404 0 0 0
0.724404 -0.761722 1.84404 0 0 0
0.722284 -0.749499 1.81445 0 0 0
0.78103 -0.799934 1.93655 0 0 0
0.788315 -0.797044 1.92955 0 0 0
0.775573 -0.774235 1.87433 0 0 0
0.78539 -0.774235 1.87433 0 0 0
0.751621 -0.731798 1.7716 0 0 0
0.771023 -0.741533 1.79517 0 0 0
0.844383 -0.802303 1.94228 0 0 0
0.801999 -0.752959 1.82283 0 0 0
0.820991 -0.761722 1.84404 0 0 0
0.849325 -0.778848 1.8855 0 0 0
0.879275 -0.797044 1.92955 0 0 0
0.769517 -0.689624 1.6695 0 0 0
0.849737 -0.752959 1.82283 0 0 0
0.846245 -0.741533 1.79517 0 0 0
0.878943 -0.761722 1.84404 0 0 0
0.896673 -0.76864 1.86079 0 0 0
0.935667 -0.793442 1.92083 0 0 0
0.897475 -0.752959 1.82283 0 0 0
0.960128 -0.797044 1.92955 0 0 0
0.952791 -0.782715 1.89486 0 0 0
1.01613 -0.826144 2 0 0 0
0.985971 -0.793442 1.92083 0 0 0
0.982566 -0.782715 1.89486 0 0 0
1.00609 -0.793442 1.92083 0 0 0
0.97553 -0.761722 1.84404 0 0 0
1.06851 -0.826144 2 0 0 0
1.07899 -0.826144 2 0 0 0
1.08946 -0.826144 2 0 0 0
0.937604 -0.704219 1.70483 0 0 0
1.11041 -0.826144 2 0 0 0
1.20829 -0.890566 2.15596 0 0 0
1.08026 -0.788829 1.90967 0 0 0
1.31036 -0.948069 2.29517 0 0 0
1.15232 -0.826144 2 0 0 0
1.16279 -0.826144 2 0 0 0
1.26476 -0.890566 2.15596 0 0 0
1.18374 -0.826144 2 0 0 0
1.10109 -0.761722 1.84404 0 0 0
1.32807 -0.910755 2.20483 0 0 0
1.03583 -0.704219 1.70483 0 0 0
1.04476 -0.704219 1.70483 0 0 0
1.33251 -0.890566 2.15596 0 0 0
1.06262 -0.704219 1.70483 0 0 0
-0.430891 -0.279596 0.685547 0 0 0
-0.495626 -0.324303 0.795167 0 0 0
-0.505507 -0.333572 0.817894 0 0 0
-0.494656 -0.329202 0.807177 0 0 0
-0.518198 -0.347843 0.852883 0 0 0
-0.513731 -0.347843 0.852883 0 0 0
-0.474801 -0.324303 0.795167 0 0 0
-0.517493 -0.356591 0.874334 0 0 0
-0.495143 -0.344237 0.844042 0 0 0
-0.504595 -0.353969 0.867904 0 0 0
-0.471236 -0.333572 0.817894 0 0 0
-0.472442 -0.337494 0.82751 0 0 0
-0.477459 -0.344237 0.844042 0 0 0
-0.482425 -0.351068 0.860791 0 0 0
-0.488678 -0.358973 0.880174 0 0 0
-0.47732 -0.353969 0.867904 0 0 0
-0.472774 -0.353969 0.867904 0 0 0
-0.471697 -0.356591 0.874334 0 0 0
-0.463682 -0.353969 0.867904 0 0 0
-0.493697 -0.380613 0.933233 0 0 0
-0.461017 -0.358973 0.880174 0 0 0
-0.453379 -0.356591 0.874334 0 0 0
-0.477143 -0.379112 0.929553 0 0 0
-0.44422 -0.356591 0.874334 0 0 0
-0.472433 -0.38319 0.939552 0 0 0
-0.464368 -0.380613 0.933233 0 0 0
-0.445685 -0.369185 0.905214 0 0 0
-0.454592 -0.380613 0.933233 0 0 0
-0.436202 -0.369185 0.905214 0 0 0
-0.459799 -0.393433 0.964669 0 0 0
-0.454746 -0.393433 0.964669 0 0 0
-0.481769 -0.421496 1.03348 0 0 0
-0.460926 -0.407843 1 0 0 0
-0.440434 -0.39419 0.966525 0 0 0
-0.45045 -0.407843 1 0 0 0
-0.430309 -0.39419 0.966525 0 0 0
-0.439975 -0.407843 1 0 0 0
-0.450998 -0.423099 1.03741 0 0 0
-0.415122 -0.39419 0.966525 0 0 0
-0.394374 -0.379112 0.929553 0 0 0
-0.434697 -0.423099 1.03741 0 0 0
-0.413786 -0.407843 1 0 0 0
-0.424783 -0.42405 1.03974 0 0 0
-0.435239 -0.440131 1.07917 0 0 0
-0.445044 -0.455967 1.118 0 0 0
-0.392835 -0.407843 1 0 0 0
-0.402095 -0.423099 1.03741 0 0 0
-0.414624 -0.442259 1.08438 0 0 0
-0.394241 -0.426358 1.0454 0 0 0
-0.415764 -0.455967 1.118 0 0 0
-0.382184 -0.425127 1.04238 0 0 0
-0.425439 -0.480101 1.17717 0 0 0
-0.388345 -0.444685 1.09033 0 0 0
-0.380546 -0.442259 1.08438 0 0 0
-0.38204 -0.450722 1.10514 0 0 0
-0.410193 -0.491383 1.20483 0 0 0
-0.403883 -0.491383 1.20483 0 0 0
-0.385913 -0.476973 1.1695 0 0 0
-0.379788 -0.476973 1.1695 0 0 0
-0.384951 -0.491383 1.20483 0 0 0
-0.397941 -0.516431 1.26625 0 0 0
-0.415349 -0.548158 1.34404 0 0 0
-0.346083 -0.464619 1.13921 0 0 0
-0.378044 -0.516431 1.26625 0 0 0
-0.353397 -0.491383 1.20483 0 0 0
-0.353876 -0.500995 1.2284 0 0 0
-0.394524 -0.568885 1.39486 0 0 0
-0.376323 -0.552878 1.35562 0 0 0
-0.379912 -0.568885 1.39486 0 0 0
-0.355413 -0.542635 1.3305 0 0 0
-0.355022 -0.552878 1.35562 0 0 0
-0.352726 -0.560513 1.37433 0 0 0
-0.362611 -0.588226 1.44228 0 0 0
-0.355056 -0.588226 1.44228 0 0 0
-0.347502 -0.588226 1.44228 0 0 0
-0.3136 -0.542635 1.3305 0 0 0
-0.309752 -0.548158 1.34404 0 0 0
-0.353704 -0.640496 1.57045 0 0 0
-0.306852 -0.568885 1.39486 0 0 0
-0.30973 -0.588226 1.44228 0 0 0
-0.340596 -0.663017 1.62567 0 0 0
-0.359065 -0.716891 1.75776 0 0 0
-0.310042 -0.635304 1.55772 0 0 0
-0.311073 -0.654644 1.60514 0 0 0
-0.314802 -0.680895 1.6695 0 0 0
-0.274984 -0.611765 1.5 0 0 0
-0.303605 -0.695304 1.70483 0 0 0
-0.303824 -0.716891 1.75776 0 0 0
-0.294618 -0.716891 1.75776 0 0 0
-0.263962 -0.663017 1.62567 0 0 0
-0.262335 -0.680895 1.6695 0 0 0
-0.269099 -0.722535 1.7716 0 0 0
-0.250028 -0.695304 1.70483 0 0 0
-0.253873 -0.732147 1.79517 0 0 0
-0.236107 -0.707098 1.73375 0 0 0
-0.23869 -0.743428 1.82283 0 0 0
-0.219012 -0.71056 1.74224 0 0 0
-0.211756 -0.716891 1.75776 0 0 0
-0.205299 -0.726623 1.78162 0 0 0
-0.191635 -0.71056 1.74224 0 0 0
-0.195434 -0.760878 1.86561 0 0 0
-0.180125 -0.738184 1.80997 0 0 0
-0.166523 -0.720353 1.76625 0 0 0
-0.151803 -0.695304 1.70483 0 0 0
-0.14454 -0.703416 1.72472 0 0 0
-0.138769 -0.720353 1.76625 0 0 0
-0.129518 -0.720353 1.76625 0 0 0
-0.116084 -0.695304 1.70483 0 0 0
-0.111981 -0.726623 1.78162 0 0 0
-0.104283 -0.738184 1.80997 0 0 0
-0.0925126 -0.720353 1.76625 0 0 0
-0.0846245 -0.732147 1.79517 0 0 0
-0.07401 -0.720353 1.76625 0 0 0
-0.0663618 -0.738184 1.80997 0 0 0
-0.0559907 -0.726623 1.78162 0 0 0
-0.046034 -0.716891 1.75776 0 0 0
-0.0361349 -0.703416 1.72472 0 0 0
-0.0273765 -0.71056 1.74224 0 0 0
-0.018251 -0.71056 1.74224 0 0 0
-0.00925126 -0.720353 1.76625 0 0 0
0 -0.748023 1.8341 0 0 0
0.00925126 -0.720353 1.76625 0 0 0
0.0193174 -0.75208 1.84404 0 0 0
0.0279954 -0.726623 1.78162 0 0 0
0.0366367 -0.713182 1.74867 0 0 0
0.0451687 -0.703416 1.72472 0 0 0
0.0535774 -0.695304 1.70483 0 0 0
0.0647588 -0.720353 1.76625 0 0 0
0.0752218 -0.732147 1.79517 0 0 0
0.081177 -0.70232 1.72203 0 0 0
0.0933178 -0.726623 1.78162 0 0 0
0.104283 -0.738184 1.80997 0 0 0
0.10991 -0.713182 1.74867 0 0 0
0.120266 -0.720353 1.76625 0 0 0
0.127757 -0.71056 1.74224 0 0 0
0.139977 -0.726623 1.78162 0 0 0
0.140555 -0.684023 1.67717 0 0 0
0.150085 -0.687439 1.68555 0 0 0
0.164865 -0.713182 1.74867 0 0 0
0.174024 -0.713182 1.74867 0 0 0
0.193174 -0.75208 1.84404 0 0 0
0.199085 -0.738184 1.80997 0 0 0
0.20686 -0.732147 1.79517 0 0 0
0.208219 -0.704916 1.7284 0 0 0
0.21431 -0.695304 1.70483 0 0 0
0.237006 -0.738184 1.80997 0 0 0
0.240533 -0.720353 1.76625 0 0 0
0.249784 -0.720353 1.76625 0 0 0
0.252945 -0.703416 1.72472 0 0 0
0.270622 -0.726623 1.78162 0 0 0
0.279954 -0.726623 1.78162 0 0 0
0.295976 -0.743428 1.82283 0 0 0
0.311019 -0.7568 1.85562 0 0 0
0.317018 -0.748023 1.8341 0 0 0
0.314543 -0.720353 1.76625 0 0 0
0.326612 -0.726623 1.78162 0 0 0
0.345838 -0.748023 1.8341 0 0 0
0.337643 -0.71056 1.74224 0 0 0
0.351548 -0.720353 1.76625 0 0 0
0.36394 -0.726623 1.78162 0 0 0
0.381904 -0.743428 1.82283 0 0 0
0.349111 -0.663017 1.62567 0 0 0
0.418597 -0.776052 1.90282 0 0 0
0.415325 -0.75208 1.84404 0 0 0
0.410598 -0.726623 1.78162 0 0 0
0.429642 -0.743428 1.82283 0 0 0
0.43919 -0.743428 1.82283 0 0 0
0.441928 -0.732147 1.79517 0 0 0
0.466528 -0.7568 1.85562 0 0 0
0.464532 -0.738184 1.80997 0 0 0
0.456274 -0.71056 1.74224 0 0 0
0.479539 -0.732147 1.79517 0 0 0
0.492973 -0.738184 1.80997 0 0 0
0.502453 -0.738184 1.80997 0 0 0
0.538196 -0.776052 1.90282 0 0 0
0.513248 -0.726623 1.78162 0 0 0
0.511027 -0.71056 1.74224 0 0 0
0.554002 -0.7568 1.85562 0 0 0
0.563721 -0.7568 1.85562 0 0 0
0.540391 -0.713182 1.74867 0 0 0
0.572856 -0.743428 1.82283 0 0 0
0.573566 -0.732147 1.79517 0 0 0
0.582969 -0.732147 1.79517 0 0 0
0.608499 -0.75208 1.84404 0 0 0
0.601774 -0.732147 1.79517 0 0 0
0.617743 -0.740012 1.81445 0 0 0
0.604505 -0.713182 1.74867 0 0 0
0.654704 -0.760878 1.86561 0 0 0
0.677728 -0.776052 1.90282 0 0 0
0.642571 -0.725131 1.77797 0 0 0
0.663618 -0.738184 1.80997 0 0 0
0.656839 -0.720353 1.76625 0 0 0
0.717594 -0.776052 1.90282 0 0 0
0.679821 -0.725131 1.77797 0 0 0
0.754679 -0.794099 1.94707 0 0 0
0.71278 -0.740012 1.81445 0 0 0
0.775075 -0.794099 1.94707 0 0 0
0.708924 -0.716891 1.75776 0 0 0
0.765756 -0.764434 1.87433 0 0 0
0.775573 -0.764434 1.87433 0 0 0
0.772697 -0.75208 1.84404 0 0 0
0.769802 -0.740012 1.81445 0 0 0
0.805025 -0.764434 1.87433 0 0 0
0.808955 -0.758911 1.86079 0 0 0
0.840205 -0.778844 1.90967 0 0 0
0.859062 -0.786955 1.92955 0 0 0
0.838194 -0.758911 1.86079 0 0 0
0.840308 -0.75208 1.84404 0 0 0
0.921852 -0.815686 2 0 0 0
0.895423 -0.783399 1.92083 0 0 0
0.821294 -0.71056 1.74224 0 0 0
0.830419 -0.71056 1.74224 0 0 0
0.853693 -0.722535 1.7716 0 0 0
0.874453 -0.732147 1.79517 0 0 0
0.907919 -0.75208 1.84404 0 0 0
0.881531 -0.722535 1.7716 0 0 0
0.960234 -0.778844 1.90967 0 0 0
0.970236 -0.778844 1.90967 0 0 0
0.980239 -0.778844 1.90967 0 0 0
0.982566 -0.772807 1.89486 0 0 0
0.940272 -0.732147 1.79517 0 0 0
1.11365 -0.858566 2.10514 0 0 0
1.06851 -0.815686 2 0 0 0
0.96848 -0.732147 1.79517 0 0 0
1.08946 -0.815686 2 0 0 0
1.09994 -0.815686 2 0 0 0
1.02382 -0.75208 1.84404 0 0 0
1.20829 -0.879293 2.15596 0 0 0
1.06028 -0.764434 1.87433 0 0 0
1.07009 -0.764434 1.87433 0 0 0
1.15232 -0.815686 2 0 0 0
1.25346 -0.879293 2.15596 0 0 0
1.23494 -0.858566 2.10514 0 0 0
1.09143 -0.75208 1.84404 0 0 0
1.10109 -0.75208 1.84404 0 0 0
1.129 -0.764434 1.87433 0 0 0
1.44261 -0.968356 2.37433 0 0 0
1.35117 -0.899226 2.20483 0 0 0
1.10952 -0.732147 1.79517 0 0 0
1.11892 -0.732147 1.79517 0 0 0
-0.536067 -0.343383 0.852883 0 0 0
-0.526089 -0.339823 0.844042 0 0 0
-0.491461 -0.320146 0.795167 0 0 0
-0.512431 -0.336659 0.836183 0 0 0
-0.476346 -0.315649 0.784 0 0 0
-0.535366 -0.357844 0.8888 0 0 0
-0.513986 -0.346567 0.860791 0 0 0
-0.489779 -0.333167 0.82751 0 0 0
-0.524956 -0.360285 0.894863 0 0 0
-0.50046 -0.346567 0.860791 0 0 0
-0.491395 -0.343383 0.852883 0 0 0
-0.48188 -0.339823 0.844042 0 0 0
-0.490957 -0.349431 0.867904 0 0 0
-0.498123 -0.357844 0.8888 0 0 0
-0.464254 -0.336659 0.836183 0 0 0
-0.455104 -0.333167 0.82751 0 0 0
-0.459775 -0.339823 0.844042 0 0 0
-0.490758 -0.366244 0.909666 0 0 0
-0.483615 -0.364452 0.905214 0 0 0
-0.483374 -0.367877 0.91372 0 0 0
-0.457958 -0.352019 0.874334 0 0 0
-0.487197 -0.378277 0.939552 0 0 0
-0.46465 -0.364452 0.905214 0 0 0
-0.474144 -0.375733 0.933233 0 0 0
-0.442577 -0.354371 0.880174 0 0 0
-0.464368 -0.375733 0.933233 0 0 0
-0.443267 -0.362475 0.900304 0 0 0
-0.435901 -0.360285 0.894863 0 0 0
-0.452749 -0.378277 0.939552 0 0 0
-0.42912 -0.362475 0.900304 0 0 0
-0.456409 -0.389809 0.968195 0 0 0
-0.448727 -0.387555 0.962595 0 0 0
-0.477211 -0.416839 1.03533 0 0 0
-0.440434 -0.389137 0.966525 0 0 0
-0.45045 -0.402614 1 0 0 0
-0.460943 -0.416839 1.03533 0 0 0
-0.42443 -0.388389 0.964669 0 0 0
-0.434737 -0.402614 1 0 0 0
-0.429499 -0.402614 1 0 0 0
-0.440131 -0.417674 1.03741 0 0 0
-0.419024 -0.402614 1 0 0 0
-0.446544 -0.434488 1.07917 0 0 0
-0.408548 -0.402614 1 0 0 0
-0.433379 -0.432631 1.07455 0 0 0
-0.42775 -0.432631 1.07455 0 0 0
-0.408445 -0.418613 1.03974 0 0 0
-0.401291 -0.416839 1.03533 0 0 0
-0.395868 -0.416839 1.03533 0 0 0
-0.406977 -0.434488 1.07917 0 0 0
-0.403265 -0.436589 1.08438 0 0 0
-0.419584 -0.460746 1.14438 0 0 0
-0.409976 -0.45672 1.13439 0 0 0
-0.407596 -0.460746 1.14438 0 0 0
-0.401602 -0.460746 1.14438 0 0 0
-0.399608 -0.465405 1.15596 0 0 0
-0.398165 -0.470858 1.1695 0 0 0
-0.397418 -0.477318 1.18555 0 0 0
-0.397572 -0.485083 1.20483 0 0 0
-0.412943 -0.511964 1.2716 0 0 0
-0.399807 -0.503804 1.25133 0 0 0
-0.415722 -0.53259 1.32283 0 0 0
-0.379613 -0.494572 1.2284 0 0 0
-0.377382 -0.500143 1.24224 0 0 0
-0.366744 -0.494572 1.2284 0 0 0
-0.364369 -0.500143 1.24224 0 0 0
-0.36478 -0.50981 1.26625 0 0 0
-0.366326 -0.521453 1.29517 0 0 0
-0.376323 -0.54579 1.35562 0 0 0
-0.352759 -0.521453 1.29517 0 0 0
-0.367123 -0.553327 1.37433 0 0 0
-0.392835 -0.603922 1.5 0 0 0
-0.357994 -0.561592 1.39486 0 0 0
-0.362611 -0.580684 1.44228 0 0 0
-0.343382 -0.561592 1.39486 0 0 0
-0.347502 -0.580684 1.44228 0 0 0
-0.353551 -0.603922 1.5 0 0 0
-0.369925 -0.646251 1.60514 0 0 0
-0.350837 -0.627159 1.55772 0 0 0
-0.329981 -0.603922 1.5 0 0 0
-0.33262 -0.623599 1.54887 0 0 0
-0.336295 -0.646251 1.60514 0 0 0
-0.338269 -0.666713 1.65596 0 0 0
-0.339324 -0.68639 1.70483 0 0 0
-0.290698 -0.603922 1.5 0 0 0
-0.321464 -0.68639 1.70483 0 0 0
-0.319392 -0.70145 1.74224 0 0 0
-0.303605 -0.68639 1.70483 0 0 0
-0.301141 -0.70145 1.74224 0 0 0
-0.292016 -0.70145 1.74224 0 0 0
-0.291484 -0.72276 1.79517 0 0 0
-0.289761 -0.742438 1.84404 0 0 0
-0.264639 -0.70145 1.74224 0 0 0
-0.267333 -0.733897 1.82283 0 0 0
-0.241098 -0.68639 1.70483 0 0 0
-0.240533 -0.711118 1.76625 0 0 0
-0.231281 -0.711118 1.76625 0 0 0
-0.21982 -0.704039 1.74867 0 0 0
-0.209886 -0.70145 1.74224 0 0 0
-0.20255 -0.7077 1.75776 0 0 0
-0.197457 -0.72276 1.79517 0 0 0
-0.188054 -0.72276 1.79517 0 0 0
-0.181405 -0.733897 1.82283 0 0 0
-0.167972 -0.717308 1.78162 0 0 0
-0.157271 -0.711118 1.76625 0 0 0
-0.147309 -0.7077 1.75776 0 0 0
-0.136882 -0.70145 1.74224 0 0 0
-0.131638 -0.72276 1.79517 0 0 0
-0.117439 -0.694397 1.72472 0 0 0
-0.105943 -0.678625 1.68555 0 0 0
-0.101764 -0.711118 1.76625 0 0 0
-0.0903373 -0.694397 1.72472 0 0 0
-0.0853223 -0.72872 1.80997 0 0 0
-0.075842 -0.72872 1.80997 0 0 0
-0.0653225 -0.717308 1.78162 0 0 0
-0.054955 -0.704039 1.74867 0 0 0
-0.0451687 -0.694397 1.72472 0 0 0
-0.0361349 -0.694397 1.72472 0 0 0
-0.0267887 -0.68639 1.70483 0 0 0
-0.0183183 -0.704039 1.74867 0 0 0
-0.00925126 -0.711118 1.76625 0 0 0
0 -0.694397 1.72472 0 0 0
0.00927928 -0.713271 1.7716 0 0 0
0.018251 -0.70145 1.74224 0 0 0
0.0277538 -0.711118 1.76625 0 0 0
0.037921 -0.72872 1.80997 0 0 0
0.0451687 -0.694397 1.72472 0 0 0
0.0528632 -0.67724 1.68211 0 0 0
0.0644476 -0.7077 1.75776 0 0 0
0.0736544 -0.7077 1.75776 0 0 0
0.0803661 -0.68639 1.70483 0 0 0
0.0960662 -0.738433 1.8341 0 0 0
0.0993711 -0.694397 1.72472 0 0 0
0.108405 -0.694397 1.72472 0 0 0
0.124119 -0.733897 1.82283 0 0 0
0.125014 -0.68639 1.70483 0 0 0
0.133943 -0.68639 1.70483 0 0 0
0.14802 -0.711118 1.76625 0 0 0
0.158315 -0.715834 1.77797 0 0 0
0.169249 -0.72276 1.79517 0 0 0
0.173384 -0.70145 1.74224 0 0 0
0.185025 -0.711118 1.76625 0 0 0
0.182145 -0.666713 1.65596 0 0 0
0.203528 -0.711118 1.76625 0 0 0
0.218046 -0.72872 1.80997 0 0 0
0.22203 -0.711118 1.76625 0 0 0
0.237006 -0.72872 1.80997 0 0 0
0.232169 -0.68639 1.70483 0 0 0
0.243911 -0.694397 1.72472 0 0 0
0.244013 -0.669877 1.66382 0 0 0
0.265616 -0.704039 1.74867 0 0 0
0.274775 -0.704039 1.74867 0 0 0
0.280046 -0.694397 1.72472 0 0 0
0.303368 -0.72872 1.80997 0 0 0
0.301141 -0.70145 1.74224 0 0 0
0.314543 -0.711118 1.76625 0 0 0
0.334166 -0.733897 1.82283 0 0 0
0.328517 -0.70145 1.74224 0 0 0
0.353261 -0.733897 1.82283 0 0 0
0.343282 -0.694397 1.72472 0 0 0
0.379054 -0.747097 1.85562 0 0 0
0.37921 -0.72872 1.80997 0 0 0
0.382603 -0.717308 1.78162 0 0 0
0.398171 -0.72872 1.80997 0 0 0
0.410547 -0.733897 1.82283 0 0 0
0.417131 -0.72872 1.80997 0 0 0
0.439727 -0.751123 1.86561 0 0 0
0.432525 -0.72276 1.79517 0 0 0
0.445572 -0.72872 1.80997 0 0 0
0.433619 -0.694397 1.72472 0 0 0
0.457257 -0.717308 1.78162 0 0 0
0.480331 -0.738433 1.8341 0 0 0
0.486928 -0.733897 1.82283 0 0 0
0.481065 -0.711118 1.76625 0 0 0
0.490317 -0.711118 1.76625 0 0 0
0.533297 -0.75913 1.8855 0 0 0
0.534563 -0.747097 1.85562 0 0 0
0.534666 -0.733897 1.82283 0 0 0
0.544213 -0.733897 1.82283 0 0 0
0.566759 -0.751123 1.86561 0 0 0
0.550575 -0.717308 1.78162 0 0 0
0.568815 -0.72872 1.80997 0 0 0
0.578295 -0.72872 1.80997 0 0 0
0.602599 -0.747097 1.85562 0 0 0
0.597256 -0.72872 1.80997 0 0 0
0.625389 -0.751123 1.86561 0 0 0
0.611177 -0.72276 1.79517 0 0 0
0.620579 -0.72276 1.79517 0 0 0
0.643643 -0.738433 1.8341 0 0 0
0.674894 -0.762899 1.89486 0 0 0
0.654137 -0.72872 1.80997 0 0 0
0.697661 -0.766103 1.90282 0 0 0
0.701187 -0.75913 1.8855 0 0 0
0.695427 -0.742438 1.84404 0 0 0
0.74448 -0.783919 1.94707 0 0 0
0.730815 -0.75913 1.8855 0 0 0
0.750183 -0.768859 1.90967 0 0 0
0.707759 -0.715834 1.77797 0 0 0
0.738259 -0.736985 1.8305 0 0 0
0.760223 -0.749181 1.86079 0 0 0
0.780194 -0.75913 1.8855 0 0 0
0.74501 -0.715834 1.77797 0 0 0
0.77661 -0.736985 1.8305 0 0 0
0.828742 -0.776866 1.92955 0 0 0
0.838848 -0.776866 1.92955 0 0 0
0.798314 -0.730525 1.81445 0 0 0
0.828448 -0.749181 1.86079 0 0 0
0.872319 -0.779682 1.93655 0 0 0
0.800991 -0.7077 1.75776 0 0 0
0.857687 -0.749181 1.86079 0 0 0
0.836842 -0.72276 1.79517 0 0 0
0.883564 -0.754634 1.87433 0 0 0
0.915545 -0.773355 1.92083 0 0 0
0.797969 -0.666713 1.65596 0 0 0
0.930227 -0.768859 1.90967 0 0 0
0.932941 -0.762899 1.89486 0 0 0
0.995181 -0.805229 2 0 0 0
0.91657 -0.733897 1.82283 0 0 0
0.926118 -0.733897 1.82283 0 0 0
0.935665 -0.733897 1.82283 0 0 0
1.03708 -0.805229 2 0 0 0
0.940272 -0.72276 1.79517 0 0 0
0.984391 -0.749181 1.86079 0 0 0
1.11677 -0.841599 2.09033 0 0 0
1.02227 -0.762899 1.89486 0 0 0
0.949051 -0.70145 1.74224 0 0 0
1.09994 -0.805229 2 0 0 0
1.11041 -0.805229 2 0 0 0
1.03348 -0.742438 1.84404 0 0 0
1.13136 -0.805229 2 0 0 0
1.00354 -0.7077 1.75776 0 0 0
1.15232 -0.805229 2 0 0 0
1.16279 -0.805229 2 0 0 0
1.0531 -0.72276 1.79517 0 0 0
1.00904 -0.68639 1.70483 0 0 0
1.19422 -0.805229 2 0 0 0
1.20469 -0.805229 2 0 0 0
1.03583 -0.68639 1.70483 0 0 0
1.35117 -0.887697 2.20483 0 0 0
1.23612 -0.805229 2 0 0 0
1.32492 -0.855824 2.12567 0 0 0
-0.541038 -0.342066 0.860791 0 0 0
-0.536529 -0.342066 0.860791 0 0 0
-0.511451 -0.328841 0.82751 0 0 0
-0.487296 -0.315988 0.795167 0 0 0
-0.523003 -0.342066 0.860791 0 0 0
-0.478966 -0.315988 0.795167 0 0 0
-0.468133 -0.31155 0.784 0 0 0
-0.489779 -0.328841 0.82751 0 0 0
-0.490532 -0.332287 0.836183 0 0 0
-0.50046 -0.342066 0.860791 0 0 0
-0.515582 -0.355606 0.894863 0 0 0
-0.491443 -0.342066 0.860791 0 0 0
-0.462668 -0.325019 0.817894 0 0 0
-0.524883 -0.372171 0.936549 0 0 0
-0.464254 -0.332287 0.836183 0 0 0
-0.492147 -0.355606 0.894863 0 0 0
-0.455494 -0.332287 0.836183 0 0 0
-0.471697 -0.347448 0.874334 0 0 0
-0.483615 -0.359719 0.905214 0 0 0
-0.478874 -0.359719 0.905214 0 0 0
-0.474132 -0.359719 0.905214 0 0 0
-0.487197 -0.373364 0.939552 0 0 0
-0.451797 -0.349769 0.880174 0 0 0
-0.477355 -0.373364 0.939552 0 0 0
-0.467406 -0.369391 0.929553 0 0 0
-0.467512 -0.373364 0.939552 0 0 0
-0.447876 -0.361488 0.909666 0 0 0
-0.422769 -0.344892 0.867904 0 0 0
-0.481877 -0.397386 1 0 0 0
-0.462201 -0.385348 0.969708 0 0 0
-0.471402 -0.397386 1 0 0 0
-0.481769 -0.410688 1.03348 0 0 0
-0.426562 -0.367759 0.925446 0 0 0
-0.455688 -0.397386 1 0 0 0
-0.45045 -0.397386 1 0 0 0
-0.445213 -0.397386 1 0 0 0
-0.439975 -0.397386 1 0 0 0
-0.448564 -0.410024 1.0318 0 0 0
-0.446566 -0.413177 1.03974 0 0 0
-0.424261 -0.397386 1 0 0 0
-0.387784 -0.367759 0.925446 0 0 0
-0.429264 -0.41225 1.03741 0 0 0
-0.425862 -0.414226 1.04238 0 0 0
-0.450899 -0.444276 1.118 0 0 0
-0.429587 -0.428845 1.07917 0 0 0
-0.408445 -0.413177 1.03974 0 0 0
-0.428348 -0.439166 1.10514 0 0 0
-0.424877 -0.441575 1.1112 0 0 0
-0.427801 -0.450789 1.13439 0 0 0
-0.425578 -0.454762 1.14438 0 0 0
-0.441747 -0.478783 1.20483 0 0 0
-0.376724 -0.414226 1.04238 0 0 0
-0.407596 -0.454762 1.14438 0 0 0
-0.41762 -0.472901 1.19003 0 0 0
-0.399608 -0.459361 1.15596 0 0 0
-0.383241 -0.447323 1.12567 0 0 0
-0.41947 -0.497261 1.25133 0 0 0
-0.412916 -0.497261 1.25133 0 0 0
-0.379788 -0.464743 1.1695 0 0 0
-0.373662 -0.464743 1.1695 0 0 0
-0.36328 -0.459361 1.15596 0 0 0
-0.392962 -0.505315 1.2716 0 0 0
-0.377382 -0.493647 1.24224 0 0 0
-0.364844 -0.485619 1.22203 0 0 0
-0.379894 -0.514681 1.29517 0 0 0
-0.390524 -0.538702 1.35562 0 0 0
-0.358147 -0.50319 1.26625 0 0 0
-0.344849 -0.493647 1.24224 0 0 0
-0.342571 -0.499817 1.25776 0 0 0
-0.353364 -0.525673 1.32283 0 0 0
-0.392835 -0.596078 1.5 0 0 0
-0.370165 -0.573143 1.44228 0 0 0
-0.350688 -0.554299 1.39486 0 0 0
-0.351922 -0.568084 1.42955 0 0 0
-0.361408 -0.596078 1.5 0 0 0
-0.353551 -0.596078 1.5 0 0 0
-0.345695 -0.596078 1.5 0 0 0
-0.353704 -0.624073 1.57045 0 0 0
-0.329981 -0.596078 1.5 0 0 0
-0.349111 -0.646016 1.62567 0 0 0
-0.376109 -0.713374 1.79517 0 0 0
-0.320801 -0.624073 1.57045 0 0 0
-0.310042 -0.619014 1.55772 0 0 0
-0.337643 -0.69234 1.74224 0 0 0
-0.306537 -0.646016 1.62567 0 0 0
-0.294258 -0.637858 1.60514 0 0 0
-0.289507 -0.646016 1.62567 0 0 0
-0.33008 -0.758874 1.90967 0 0 0
-0.296937 -0.704008 1.7716 0 0 0
-0.295976 -0.724366 1.82283 0 0 0
-0.252221 -0.637858 1.60514 0 0 0
-0.280103 -0.732796 1.84404 0 0 0
-0.282985 -0.766777 1.92955 0 0 0
-0.260785 -0.732796 1.84404 0 0 0
-0.244471 -0.713374 1.79517 0 0 0
-0.228137 -0.69234 1.74224 0 0 0
-0.21681 -0.685379 1.72472 0 0 0
-0.20538 -0.677476 1.70483 0 0 0
-0.205299 -0.707992 1.78162 0 0 0
-0.198778 -0.718146 1.80718 0 0 0
-0.186636 -0.707992 1.78162 0 0 0
-0.178652 -0.713374 1.79517 0 0 0
-0.167972 -0.707992 1.78162 0 0 0
-0.162309 -0.724366 1.82283 0 0 0
-0.14802 -0.701882 1.76625 0 0 0
-0.138769 -0.701882 1.76625 0 0 0
-0.126472 -0.685379 1.72472 0 0 0
-0.118305 -0.690438 1.73745 0 0 0
-0.108405 -0.685379 1.72472 0 0 0
-0.106913 -0.737395 1.85562 0 0 0
-0.0933178 -0.707992 1.78162 0 0 0
-0.0839861 -0.707992 1.78162 0 0 0
-0.075842 -0.719256 1.80997 0 0 0
-0.0618929 -0.67082 1.68808 0 0 0
-0.0555075 -0.701882 1.76625 0 0 0
-0.0451687 -0.685379 1.72472 0 0 0
-0.0384265 -0.728843 1.8341 0 0 0
-0.0264857 -0.669812 1.68555 0 0 0
-0.0178591 -0.677476 1.70483 0 0 0
-0.00948025 -0.719256 1.80997 0 0 0
0 -0.69234 1.74224 0 0 0
0.00925126 -0.701882 1.76625 0 0 0
0.0189605 -0.719256 1.80997 0 0 0
0.0273765 -0.69234 1.74224 0 0 0
0.0373271 -0.707992 1.78162 0 0 0
0.0466589 -0.707992 1.78162 0 0 0
0.0552408 -0.698509 1.75776 0 0 0
0.0668332 -0.724366 1.82283 0 0 0
0.0730039 -0.69234 1.74224 0 0 0
0.0832613 -0.701882 1.76625 0 0 0
0.0940272 -0.713374 1.79517 0 0 0
0.10265 -0.707992 1.78162 0 0 0
0.111981 -0.707992 1.78162 0 0 0
0.125563 -0.732796 1.84404 0 0 0
0.131638 -0.713374 1.79517 0 0 0
0.150037 -0.758874 1.90967 0 0 0
0.139436 -0.661177 1.66382 0 0 0
0.159846 -0.713374 1.79517 0 0 0
0.166523 -0.701882 1.76625 0 0 0
0.16558 -0.661177 1.66382 0 0 0
0.18251 -0.69234 1.74224 0 0 0
0.2005 -0.724366 1.82283 0 0 0
0.208244 -0.718146 1.80718 0 0 0
0.207776 -0.685379 1.72472 0 0 0
0.211885 -0.669812 1.68555 0 0 0
0.235068 -0.713374 1.79517 0 0 0
0.237263 -0.69234 1.74224 0 0 0
0.253873 -0.713374 1.79517 0 0 0
0.259035 -0.701882 1.76625 0 0 0
0.274927 -0.719256 1.80997 0 0 0
0.282082 -0.713374 1.79517 0 0 0
0.289285 -0.707992 1.78162 0 0 0
0.293093 -0.694896 1.74867 0 0 0
0.298113 -0.685379 1.72472 0 0 0
0.317281 -0.707992 1.78162 0 0 0
0.312535 -0.677476 1.70483 0 0 0
0.351781 -0.741368 1.86561 0 0 0
0.345276 -0.707992 1.78162 0 0 0
0.354608 -0.707992 1.78162 0 0 0
0.355894 -0.69234 1.74224 0 0 0
0.381904 -0.724366 1.82283 0 0 0
0.38869 -0.719256 1.80997 0 0 0
0.408212 -0.737395 1.85562 0 0 0
0.413085 -0.728843 1.8341 0 0 0
0.424983 -0.732796 1.84404 0 0 0
0.426611 -0.719256 1.80997 0 0 0
0.419772 -0.69234 1.74224 0 0 0
0.441928 -0.713374 1.79517 0 0 0
0.455052 -0.719256 1.80997 0 0 0
0.464532 -0.719256 1.80997 0 0 0
0.470136 -0.713374 1.79517 0 0 0
0.479539 -0.713374 1.79517 0 0 0
0.485253 -0.707992 1.78162 0 0 0
0.490317 -0.701882 1.76625 0 0 0
0.497167 -0.698509 1.75776 0 0 0
0.513248 -0.707992 1.78162 0 0 0
0.540888 -0.732796 1.84404 0 0 0
0.554002 -0.737395 1.85562 0 0 0
0.549855 -0.719256 1.80997 0 0 0
0.55476 -0.713374 1.79517 0 0 0
0.547529 -0.69234 1.74224 0 0 0
0.582404 -0.724366 1.82283 0 0 0
0.591951 -0.724366 1.82283 0 0 0
0.582829 -0.701882 1.76625 0 0 0
0.622037 -0.737395 1.85562 0 0 0
0.60532 -0.706538 1.77797 0 0 0
0.625697 -0.719256 1.80997 0 0 0
0.629982 -0.713374 1.79517 0 0 0
0.639385 -0.713374 1.79517 0 0 0
0.648788 -0.713374 1.79517 0 0 0
0.65819 -0.713374 1.79517 0 0 0
0.656839 -0.701882 1.76625 0 0 0
0.670509 -0.706538 1.77797 0 0 0
0.672096 -0.698509 1.75776 0 0 0
0.714745 -0.732796 1.84404 0 0 0
0.69051 -0.698509 1.75776 0 0 0
0.746121 -0.744833 1.87433 0 0 0
0.738259 -0.727414 1.8305 0 0 0
0.747847 -0.727414 1.8305 0 0 0
0.727337 -0.698509 1.75776 0 0 0
0.760299 -0.721037 1.81445 0 0 0
0.799946 -0.749271 1.8855 0 0 0
0.779306 -0.721037 1.81445 0 0 0
0.780426 -0.713374 1.79517 0 0 0
0.82466 -0.744833 1.87433 0 0 0
0.84716 -0.756153 1.90282 0 0 0
0.844295 -0.744833 1.87433 0 0 0
0.875301 -0.763312 1.92083 0 0 0
0.889381 -0.766777 1.92955 0 0 0
0.845832 -0.721037 1.81445 0 0 0
0.869284 -0.732796 1.84404 0 0 0
0.886926 -0.739452 1.86079 0 0 0
0.925606 -0.763312 1.92083 0 0 0
0.887927 -0.724366 1.82283 0 0 0
0.883856 -0.713374 1.79517 0 0 0
0.917578 -0.732796 1.84404 0 0 0
0.902661 -0.713374 1.79517 0 0 0
0.926118 -0.724366 1.82283 0 0 0
0.972641 -0.752991 1.89486 0 0 0
0.956213 -0.732796 1.84404 0 0 0
0.954761 -0.724366 1.82283 0 0 0
1.05803 -0.794771 2 0 0 0
1.06851 -0.794771 2 0 0 0
1.02227 -0.752991 1.89486 0 0 0
1.03219 -0.752991 1.89486 0 0 0
1.03082 -0.744833 1.87433 0 0 0
0.975921 -0.698509 1.75776 0 0 0
1.19132 -0.844709 2.12567 0 0 0
1.13136 -0.794771 2 0 0 0
1.07009 -0.744833 1.87433 0 0 0
1.15232 -0.794771 2 0 0 0
1.16279 -0.794771 2 0 0 0
1.09955 -0.744833 1.87433 0 0 0
1.18374 -0.794771 2 0 0 0
1.19422 -0.794771 2 0 0 0
1.05878 -0.698509 1.75776 0 0 0
1.12041 -0.732796 1.84404 0 0 0
1.32122 -0.856747 2.15596 0 0 0
1.13973 -0.732796 1.84404 0 0 0
1.16827 -0.744833 1.87433 0 0 0
-0.536067 -0.334464 0.852883 0 0 0
-0.515785 -0.324514 0.82751 0 0 0
-0.53202 -0.337565 0.860791 0 0 0
-0.480452 -0.307451 0.784 0 0 0
-0.523003 -0.337565 0.860791 0 0 0
-0.478966 -0.31183 0.795167 0 0 0
-0.537579 -0.35306 0.900304 0 0 0
-0.504797 -0.334464 0.852883 0 0 0
-0.490532 -0.327915 0.836183 0 0 0
-0.47552 -0.320743 0.817894 0 0 0
-0.537689 -0.365974 0.933233 0 0 0
-0.516804 -0.354986 0.905214 0 0 0
-0.494595 -0.342876 0.874334 0 0 0
-0.473038 -0.330997 0.844042 0 0 0
-0.468617 -0.330997 0.844042 0 0 0
-0.47732 -0.340354 0.867904 0 0 0
-0.468899 -0.337565 0.860791 0 0 0
-0.485708 -0.35306 0.900304 0 0 0
-0.470238 -0.345166 0.880174 0 0 0
-0.450297 -0.333802 0.851194 0 0 0
-0.461017 -0.345166 0.880174 0 0 0
-0.469391 -0.354986 0.905214 0 0 0
-0.480734 -0.367274 0.936549 0 0 0
-0.44422 -0.342876 0.874334 0 0 0
-0.43964 -0.342876 0.874334 0 0 0
-0.482517 -0.380278 0.969708 0 0 0
-0.477438 -0.380278 0.969708 0 0 0
-0.454592 -0.365974 0.933233 0 0 0
-0.440301 -0.358322 0.91372 0 0 0
-0.460684 -0.379029 0.966525 0 0 0
-0.439928 -0.365974 0.933233 0 0 0
-0.449694 -0.378301 0.964669 0 0 0
-0.445496 -0.379029 0.966525 0 0 0
-0.455688 -0.392157 1 0 0 0
-0.435371 -0.379029 0.966525 0 0 0
-0.428559 -0.377488 0.962595 0 0 0
-0.425247 -0.379029 0.966525 0 0 0
-0.448564 -0.404629 1.0318 0 0 0
-0.443159 -0.404629 1.0318 0 0 0
-0.438464 -0.405284 1.03348 0 0 0
-0.448542 -0.419783 1.07045 0 0 0
-0.446544 -0.423203 1.07917 0 0 0
-0.439007 -0.421394 1.07455 0 0 0
-0.435239 -0.423203 1.07917 0 0 0
-0.445044 -0.43843 1.118 0 0 0
-0.425984 -0.425249 1.08438 0 0 0
-0.387597 -0.392157 1 0 0 0
-0.427476 -0.43843 1.118 0 0 0
-0.408945 -0.425249 1.08438 0 0 0
-0.387643 -0.408776 1.04238 0 0 0
-0.382184 -0.408776 1.04238 0 0 0
-0.361408 -0.392157 1 0 0 0
-0.388345 -0.427582 1.09033 0 0 0
-0.401602 -0.448778 1.14438 0 0 0
-0.399608 -0.453317 1.15596 0 0 0
-0.410193 -0.472483 1.20483 0 0 0
-0.387499 -0.453317 1.15596 0 0 0
-0.403248 -0.479229 1.22203 0 0 0
-0.391261 -0.472483 1.20483 0 0 0
-0.378789 -0.46492 1.18555 0 0 0
-0.384046 -0.479229 1.22203 0 0 0
-0.392962 -0.498666 1.2716 0 0 0
-0.408309 -0.527075 1.34404 0 0 0
-0.404725 -0.531614 1.35562 0 0 0
-0.364369 -0.487152 1.24224 0 0 0
-0.37311 -0.507909 1.29517 0 0 0
-0.398711 -0.55281 1.40967 0 0 0
-0.351515 -0.496569 1.26625 0 0 0
-0.383944 -0.55281 1.40967 0 0 0
-0.355413 -0.521764 1.3305 0 0 0
-0.339191 -0.507909 1.29517 0 0 0
-0.41723 -0.637516 1.62567 0 0 0
-0.377121 -0.588235 1.5 0 0 0
-0.355056 -0.565602 1.44228 0 0 0
-0.344435 -0.560609 1.42955 0 0 0
-0.342031 -0.569069 1.45113 0 0 0
-0.345695 -0.588235 1.5 0 0 0
-0.324839 -0.565602 1.44228 0 0 0
-0.319229 -0.569069 1.45113 0 0 0
-0.322124 -0.588235 1.5 0 0 0
-0.314268 -0.588235 1.5 0 0 0
-0.332081 -0.637516 1.62567 0 0 0
-0.346768 -0.683231 1.74224 0 0 0
-0.290698 -0.588235 1.5 0 0 0
-0.312249 -0.649395 1.65596 0 0 0
-0.285565 -0.610869 1.55772 0 0 0
-0.324619 -0.714835 1.82283 0 0 0
-0.294676 -0.668562 1.70483 0 0 0
-0.279824 -0.654706 1.6695 0 0 0
-0.263962 -0.637516 1.62567 0 0 0
-0.267887 -0.668562 1.70483 0 0 0
-0.280103 -0.723154 1.84404 0 0 0
-0.2729 -0.729722 1.86079 0 0 0
-0.251441 -0.697241 1.77797 0 0 0
-0.229542 -0.660999 1.68555 0 0 0
-0.235068 -0.703987 1.79517 0 0 0
-0.21681 -0.676361 1.72472 0 0 0
-0.211756 -0.689318 1.75776 0 0 0
-0.20686 -0.703987 1.79517 0 0 0
-0.193343 -0.689318 1.75776 0 0 0
-0.178591 -0.668562 1.70483 0 0 0
-0.174929 -0.689318 1.75776 0 0 0
-0.176713 -0.735033 1.87433 0 0 0
-0.15864 -0.698676 1.78162 0 0 0
-0.150444 -0.703987 1.79517 0 0 0
-0.132428 -0.660999 1.68555 0 0 0
-0.131638 -0.703987 1.79517 0 0 0
-0.119688 -0.689318 1.75776 0 0 0
-0.10991 -0.685752 1.74867 0 0 0
-0.0982252 -0.668562 1.70483 0 0 0
-0.0933178 -0.698676 1.78162 0 0 0
-0.0832613 -0.692647 1.76625 0 0 0
-0.075842 -0.709792 1.80997 0 0 0
-0.0668332 -0.714835 1.82283 0 0 0
-0.0559907 -0.698676 1.78162 0 0 0
-0.0462563 -0.692647 1.76625 0 0 0
-0.0376109 -0.703987 1.79517 0 0 0
-0.0277538 -0.692647 1.76625 0 0 0
-0.0185025 -0.692647 1.76625 0 0 0
-0.00933178 -0.698676 1.78162 0 0 0
0 -0.719253 1.8341 0 0 0
0.00933178 -0.698676 1.78162 0 0 0
0.0186636 -0.698676 1.78162 0 0 0
0.027059 -0.675308 1.72203 0 0 0
0.0365019 -0.683231 1.74224 0 0 0
0.0462563 -0.692647 1.76625 0 0 0
0.0542024 -0.676361 1.72472 0 0 0
0.0638784 -0.683231 1.74224 0 0 0
0.0730039 -0.683231 1.74224 0 0 0
0.0803661 -0.668562 1.70483 0 0 0
0.0892957 -0.668562 1.70483 0 0 0
0.0971141 -0.660999 1.68555 0 0 0
0.10991 -0.685752 1.74867 0 0 0
0.123243 -0.709792 1.80997 0 0 0
0.130645 -0.698676 1.78162 0 0 0
0.135795 -0.677804 1.7284 0 0 0
0.145607 -0.681354 1.73745 0 0 0
0.159846 -0.703987 1.79517 0 0 0
0.166523 -0.692647 1.76625 0 0 0
0.174024 -0.685752 1.74867 0 0 0
0.186636 -0.698676 1.78162 0 0 0
0.194865 -0.694745 1.7716 0 0 0
0.205299 -0.698676 1.78162 0 0 0
0.213423 -0.694745 1.7716 0 0 0
0.223963 -0.698676 1.78162 0 0 0
0.233295 -0.698676 1.78162 0 0 0
0.240533 -0.692647 1.76625 0 0 0
0.262036 -0.726621 1.85288 0 0 0
0.267333 -0.714835 1.82283 0 0 0
0.276881 -0.714835 1.82283 0 0 0
0.267887 -0.668562 1.70483 0 0 0
0.283934 -0.685752 1.74867 0 0 0
0.288629 -0.675308 1.72203 0 0 0
0.303824 -0.689318 1.75776 0 0 0
0.317281 -0.698676 1.78162 0 0 0
0.316181 -0.676361 1.72472 0 0 0
0.340763 -0.708697 1.80718 0 0 0
0.336715 -0.681354 1.73745 0 0 0
0.371325 -0.731613 1.86561 0 0 0
0.369159 -0.708697 1.80718 0 0 0
0.365019 -0.683231 1.74224 0 0 0
0.382603 -0.698676 1.78162 0 0 0
0.398171 -0.709792 1.80997 0 0 0
0.393844 -0.685752 1.74867 0 0 0
0.410598 -0.698676 1.78162 0 0 0
0.41993 -0.698676 1.78162 0 0 0
0.441904 -0.719253 1.8341 0 0 0
0.451511 -0.719253 1.8341 0 0 0
0.447926 -0.698676 1.78162 0 0 0
0.457257 -0.698676 1.78162 0 0 0
0.466589 -0.698676 1.78162 0 0 0
0.476555 -0.699608 1.784 0 0 0
0.492973 -0.709792 1.80997 0 0 0
0.494585 -0.698676 1.78162 0 0 0
0.503916 -0.698676 1.78162 0 0 0
0.496855 -0.676361 1.72472 0 0 0
0.515581 -0.689318 1.75776 0 0 0
0.539541 -0.708697 1.80718 0 0 0
0.541243 -0.698676 1.78162 0 0 0
0.550575 -0.698676 1.78162 0 0 0
0.589043 -0.735033 1.87433 0 0 0
0.558709 -0.685752 1.74867 0 0 0
0.591951 -0.714835 1.82283 0 0 0
0.587902 -0.698676 1.78162 0 0 0
0.586187 -0.685752 1.74867 0 0 0
0.653961 -0.753268 1.92083 0 0 0
0.625697 -0.709792 1.80997 0 0 0
0.63969 -0.714835 1.82283 0 0 0
0.667582 -0.735033 1.87433 0 0 0
0.631983 -0.685752 1.74867 0 0 0
0.671144 -0.717843 1.8305 0 0 0
0.667593 -0.703987 1.79517 0 0 0
0.695427 -0.723154 1.84404 0 0 0
0.679821 -0.697241 1.77797 0 0 0
0.734443 -0.743084 1.89486 0 0 0
0.747494 -0.746204 1.90282 0 0 0
0.754293 -0.743084 1.89486 0 0 0
0.717072 -0.697241 1.77797 0 0 0
0.747847 -0.717843 1.8305 0 0 0
0.767827 -0.727692 1.85562 0 0 0
0.760299 -0.71155 1.81445 0 0 0
0.735563 -0.679902 1.73375 0 0 0
0.805025 -0.735033 1.87433 0 0 0
0.795786 -0.717843 1.8305 0 0 0
0.833692 -0.743084 1.89486 0 0 0
0.834477 -0.735033 1.87433 0 0 0
0.830649 -0.723154 1.84404 0 0 0
0.834137 -0.717843 1.8305 0 0 0
0.889381 -0.756688 1.92955 0 0 0
0.895423 -0.753268 1.92083 0 0 0
0.855336 -0.71155 1.81445 0 0 0
0.844414 -0.694745 1.7716 0 0 0
0.896673 -0.729722 1.86079 0 0 0
0.887927 -0.714835 1.82283 0 0 0
0.883856 -0.703987 1.79517 0 0 0
0.907022 -0.714835 1.82283 0 0 0
0.902661 -0.703987 1.79517 0 0 0
0.97591 -0.753268 1.92083 0 0 0
1.06724 -0.81536 2.07917 0 0 0
0.990241 -0.748888 1.90967 0 0 0
0.992491 -0.743084 1.89486 0 0 0
1.10582 -0.819739 2.09033 0 0 0
1.06851 -0.784314 2 0 0 0
1.07899 -0.784314 2 0 0 0
1.13867 -0.819739 2.09033 0 0 0
0.987286 -0.703987 1.79517 0 0 0
1.11041 -0.784314 2 0 0 0
1.12089 -0.784314 2 0 0 0
1.13136 -0.784314 2 0 0 0
1.14184 -0.784314 2 0 0 0
1.06246 -0.723154 1.84404 0 0 0
1.08973 -0.735033 1.87433 0 0 0
1.17327 -0.784314 2 0 0 0
1.35844 -0.900066 2.29517 0 0 0
1.13144 -0.743084 1.89486 0 0 0
1.0269 -0.668562 1.70483 0 0 0
1.21517 -0.784314 2 0 0 0
1.14863 -0.735033 1.87433 0 0 0
1.23612 -0.784314 2 0 0 0
1.11892 -0.703987 1.79517 0 0 0
-0.50734 -0.31232 0.807177 0 0 0
-0.503112 -0.31232 0.807177 0 0 0
-0.511451 -0.320187 0.82751 0 0 0
-0.494656 -0.31232 0.807177 0 0 0
-0.508051 -0.323543 0.836183 0 0 0
-0.539018 -0.346248 0.894863 0 0 0
-0.474801 -0.307673 0.795167 0 0 0
-0.522032 -0.341272 0.882004 0 0 0
-0.509141 -0.335816 0.867904 0 0 0
-0.49488 -0.329351 0.851194 0 0 0
-0.515582 -0.346248 0.894863 0 0 0
-0.516804 -0.350253 0.905214 0 0 0
-0.465459 -0.318376 0.822829 0 0 0
-0.490015 -0.338304 0.874334 0 0 0
-0.464254 -0.323543 0.836183 0 0 0
-0.459874 -0.323543 0.836183 0 0 0
-0.511803 -0.363539 0.939552 0 0 0
-0.468228 -0.335816 0.867904 0 0 0
-0.480992 -0.348353 0.900304 0 0 0
-0.462538 -0.338304 0.874334 0 0 0
-0.490545 -0.362377 0.936549 0 0 0
-0.469391 -0.350253 0.905214 0 0 0
-0.46213 -0.348353 0.900304 0 0 0
-0.459909 -0.350253 0.905214 0 0 0
-0.457406 -0.351975 0.909666 0 0 0
-0.464368 -0.361094 0.933233 0 0 0
-0.477438 -0.375207 0.969708 0 0 0
-0.473029 -0.375739 0.971083 0 0 0
-0.451302 -0.362377 0.936549 0 0 0
-0.46148 -0.374622 0.968195 0 0 0
-0.426719 -0.350253 0.905214 0 0 0
-0.466164 -0.386928 1 0 0 0
-0.414974 -0.348353 0.900304 0 0 0
-0.455688 -0.386928 1 0 0 0
-0.434535 -0.373257 0.964669 0 0 0
-0.460943 -0.400599 1.03533 0 0 0
-0.426647 -0.375207 0.969708 0 0 0
-0.463763 -0.412762 1.06677 0 0 0
-0.429499 -0.386928 1 0 0 0
-0.440131 -0.401401 1.03741 0 0 0
-0.434697 -0.401401 1.03741 0 0 0
-0.430228 -0.402303 1.03974 0 0 0
-0.42383 -0.401401 1.03741 0 0 0
-0.419337 -0.402303 1.03974 0 0 0
-0.42775 -0.415775 1.07455 0 0 0
-0.420509 -0.414186 1.07045 0 0 0
-0.404023 -0.403326 1.04238 0 0 0
-0.410865 -0.415775 1.07455 0 0 0
-0.406977 -0.41756 1.07917 0 0 0
-0.42186 -0.438926 1.13439 0 0 0
-0.395672 -0.41756 1.07917 0 0 0
-0.409976 -0.438926 1.13439 0 0 0
-0.388345 -0.421881 1.09033 0 0 0
-0.422815 -0.466184 1.20483 0 0 0
-0.376923 -0.421881 1.09033 0 0 0
-0.386209 -0.438926 1.13439 0 0 0
-0.39461 -0.455481 1.17717 0 0 0
-0.377625 -0.442795 1.14438 0 0 0
-0.396848 -0.472839 1.22203 0 0 0
-0.356088 -0.431231 1.1145 0 0 0
-0.367537 -0.452513 1.1695 0 0 0
-0.408794 -0.51184 1.32283 0 0 0
-0.400366 -0.50993 1.31789 0 0 0
-0.364844 -0.472839 1.22203 0 0 0
-0.379894 -0.501137 1.29517 0 0 0
-0.347087 -0.466184 1.20483 0 0 0
-0.383424 -0.524526 1.35562 0 0 0
-0.402837 -0.561481 1.45113 0 0 0
-0.369223 -0.524526 1.35562 0 0 0
-0.345975 -0.501137 1.29517 0 0 0
-0.355022 -0.524526 1.35562 0 0 0
-0.347921 -0.524526 1.35562 0 0 0
-0.345527 -0.531768 1.37433 0 0 0
-0.400201 -0.629016 1.62567 0 0 0
-0.373184 -0.599303 1.54887 0 0 0
-0.383171 -0.629016 1.62567 0 0 0
-0.374656 -0.629016 1.62567 0 0 0
-0.321971 -0.553134 1.42955 0 0 0
-0.342678 -0.602724 1.55772 0 0 0
-0.355616 -0.640737 1.65596 0 0 0
-0.357183 -0.659648 1.70483 0 0 0
-0.327888 -0.621073 1.60514 0 0 0
-0.339324 -0.659648 1.70483 0 0 0
-0.367222 -0.733176 1.89486 0 0 0
-0.314802 -0.645977 1.6695 0 0 0
-0.306058 -0.645977 1.6695 0 0 0
-0.324619 -0.705304 1.82283 0 0 0
-0.294676 -0.659648 1.70483 0 0 0
-0.275614 -0.636259 1.64438 0 0 0
-0.27108 -0.645977 1.6695 0 0 0
-0.273765 -0.674121 1.74224 0 0 0
-0.26335 -0.670837 1.73375 0 0 0
-0.263276 -0.694601 1.79517 0 0 0
-0.257785 -0.705304 1.82283 0 0 0
-0.237263 -0.674121 1.74224 0 0 0
-0.233606 -0.69028 1.784 0 0 0
-0.21841 -0.672269 1.73745 0 0 0
-0.203362 -0.653167 1.68808 0 0 0
-0.198433 -0.666304 1.72203 0 0 0
-0.187521 -0.659648 1.70483 0 0 0
-0.189313 -0.699248 1.80718 0 0 0
-0.172908 -0.672269 1.73745 0 0 0
-0.157401 -0.645977 1.6695 0 0 0
-0.159846 -0.694601 1.79517 0 0 0
-0.149309 -0.68936 1.78162 0 0 0
-0.135295 -0.666304 1.72203 0 0 0
-0.131638 -0.694601 1.79517 0 0 0
-0.122235 -0.694601 1.79517 0 0 0
-0.110482 -0.680128 1.75776 0 0 0
-0.10265 -0.68936 1.78162 0 0 0
-0.0933178 -0.68936 1.78162 0 0 0
-0.0832613 -0.683412 1.76625 0 0 0
-0.07401 -0.683412 1.76625 0 0 0
-0.0668332 -0.705304 1.82283 0 0 0
-0.0547529 -0.674121 1.74224 0 0 0
-0.0441428 -0.652185 1.68555 0 0 0
-0.0381904 -0.705304 1.82283 0 0 0
-0.027059 -0.666304 1.72203 0 0 0
-0.0186636 -0.68936 1.78162 0 0 0
-0.00948025 -0.700328 1.80997 0 0 0
0 -0.683412 1.76625 0 0 0
0.0092068 -0.680128 1.75776 0 0 0
0.0178591 -0.659648 1.70483 0 0 0
0.0271012 -0.667343 1.72472 0 0 0
0.0368272 -0.680128 1.75776 0 0 0
0.0451687 -0.667343 1.72472 0 0 0
0.0552408 -0.680128 1.75776 0 0 0
0.0653225 -0.68936 1.78162 0 0 0
0.0746543 -0.68936 1.78162 0 0 0
0.0813036 -0.667343 1.72472 0 0 0
0.0901967 -0.666304 1.72203 0 0 0
0.101764 -0.683412 1.76625 0 0 0
0.111015 -0.683412 1.76625 0 0 0
0.116084 -0.659648 1.70483 0 0 0
0.131638 -0.694601 1.79517 0 0 0
0.147261 -0.725233 1.87433 0 0 0
0.152762 -0.705304 1.82283 0 0 0
0.159846 -0.694601 1.79517 0 0 0
0.162354 -0.666304 1.72203 0 0 0
0.174929 -0.680128 1.75776 0 0 0
0.180675 -0.667343 1.72472 0 0 0
0.201739 -0.709663 1.8341 0 0 0
0.200209 -0.672269 1.73745 0 0 0
0.22215 -0.713512 1.84404 0 0 0
0.21681 -0.667343 1.72472 0 0 0
0.228137 -0.674121 1.74224 0 0 0
0.239377 -0.680128 1.75776 0 0 0
0.246388 -0.674121 1.74224 0 0 0
0.241811 -0.637969 1.64881 0 0 0
0.269099 -0.685482 1.7716 0 0 0
0.280327 -0.69028 1.784 0 0 0
0.297805 -0.709663 1.8341 0 0 0
0.28908 -0.667343 1.72472 0 0 0
0.301141 -0.674121 1.74224 0 0 0
0.310267 -0.674121 1.74224 0 0 0
0.326612 -0.68936 1.78162 0 0 0
0.334054 -0.685482 1.7716 0 0 0
0.345276 -0.68936 1.78162 0 0 0
0.349858 -0.680128 1.75776 0 0 0
0.364425 -0.69028 1.784 0 0 0
0.381904 -0.705304 1.82283 0 0 0
0.382603 -0.68936 1.78162 0 0 0
0.384685 -0.676609 1.74867 0 0 0
0.401267 -0.68936 1.78162 0 0 0
0.420095 -0.705304 1.82283 0 0 0
0.412163 -0.676609 1.74867 0 0 0
0.441904 -0.709663 1.8341 0 0 0
0.438594 -0.68936 1.78162 0 0 0
0.433619 -0.667343 1.72472 0 0 0
0.464532 -0.700328 1.80997 0 0 0
0.47738 -0.705304 1.82283 0 0 0
0.469547 -0.680128 1.75776 0 0 0
0.499544 -0.709663 1.8341 0 0 0
0.48796 -0.680128 1.75776 0 0 0
0.507747 -0.694601 1.79517 0 0 0
0.525118 -0.705304 1.82283 0 0 0
0.52258 -0.68936 1.78162 0 0 0
0.547577 -0.709663 1.8341 0 0 0
0.553761 -0.705304 1.82283 0 0 0
0.550575 -0.68936 1.78162 0 0 0
0.564163 -0.694601 1.79517 0 0 0
0.592879 -0.71799 1.85562 0 0 0
0.587776 -0.700328 1.80997 0 0 0
0.592371 -0.694601 1.79517 0 0 0
0.618158 -0.713512 1.84404 0 0 0
0.631757 -0.71799 1.85562 0 0 0
0.604505 -0.676609 1.74867 0 0 0
0.63969 -0.705304 1.82283 0 0 0
0.644657 -0.700328 1.80997 0 0 0
0.658785 -0.705304 1.82283 0 0 0
0.665261 -0.702063 1.81445 0 0 0
0.690073 -0.71799 1.85562 0 0 0
0.65946 -0.676609 1.74867 0 0 0
0.699908 -0.708271 1.8305 0 0 0
0.719231 -0.71799 1.85562 0 0 0
0.698447 -0.687945 1.77797 0 0 0
0.696097 -0.676609 1.74867 0 0 0
0.735166 -0.705304 1.82283 0 0 0
0.770318 -0.729554 1.8855 0 0 0
0.780194 -0.729554 1.8855 0 0 0
0.78539 -0.725233 1.87433 0 0 0
0.77661 -0.708271 1.8305 0 0 0
0.763635 -0.687945 1.77797 0 0 0
0.764164 -0.680128 1.75776 0 0 0
0.829573 -0.729554 1.8855 0 0 0
