ply
format ascii 1.0
element vertex 1365
property float x
property float y
property float z
property uchar red
property uchar green
property uchar blue
end_header
-0.184478 0.429707 1.67717 35 36 31
-0.177202 0.433396 1.69157 34 35 31
-0.164283 0.422946 1.65078 36 37 33
-0.15409 0.418745 1.63439 36 37 34
-0.14934 0.429707 1.67717 35 36 32
-0.141762 0.433396 1.69157 36 36 33
-0.133943 0.436794 1.70483 36 37 33
-0.124041 0.433396 1.69157 36 37 33
-0.112404 0.422946 1.65078 36 37 33
-0.103758 0.422946 1.65078 37 38 34
-0.0966315 0.429707 1.67717 37 38 34
-0.0892957 0.436794 1.70483 37 38 34
-0.0790621 0.429707 1.67717 37 37 33
-0.0687778 0.420537 1.64138 36 37 33
-0.0599241 0.418745 1.63439 36 36 32
-0.0535774 0.436794 1.70483 36 36 32
-0.0429861 0.420537 1.64138 36 36 33
-0.0354081 0.433001 1.69003 36 37 33
-0.0267887 0.436794 1.70483 36 37 33
-0.0175977 0.430401 1.67988 35 36 33
-0.00892957 0.436794 1.70483 35 36 33
0 0.422946 1.65078 35 36 33
0.00851491 0.41651 1.62567 34 35 32
0.0171074 0.418407 1.63307 34 36 32
0.026354 0.429707 1.67717 35 37 33
0.0351955 0.430401 1.67988 35 37 34
0.0446478 0.436794 1.70483 35 37 34
0.0527932 0.430401 1.67988 35 36 34
0.0619642 0.433001 1.69003 35 36 33
0.0691717 0.422946 1.65078 35 36 33
0.0790621 0.429707 1.67717 35 36 33
0.0878468 0.429707 1.67717 34 36 32
0.0951111 0.422946 1.65078 35 36 32
0.103758 0.422946 1.65078 35 37 33
0.113133 0.42569 1.66149 35 36 32
0.119209 0.41651 1.62567 34 36 32
0.138102 0.450355 1.75776 34 36 32
0.141762 0.433396 1.69157 35 36 33
0.148336 0.42682 1.6659 35 36 33
0.159482 0.433396 1.69157 34 36 33
0.160094 0.412162 1.60869 35 37 34
0.181621 0.444203 1.73375 36 37 35
0.182754 0.42569 1.66149 35 36 32
0.188333 0.418745 1.63439 33 34 29
0.201642 0.428844 1.6738 34 35 31
0.204358 0.41651 1.62567 35 35 32
0.225013 0.440264 1.71838 36 36 34
0.228402 0.429707 1.67717 35 36 33
0.242829 0.43993 1.71707 34 35 32
0.250028 0.436794 1.70483 34 35 32
0.261015 0.440264 1.71838 35 35 34
0.272431 0.444203 1.73375 35 36 34
0.274663 0.433396 1.69157 35 36 33
0.292695 0.447416 1.74629 35 36 34
0.294676 0.436794 1.70483 35 36 34
0.295887 0.42569 1.66149 35 36 34
0.307464 0.429707 1.67717 35 36 34
0.321464 0.436794 1.70483 34 35 33
0.327525 0.433001 1.69003 35 36 34
0.330698 0.42569 1.66149 35 36 34
0.345544 0.433396 1.69157 34 36 34
0.351387 0.429707 1.67717 34 35 33
0.362933 0.433001 1.69003 33 36 33
0.381403 0.444203 1.73375 32 35 32
0.362318 0.412162 1.60869 32 35 32
0.37897 0.421306 1.64438 32 35 33
0.409519 0.445151 1.73745 33 35 33
0.41076 0.436794 1.70483 33 36 34
0.416046 0.433001 1.69003 33 36 34
0.421665 0.429707 1.67717 33 35 33
0.441025 0.440264 1.71838 33 35 33
0.458656 0.448707 1.75133 34 36 34
0.469547 0.450355 1.75776 31 34 32
0.47563 0.447416 1.74629 29 33 31
0.48796 0.450355 1.75776 29 33 32
0.482197 0.436794 1.70483 31 34 33
0.506374 0.450355 1.75776 30 35 33
0.504501 0.440677 1.71999 31 35 34
0.521363 0.447416 1.74629 32 36 35
0.509511 0.429707 1.67717 33 36 35
0.551309 0.457077 1.784 33 37 35
0.531606 0.433396 1.69157 35 37 36
0.544704 0.436794 1.70483 35 37 36
0.553633 0.436794 1.70483 34 36 35
0.582048 0.451923 1.76388 34 36 35
0.576572 0.440677 1.71999 34 36 35
0.585581 0.440677 1.71999 33 36 34
0.607649 0.450355 1.75776 33 36 34
0.612831 0.447416 1.74629 33 36 35
0.61751 0.444203 1.73375 34 36 35
0.637481 0.451923 1.76388 35 38 37
0.661895 0.462527 1.80527 37 39 38
0.655959 0.451923 1.76388 37 40 38
0.653834 0.444203 1.73375 36 39 37
0.674437 0.451923 1.76388 35 38 36
0.691473 0.457077 1.784 34 38 36
0.692915 0.451923 1.76388 33 37 35
0.710161 0.457077 1.784 33 36 35
0.708924 0.450355 1.75776 33 37 36
0.72885 0.457077 1.784 33 37 36
0.724676 0.448707 1.75133 33 37 36
0.720715 0.440677 1.71999 34 37 37
0.76162 0.459938 1.79517 33 37 36
0.782904 0.467025 1.82283 33 37 37
0.757415 0.446377 1.74224 33 38 37
0.78387 0.456468 1.78162 34 39 39
0.778529 0.448025 1.74867 37 42 41
0.844295 0.480222 1.87433 39 43 43
0.845582 0.475426 1.85562 37 42 41
0.803043 0.446377 1.74224 35 40 39
0.849737 0.467025 1.82283 30 37 36
0.859285 0.467025 1.82283 29 36 35
0.823824 0.442832 1.7284 30 36 35
0.888602 0.47246 1.84404 32 36 36
0.83045 0.436794 1.70483 32 37 36
0.907919 0.47246 1.84404 34 39 38
0.938208 0.483083 1.8855 35 40 39
0.920427 0.468991 1.8305 37 41 40
0.912064 0.459938 1.79517 37 41 40
0.946554 0.47246 1.84404 35 40 39
0.977711 0.483083 1.8855 35 40 39
0.931262 0.455531 1.77797 35 39 38
0.97553 0.47246 1.84404 33 38 37
0.939093 0.450355 1.75776 33 38 37
0.978885 0.464879 1.81445 34 38 38
0.977883 0.459938 1.79517 33 38 37
1.02338 0.476752 1.86079 35 40 39
1.04064 0.480222 1.87433 36 41 40
1.00609 0.459938 1.79517 34 39 38
1.04314 0.47246 1.84404 33 39 38
1.0528 0.47246 1.84404 33 39 38
1.07991 0.480222 1.87433 33 39 38
1.16279 0.512418 2 34 40 39
1.00011 0.436794 1.70483 35 41 40
1.13028 0.489274 1.90967 35 40 39
1.19422 0.512418 2 34 40 39
1.20469 0.512418 2 34 40 39
1.10752 0.467025 1.82283 35 40 39
1.22564 0.512418 2 35 40 39
1.13973 0.47246 1.84404 34 39 38
1.11892 0.459938 1.79517 35 39 38
-0.772093 0.32115 1.2284 35 35 30
-0.720506 0.302211 1.15596 35 35 30
-0.707298 0.299186 1.14438 35 35 31
-0.661337 0.282135 1.07917 35 36 31
-0.710571 0.305752 1.1695 34 35 30
-0.678041 0.294292 1.12567 35 35 30
-0.719416 0.314989 1.20483 35 36 32
-0.713105 0.314989 1.20483 35 36 32
-0.660353 0.294292 1.12567 35 36 32
-0.722231 0.324768 1.24224 37 37 34
-0.648561 0.294292 1.12567 37 37 34
-0.722927 0.331046 1.26625 37 37 34
-0.716295 0.331046 1.26625 37 36 34
-0.664433 0.309947 1.18555 36 36 33
-0.763039 0.359303 1.37433 36 36 32
-0.727514 0.345838 1.32283 36 36 33
-0.689765 0.331046 1.26625 37 37 34
-0.698734 0.338606 1.29517 38 38 35
-0.753121 0.36854 1.40967 37 37 34
-0.727047 0.359303 1.37433 36 37 33
-0.678382 0.338606 1.29517 37 37 34
-0.723295 0.36467 1.39486 36 36 33
-0.744868 0.379379 1.45113 35 36 32
-0.762099 0.392157 1.5 36 36 33
-0.681642 0.354409 1.35562 36 37 34
-0.722066 0.379379 1.45113 35 36 32
-0.714466 0.379379 1.45113 35 36 32
-0.730673 0.392157 1.5 35 35 31
-0.66226 0.359303 1.37433 35 36 32
-0.634168 0.347843 1.3305 36 37 34
-0.73431 0.407246 1.55772 37 37 34
-0.699246 0.392157 1.5 37 38 34
-0.75794 0.429904 1.64438 36 37 33
-0.705804 0.404935 1.54887 37 37 34
-0.740714 0.429904 1.64438 37 37 33
-0.775666 0.455487 1.74224 36 36 32
-0.690957 0.410574 1.57045 36 36 32
-0.725794 0.436471 1.6695 37 37 33
-0.760901 0.463163 1.7716 37 37 33
-0.708305 0.436471 1.6695 37 37 33
-0.752218 0.469325 1.79517 36 37 33
-0.717401 0.453268 1.73375 35 36 33
-0.760223 0.486481 1.86079 35 36 33
-0.760442 0.492942 1.8855 36 36 33
-0.746121 0.490022 1.87433 36 36 32
-0.669717 0.445708 1.70483 36 36 32
-0.673431 0.454236 1.73745 36 36 32
-0.672096 0.459546 1.75776 36 36 31
-0.676996 0.469325 1.79517 36 36 31
-0.617882 0.434377 1.66149 37 37 33
-0.654707 0.466841 1.78567 38 38 34
-0.635269 0.459546 1.75776 38 38 34
-0.620533 0.455487 1.74224 36 37 33
-0.623003 0.464125 1.77528 35 36 31
-0.59459 0.44967 1.71999 36 36 32
-0.585033 0.449249 1.71838 36 36 32
-0.58539 0.456547 1.74629 36 36 33
-0.5835 0.462296 1.76828 36 36 32
-0.570822 0.459546 1.75776 35 36 32
-0.548615 0.448908 1.71707 35 36 32
-0.557913 0.464125 1.77528 36 36 32
-0.539657 0.456547 1.74629 37 38 34
-0.509511 0.438476 1.67717 37 38 34
-0.521363 0.456547 1.74629 37 38 34
-0.504028 0.449249 1.71838 36 37 33
-0.491126 0.445708 1.70483 37 37 33
-0.486027 0.449249 1.71838 37 38 34
-0.473267 0.445708 1.70483 38 38 35
-0.478754 0.459546 1.75776 37 38 34
-0.455408 0.445708 1.70483 37 37 34
-0.46034 0.459546 1.75776 36 37 33
-0.43375 0.441838 1.69003 35 36 32
-0.432024 0.449249 1.71838 35 36 32
-0.426083 0.452497 1.7308 35 35 31
-0.407565 0.442241 1.69157 35 35 31
-0.405023 0.449249 1.71838 35 36 33
-0.38715 0.439184 1.67988 36 37 34
-0.378351 0.439184 1.67988 36 38 34
-0.371785 0.441838 1.69003 36 38 34
-0.375016 0.456547 1.74629 36 38 33
-0.354081 0.441838 1.69003 36 37 33
-0.348253 0.445708 1.70483 36 37 33
-0.320188 0.420573 1.60869 36 37 32
-0.333019 0.449249 1.71838 35 37 31
-0.324018 0.449249 1.71838 35 37 31
-0.312535 0.445708 1.70483 35 36 31
-0.29106 0.42729 1.63439 35 36 32
-0.294676 0.445708 1.70483 35 37 32
-0.280545 0.437595 1.6738 36 37 32
-0.274413 0.441838 1.69003 36 37 33
-0.261077 0.434377 1.66149 36 37 33
-0.254756 0.438476 1.67717 36 37 33
-0.245971 0.438476 1.67717 36 37 33
-0.237186 0.438476 1.67717 36 37 34
-0.226267 0.434377 1.66149 35 36 33
-0.221503 0.442241 1.69157 35 36 32
-0.217945 0.453268 1.73375 35 36 32
-0.198869 0.431577 1.65078 35 36 32
-0.198197 0.44967 1.71999 35 36 32
-0.182754 0.434377 1.66149 35 36 32
-0.181621 0.453268 1.73375 35 36 32
-0.172246 0.452497 1.7308 36 37 33
-0.15475 0.429119 1.64138 36 36 33
-0.14699 0.431577 1.65078 34 35 31
-0.141762 0.442241 1.69157 36 36 33
-0.133943 0.445708 1.70483 37 37 34
-0.120581 0.429904 1.64438 36 37 33
-0.113434 0.435531 1.6659 35 36 32
-0.104708 0.435531 1.6659 36 37 33
-0.0957282 0.434377 1.66149 37 38 34
-0.0856058 0.42729 1.63439 37 37 34
-0.0797999 0.442568 1.69282 37 37 34
-0.0708163 0.441838 1.69003 36 37 33
-0.0605252 0.431577 1.65078 36 36 33
-0.0508036 0.422633 1.61657 36 36 33
-0.0432323 0.431577 1.65078 36 36 33
-0.0345858 0.431577 1.65078 36 36 33
-0.0259394 0.431577 1.65078 35 36 33
-0.0170298 0.425011 1.62567 35 36 33
-0.00872567 0.435531 1.6659 36 37 34
0 0.442241 1.69157 35 36 33
0.00906559 0.452497 1.7308 34 35 31
0.017489 0.436471 1.6695 34 36 32
0.0257917 0.429119 1.64138 35 36 33
0.0351955 0.439184 1.67988 35 36 33
0.0446478 0.445708 1.70483 35 36 33
0.052354 0.435531 1.6659 34 35 32
0.0605252 0.431577 1.65078 34 35 31
0.0684846 0.42729 1.63439 34 35 32
0.0790621 0.438476 1.67717 34 35 32
0.0851491 0.425011 1.62567 34 35 32
0.0974612 0.442241 1.69157 34 35 32
0.108006 0.449249 1.71838 35 36 33
0.116084 0.445708 1.70483 35 36 33
0.126918 0.452497 1.7308 35 36 33
0.129697 0.431577 1.65078 35 36 33
0.134816 0.420573 1.60869 35 36 33
0.155494 0.456547 1.74629 34 35 32
0.159482 0.442241 1.69157 34 35 32
0.160878 0.422633 1.61657 34 36 33
0.175694 0.438476 1.67717 36 37 34
0.185893 0.441838 1.69003 35 36 33
0.194922 0.442241 1.69157 34 34 31
0.20538 0.445708 1.70483 34 34 31
0.210832 0.438476 1.67717 35 36 32
0.215324 0.429904 1.64438 37 37 35
0.24021 0.461146 1.76388 36 36 34
0.239223 0.442241 1.69157 35 36 33
0.250028 0.445708 1.70483 35 36 33
0.253044 0.435531 1.6659 35 36 34
0.267887 0.445708 1.70483 35 36 34
0.265378 0.42729 1.63439 34 36 33
0.285746 0.445708 1.70483 35 36 34
0.292117 0.441838 1.69003 35 36 34
0.29398 0.431577 1.65078 35 36 34
0.30459 0.434377 1.66149 35 36 34
0.321464 0.445708 1.70483 34 35 33
0.330394 0.445708 1.70483 33 35 32
0.336377 0.441838 1.69003 34 35 33
0.345229 0.441838 1.69003 34 35 33
0.354081 0.441838 1.69003 34 36 33
0.372322 0.453268 1.73375 35 37 35
0.382217 0.454236 1.73745 33 36 33
0.390484 0.453268 1.73375 31 34 31
0.37897 0.429904 1.64438 32 35 32
0.415749 0.461146 1.76388 33 35 33
0.404095 0.438476 1.67717 33 36 34
0.416046 0.441838 1.69003 33 36 34
0.421665 0.438476 1.67717 33 35 33
0.434145 0.442241 1.69157 34 35 34
0.446478 0.445708 1.70483 34 35 33
0.451865 0.442241 1.69157 32 35 32
0.464337 0.445708 1.70483 30 34 32
0.473267 0.445708 1.70483 31 35 33
0.478446 0.442241 1.69157 31 35 34
0.491126 0.445708 1.70483 30 35 33
0.495714 0.441838 1.69003 30 35 34
0.522868 0.457865 1.75133 32 36 35
0.522519 0.44967 1.71999 34 37 36
0.557883 0.471966 1.80527 34 37 36
0.544862 0.453268 1.73375 35 38 36
0.549546 0.44967 1.71999 35 38 36
0.548826 0.441838 1.69003 34 37 36
0.584594 0.463163 1.7716 34 36 35
0.582427 0.454236 1.73745 33 36 35
0.590267 0.453268 1.73375 33 35 34
0.600627 0.454236 1.73745 33 36 35
0.608429 0.453268 1.73375 34 37 36
0.628243 0.461146 1.76388 32 35 34
0.657001 0.475266 1.81789 31 35 33
0.642118 0.457865 1.75133 33 36 34
0.66344 0.466405 1.784 37 40 38
0.653834 0.453268 1.73375 38 41 39
0.686399 0.469325 1.79517 36 39 37
0.695801 0.469325 1.79517 35 38 36
0.695946 0.463163 1.7716 34 37 35
0.685495 0.450205 1.72203 33 37 36
0.694514 0.450205 1.72203 35 38 37
0.727879 0.465784 1.78162 35 38 37
0.733063 0.463163 1.7716 34 37 37
0.742342 0.463163 1.7716 33 37 36
0.723295 0.445708 1.70483 32 36 36
0.771023 0.469325 1.79517 32 36 36
0.764164 0.459546 1.75776 32 37 36
0.801999 0.476557 1.82283 33 38 38
0.793202 0.465784 1.78162 36 41 40
0.835863 0.485128 1.85562 39 43 42
0.830642 0.476557 1.82283 39 43 43
0.855301 0.485128 1.85562 37 41 41
0.849737 0.476557 1.82283 32 38 37
0.824325 0.457168 1.74867 32 37 36
0.868832 0.476557 1.82283 31 37 37
0.894179 0.485128 1.85562 32 37 37
0.89826 0.482102 1.84404 31 37 37
0.913617 0.485128 1.85562 34 39 38
0.923337 0.485128 1.85562 35 40 39
0.902661 0.469325 1.79517 35 40 39
0.989241 0.509038 1.94707 36 40 39
0.967836 0.492942 1.8855 35 40 39
0.977711 0.492942 1.8855 36 40 39
0.958778 0.478562 1.8305 34 38 37
0.968366 0.478562 1.8305 33 37 36
1.00734 0.492942 1.8855 34 38 37
0.987541 0.478562 1.8305 36 40 39
1.02709 0.492942 1.8855 36 40 39
1.03082 0.490022 1.87433 34 39 39
0.962589 0.453268 1.73375 34 39 39
1.03348 0.482102 1.84404 33 39 38
1.13136 0.522876 2 33 39 38
1.10162 0.504458 1.92955 33 39 38
1.1067 0.502179 1.92083 34 40 39
1.05978 0.476557 1.82283 35 41 39
1.08178 0.482102 1.84404 35 41 40
1.04037 0.459546 1.75776 34 40 38
1.07191 0.469325 1.79517 34 40 38
1.15028 0.499259 1.90967 35 40 39
1.0764 0.463163 1.7716 35 40 39
1.22564 0.522876 2 36 41 39
1.17114 0.495389 1.89486 35 40 39
1.06262 0.445708 1.70483 34 39 38
-0.707521 0.300178 1.12567 35 35 30
-0.694664 0.2972 1.1145 35 35 30
-0.714451 0.308256 1.15596 35 35 30
-0.708397 0.308256 1.15596 35 35 31
-0.732037 0.321289 1.20483 34 35 30
-0.678041 0.300178 1.12567 35 36 32
-0.680232 0.303789 1.13921 36 36 32
-0.629426 0.283587 1.06345 35 36 31
-0.706795 0.321289 1.20483 34 35 31
-0.662331 0.303789 1.13921 36 36 33
-0.648561 0.300178 1.12567 37 37 34
-0.755229 0.352754 1.32283 36 36 33
-0.732653 0.345378 1.29517 36 35 32
-0.75326 0.358411 1.34404 36 36 32
-0.682016 0.327573 1.2284 36 36 32
-0.731732 0.3548 1.3305 36 36 33
-0.724764 0.3548 1.3305 37 37 34
-0.778102 0.384609 1.44228 37 37 34
-0.676501 0.337667 1.26625 36 37 33
-0.685166 0.345378 1.29517 37 38 35
-0.692871 0.352754 1.32283 38 38 35
-0.671598 0.345378 1.29517 36 37 33
-0.715989 0.371963 1.39486 36 36 32
-0.698253 0.366489 1.37433 36 37 33
-0.701377 0.371963 1.39486 37 38 35
-0.717667 0.384609 1.44228 36 37 33
-0.762593 0.413033 1.54887 35 36 32
-0.730673 0.4 1.5 35 35 31
-0.750628 0.415391 1.55772 34 35 30
-0.765072 0.428037 1.60514 36 37 33
-0.756664 0.428037 1.60514 37 37 34
-0.794731 0.454622 1.70483 36 37 34
-0.769517 0.4452 1.6695 35 37 32
-0.683532 0.4 1.5 35 36 31
-0.723035 0.428037 1.60514 35 35 31
-0.759013 0.454622 1.70483 35 36 31
-0.715252 0.433511 1.62567 36 36 32
-0.741154 0.454622 1.70483 36 37 32
-0.782904 0.486088 1.82283 36 37 33
-0.660879 0.415391 1.55772 36 37 32
-0.714365 0.454622 1.70483 36 36 33
-0.733063 0.472427 1.7716 36 36 33
-0.685205 0.447246 1.67717 36 37 34
-0.731787 0.483854 1.81445 36 36 33
-0.722284 0.483854 1.81445 35 35 32
-0.699884 0.4751 1.78162 36 36 32
-0.678811 0.467022 1.75133 36 35 31
-0.662915 0.462333 1.73375 34 35 29
-0.653834 0.462333 1.73375 34 34 29
-0.667593 0.478711 1.79517 36 36 32
-0.635672 0.462333 1.73375 37 37 33
-0.637481 0.470369 1.76388 37 38 34
-0.607211 0.454622 1.70483 37 38 34
-0.608429 0.462333 1.73375 36 37 33
-0.599348 0.462333 1.73375 36 37 33
-0.604406 0.473408 1.77528 36 37 33
-0.576572 0.458663 1.71999 36 37 33
-0.580028 0.468737 1.75776 36 36 32
-0.570822 0.468737 1.75776 35 35 31
-0.553943 0.462333 1.73375 35 35 31
-0.567339 0.481406 1.80527 36 36 32
-0.53103 0.458234 1.71838 37 37 33
-0.545358 0.478711 1.79517 37 38 34
-0.499721 0.446347 1.6738 37 37 33
-0.508538 0.462333 1.73375 36 37 32
-0.486862 0.450675 1.69003 37 37 33
-0.478446 0.451086 1.69157 38 38 35
-0.495707 0.476178 1.78567 38 38 35
-0.464337 0.454622 1.70483 37 38 34
-0.474226 0.473408 1.77528 36 37 33
-0.442602 0.450675 1.69003 36 37 32
-0.423677 0.440209 1.65078 35 36 32
-0.41503 0.440209 1.65078 35 36 32
-0.431137 0.467022 1.75133 35 36 32
-0.423513 0.468737 1.75776 35 36 32
-0.395311 0.447246 1.67717 36 36 33
-0.398886 0.461547 1.7308 36 37 33
-0.378351 0.447968 1.67988 36 37 33
-0.375042 0.454622 1.70483 36 37 33
-0.375016 0.465678 1.74629 36 37 32
-0.357183 0.454622 1.70483 36 37 32
-0.345229 0.450675 1.69003 36 37 32
-0.339324 0.454622 1.70483 35 37 32
-0.32438 0.446347 1.6738 36 37 32
-0.318673 0.450675 1.69003 36 37 32
-0.309821 0.450675 1.69003 35 36 32
-0.300969 0.450675 1.69003 35 36 31
-0.287185 0.443065 1.66149 34 35 30
-0.282939 0.450156 1.68808 34 35 30
-0.274663 0.451086 1.69157 35 36 32
-0.261077 0.443065 1.66149 36 37 33
-0.250747 0.440209 1.65078 35 37 32
-0.248083 0.451086 1.69157 34 36 31
-0.234969 0.443065 1.66149 35 36 32
-0.234233 0.458663 1.71999 35 36 33
-0.225224 0.458663 1.71999 35 36 33
-0.217945 0.462333 1.73375 35 36 33
-0.202048 0.447246 1.67717 36 36 33
-0.198011 0.458234 1.71838 35 36 33
-0.187521 0.454622 1.70483 36 37 33
-0.175694 0.447246 1.67717 36 37 34
-0.165349 0.443065 1.66149 37 38 34
-0.165722 0.468737 1.75776 37 38 35
-0.149581 0.447968 1.67988 37 37 34
-0.144143 0.458663 1.71999 36 37 33
-0.130538 0.443065 1.66149 36 37 33
-0.122986 0.447246 1.67717 36 36 32
-0.120881 0.473408 1.77528 36 36 33
-0.106321 0.451086 1.69157 36 37 33
-0.09314 0.431086 1.61657 37 37 34
-0.0892957 0.454622 1.70483 36 37 34
-0.0796683 0.450675 1.69003 37 37 34
-0.0708163 0.450675 1.69003 37 37 34
-0.0614928 0.447246 1.67717 37 37 34
-0.0531122 0.450675 1.69003 36 37 34
-0.0435128 0.443065 1.66149 36 36 33
-0.0338691 0.431086 1.61657 35 36 32
-0.0256817 0.435836 1.63439 35 36 32
-0.0171212 0.435836 1.63439 35 35 32
-0.00892957 0.454622 1.70483 35 36 33
0 0.454622 1.70483 36 37 34
0.00878468 0.447246 1.67717 35 36 33
0.0178591 0.454622 1.70483 35 37 33
0.026354 0.447246 1.67717 35 37 33
0.0357183 0.454622 1.70483 35 36 33
0.0436283 0.444241 1.6659 35 36 33
0.0531606 0.451086 1.69157 34 35 32
0.0630035 0.458234 1.71838 34 35 32
0.0691717 0.440209 1.65078 35 36 33
0.0789033 0.446347 1.6738 35 36 33
0.0867357 0.441589 1.65596 35 36 32
0.0967876 0.447968 1.67988 35 36 32
0.104431 0.443065 1.66149 35 36 33
0.115181 0.451086 1.69157 35 36 32
0.123928 0.450675 1.69003 35 36 32
0.129697 0.440209 1.65078 34 36 32
0.145296 0.462333 1.73375 35 36 33
0.14934 0.447246 1.67717 34 35 33
0.157062 0.444241 1.6659 34 35 32
0.166574 0.446347 1.6738 35 36 33
0.178591 0.454622 1.70483 36 37 34
0.184108 0.446347 1.6738 35 36 33
0.19645 0.454622 1.70483 34 34 31
0.203597 0.450675 1.69003 34 35 31
0.208862 0.443065 1.66149 35 35 32
0.219617 0.447246 1.67717 36 36 34
0.228402 0.447246 1.67717 35 36 33
0.239005 0.450675 1.69003 35 36 33
0.25225 0.458663 1.71999 35 36 33
0.254756 0.447246 1.67717 34 35 33
0.267887 0.454622 1.70483 34 35 33
0.26978 0.443065 1.66149 33 35 32
0.285746 0.454622 1.70483 34 35 33
0.292117 0.450675 1.69003 35 36 34
0.303605 0.454622 1.70483 35 36 34
0.317836 0.462333 1.73375 35 36 34
0.318673 0.450675 1.69003 35 36 34
0.320922 0.441589 1.65596 34 35 33
0.336377 0.450675 1.69003 33 35 32
0.3394 0.443065 1.66149 33 35 32
0.357183 0.454622 1.70483 33 35 32
0.366112 0.454622 1.70483 34 36 34
0.371785 0.450675 1.69003 34 37 35
0.380637 0.450675 1.69003 33 35 33
0.389489 0.450675 1.69003 32 35 32
0.395311 0.447246 1.67717 33 35 33
0.417727 0.462333 1.73375 33 35 33
0.416046 0.450675 1.69003 33 35 33
0.424898 0.450675 1.69003 31 34 32
0.437549 0.454622 1.70483 33 35 33
0.450447 0.458663 1.71999 34 36 34
0.447119 0.446347 1.6738 33 35 33
0.464337 0.454622 1.70483 30 34 32
0.473267 0.454622 1.70483 32 35 33
0.482197 0.454622 1.70483 33 35 34
0.499457 0.462333 1.73375 32 36 35
0.500056 0.454622 1.70483 33 37 35
0.51351 0.458663 1.71999 37 40 39
0.522519 0.458663 1.71999 39 42 41
0.535781 0.462333 1.73375 36 40 38
0.535774 0.454622 1.70483 34 37 36
0.544704 0.454622 1.70483 32 35 34
0.558554 0.458663 1.71999 33 35 35
0.577906 0.467022 1.75133 33 36 35
0.576572 0.458663 1.71999 33 35 34
0.600526 0.470369 1.76388 33 36 35
0.605426 0.467022 1.75133 34 36 35
0.619004 0.470369 1.76388 33 36 35
0.635407 0.475733 1.784 30 34 33
0.61614 0.454622 1.70483 30 34 32
0.614928 0.447246 1.67717 29 33 31
0.671351 0.481406 1.80527 38 40 38
0.665198 0.470369 1.76388 42 44 42
0.66433 0.46332 1.73745 40 42 40
0.660788 0.454622 1.70483 36 39 37
0.675671 0.458663 1.71999 34 37 35
0.685495 0.459209 1.72203 33 37 35
0.70633 0.467022 1.75133 34 37 36
0.709832 0.46332 1.73745 34 38 37
0.758923 0.489092 1.8341 34 37 37
0.768529 0.489092 1.8341 33 37 36
0.773356 0.486088 1.82283 33 37 36
0.776181 0.481914 1.80718 33 37 37
0.757415 0.464597 1.74224 32 37 37
0.78387 0.4751 1.78162 31 37 37
0.793202 0.4751 1.78162 33 38 38
0.840367 0.497497 1.86561 35 39 39
0.768084 0.449479 1.68555 37 41 42
0.834262 0.482659 1.80997 38 42 42
0.828823 0.474124 1.77797 35 40 39
0.853223 0.482659 1.80997 34 38 37
0.855647 0.478711 1.79517 33 38 37
0.882076 0.488133 1.8305 33 38 37
0.866074 0.474124 1.77797 33 38 37
0.901251 0.488133 1.8305 35 39 38
0.884699 0.474124 1.77797 34 39 38
0.920427 0.488133 1.8305 35 39 38
0.942775 0.494831 1.85562 34 39 38
0.931366 0.483854 1.81445 34 39 37
0.911473 0.468737 1.75776 33 38 37
0.950373 0.483854 1.81445 33 37 36
0.959877 0.483854 1.81445 34 38 37
1.00734 0.5028 1.8855 35 39 38
1.00388 0.496211 1.86079 36 40 39
1.02101 0.499822 1.87433 36 40 40
1.03082 0.499822 1.87433 35 39 39
1.11041 0.533333 2 33 39 38
1.03348 0.491744 1.84404 33 39 39
1.06028 0.499822 1.87433 35 40 40
1.09664 0.512222 1.92083 34 40 39
1.10027 0.509244 1.90967 35 40 39
1.11676 0.512222 1.92083 35 41 40
1.06933 0.486088 1.82283 36 41 40
1.10936 0.499822 1.87433 35 40 39
1.19422 0.533333 2 34 39 38
1.14136 0.505297 1.89486 34 39 38
1.06799 0.468737 1.75776 34 39 38
1.22564 0.533333 2 36 40 39
1.10952 0.478711 1.79517 36 41 39
1.2466 0.533333 2 34 39 38
-0.716033 0.309746 1.13921 35 35 30
-0.720506 0.3143 1.15596 34 34 29
-0.722822 0.317982 1.1695 34 34 29
-0.761271 0.337759 1.24224 35 35 31
-0.692165 0.309746 1.13921 35 37 33
-0.686199 0.309746 1.13921 36 37 33
-0.690233 0.3143 1.15596 36 37 33
-0.701691 0.322345 1.18555 36 36 32
-0.728738 0.337759 1.24224 35 35 32
-0.689272 0.322345 1.18555 36 36 33
-0.656364 0.309746 1.13921 36 36 33
-0.722927 0.344288 1.26625 35 35 32
-0.601575 0.289147 1.06345 36 36 32
-0.696205 0.337759 1.24224 36 36 33
-0.668931 0.327588 1.20483 36 36 33
-0.727514 0.359671 1.32283 35 35 32
-0.669148 0.333996 1.2284 36 36 32
-0.778102 0.39215 1.44228 35 35 32
-0.706728 0.359671 1.32283 36 36 33
-0.703857 0.361756 1.3305 38 38 35
-0.730601 0.379257 1.39486 38 38 35
-0.747885 0.39215 1.44228 36 37 34
-0.68295 0.361756 1.3305 36 36 33
-0.708683 0.379257 1.39486 36 36 33
-0.783264 0.423536 1.55772 36 37 34
-0.770705 0.421132 1.54887 36 36 33
-0.703845 0.388689 1.42955 35 36 32
-0.758787 0.423536 1.55772 35 36 32
-0.750628 0.423536 1.55772 36 36 32
-0.765072 0.436429 1.60514 37 37 34
-0.73431 0.423536 1.55772 37 37 34
-0.699246 0.407843 1.5 36 37 33
-0.664786 0.39215 1.44228 36 37 33
-0.793917 0.473706 1.74224 35 36 31
-0.740714 0.447101 1.64438 35 36 31
-0.693515 0.423536 1.55772 36 37 32
-0.779459 0.48169 1.7716 37 38 34
-0.753725 0.471399 1.73375 37 37 33
-0.71705 0.45393 1.6695 36 36 32
-0.723295 0.463536 1.70483 36 36 32
-0.726482 0.471399 1.73375 35 35 31
-0.733063 0.48169 1.7716 35 35 31
-0.741291 0.493341 1.81445 36 36 33
-0.714504 0.48169 1.7716 36 36 32
-0.678647 0.463536 1.70483 36 36 33
-0.705204 0.488098 1.79517 37 36 33
-0.671996 0.471399 1.73375 35 35 31
-0.66433 0.472405 1.73745 34 34 29
-0.658564 0.474809 1.74629 35 35 30
-0.649417 0.474809 1.74629 37 37 32
-0.654707 0.485514 1.78567 37 37 33
-0.620564 0.466864 1.71707 37 37 33
-0.61646 0.470597 1.7308 37 37 33
-0.612831 0.474809 1.74629 36 37 33
-0.613704 0.48269 1.77528 36 37 33
-0.585033 0.467219 1.71838 37 37 34
-0.612616 0.496892 1.82751 36 37 33
-0.576244 0.474809 1.74629 35 36 32
-0.58625 0.490845 1.80527 35 35 31
-0.544704 0.463536 1.70483 35 35 31
-0.552408 0.477927 1.75776 35 36 32
-0.526844 0.463536 1.70483 36 37 32
-0.5267 0.471399 1.73375 37 37 33
-0.51351 0.467657 1.71999 37 37 34
-0.517376 0.479592 1.76388 37 37 33
-0.508137 0.479592 1.76388 37 37 32
-0.491422 0.472405 1.73745 37 36 32
-0.456486 0.447101 1.64438 37 36 33
-0.472214 0.471399 1.73375 36 36 32
-0.463133 0.471399 1.73375 36 36 32
-0.454051 0.471399 1.73375 36 37 33
-0.434145 0.459931 1.69157 36 37 33
-0.435889 0.471399 1.73375 36 36 33
-0.439589 0.485514 1.78567 35 35 31
-0.423513 0.477927 1.75776 36 36 32
-0.411603 0.474809 1.74629 36 36 33
-0.392901 0.463536 1.70483 36 36 32
-0.395892 0.477927 1.75776 36 36 32
-0.369552 0.456752 1.67988 36 36 32
-0.362933 0.459511 1.69003 35 36 30
-0.354404 0.459931 1.69157 35 36 31
-0.35102 0.467219 1.71838 35 36 31
-0.345079 0.471399 1.73375 35 37 32
-0.333019 0.467219 1.71838 36 37 33
-0.316248 0.456015 1.67717 36 37 32
-0.312535 0.463536 1.70483 35 36 31
-0.308755 0.471399 1.73375 34 36 30
-0.302713 0.476179 1.75133 33 35 29
-0.285746 0.463536 1.70483 34 35 30
-0.279277 0.467657 1.71999 35 36 32
-0.261077 0.451753 1.66149 36 37 33
-0.254756 0.456015 1.67717 36 37 34
-0.239696 0.444382 1.63439 35 36 33
-0.241098 0.463536 1.70483 34 35 31
-0.224808 0.44884 1.65078 34 35 31
-0.215324 0.447101 1.64438 35 36 33
-0.208862 0.451753 1.66149 35 37 33
-0.210375 0.474809 1.74629 36 37 34
-0.189485 0.447101 1.64438 36 37 33
-0.187521 0.463536 1.70483 36 37 33
-0.174051 0.451753 1.66149 36 37 34
-0.168342 0.459931 1.69157 36 37 34
-0.157062 0.452952 1.6659 37 38 35
-0.14934 0.456015 1.67717 37 38 35
-0.139611 0.452952 1.6659 36 37 34
-0.13177 0.456015 1.67717 36 37 33
-0.118646 0.439926 1.618 36 37 33
-0.111968 0.447101 1.64438 36 37 34
-0.106321 0.459931 1.69157 36 37 34
-0.0951111 0.44884 1.65078 37 38 34
-0.0864646 0.44884 1.65078 37 37 34
-0.079741 0.459931 1.69157 37 37 34
-0.0702774 0.456015 1.67717 37 37 34
-0.062507 0.463536 1.70483 37 37 34
-0.050556 0.437396 1.60869 37 37 34
-0.0436283 0.452952 1.6659 36 36 33
-0.0351387 0.456015 1.67717 35 36 32
-0.026354 0.456015 1.67717 35 35 32
-0.0170298 0.442011 1.62567 35 35 32
-0.00886011 0.459931 1.69157 35 36 33
0 0.463536 1.70483 35 36 34
0.00864646 0.44884 1.65078 36 37 34
0.0175694 0.456015 1.67717 36 37 34
0.0266 0.460271 1.69282 36 37 34
0.0357183 0.463536 1.70483 36 37 35
0.0428029 0.444382 1.63439 36 37 34
0.0513635 0.444382 1.63439 35 36 33
0.060918 0.451753 1.66149 35 36 33
0.0702774 0.456015 1.67717 35 36 33
0.0823205 0.474809 1.74629 35 36 34
0.0870257 0.451753 1.66149 35 36 33
0.0957282 0.451753 1.66149 36 37 34
0.106224 0.459511 1.69003 35 36 33
0.115076 0.459511 1.69003 35 36 33
0.125014 0.463536 1.70483 34 36 32
0.127724 0.442011 1.62567 34 35 32
0.141633 0.459511 1.69003 35 36 33
0.150622 0.459931 1.69157 35 36 33
0.160732 0.463536 1.70483 34 35 32
0.162839 0.444896 1.63628 34 35 33
0.175694 0.456015 1.67717 35 36 33
0.183239 0.452952 1.6659 35 36 33
0.198197 0.467657 1.71999 35 36 33
0.202048 0.456015 1.67717 35 36 33
0.210832 0.456015 1.67717 35 36 33
0.227026 0.471399 1.73375 36 36 34
0.243177 0.485514 1.78567 35 36 33
0.234969 0.451753 1.66149 35 36 33
0.256108 0.474809 1.74629 34 35 33
0.252374 0.451753 1.66149 33 35 32
0.265803 0.459931 1.69157 33 34 31
0.276817 0.463536 1.70483 32 34 31
0.267702 0.434266 1.59718 34 35 33
0.287185 0.451753 1.66149 35 36 34
0.298679 0.456015 1.67717 34 36 34
0.310104 0.459931 1.69157 34 36 34
0.315613 0.455099 1.6738 34 36 34
0.335998 0.471399 1.73375 34 35 34
0.345079 0.471399 1.73375 34 35 33
0.345229 0.459511 1.69003 33 35 32
0.350681 0.455099 1.6738 32 34 32
0.360172 0.456015 1.67717 32 35 33
0.368216 0.455099 1.6738 33 35 33
0.383971 0.463536 1.70483 33 36 33
0.399565 0.471399 1.73375 33 36 34
0.40183 0.463536 1.70483 33 35 34
0.414411 0.467657 1.71999 34 36 34
0.41969 0.463536 1.70483 34 36 34
0.432429 0.467657 1.71999 33 35 33
0.448189 0.474809 1.74629 34 35 34
0.458656 0.476179 1.75133 34 36 34
0.451454 0.459511 1.69003 33 35 33
0.473222 0.472405 1.73745 32 34 32
0.461236 0.451753 1.66149 33 35 34
0.486483 0.467657 1.71999 33 35 34
0.478641 0.451753 1.66149 35 38 37
0.500056 0.463536 1.70483 37 40 39
0.51351 0.467657 1.71999 39 42 40
0.522519 0.467657 1.71999 39 42 40
0.548615 0.48269 1.77528 36 39 37
0.550387 0.476179 1.75133 33 35 34
0.55956 0.476179 1.75133 28 31 30
0.553633 0.463536 1.70483 31 34 33
0.577906 0.476179 1.75133 33 35 35
0.571492 0.463536 1.70483 34 36 35
0.614617 0.490845 1.80527 34 37 36
0.595298 0.468213 1.72203 34 37 36
0.609728 0.472405 1.73745 34 37 36
0.612608 0.467657 1.71999 32 35 34
0.632945 0.476179 1.75133 32 35 34
0.642118 0.476179 1.75133 31 35 32
0.655959 0.479592 1.76388 40 41 40
0.65523 0.472405 1.73745 44 44 43
0.686399 0.488098 1.79517 41 43 41
0.65505 0.459511 1.69003 35 39 37
0.700817 0.485061 1.784 34 37 36
0.699717 0.477927 1.75776 34 37 36
0.708924 0.477927 1.75776 34 38 37
0.696506 0.463536 1.70483 34 38 37
0.742815 0.488098 1.79517 34 38 37
0.75725 0.491363 1.80718 34 37 37
0.749352 0.480235 1.76625 33 37 37
0.758603 0.480235 1.76625 33 37 37
0.7498 0.468944 1.72472 32 37 37
0.773371 0.477927 1.75776 32 37 37
0.793202 0.484415 1.78162 32 37 37
0.835863 0.504533 1.85562 33 38 38
0.818037 0.488098 1.79517 35 39 39
0.827439 0.488098 1.79517 35 39 39
0.849737 0.495619 1.82283 35 40 39
0.853223 0.492122 1.80997 34 39 38
0.849192 0.484415 1.78162 34 38 38
0.86505 0.488098 1.79517 34 38 38
0.856232 0.477927 1.75776 34 39 38
0.932941 0.515205 1.89486 34 39 38
0.893258 0.488098 1.79517 33 39 38
0.902661 0.488098 1.79517 34 39 38
0.95796 0.512659 1.8855 34 39 38
0.967836 0.512659 1.8855 33 38 37
0.971921 0.509623 1.87433 32 37 36
0.974644 0.505941 1.86079 33 37 36
0.991555 0.509623 1.87433 35 39 38
0.969381 0.493341 1.81445 35 39 39
0.978885 0.493341 1.81445 36 40 39
1.02101 0.509623 1.87433 36 39 40
0.937604 0.463536 1.70483 35 39 39
1.03312 0.505941 1.86079 34 38 38
1.04287 0.505941 1.86079 32 38 38
1.08658 0.522266 1.92083 34 39 39
1.09027 0.519229 1.90967 35 40 39
1.0343 0.488098 1.79517 35 40 39
1.03 0.48169 1.7716 35 41 40
1.0531 0.488098 1.79517 36 41 40
1.06251 0.488098 1.79517 36 41 40
1.04957 0.477927 1.75776 35 40 39
1.3506 0.609654 2.24224 34 39 38
1.10752 0.495619 1.82283 35 39 38
1.22564 0.543791 2 36 40 39
1.15845 0.509623 1.87433 36 40 40
1.2466 0.543791 2 35 39 38
-0.584257 0.257602 0.929553 35 35 30
-0.720506 0.320344 1.15596 34 34 29
-0.704099 0.315702 1.13921 33 33 27
-0.651706 0.294708 1.06345 34 35 29
-0.732037 0.333888 1.20483 36 37 33
-0.762721 0.350908 1.26625 36 37 33
-0.690233 0.320344 1.15596 36 37 33
-0.659639 0.308854 1.1145 36 36 33
-0.72062 0.340419 1.2284 36 36 32
-0.662331 0.315702 1.13921 36 36 33
-0.766577 0.368713 1.3305 36 36 34
-0.67207 0.326223 1.17717 36 36 34
-0.7483 0.366588 1.32283 36 36 33
-0.709662 0.350908 1.26625 37 37 33
-0.70303 0.350908 1.26625 37 37 34
-0.712301 0.358922 1.29517 36 36 33
-0.705517 0.358922 1.29517 36 36 32
-0.752519 0.38655 1.39486 35 35 31
-0.770548 0.399692 1.44228 35 35 31
-0.737907 0.38655 1.39486 37 37 34
-0.678382 0.358922 1.29517 37 37 34
-0.689919 0.368713 1.3305 36 36 33
-0.695843 0.375674 1.35562 35 36 32
-0.698253 0.380861 1.37433 35 35 32
-0.729667 0.402142 1.45113 35 36 32
-0.711332 0.396164 1.42955 35 35 32
-0.800401 0.450511 1.62567 35 35 31
-0.696357 0.396164 1.42955 35 36 32
-0.647663 0.372466 1.34404 36 36 33
-0.687449 0.399692 1.44228 36 37 34
-0.730142 0.429231 1.54887 37 37 34
-0.699246 0.415686 1.5 36 37 34
-0.739849 0.444822 1.60514 36 37 34
-0.731442 0.444822 1.60514 35 36 33
-0.732282 0.450511 1.62567 35 36 31
-0.714627 0.444822 1.60514 37 38 35
-0.766541 0.482816 1.74224 39 40 36
-0.673353 0.429231 1.54887 37 37 33
-0.732224 0.47245 1.70483 35 35 30
-0.751621 0.490953 1.7716 35 35 30
-0.742342 0.490953 1.7716 35 34 30
-0.717401 0.480464 1.73375 36 36 33
-0.682072 0.462659 1.6695 37 37 34
-0.714504 0.490953 1.7716 36 36 33
-0.714607 0.497484 1.79517 36 36 32
-0.687984 0.485336 1.75133 35 35 32
-0.678811 0.485336 1.75133 35 35 30
-0.702081 0.508851 1.83618 35 35 30
-0.665198 0.488815 1.76388 36 36 31
-0.660197 0.491973 1.77528 37 37 33
-0.62507 0.47245 1.70483 37 37 33
-0.635269 0.487118 1.75776 37 38 34
-0.601938 0.468348 1.69003 37 38 34
-0.612831 0.48394 1.74629 36 37 32
-0.607649 0.487118 1.75776 35 36 31
-0.580422 0.47245 1.70483 35 36 32
-0.601774 0.497484 1.79517 35 36 32
-0.585809 0.491973 1.77528 35 36 32
-0.572809 0.488815 1.76388 35 36 32
-0.55956 0.485336 1.75133 36 36 32
-0.564163 0.497484 1.79517 36 36 32
-0.539657 0.48394 1.74629 36 36 32
-0.504749 0.46044 1.66149 36 37 32
-0.505026 0.468775 1.69157 37 37 33
-0.513695 0.485336 1.75133 36 36 32
-0.506374 0.487118 1.75776 36 36 31
-0.490376 0.480464 1.73375 35 35 29
-0.48966 0.488815 1.76388 35 35 30
-0.451026 0.458906 1.65596 36 35 31
-0.459456 0.47665 1.71999 36 36 32
-0.454051 0.480464 1.73375 37 37 33
-0.441438 0.47665 1.71999 38 38 35
-0.435148 0.479647 1.7308 38 38 34
-0.43272 0.487118 1.75776 37 37 34
-0.414023 0.476204 1.71838 37 37 34
-0.40183 0.47245 1.70483 36 36 33
-0.399565 0.480464 1.73375 36 36 32
-0.397271 0.488815 1.76388 36 36 31
-0.375042 0.47245 1.70483 35 36 31
-0.366112 0.47245 1.70483 36 37 32
-0.360358 0.47665 1.71999 36 37 33
-0.342602 0.464785 1.67717 36 37 32
-0.345816 0.48149 1.73745 35 37 32
-0.338429 0.48394 1.74629 36 37 32
-0.318673 0.468348 1.69003 36 37 32
-0.32336 0.488815 1.76388 34 35 30
-0.311886 0.485336 1.75133 34 35 30
-0.299674 0.480464 1.73375 34 36 31
-0.288016 0.476204 1.71838 35 36 31
-0.276817 0.47245 1.70483 35 36 32
-0.265561 0.468348 1.69003 35 36 32
-0.258957 0.47245 1.70483 35 37 32
-0.247857 0.468348 1.69003 35 37 33
-0.246962 0.48394 1.74629 34 35 31
-0.226867 0.461662 1.6659 34 35 31
-0.223239 0.47245 1.70483 34 35 32
-0.216215 0.47665 1.71999 35 36 32
-0.207012 0.476204 1.71838 35 36 32
-0.199783 0.480464 1.73375 35 36 32
-0.187521 0.47245 1.70483 35 36 32
-0.178591 0.47245 1.70483 35 36 33
-0.164283 0.457472 1.65078 36 36 33
-0.159337 0.468348 1.69003 36 36 33
-0.150485 0.468348 1.69003 36 36 33
-0.142873 0.47245 1.70483 35 36 32
-0.128409 0.452928 1.63439 36 36 33
-0.126125 0.47665 1.71999 36 37 33
-0.110075 0.447991 1.61657 35 36 33
-0.106224 0.468348 1.69003 35 36 32
-0.0974612 0.468775 1.69157 35 36 32
-0.0856058 0.452928 1.63439 36 36 33
-0.0766342 0.450511 1.62567 37 37 34
-0.0698053 0.461662 1.6659 37 37 34
-0.060918 0.46044 1.66149 37 37 34
-0.052354 0.461662 1.6659 37 37 34
-0.0428029 0.452928 1.63439 36 36 33
-0.0351387 0.464785 1.67717 35 36 32
-0.0261077 0.46044 1.66149 35 36 33
-0.0177041 0.468348 1.69003 36 36 33
-0.00864646 0.457472 1.65078 36 36 34
0 0.457472 1.65078 35 36 33
0.00859722 0.454867 1.64138 36 36 34
0.0174513 0.461662 1.6659 36 37 34
0.026177 0.461662 1.6659 36 37 35
0.0354081 0.468348 1.69003 37 38 35
0.04213 0.445808 1.60869 36 37 35
0.0513635 0.452928 1.63439 35 36 34
0.060918 0.46044 1.66149 35 36 34
0.072004 0.476204 1.71838 35 36 34
0.0783231 0.46044 1.66149 35 36 33
0.0906559 0.479647 1.7308 34 35 32
0.0957282 0.46044 1.66149 35 36 33
0.110866 0.488815 1.76388 35 36 33
0.116084 0.47245 1.70483 35 36 33
0.122159 0.461662 1.6659 35 36 33
0.13278 0.468348 1.69003 35 36 33
0.139241 0.46044 1.66149 35 36 34
0.14934 0.464785 1.67717 34 35 33
0.158124 0.464785 1.67717 34 35 31
0.164283 0.457472 1.65078 34 35 32
0.177041 0.468348 1.69003 34 35 32
0.184478 0.464785 1.67717 35 36 33
0.194745 0.468348 1.69003 35 36 33
0.20538 0.47245 1.70483 35 35 33
0.202224 0.445808 1.60869 35 35 32
0.223239 0.47245 1.70483 35 36 33
0.234233 0.47665 1.71999 35 35 32
0.233454 0.457472 1.65078 34 35 32
0.245971 0.464785 1.67717 34 35 32
0.256709 0.468348 1.69003 33 35 32
0.261077 0.46044 1.66149 33 35 32
0.272325 0.464785 1.67717 33 35 32
0.278482 0.46044 1.66149 35 36 34
0.289312 0.463851 1.6738 35 36 34
0.300969 0.468348 1.69003 34 36 34
0.303575 0.458906 1.65596 34 35 33
0.311273 0.457472 1.65078 34 36 34
0.309531 0.442617 1.59718 34 35 33
0.342019 0.476204 1.71838 34 35 33
0.35102 0.476204 1.71838 33 34 32
0.357183 0.47245 1.70483 32 34 32
0.369367 0.47665 1.71999 32 34 32
0.375042 0.47245 1.70483 33 35 33
0.380637 0.468348 1.69003 34 36 34
0.392901 0.47245 1.70483 34 36 34
0.405402 0.47665 1.71999 34 36 34
0.41076 0.47245 1.70483 34 36 34
0.409021 0.46044 1.66149 34 36 34
0.413422 0.455699 1.64438 33 35 33
0.457867 0.494389 1.784 34 36 34
0.450447 0.47665 1.71999 35 36 34
0.451454 0.468348 1.69003 32 34 32
0.468465 0.47665 1.71999 30 32 31
0.486175 0.485336 1.75133 31 34 33
0.468373 0.458906 1.65596 32 34 34
0.499457 0.480464 1.73375 35 37 37
0.495714 0.468348 1.69003 37 41 39
0.524787 0.487118 1.75776 38 41 39
0.527824 0.48149 1.73745 37 40 39
0.52227 0.468348 1.69003 35 38 36
0.540537 0.47665 1.71999 33 36 34
0.533415 0.462659 1.6695 31 34 33
0.542159 0.462659 1.6695 32 35 34
0.592371 0.497484 1.79517 34 36 35
0.56653 0.468348 1.69003 34 36 36
0.591527 0.48149 1.73745 34 37 36
0.59459 0.47665 1.71999 34 37 36
0.614599 0.485336 1.75133 32 35 35
0.607211 0.47245 1.70483 31 35 34
0.627929 0.48149 1.73745 33 36 35
0.670049 0.506447 1.82751 32 35 34
0.655959 0.488815 1.76388 40 41 40
0.653834 0.480464 1.73375 44 45 44
0.682128 0.494389 1.784 39 41 40
0.691473 0.494389 1.784 33 36 35
0.682531 0.48149 1.73745 32 36 35
0.702153 0.488815 1.76388 34 38 36
0.735166 0.50515 1.82283 34 38 37
0.744713 0.50515 1.82283 34 38 37
0.737211 0.493731 1.78162 34 38 37
0.768529 0.508272 1.8341 34 38 37
0.773356 0.50515 1.82283 34 38 37
0.732224 0.47245 1.70483 34 37 37
0.7498 0.477962 1.72472 33 37 37
0.777105 0.489471 1.76625 32 37 37
0.759013 0.47245 1.70483 31 36 36
0.815302 0.501586 1.80997 31 37 37
0.845582 0.514236 1.85562 32 37 37
0.819511 0.492717 1.77797 32 37 37
0.843742 0.501586 1.80997 33 38 37
0.8629 0.507275 1.8305 34 38 38
0.847448 0.492717 1.77797 35 39 39
0.835455 0.480464 1.73375 36 40 39
0.923016 0.525112 1.89486 37 41 40
0.853617 0.480464 1.73375 37 41 40
0.893258 0.497484 1.79517 35 40 39
0.920427 0.507275 1.8305 35 40 39
0.893059 0.487118 1.75776 34 39 38
0.929065 0.501586 1.80997 34 38 37
0.977711 0.522518 1.8855 33 38 37
0.92068 0.487118 1.75776 34 38 37
0.921674 0.482816 1.74224 35 39 38
0.959077 0.497484 1.79517 35 38 38
0.935346 0.480464 1.73375 34 38 38
1.0549 0.536664 1.93655 35 38 39
0.974324 0.490953 1.7716 34 38 38
0.926918 0.462659 1.6695 34 38 38
1.07652 0.532309 1.92083 33 38 38
1.13136 0.554248 2 34 39 39
1.04069 0.50515 1.82283 35 40 39
1.15232 0.554248 2 35 40 40
1.0437 0.497484 1.79517 36 41 40
1.11159 0.525112 1.89486 36 41 40
1.10936 0.519423 1.87433 35 40 39
1.257 0.583384 2.10514 34 40 39
1.05878 0.487118 1.75776 34 39 38
1.29152 0.589073 2.12567 34 39 38
1.16121 0.525112 1.89486 35 40 39
1.23612 0.554248 2 36 41 40
1.16827 0.519423 1.87433 36 40 39
-0.685314 0.307859 1.09033 35 35 30
-0.710066 0.321659 1.13921 35 35 30
-0.6616 0.302244 1.07045 33 34 28
-0.698132 0.321659 1.13921 32 33 27
-0.786923 0.365694 1.29517 34 34 29
-0.71411 0.334743 1.18555 35 35 31
-0.733489 0.346842 1.2284 36 36 32
-0.766572 0.365694 1.29517 36 37 33
-0.695481 0.334743 1.18555 36 36 33
-0.799031 0.388047 1.37433 37 37 34
-0.707752 0.346842 1.2284 37 37 34
-0.642665 0.317835 1.12567 37 37 35
-0.716295 0.357529 1.26625 37 37 34
-0.68845 0.346842 1.2284 36 36 33
-0.738701 0.37567 1.3305 36 36 33
-0.675582 0.346842 1.2284 36 36 33
-0.705517 0.365694 1.29517 36 36 32
-0.731345 0.382762 1.35562 36 36 32
-0.724245 0.382762 1.35562 36 36 32
-0.685166 0.365694 1.29517 36 36 32
-0.755439 0.407233 1.44228 36 36 32
-0.702943 0.382762 1.35562 35 35 31
-0.769956 0.423529 1.5 35 35 31
-0.791423 0.439826 1.55772 34 35 31
-0.729667 0.40973 1.45113 35 35 32
-0.717667 0.407233 1.44228 35 35 32
-0.738529 0.423529 1.5 35 35 32
-0.758787 0.439826 1.55772 36 36 33
-0.773479 0.453215 1.60514 36 36 33
-0.742469 0.439826 1.55772 36 36 33
-0.73431 0.439826 1.55772 35 36 33
-0.748257 0.453215 1.60514 35 36 32
-0.769517 0.471389 1.6695 35 36 33
-0.635623 0.393844 1.39486 35 36 33
-0.745927 0.467565 1.65596 36 37 33
-0.799231 0.506871 1.79517 38 39 35
-0.779459 0.500216 1.7716 38 39 35
-0.780426 0.506871 1.79517 36 36 32
-0.771023 0.506871 1.79517 35 35 30
-0.735563 0.489529 1.73375 35 35 30
-0.730039 0.491926 1.74224 35 34 30
-0.750795 0.512316 1.81445 36 36 33
-0.723784 0.500216 1.7716 37 37 34
-0.67642 0.473554 1.67717 36 36 33
-0.709216 0.503047 1.78162 35 35 32
-0.700817 0.503717 1.784 35 35 31
-0.683676 0.498038 1.76388 35 35 31
-0.662915 0.489529 1.73375 36 36 32
-0.676996 0.506871 1.79517 36 37 33
-0.639036 0.485188 1.71838 38 38 34
-0.650899 0.501255 1.77528 37 38 34
-0.655758 0.512316 1.81445 38 38 34
-0.621977 0.493071 1.74629 37 37 34
-0.627081 0.504536 1.7869 36 36 32
-0.620579 0.506871 1.79517 35 36 31
-0.594537 0.493071 1.74629 35 36 31
-0.576032 0.485188 1.71838 35 36 32
-0.562563 0.481365 1.70483 36 36 32
-0.567097 0.493071 1.74629 36 36 33
-0.567212 0.501255 1.77528 36 37 33
-0.546025 0.490575 1.73745 36 37 33
-0.535781 0.489529 1.73375 36 36 32
-0.532041 0.494494 1.75133 36 37 32
-0.522868 0.494494 1.75133 37 37 33
-0.512217 0.493071 1.74629 37 36 32
-0.486862 0.477185 1.69003 36 36 32
-0.469939 0.469128 1.66149 36 35 31
-0.498344 0.506871 1.79517 36 36 31
-0.464337 0.481365 1.70483 36 36 31
-0.443831 0.469128 1.66149 37 37 33
-0.450447 0.485644 1.71999 38 38 34
-0.437549 0.481365 1.70483 39 38 35
-0.448523 0.503717 1.784 38 38 35
-0.41969 0.481365 1.70483 38 38 34
-0.41076 0.481365 1.70483 37 37 33
-0.41279 0.494494 1.75133 36 36 32
-0.392901 0.481365 1.70483 35 36 31
-0.390484 0.489529 1.73375 35 36 31
-0.381403 0.489529 1.73375 36 36 32
-0.366112 0.481365 1.70483 37 37 33
-0.36002 0.485188 1.71838 36 37 33
-0.35416 0.489529 1.73375 36 37 33
-0.342019 0.485188 1.71838 36 37 33
-0.321995 0.469128 1.66149 36 37 33
-0.332599 0.498038 1.76388 35 36 31
-0.309821 0.477185 1.69003 33 35 29
-0.300969 0.477185 1.69003 34 35 31
-0.289312 0.472603 1.6738 36 37 33
-0.290593 0.489529 1.73375 36 37 33
-0.270496 0.470373 1.6659 35 37 32
-0.265561 0.477185 1.69003 35 36 31
-0.26335 0.489529 1.73375 34 36 31
-0.245477 0.472603 1.6738 34 36 31
-0.245188 0.489529 1.73375 34 35 31
-0.236107 0.489529 1.73375 34 36 32
-0.216839 0.467565 1.65596 34 35 32
-0.210832 0.473554 1.67717 34 36 32
-0.203782 0.47762 1.69157 34 35 31
-0.201228 0.493071 1.74629 35 36 32
-0.185893 0.477185 1.69003 35 36 32
-0.181621 0.489529 1.73375 35 36 33
-0.17101 0.485188 1.71838 35 36 33
-0.164641 0.493071 1.74629 35 36 33
-0.155943 0.494494 1.75133 35 36 32
-0.145296 0.489529 1.73375 35 35 32
-0.13278 0.477185 1.69003 35 36 33
-0.123928 0.477185 1.69003 36 36 33
-0.117007 0.485188 1.71838 35 35 32
-0.105586 0.474319 1.67988 35 35 31
-0.0957282 0.469128 1.66149 34 34 31
-0.0878468 0.473554 1.67717 36 36 33
-0.0823205 0.493071 1.74629 37 37 35
-0.0701363 0.472603 1.6738 37 37 34
-0.0602907 0.464297 1.64438 37 37 34
-0.0520414 0.467565 1.65596 37 37 34
-0.0439234 0.473554 1.67717 36 36 33
-0.0351387 0.473554 1.67717 35 35 32
-0.0261077 0.469128 1.66149 35 35 33
-0.0172929 0.466103 1.65078 36 36 34
-0.00885203 0.477185 1.69003 36 36 34
0 0.469128 1.66149 36 36 34
0.00886011 0.47762 1.69157 36 36 34
0.0173471 0.467565 1.65596 36 37 34
0.0267887 0.481365 1.70483 36 37 34
0.0357183 0.481365 1.70483 36 37 35
0.0446478 0.481365 1.70483 37 37 35
0.0516777 0.464297 1.64438 36 37 35
0.0605252 0.466103 1.65078 36 37 34
0.0714365 0.481365 1.70483 35 36 34
0.0796683 0.477185 1.69003 34 35 32
0.090005 0.485188 1.71838 34 35 32
0.0990055 0.485188 1.71838 35 35 32
0.105586 0.474319 1.67988 35 36 32
0.116084 0.481365 1.70483 35 36 33
0.127134 0.489529 1.73375 35 36 33
0.131983 0.474319 1.67988 35 36 33
0.142873 0.481365 1.70483 35 36 33
0.14934 0.473554 1.67717 34 35 32
0.163459 0.489529 1.73375 35 35 33
0.168342 0.47762 1.69157 35 36 34
0.174051 0.469128 1.66149 35 36 33
0.192081 0.493071 1.74629 35 36 33
0.190819 0.467565 1.65596 35 35 33
0.207206 0.485644 1.71999 34 35 32
0.210832 0.473554 1.67717 35 35 33
0.214015 0.461474 1.63439 35 36 33
0.227943 0.472603 1.6738 35 35 32
0.241098 0.481365 1.70483 34 35 32
0.245477 0.472603 1.6738 34 35 32
0.258957 0.481365 1.70483 33 35 32
0.26354 0.473554 1.67717 33 35 33
0.272325 0.473554 1.67717 33 35 33
0.285746 0.481365 1.70483 35 36 34
0.292384 0.47762 1.69157 35 36 35
0.306304 0.485644 1.71999 35 36 35
0.309821 0.477185 1.69003 34 35 33
0.321464 0.481365 1.70483 34 35 33
0.333331 0.485644 1.71999 33 35 33
0.333147 0.472603 1.6738 34 35 33
0.35102 0.485188 1.71838 32 34 31
0.353673 0.476635 1.68808 32 34 31
0.369367 0.485644 1.71999 31 33 31
0.381403 0.489529 1.73375 32 34 31
0.370357 0.464297 1.64438 35 37 35
0.399565 0.489529 1.73375 35 37 35
0.40183 0.481365 1.70483 35 36 35
0.417727 0.489529 1.73375 35 36 34
0.431137 0.494494 1.75133 34 35 34
0.432024 0.485188 1.71838 33 35 33
0.41723 0.459012 1.62567 34 35 34
0.454051 0.489529 1.73375 33 35 34
0.473243 0.500216 1.7716 31 34 32
0.459775 0.476635 1.68808 30 33 32
0.478042 0.486221 1.72203 32 34 33
0.490376 0.489529 1.73375 32 34 33
0.486301 0.476635 1.68808 35 37 36
0.517376 0.498038 1.76388 38 40 39
0.518724 0.490575 1.73745 38 40 38
0.533994 0.496309 1.75776 37 39 37
0.531528 0.485644 1.71999 35 38 36
0.546025 0.490575 1.73745 34 36 35
0.579728 0.512316 1.81445 34 36 35
0.564226 0.490575 1.73745 33 36 35
0.592371 0.506871 1.79517 34 37 36
0.565878 0.476635 1.68808 34 37 36
0.596253 0.494494 1.75133 34 37 36
0.595298 0.486221 1.72203 34 36 36
0.587391 0.472603 1.6738 32 35 34
0.656793 0.520671 1.84404 32 35 34
0.657001 0.513288 1.81789 34 36 35
0.64672 0.498038 1.76388 33 36 35
0.66344 0.503717 1.784 37 39 38
0.660465 0.494494 1.75133 39 40 39
0.66433 0.490575 1.73745 36 38 37
0.673431 0.490575 1.73745 33 36 35
0.700817 0.503717 1.784 31 36 35
0.678647 0.481365 1.70483 33 37 36
0.700732 0.490575 1.73745 35 38 37
0.711788 0.491926 1.74224 35 38 37
0.723574 0.493742 1.74867 35 38 37
0.722699 0.48698 1.72472 35 38 37
0.755874 0.503047 1.78162 35 38 38
0.796985 0.523938 1.85562 34 37 37
0.801673 0.520671 1.84404 32 36 36
0.741598 0.475919 1.68555 31 35 36
0.778529 0.493742 1.74867 30 35 36
0.787688 0.493742 1.74867 31 37 37
0.804859 0.498706 1.76625 32 37 37
0.799131 0.489529 1.73375 32 37 37
0.859626 0.520671 1.84404 31 36 36
0.8629 0.516847 1.8305 32 37 37
0.878943 0.520671 1.84404 35 39 39
0.874344 0.512316 1.81445 37 41 40
0.913016 0.529224 1.87433 39 43 42
0.850983 0.488019 1.7284 38 42 41
0.874646 0.496309 1.75776 36 40 40
0.927237 0.520671 1.84404 36 40 39
0.903324 0.502014 1.77797 35 39 39
0.967836 0.532377 1.8855 35 39 38
0.977711 0.532377 1.8855 34 39 38
0.861295 0.464297 1.64438 35 39 38
0.984391 0.5254 1.86079 35 39 38
0.969381 0.512316 1.81445 33 37 37
0.96848 0.506871 1.79517 32 36 36
1.01363 0.5254 1.86079 32 36 37
1.02338 0.5254 1.86079 34 37 38
1.06646 0.542353 1.92083 34 38 38
1.12089 0.564706 2 35 39 39
0.964393 0.481365 1.70483 35 40 39
1.0249 0.506871 1.79517 35 40 39
1.1067 0.542353 1.92083 35 40 39
1.0437 0.506871 1.79517 35 40 39
1.09955 0.529224 1.87433 35 40 39
1.18374 0.564706 2 35 40 39
1.14028 0.5392 1.90967 34 39 38
1.14136 0.53502 1.89486 33 38 38
1.00613 0.467565 1.65596 34 39 38
1.14863 0.529224 1.87433 35 40 39
1.23612 0.564706 2 35 40 39
1.03215 0.467565 1.65596 35 40 39
-0.836266 0.382627 1.3305 35 34 28
-0.774284 0.357245 1.24224 35 35 29
-0.777372 0.361709 1.25776 35 35 30
-0.721396 0.338533 1.17717 34 35 30
-0.746357 0.353265 1.2284 34 35 30
-0.696288 0.332432 1.15596 35 35 31
-0.672145 0.323721 1.12567 35 36 31
-0.727055 0.353265 1.2284 36 36 32
-0.795249 0.38985 1.35562 36 36 33
-0.769087 0.380421 1.32283 37 37 34
-0.616746 0.307841 1.07045 37 37 34
-0.722927 0.36415 1.26625 37 37 34
-0.64443 0.327616 1.13921 36 36 33
-0.781743 0.401137 1.39486 36 36 33
-0.774437 0.401137 1.39486 36 35 31
-0.731732 0.382627 1.3305 36 36 31
-0.669148 0.353265 1.2284 36 36 31
-0.752519 0.401137 1.39486 36 36 31
-0.801383 0.431373 1.5 36 36 32
-0.665378 0.361709 1.25776 36 36 31
-0.719848 0.395233 1.37433 36 36 32
-0.689919 0.382627 1.3305 35 36 32
-0.769956 0.431373 1.5 35 35 32
-0.762099 0.431373 1.5 35 36 32
