ply
format ascii 1.0
element vertex 1342
property float x
property float y
property float z
property uchar red
property uchar green
property uchar blue
end_header
-0.114045 -0.834885 1.81445 34 40 32
-0.105466 -0.842269 1.8305 35 40 33
-0.0981738 -0.862439 1.87433 35 40 33
-0.08629 -0.842269 1.8305 35 41 34
-0.0736544 -0.8088 1.75776 34 40 34
-0.0671145 -0.842269 1.8305 34 39 35
-0.0570224 -0.834885 1.81445 35 39 36
-0.0470136 -0.826012 1.79517 35 37 35
-0.0380149 -0.834885 1.81445 37 36 35
-0.0276204 -0.8088 1.75776 37 36 35
-0.0190075 -0.834885 1.81445 38 38 34
-0.00867357 -0.761957 1.65596 40 39 34
0 -0.8088 1.75776 40 38 34
0.0101432 -0.891066 1.93655 39 38 33
0.0188054 -0.826012 1.79517 40 38 34
0.0279379 -0.818096 1.77797 38 38 35
0.0372505 -0.818096 1.77797 37 38 36
0.0493794 -0.867577 1.8855 37 39 38
0.0564163 -0.826012 1.79517 38 39 39
0.067611 -0.8485 1.84404 38 39 39
0.0779715 -0.856207 1.86079 37 37 37
0.0869284 -0.8485 1.84404 37 36 36
0.0974644 -0.856207 1.86079 38 36 36
0.108635 -0.867577 1.8855 37 35 35
0.112833 -0.826012 1.79517 38 36 35
0.123549 -0.834885 1.81445 40 38 37
0.138949 -0.871885 1.89486 40 39 37
0.144881 -0.8485 1.84404 40 39 37
0.146547 -0.804616 1.74867 39 37 37
0.156516 -0.8088 1.75776 38 37 38
0.170645 -0.832823 1.80997 37 37 38
0.17694 -0.818096 1.77797 36 37 38
0.190075 -0.834885 1.81445 36 38 40
0.201343 -0.842269 1.8305 35 40 42
0.215982 -0.862439 1.87433 37 39 42
0.211756 -0.8088 1.75776 34 39 41
0.223503 -0.818096 1.77797 34 37 39
0.237593 -0.834885 1.81445 32 37 39
0.247097 -0.834885 1.81445 35 38 40
0.265069 -0.862439 1.87433 35 39 40
0.284852 -0.893705 1.94228 35 39 39
0.275608 -0.834885 1.81445 36 40 38
0.276204 -0.8088 1.75776 35 39 38
0.288691 -0.818096 1.77797 34 38 37
0.314156 -0.862439 1.87433 35 38 37
0.307316 -0.818096 1.77797 35 38 37
0.325984 -0.842269 1.8305 35 39 38
0.338055 -0.8485 1.84404 37 39 39
0.355531 -0.867577 1.8855 37 39 37
0.367222 -0.871885 1.89486 36 38 36
0.364336 -0.842269 1.8305 37 39 36
0.36973 -0.832823 1.80997 38 41 36
0.368272 -0.8088 1.75776 38 41 35
0.389653 -0.834885 1.81445 39 42 36
0.399157 -0.834885 1.81445 38 40 35
0.408661 -0.834885 1.81445 37 38 32
0.446303 -0.891066 1.93655 37 38 34
0.441782 -0.862439 1.87433 38 38 36
0.441038 -0.842269 1.8305 37 38 36
0.478145 -0.893705 1.94228 37 38 36
0.456179 -0.834885 1.81445 36 38 32
0.456318 -0.818096 1.77797 37 40 31
0.490869 -0.862439 1.87433 38 40 33
0.488977 -0.842269 1.8305 38 41 32
0.454714 -0.768189 1.6695 38 40 34
0.53565 -0.887847 1.92955 37 39 35
0.530138 -0.862439 1.87433 37 39 35
0.522705 -0.834885 1.81445 39 39 35
0.515581 -0.8088 1.75776 39 40 34
0.541713 -0.834885 1.81445 39 40 32
0.569408 -0.862439 1.87433 39 39 33
0.543201 -0.8088 1.75776 39 40 31
0.589043 -0.862439 1.87433 40 40 34
0.584855 -0.842269 1.8305 39 38 33
0.59884 -0.8485 1.84404 40 38 33
0.60403 -0.842269 1.8305 41 39 35
0.646823 -0.887847 1.92955 41 39 33
0.603153 -0.815167 1.7716 39 39 29
0.691389 -0.920261 2 37 37 29
0.677143 -0.887847 1.92955 37 38 28
0.662758 -0.856207 1.86079 38 38 33
0.672505 -0.856207 1.86079 39 38 36
0.649549 -0.815167 1.7716 39 38 36
0.717569 -0.887847 1.92955 39 38 36
0.732477 -0.893705 1.94228 39 37 36
0.716669 -0.862439 1.87433 38 37 36
0.721237 -0.856207 1.86079 38 38 36
0.724404 -0.8485 1.84404 38 38 37
0.760185 -0.878696 1.90967 38 39 38
0.778209 -0.887847 1.92955 37 40 38
0.788315 -0.887847 1.92955 37 40 36
0.790193 -0.878696 1.90967 37 41 34
0.838047 -0.920261 2 36 40 35
0.818635 -0.887847 1.92955 36 41 33
0.782904 -0.83874 1.82283 37 40 35
0.835057 -0.883834 1.92083 36 39 36
0.845118 -0.883834 1.92083 35 38 35
0.930643 -0.961827 2.09033 34 38 35
0.86021 -0.878696 1.90967 34 39 35
0.840308 -0.8485 1.84404 33 39 35
0.885362 -0.883834 1.92083 34 40 36
0.890217 -0.878696 1.90967 35 41 37
1.00204 -0.978084 2.12567 35 42 37
0.910222 -0.878696 1.90967 35 42 37
0.913091 -0.871885 1.89486 34 40 36
0.939914 -0.887847 1.92955 34 39 35
0.883856 -0.826012 1.79517 35 39 36
0.893258 -0.826012 1.79517 36 40 38
1.05852 -0.968638 2.10514 36 39 39
1.01613 -0.920261 2 35 37 40
1.09111 -0.978084 2.12567 34 37 39
1.03708 -0.920261 2 35 37 40
1.00024 -0.878696 1.90967 37 37 39
1.05803 -0.920261 2 38 37 38
1.19793 -1.03172 2.24224 39 37 38
1.07899 -0.920261 2 39 38 39
0.88555 -0.748019 1.62567 39 38 37
1.09994 -0.920261 2 39 39 35
1.11041 -0.920261 2 38 38 34
0.955464 -0.784446 1.70483 38 38 34
1.04314 -0.8485 1.84404 37 38 34
1.14184 -0.920261 2 36 37 33
1.15232 -0.920261 2 36 37 35
1.16279 -0.920261 2 36 36 36
1.29343 -1.01451 2.20483 36 37 36
1.30498 -1.01451 2.20483 36 37 35
1.31652 -1.01451 2.20483 36 38 35
1.32807 -1.01451 2.20483 36 40 37
1.39451 -1.05608 2.29517 34 40 36
1.22564 -0.920261 2 34 40 35
1.67175 -1.24458 2.70483 34 40 35
1.11892 -0.826012 1.79517 34 40 35
-0.481615 -0.348569 0.76625 33 37 43
-0.562726 -0.410695 0.90282 33 36 42
-0.515521 -0.379432 0.834095 33 37 39
-0.557463 -0.413809 0.909666 38 37 35
-0.474903 -0.355562 0.781624 40 35 31
-0.487882 -0.368457 0.80997 40 35 29
-0.510895 -0.389221 0.855615 39 35 28
-0.522032 -0.401225 0.882004 39 35 28
-0.501932 -0.389221 0.855615 39 35 28
-0.497451 -0.389221 0.855615 40 36 30
-0.471236 -0.372062 0.817894 41 37 31
-0.48188 -0.383956 0.844042 41 37 32
-0.477459 -0.383956 0.844042 41 38 32
-0.46115 -0.374306 0.822829 41 38 34
-0.505052 -0.413809 0.909666 42 39 35
-0.45253 -0.374306 0.822829 40 37 32
-0.480455 -0.401225 0.882004 39 36 31
-0.461598 -0.389221 0.855615 40 37 32
-0.49196 -0.418889 0.920833 39 37 33
-0.466595 -0.401225 0.882004 39 37 34
-0.482314 -0.418889 0.920833 39 38 33
-0.432513 -0.379432 0.834095 39 38 32
-0.448799 -0.397736 0.874334 39 37 32
-0.52707 -0.471918 1.03741 40 37 31
-0.460397 -0.416515 0.915615 41 36 30
-0.478978 -0.437886 0.962595 41 36 31
-0.473936 -0.437886 0.962595 42 36 31
-0.452799 -0.422856 0.929553 42 36 31
-0.463853 -0.437886 0.962595 41 36 30
-0.458811 -0.437886 0.962595 40 35 28
-0.451424 -0.435624 0.957621 39 34 27
-0.44764 -0.436826 0.960263 39 36 30
-0.44261 -0.436826 0.960263 37 36 34
-0.475 -0.47418 1.04238 38 37 37
-0.45045 -0.454902 1 39 38 39
-0.461866 -0.471918 1.03741 38 37 37
-0.421329 -0.435624 0.957621 36 36 30
-0.434737 -0.454902 1 38 40 27
-0.429499 -0.454902 1 39 41 29
-0.424261 -0.454902 1 38 41 28
-0.419024 -0.454902 1 37 40 28
-0.434009 -0.477135 1.04887 36 40 29
-0.428516 -0.477135 1.04887 36 39 31
-0.442504 -0.499109 1.09718 37 40 35
-0.455548 -0.520583 1.14438 38 40 36
-0.437814 -0.506987 1.1145 36 38 35
-0.405192 -0.475553 1.0454 36 37 35
-0.460679 -0.548081 1.20483 35 36 33
-0.397082 -0.47898 1.05293 35 35 32
-0.371884 -0.454902 1 36 35 33
-0.412721 -0.512068 1.12567 37 35 33
-0.396529 -0.499109 1.09718 38 36 34
-0.445687 -0.569233 1.25133 39 36 33
-0.387828 -0.502729 1.10514 39 36 32
-0.40429 -0.532008 1.1695 39 36 33
-0.387851 -0.518228 1.13921 40 37 33
-0.392039 -0.532008 1.1695 40 36 34
-0.397572 -0.548081 1.20483 40 36 35
-0.384999 -0.539308 1.18555 40 37 36
-0.342014 -0.486948 1.07045 39 37 36
-0.390395 -0.565096 1.24224 40 38 35
-0.400245 -0.589174 1.29517 39 38 34
-0.373178 -0.558802 1.2284 38 38 33
-0.416442 -0.634526 1.39486 38 38 33
-0.397624 -0.616672 1.35562 39 39 32
-0.347087 -0.548081 1.20483 39 39 30
-0.366326 -0.589174 1.29517 39 40 31
-0.369351 -0.605246 1.3305 38 38 29
-0.408548 -0.682353 1.5 37 37 28
-0.355413 -0.605246 1.3305 36 38 29
-0.359924 -0.625187 1.37433 36 39 31
-0.370165 -0.656098 1.44228 36 40 32
-0.350688 -0.634526 1.39486 37 40 34
-0.386607 -0.714399 1.57045 36 39 34
-0.361408 -0.682353 1.5 36 39 32
-0.353551 -0.682353 1.5 36 40 32
-0.345695 -0.682353 1.5 37 40 32
-0.317492 -0.64126 1.40967 36 39 31
-0.310109 -0.64126 1.40967 35 38 28
-0.349111 -0.739519 1.62567 36 38 26
-0.329027 -0.714399 1.57045 36 38 25
-0.320801 -0.714399 1.57045 37 38 27
-0.323566 -0.739519 1.62567 38 40 28
-0.320922 -0.753299 1.65596 38 39 28
-0.312249 -0.753299 1.65596 37 39 28
-0.329095 -0.816625 1.79517 36 40 28
-0.285851 -0.73018 1.60514 36 39 29
-0.274885 -0.723446 1.59033 36 39 30
-0.266555 -0.723446 1.59033 37 39 30
-0.295976 -0.829208 1.82283 37 39 31
-0.294521 -0.852638 1.87433 38 39 33
-0.280103 -0.838858 1.84404 38 38 34
-0.293317 -0.909804 2 37 38 33
-0.253873 -0.816625 1.79517 37 38 34
-0.272365 -0.909804 2 37 39 34
-0.235068 -0.816625 1.79517 37 39 34
-0.238198 -0.861977 1.89486 37 39 33
-0.230056 -0.868711 1.90967 38 40 33
-0.210931 -0.832697 1.8305 38 40 34
-0.190113 -0.786253 1.7284 38 39 32
-0.184136 -0.799609 1.75776 37 39 33
-0.180125 -0.823359 1.80997 37 38 33
-0.167627 -0.8088 1.77797 36 38 34
-0.165229 -0.844123 1.85562 36 39 35
-0.149002 -0.8088 1.77797 35 40 35
-0.142556 -0.825398 1.81445 36 40 35
-0.128895 -0.799609 1.75776 36 41 35
-0.121064 -0.8088 1.77797 35 40 34
-0.114045 -0.825398 1.81445 35 39 32
-0.104541 -0.825398 1.81445 35 40 33
-0.0915917 -0.795473 1.74867 35 40 33
-0.08629 -0.832697 1.8305 34 40 34
-0.0752218 -0.816625 1.79517 34 40 34
-0.0635672 -0.788686 1.73375 35 40 36
-0.0556757 -0.805904 1.7716 35 40 37
-0.046034 -0.799609 1.75776 36 39 36
-0.0366367 -0.795473 1.74867 37 37 35
-0.0287633 -0.832697 1.8305 37 37 35
-0.0186252 -0.8088 1.77797 37 37 34
-0.0101733 -0.883549 1.94228 39 38 33
0 -0.88094 1.93655 39 37 34
0.00981738 -0.852638 1.87433 38 37 32
0.0191756 -0.832697 1.8305 39 37 34
0.0285112 -0.825398 1.81445 38 38 35
0.0372505 -0.8088 1.77797 36 38 36
0.0475187 -0.825398 1.81445 37 39 37
0.0552408 -0.799609 1.75776 38 39 39
0.0644476 -0.799609 1.75776 38 39 39
0.074501 -0.8088 1.77797 38 38 38
0.0814771 -0.786253 1.7284 38 38 37
0.0992491 -0.861977 1.89486 39 38 37
0.109174 -0.861977 1.89486 38 36 36
0.110482 -0.799609 1.75776 39 37 36
0.120266 -0.80347 1.76625 40 38 37
0.137443 -0.852638 1.87433 39 38 36
0.138102 -0.799609 1.75776 40 38 36
0.153404 -0.832697 1.8305 39 37 37
0.162992 -0.832697 1.8305 39 38 38
0.173857 -0.838858 1.84404 37 38 39
0.180571 -0.825398 1.81445 36 38 38
0.190075 -0.825398 1.81445 36 38 40
0.187521 -0.775532 1.70483 34 38 40
0.217269 -0.857718 1.8855 36 38 40
0.208864 -0.788686 1.73375 34 38 41
0.22809 -0.825398 1.81445 36 38 41
0.23017 -0.799609 1.75776 34 38 40
0.242128 -0.8088 1.77797 36 38 40
0.248584 -0.799609 1.75776 34 38 40
0.274887 -0.852638 1.87433 36 39 39
0.282647 -0.846477 1.86079 36 39 38
0.287633 -0.832697 1.8305 36 39 38
0.307672 -0.861977 1.89486 35 39 37
0.316028 -0.857718 1.8855 35 39 37
0.318738 -0.838858 1.84404 35 38 37
0.333791 -0.852638 1.87433 35 39 37
0.347372 -0.861977 1.89486 37 39 38
0.335254 -0.8088 1.77797 37 39 37
0.354748 -0.832697 1.8305 37 38 35
0.37306 -0.852638 1.87433 37 39 35
0.36973 -0.823359 1.80997 36 38 34
0.383511 -0.832697 1.8305 36 38 33
0.366112 -0.775532 1.70483 37 39 34
0.408212 -0.844123 1.85562 37 39 34
0.415325 -0.838858 1.84404 38 39 34
0.436696 -0.861977 1.89486 38 39 35
0.446621 -0.861977 1.89486 38 38 36
0.417727 -0.788686 1.73375 37 38 36
0.466471 -0.861977 1.89486 36 37 35
0.434544 -0.786253 1.7284 34 37 31
0.465683 -0.825398 1.81445 36 39 30
0.493794 -0.857718 1.8855 37 39 33
0.48469 -0.825398 1.81445 37 40 32
0.488941 -0.816625 1.79517 37 39 33
0.520321 -0.852638 1.87433 36 38 34
0.490376 -0.788686 1.73375 36 38 34
0.522705 -0.825398 1.81445 37 39 35
0.532209 -0.825398 1.81445 38 39 34
0.562925 -0.857718 1.8855 39 40 33
0.545358 -0.816625 1.79517 40 40 34
0.565679 -0.832697 1.8305 40 40 33
0.606396 -0.877758 1.92955 41 40 35
0.561615 -0.799609 1.75776 40 39 34
0.60428 -0.846477 1.86079 41 38 33
0.592371 -0.816625 1.79517 41 39 34
0.601774 -0.816625 1.79517 42 40 34
0.659311 -0.88094 1.93655 39 38 30
0.669454 -0.88094 1.93655 37 37 29
0.642381 -0.832697 1.8305 37 38 29
0.691784 -0.883549 1.94228 38 38 34
0.64027 -0.805904 1.7716 39 38 36
0.65819 -0.816625 1.79517 39 38 36
0.658829 -0.805904 1.7716 39 38 36
0.668108 -0.805904 1.7716 39 37 36
0.737782 -0.877758 1.92955 38 37 35
0.703276 -0.825398 1.81445 38 37 36
0.684411 -0.792547 1.74224 37 37 36
0.770887 -0.88094 1.93655 37 38 37
0.778209 -0.877758 1.92955 36 39 37
0.791173 -0.88094 1.93655 36 40 36
0.769969 -0.846477 1.86079 36 40 34
0.772697 -0.838858 1.84404 36 39 35
0.814935 -0.873791 1.92083 36 40 34
0.824996 -0.873791 1.92083 37 40 35
0.869474 -0.909804 2 37 40 37
0.801999 -0.829208 1.82283 37 40 37
0.859062 -0.877758 1.92955 36 39 36
0.86021 -0.868711 1.90967 35 40 36
0.830642 -0.829208 1.82283 34 39 35
0.958342 -0.945817 2.07917 34 40 35
0.895423 -0.873791 1.92083 35 41 37
0.828612 -0.799609 1.75776 37 42 38
0.868832 -0.829208 1.82283 35 41 37
0.87838 -0.829208 1.82283 34 40 35
0.923016 -0.861977 1.89486 34 39 35
0.872252 -0.805904 1.7716 35 39 36
0.950232 -0.868711 1.90967 36 40 37
1.00566 -0.909804 2 36 39 39
1.01613 -0.909804 2 35 37 40
0.980239 -0.868711 1.90967 34 37 38
1.03708 -0.909804 2 36 37 40
1.10263 -0.957631 2.10514 37 39 40
1.12451 -0.96697 2.12567 38 38 39
1.13565 -0.96697 2.12567 38 37 38
1.07899 -0.909804 2 38 37 38
0.957507 -0.799609 1.75776 39 38 36
1.03082 -0.852638 1.87433 38 38 34
1.02382 -0.838858 1.84404 38 38 34
1.33068 -1.08009 2.37433 37 38 34
1.32598 -1.06631 2.34404 37 39 35
1.14184 -0.909804 2 37 38 34
1.06246 -0.838858 1.84404 36 37 35
0.991182 -0.775532 1.70483 36 37 36
1.00011 -0.775532 1.70483 37 39 37
1.18374 -0.909804 2 36 38 35
1.28734 -0.98075 2.15596 36 38 36
1.32807 -1.00298 2.20483 35 39 36
1.21517 -0.909804 2 34 39 35
0.612822 -0.454902 1 34 40 35
1.23612 -0.909804 2 35 40 36
1.2466 -0.909804 2 35 41 36
-0.517177 -0.370004 0.822829 33 36 42
-0.533303 -0.384747 0.855615 34 36 42
-0.535001 -0.389243 0.865614 34 37 38
-0.487296 -0.357565 0.795167 38 37 35
-0.465561 -0.344562 0.76625 41 36 32
-0.535366 -0.39967 0.8888 41 36 30
-0.503985 -0.379543 0.844042 40 36 29
-0.541926 -0.411728 0.915615 40 35 29
-0.507798 -0.389243 0.865614 40 35 29
-0.478389 -0.370004 0.822829 41 37 31
-0.508173 -0.396613 0.882004 41 37 32
-0.469769 -0.370004 0.822829 41 38 32
-0.489662 -0.389243 0.865614 42 38 34
-0.494314 -0.396613 0.882004 42 39 34
-0.441482 -0.357565 0.795167 41 38 33
-0.488812 -0.39967 0.8888 39 36 31
-0.459775 -0.379543 0.844042 39 36 32
-0.449989 -0.37507 0.834095 40 37 33
-0.467118 -0.393165 0.874334 39 37 34
-0.484376 -0.411728 0.915615 39 38 35
-0.486881 -0.417995 0.929553 39 38 33
-0.457356 -0.396613 0.882004 39 38 32
-0.428144 -0.37507 0.834095 39 38 32
-0.451569 -0.39967 0.8888 41 38 33
-0.443497 -0.396613 0.882004 42 36 31
-0.462537 -0.417995 0.929553 41 36 31
-0.492353 -0.449673 1 41 36 31
-0.468894 -0.432853 0.962595 42 36 31
-0.463853 -0.432853 0.962595 40 35 29
-0.459799 -0.433786 0.964669 39 33 27
-0.471402 -0.449673 1 39 35 29
-0.44764 -0.431805 0.960263 39 37 31
-0.460926 -0.449673 1 38 37 35
-0.455688 -0.449673 1 38 37 37
-0.46954 -0.46873 1.04238 38 37 37
-0.428559 -0.432853 0.962595 37 36 36
-0.456432 -0.466493 1.03741 37 37 31
-0.416313 -0.430617 0.957621 38 40 28
-0.446566 -0.467542 1.03974 39 40 29
-0.442241 -0.46873 1.04238 38 40 28
-0.419024 -0.449673 1 36 38 27
-0.434009 -0.471651 1.04887 35 38 27
-0.408548 -0.449673 1 36 39 31
-0.442504 -0.493372 1.09718 37 40 35
-0.398072 -0.449673 1 37 39 35
-0.434136 -0.49695 1.10514 36 38 35
-0.405192 -0.470086 1.0454 36 37 35
-0.399717 -0.470086 1.0454 34 35 32
-0.41377 -0.493372 1.09718 35 36 33
-0.393347 -0.475626 1.05772 37 36 34
-0.428793 -0.525893 1.1695 38 36 34
-0.399405 -0.49695 1.10514 39 37 35
-0.35617 -0.449673 1 39 37 34
-0.369507 -0.473474 1.05293 40 37 33
-0.464628 -0.60438 1.34404 39 37 34
-0.410193 -0.541781 1.20483 40 37 34
-0.373601 -0.50116 1.1145 40 37 35
-0.403248 -0.549516 1.22203 40 38 36
-0.396848 -0.549516 1.22203 40 38 36
-0.378789 -0.533109 1.18555 40 38 36
-0.386047 -0.552379 1.2284 40 39 35
-0.383889 -0.558601 1.24224 40 39 35
-0.401865 -0.594841 1.32283 39 38 34
-0.366744 -0.552379 1.2284 38 37 32
-0.339062 -0.519803 1.15596 38 38 31
-0.36478 -0.569399 1.26625 38 38 29
-0.347442 -0.552379 1.2284 38 39 30
-0.349159 -0.565582 1.25776 38 38 29
-0.352759 -0.582402 1.29517 37 38 28
-0.345975 -0.582402 1.29517 36 38 29
-0.374385 -0.642832 1.42955 35 39 30
-0.332407 -0.582402 1.29517 36 39 31
-0.377121 -0.67451 1.5 36 39 33
-0.369265 -0.67451 1.5 37 40 35
-0.378381 -0.706188 1.57045 37 40 34
-0.40183 -0.766618 1.70483 37 40 33
-0.345695 -0.67451 1.5 37 40 33
-0.366141 -0.731018 1.62567 37 40 33
-0.314484 -0.642832 1.42955 37 39 31
-0.322124 -0.67451 1.5 37 39 28
-0.357183 -0.766618 1.70483 37 38 26
-0.324864 -0.715131 1.59033 37 38 27
-0.339324 -0.766618 1.70483 38 39 28
-0.330394 -0.766618 1.70483 37 39 28
-0.321464 -0.766618 1.70483 37 39 28
-0.291545 -0.715131 1.59033 36 39 29
-0.267128 -0.67451 1.5 37 40 31
-0.277444 -0.721787 1.60514 37 39 32
-0.294618 -0.790418 1.75776 37 38 31
-0.285411 -0.790418 1.75776 37 38 31
-0.260207 -0.74464 1.65596 38 39 33
-0.266997 -0.790418 1.75776 37 38 34
-0.263276 -0.807239 1.79517 37 38 33
-0.265069 -0.842838 1.87433 37 38 34
-0.227357 -0.75073 1.6695 37 39 34
-0.23869 -0.819677 1.82283 38 40 35
-0.229143 -0.819677 1.82283 38 40 34
-0.213423 -0.796641 1.7716 38 40 34
-0.201502 -0.786329 1.74867 38 39 34
-0.190702 -0.779621 1.73375 38 39 33
-0.186252 -0.799503 1.77797 37 39 33
-0.178652 -0.807239 1.79517 37 38 33
-0.169249 -0.807239 1.79517 36 38 33
-0.158315 -0.799503 1.77797 35 38 34
-0.149002 -0.799503 1.77797 35 39 34
-0.143817 -0.823126 1.8305 36 40 34
-0.134229 -0.823126 1.8305 36 40 34
-0.126704 -0.836748 1.86079 36 41 35
-0.115053 -0.823126 1.8305 36 40 34
-0.102439 -0.799503 1.77797 35 40 33
-0.101432 -0.870814 1.93655 35 40 33
-0.0893241 -0.852069 1.89486 35 41 34
-0.0714365 -0.766618 1.70483 35 41 35
-0.062507 -0.766618 1.70483 36 41 37
-0.0543181 -0.777215 1.7284 36 41 37
-0.0493794 -0.84786 1.8855 37 40 37
-0.0388773 -0.834421 1.85562 38 38 36
-0.0284408 -0.813895 1.80997 38 38 36
-0.0188054 -0.807239 1.79517 38 38 35
-0.00940272 -0.807239 1.79517 39 38 33
0 -0.799503 1.77797 38 36 33
0.00950373 -0.815911 1.81445 37 36 31
0.0190075 -0.815911 1.81445 39 37 34
0.027159 -0.777215 1.7284 37 37 35
0.0380149 -0.815911 1.81445 36 38 36
0.0470136 -0.807239 1.79517 37 38 37
0.0592552 -0.84786 1.8855 38 39 39
0.0665261 -0.815911 1.81445 39 40 40
0.0752218 -0.807239 1.79517 38 38 38
0.0853223 -0.813895 1.80997 38 38 37
0.0931262 -0.799503 1.77797 39 38 37
0.105466 -0.823126 1.8305 38 36 35
0.110482 -0.790418 1.75776 38 36 35
0.122235 -0.807239 1.79517 40 38 37
0.130377 -0.799503 1.77797 39 38 37
0.142204 -0.813895 1.80997 39 37 36
0.149002 -0.799503 1.77797 40 37 37
0.159846 -0.807239 1.79517 39 38 39
0.188561 -0.899346 2 37 38 38
0.17694 -0.799503 1.77797 37 38 39
0.198498 -0.852069 1.89486 36 39 40
0.201343 -0.823126 1.8305 34 38 40
0.210931 -0.823126 1.8305 36 38 40
0.218586 -0.815911 1.81445 34 38 40
0.230107 -0.823126 1.8305 36 38 40
0.23017 -0.790418 1.75776 35 38 40
0.247097 -0.815911 1.81445 36 38 40
0.25887 -0.823126 1.8305 34 38 39
0.268458 -0.823126 1.8305 36 38 38
0.262537 -0.777215 1.7284 36 38 37
0.287633 -0.823126 1.8305 35 38 37
0.301299 -0.834421 1.85562 35 38 37
0.298004 -0.799503 1.77797 35 38 37
0.307316 -0.799503 1.77797 35 38 36
0.319692 -0.807239 1.79517 36 39 37
0.335572 -0.823126 1.8305 37 39 38
0.350872 -0.836748 1.86079 37 38 36
0.338889 -0.786329 1.74867 37 38 35
0.364336 -0.823126 1.8305 36 37 34
0.363192 -0.799503 1.77797 35 37 33
0.376109 -0.807239 1.79517 36 38 34
0.391452 -0.819677 1.82283 37 39 34
0.426016 -0.870814 1.93655 37 39 35
0.415325 -0.829216 1.84404 38 39 35
0.409755 -0.799503 1.77797 37 38 35
0.427668 -0.815911 1.81445 37 37 36
0.405284 -0.756398 1.68211 37 38 36
0.446675 -0.815911 1.81445 36 37 35
0.466528 -0.834421 1.85562 35 37 32
0.473277 -0.829216 1.84404 36 38 30
0.479389 -0.823126 1.8305 36 38 33
0.473243 -0.796641 1.7716 36 40 32
0.530315 -0.875546 1.94707 37 39 34
0.481295 -0.779621 1.73375 36 38 34
0.51774 -0.823126 1.8305 36 38 34
0.539956 -0.842838 1.87433 37 38 35
0.526552 -0.807239 1.79517 38 39 34
0.576077 -0.867668 1.92955 38 39 32
0.545358 -0.807239 1.79517 39 39 32
0.57504 -0.836748 1.86079 40 39 33
0.575267 -0.823126 1.8305 40 40 34
0.59886 -0.842838 1.87433 40 39 33
0.612304 -0.84786 1.8855 41 39 33
0.614026 -0.836748 1.86079 40 39 34
0.635194 -0.852069 1.89486 41 39 33
0.63813 -0.842838 1.87433 40 39 32
0.647947 -0.842838 1.87433 38 38 31
0.616856 -0.790418 1.75776 38 38 31
0.687249 -0.867668 1.92955 38 38 34
0.655758 -0.815911 1.81445 39 38 36
0.710027 -0.870814 1.93655 39 38 36
0.685769 -0.829216 1.84404 39 38 36
0.668108 -0.796641 1.7716 38 37 35
0.686399 -0.807239 1.79517 37 36 34
0.721237 -0.836748 1.86079 37 36 35
0.705204 -0.807239 1.79517 36 36 35
0.693537 -0.783438 1.74224 37 37 36
0.760442 -0.84786 1.8855 36 38 37
0.817096 -0.899346 2 36 39 35
0.763038 -0.829216 1.84404 35 39 33
0.779715 -0.836748 1.86079 35 38 34
0.818635 -0.867668 1.92955 35 39 33
0.858999 -0.899346 2 36 40 35
0.808955 -0.836748 1.86079 36 40 37
0.818701 -0.836748 1.86079 36 40 36
0.811546 -0.819677 1.82283 36 40 36
0.86021 -0.858725 1.90967 36 40 36
0.818037 -0.807239 1.79517 34 40 35
0.921852 -0.899346 2 33 40 35
0.883317 -0.852069 1.89486 35 42 37
0.869284 -0.829216 1.84404 36 42 38
0.996336 -0.939968 2.09033 34 41 36
0.963754 -0.899346 2 33 40 35
0.923016 -0.852069 1.89486 34 39 35
0.922834 -0.842838 1.87433 35 39 36
0.950232 -0.858725 1.90967 36 39 37
0.965849 -0.863747 1.92083 35 39 38
0.962716 -0.852069 1.89486 35 37 39
0.946554 -0.829216 1.84404 34 37 38
0.971921 -0.842838 1.87433 35 37 39
1.04756 -0.899346 2 37 38 39
1.05803 -0.899346 2 38 38 39
1.06851 -0.899346 2 38 37 38
1.16312 -0.969477 2.15596 37 36 37
1.08946 -0.899346 2 38 38 36
1.16905 -0.955855 2.12567 37 38 34
1.11041 -0.899346 2 38 38 34
1.12089 -0.899346 2 38 39 34
1.07189 -0.852069 1.89486 37 39 35
1.00354 -0.790418 1.75776 37 38 35
1.27033 -0.991454 2.20483 37 38 36
1.0437 -0.807239 1.79517 37 38 37
1.08178 -0.829216 1.84404 36 38 36
1.18374 -0.899346 2 35 38 35
1.19422 -0.899346 2 36 38 36
1.20469 -0.899346 2 35 39 36
1.39451 -1.03208 2.29517 34 40 36
1.22564 -0.899346 2 34 40 35
0.61806 -0.449673 1 35 41 36
1.37427 -0.991454 2.20483 36 42 37
-0.509095 -0.359987 0.80997 33 36 41
-0.477602 -0.340555 0.76625 34 37 42
-0.483091 -0.347389 0.781624 34 37 38
-0.460433 -0.333925 0.751332 37 37 35
-0.450972 -0.329883 0.742238 40 36 33
-0.526652 -0.388593 0.874334 40 36 30
-0.522073 -0.388593 0.874334 39 35 29
-0.499564 -0.37513 0.844042 40 36 29
-0.507798 -0.384717 0.865614 40 36 29
-0.532334 -0.40694 0.915615 41 37 31
-0.48057 -0.370709 0.834095 41 37 32
-0.525722 -0.409259 0.920833 42 38 33
-0.514581 -0.404296 0.909666 42 38 34
-0.516076 -0.409259 0.920833 40 37 32
-0.511252 -0.409259 0.920833 38 36 31
-0.488812 -0.395022 0.8888 40 37 32
-0.504119 -0.411309 0.925446 40 38 34
-0.519313 -0.42782 0.962595 40 38 34
-0.44562 -0.370709 0.834095 39 37 34
-0.45119 -0.379059 0.852883 39 37 34
-0.450865 -0.382574 0.860791 39 37 32
-0.497936 -0.426784 0.960263 39 37 31
-0.437788 -0.379059 0.852883 39 37 31
-0.44422 -0.388593 0.874334 40 37 32
-0.467406 -0.413135 0.929553 41 37 31
-0.462537 -0.413135 0.929553 41 36 30
-0.453375 -0.409259 0.920833 40 35 29
-0.435901 -0.397717 0.894863 41 36 31
-0.462729 -0.426784 0.960263 41 36 31
-0.458811 -0.42782 0.962595 41 35 30
-0.434082 -0.409259 0.920833 40 36 31
-0.484688 -0.462105 1.03974 40 38 33
-0.460926 -0.444444 1 39 38 36
-0.419613 -0.409259 0.920833 37 37 36
-0.45045 -0.444444 1 37 37 36
-0.462904 -0.462105 1.03974 36 36 35
-0.439975 -0.444444 1 37 37 32
-0.453161 -0.463279 1.04238 37 39 29
-0.410002 -0.424269 0.954604 38 39 30
-0.38846 -0.40694 0.915615 37 39 28
-0.459744 -0.487635 1.09718 35 38 27
-0.43257 -0.46462 1.0454 35 38 28
-0.408548 -0.444444 1 35 38 31
-0.40331 -0.444444 1 36 38 34
-0.414942 -0.463279 1.04238 37 39 35
-0.449554 -0.508615 1.14438 37 38 35
-0.42261 -0.484593 1.09033 36 38 35
-0.382359 -0.444444 1 36 37 35
-0.392107 -0.462105 1.03974 37 37 35
-0.405477 -0.484593 1.09033 37 37 35
-0.428793 -0.519778 1.1695 38 36 34
-0.41359 -0.508615 1.14438 39 37 34
-0.411718 -0.513759 1.15596 39 37 33
-0.387828 -0.491172 1.10514 39 36 33
-0.393818 -0.506315 1.13921 39 36 33
-0.376251 -0.491172 1.10514 40 37 33
-0.373601 -0.495333 1.1145 40 37 34
-0.349026 -0.470096 1.05772 41 38 36
-0.396848 -0.543126 1.22203 42 40 37
-0.378789 -0.52691 1.18555 41 39 37
-0.415722 -0.587924 1.32283 40 38 35
-0.400245 -0.57563 1.29517 39 38 34
-0.366019 -0.535481 1.20483 39 38 34
-0.378044 -0.562778 1.26625 39 38 33
-0.353397 -0.535481 1.20483 38 39 32
-0.383288 -0.591333 1.3305 38 39 30
-0.347442 -0.545956 1.2284 38 39 30
-0.381519 -0.610815 1.37433 38 38 29
-0.362382 -0.591333 1.3305 37 38 29
-0.381873 -0.635357 1.42955 36 38 29
-0.392835 -0.666667 1.5 35 38 30
-0.341475 -0.591333 1.3305 36 39 32
-0.325623 -0.57563 1.29517 35 38 32
-0.369265 -0.666667 1.5 36 39 34
-0.336076 -0.619939 1.39486 37 40 35
-0.353551 -0.666667 1.5 37 40 33
-0.329459 -0.635357 1.42955 36 39 32
-0.337838 -0.666667 1.5 37 40 33
-0.310109 -0.626518 1.40967 38 40 32
-0.337253 -0.697976 1.57045 38 40 30
-0.329027 -0.697976 1.57045 38 39 29
-0.318201 -0.692318 1.55772 38 39 29
-0.298554 -0.666667 1.5 38 40 30
-0.320922 -0.735981 1.65596 38 39 29
-0.299874 -0.706815 1.59033 38 39 29
-0.287899 -0.697976 1.57045 37 40 30
-0.283215 -0.706815 1.59033 38 41 33
-0.301141 -0.774328 1.74224 37 39 33
-0.277554 -0.735981 1.65596 37 38 32
-0.276817 -0.757703 1.70483 37 38 32
-0.267887 -0.757703 1.70483 38 39 34
-0.287822 -0.842161 1.89486 38 38 34
-0.293317 -0.888889 2 37 38 33
-0.246388 -0.774328 1.74224 37 38 34
-0.258048 -0.842161 1.89486 37 38 33
-0.241468 -0.819574 1.84404 38 39 34
-0.231809 -0.819574 1.84404 38 40 35
-0.20538 -0.757703 1.70483 37 39 33
-0.201502 -0.777186 1.74867 37 39 32
-0.207393 -0.838001 1.8855 37 38 32
-0.198498 -0.842161 1.89486 37 39 33
-0.183516 -0.819574 1.84404 37 39 34
-0.169249 -0.797852 1.79517 36 38 33
-0.158315 -0.790207 1.77797 36 38 34
-0.150444 -0.797852 1.79517 35 39 34
-0.143817 -0.813555 1.8305 35 39 33
-0.126742 -0.768178 1.7284 34 39 32
-0.122235 -0.797852 1.79517 35 39 33
-0.110482 -0.781228 1.75776 36 40 34
-0.104283 -0.804431 1.80997 35 40 34
-0.0965871 -0.819574 1.84404 35 40 33
-0.0803661 -0.757703 1.70483 34 40 34
-0.0736544 -0.781228 1.75776 34 40 35
-0.0644476 -0.781228 1.75776 34 39 35
-0.054955 -0.777186 1.74867 33 39 35
-0.045265 -0.768178 1.7284 36 38 36
-0.0388773 -0.824718 1.85562 37 38 36
-0.027159 -0.768178 1.7284 37 38 36
-0.0186252 -0.790207 1.77797 38 38 35
-0.00931262 -0.790207 1.77797 37 37 32
0 -0.842161 1.89486 37 35 31
0.00940272 -0.797852 1.79517 37 37 31
0.0186252 -0.790207 1.77797 38 37 34
0.0284408 -0.804431 1.80997 37 37 35
0.0380149 -0.806423 1.81445 36 37 35
0.0465631 -0.790207 1.77797 36 38 36
0.0529713 -0.749132 1.68555 37 38 38
0.0663618 -0.804431 1.80997 38 39 39
0.078539 -0.833037 1.87433 38 38 38
0.0838136 -0.790207 1.77797 38 38 37
0.0931262 -0.790207 1.77797 39 38 37
0.102439 -0.790207 1.77797 38 37 35
0.115053 -0.813555 1.8305 38 36 35
0.117689 -0.768178 1.7284 39 37 36
0.128895 -0.781228 1.75776 40 38 37
0.141041 -0.797852 1.79517 39 37 36
0.150444 -0.797852 1.79517 39 37 37
0.162992 -0.813555 1.8305 39 38 38
0.162954 -0.768178 1.7284 37 38 38
0.188573 -0.842161 1.89486 37 39 39
0.186252 -0.790207 1.77797 37 39 40
0.201343 -0.813555 1.8305 34 38 39
0.218348 -0.842161 1.89486 35 38 39
0.210661 -0.777186 1.74867 34 38 39
0.227526 -0.804431 1.80997 35 37 38
0.235068 -0.797852 1.79517 34 38 39
0.244471 -0.797852 1.79517 36 38 40
0.255967 -0.804431 1.80997 35 38 39
0.263276 -0.797852 1.79517 36 38 38
0.280103 -0.819574 1.84404 36 38 37
0.27159 -0.768178 1.7284 35 38 36
0.283934 -0.777186 1.74867 35 38 36
0.298004 -0.790207 1.77797 35 38 36
0.316397 -0.813555 1.8305 36 38 37
0.323127 -0.806423 1.81445 37 40 38
0.308368 -0.747603 1.68211 36 38 37
0.34516 -0.813555 1.8305 36 38 36
0.330394 -0.757703 1.70483 36 38 35
0.361142 -0.806423 1.81445 35 37 34
0.366706 -0.797852 1.79517 37 39 35
0.383511 -0.813555 1.8305 38 40 36
0.398493 -0.824718 1.85562 37 39 35
0.402687 -0.813555 1.8305 37 38 35
0.426771 -0.842161 1.89486 37 38 35
0.424983 -0.819574 1.84404 37 38 36
0.448496 -0.845698 1.90282 37 37 36
0.432525 -0.797852 1.79517 36 38 36
0.466471 -0.842161 1.89486 36 37 36
0.456179 -0.806423 1.81445 36 38 33
0.460733 -0.797852 1.79517 36 38 31
0.465631 -0.790207 1.77797 36 38 32
0.500686 -0.833037 1.87433 36 39 32
0.530315 -0.865365 1.94707 37 39 35
0.508152 -0.813555 1.8305 36 38 35
0.521571 -0.819574 1.84404 36 38 35
0.536054 -0.827018 1.86079 37 38 35
0.569704 -0.863237 1.94228 38 39 34
0.522073 -0.777186 1.74867 38 39 32
0.556091 -0.813555 1.8305 39 39 32
0.582677 -0.838001 1.8855 39 39 32
0.570224 -0.806423 1.81445 39 39 33
0.59886 -0.833037 1.87433 40 39 33
0.594442 -0.813555 1.8305 41 39 33
0.598735 -0.806423 1.81445 40 38 32
0.608239 -0.806423 1.81445 40 38 31
0.627816 -0.819574 1.84404 39 38 32
0.637475 -0.819574 1.84404 39 39 33
0.661683 -0.838001 1.8855 39 39 33
0.646254 -0.806423 1.81445 39 39 35
0.635269 -0.781228 1.75776 39 39 36
0.691311 -0.838001 1.8855 40 39 37
0.653683 -0.781228 1.75776 38 38 36
0.695427 -0.819574 1.84404 37 36 35
0.699908 -0.813555 1.8305 38 37 35
0.681303 -0.781228 1.75776 38 38 36
0.762997 -0.863237 1.94228 37 37 36
0.722284 -0.806423 1.81445 37 38 37
0.714504 -0.787378 1.7716 36 38 37
0.733412 -0.797852 1.79517 36 39 36
0.790193 -0.84874 1.90967 35 39 33
0.838047 -0.888889 2 35 38 34
0.810197 -0.84874 1.90967 35 39 33
0.858999 -0.888889 2 36 39 35
0.835057 -0.853704 1.92083 36 39 36
0.801999 -0.810146 1.82283 36 39 36
0.859062 -0.857579 1.92955 36 40 36
0.838194 -0.827018 1.86079 36 40 37
0.911376 -0.888889 2 35 40 36
0.840189 -0.810146 1.82283 34 40 35
0.883317 -0.842161 1.89486 35 41 37
0.893242 -0.842161 1.89486 35 41 37
0.868832 -0.810146 1.82283 35 41 36
0.839545 -0.774328 1.74224 35 41 36
0.923016 -0.842161 1.89486 35 40 36
0.984706 -0.888889 2 36 39 36
0.942866 -0.842161 1.89486 36 39 36
1.00566 -0.888889 2 35 38 38
1.01613 -0.888889 2 35 37 38
1.02661 -0.888889 2 35 37 38
1.03708 -0.888889 2 36 38 39
0.940272 -0.797852 1.79517 36 38 39
0.991555 -0.833037 1.87433 37 38 39
1.06851 -0.888889 2 38 38 38
1.14678 -0.94474 2.12567 38 38 38
1.02101 -0.833037 1.87433 38 38 36
1.01416 -0.819574 1.84404 38 39 34
1.04064 -0.833037 1.87433 38 39 35
1.03348 -0.819574 1.84404 38 39 35
1.13136 -0.888889 2 37 38 34
1.00354 -0.781228 1.75776 38 39 35
1.15232 -0.888889 2 38 39 37
1.23585 -0.94474 2.12567 37 38 37
1.09955 -0.833037 1.87433 36 38 36
1.18374 -0.888889 2 36 38 36
1.26925 -0.94474 2.12567 36 39 36
1.32807 -0.979926 2.20483 36 39 36
1.03583 -0.757703 1.70483 35 40 36
1.53206 -1.11111 2.5 35 40 35
1.67175 -1.20215 2.70483 35 40 36
1.2466 -0.888889 2 36 41 36
-0.544069 -0.380191 0.865614 34 37 41
-0.549751 -0.38739 0.882004 34 37 42
-0.483091 -0.343302 0.781624 34 37 38
-0.469575 -0.336549 0.76625 37 36 35
-0.556313 -0.402153 0.915615 40 35 32
-0.447084 -0.326003 0.742238 40 35 29
-0.522073 -0.384021 0.874334 40 36 29
-0.522032 -0.38739 0.882004 40 36 30
-0.489308 -0.366348 0.834095 40 36 30
-0.528875 -0.399539 0.909666 41 37 31
-0.49873 -0.380191 0.865614 41 37 31
-0.48188 -0.370716 0.844042 41 37 32
-0.543203 -0.421763 0.960263 42 38 33
-0.477993 -0.3746 0.852883 40 37 32
-0.493468 -0.390375 0.8888 39 37 32
-0.449816 -0.359232 0.817894 40 37 32
-0.468899 -0.378073 0.860791 39 38 33
-0.468228 -0.381197 0.867904 41 38 34
-0.471215 -0.38739 0.882004 39 37 34
-0.489577 -0.40647 0.925446 39 37 34
-0.486881 -0.408274 0.929553 39 37 33
-0.469391 -0.397584 0.905214 38 37 31
-0.456225 -0.390375 0.8888 39 37 31
-0.45465 -0.393038 0.894863 39 37 30
-0.465341 -0.40647 0.925446 40 36 30
-0.445275 -0.393038 0.894863 41 37 31
-0.474957 -0.423698 0.964669 41 36 31
-0.469905 -0.423698 0.964669 41 36 31
-0.445951 -0.40647 0.925446 41 36 31
-0.444816 -0.409891 0.933233 41 37 32
-0.454746 -0.423698 0.964669 41 37 33
-0.429259 -0.404444 0.920833 40 38 34
-0.426562 -0.40647 0.925446 38 37 35
-0.437581 -0.421763 0.960263 37 36 36
-0.431361 -0.420602 0.957621 37 37 36
-0.426345 -0.420602 0.957621 36 36 35
-0.439975 -0.439216 1 36 37 33
-0.434737 -0.439216 1 36 38 30
-0.429499 -0.439216 1 38 39 31
-0.406282 -0.420602 0.957621 37 39 30
-0.438046 -0.459154 1.0454 36 39 29
-0.413786 -0.439216 1 36 39 30
-0.425862 -0.457829 1.04238 36 39 32
-0.420402 -0.457829 1.04238 35 37 33
-0.416143 -0.459154 1.0454 35 37 34
-0.439188 -0.491041 1.118 37 38 35
-0.408112 -0.462463 1.05293 38 39 36
-0.433743 -0.49824 1.13439 38 39 36
-0.377121 -0.439216 1 38 38 36
-0.410982 -0.485393 1.10514 38 38 36
-0.402276 -0.481898 1.09718 38 36 34
-0.430086 -0.52268 1.19003 38 36 33
-0.393617 -0.485393 1.10514 39 36 32
-0.428851 -0.536737 1.22203 39 36 31
-0.40429 -0.513663 1.1695 39 36 32
-0.389613 -0.502632 1.14438 39 36 31
-0.403883 -0.529181 1.20483 38 36 32
-0.371449 -0.49441 1.12567 39 37 34
-0.420597 -0.568858 1.29517 40 38 36
-0.369335 -0.507715 1.15596 41 39 37
-0.384046 -0.536737 1.22203 40 38 35
-0.391309 -0.556157 1.26625 38 37 32
-0.384677 -0.556157 1.26625 38 37 33
-0.378044 -0.556157 1.26625 40 39 34
-0.379894 -0.568858 1.29517 39 39 32
-0.395916 -0.603629 1.37433 39 39 31
-0.347442 -0.539533 1.2284 39 39 31
-0.359542 -0.568858 1.29517 38 38 29
-0.374321 -0.603629 1.37433 37 38 28
-0.381873 -0.627882 1.42955 36 37 28
-0.40795 -0.684173 1.55772 35 38 30
-0.344951 -0.590324 1.34404 36 39 32
-0.394833 -0.689765 1.57045 36 38 32
-0.351922 -0.627882 1.42955 36 38 33
-0.33113 -0.603629 1.37433 36 39 33
-0.339948 -0.633474 1.44228 36 38 32
-0.345695 -0.658824 1.5 37 39 33
-0.337838 -0.658824 1.5 37 39 34
-0.314484 -0.627882 1.42955 38 40 33
-0.306996 -0.627882 1.42955 39 41 32
-0.271353 -0.568858 1.29517 39 41 31
-0.359065 -0.772037 1.75776 39 40 31
-0.332291 -0.733271 1.6695 38 40 30
-0.340652 -0.772037 1.75776 38 40 30
-0.296124 -0.689765 1.57045 38 40 30
-0.274984 -0.658824 1.5 38 40 31
-0.294901 -0.727323 1.65596 38 40 33
-0.294676 -0.748789 1.70483 38 40 34
-0.285746 -0.748789 1.70483 37 38 32
-0.307672 -0.832254 1.89486 37 38 31
-0.260207 -0.727323 1.65596 38 39 33
-0.290071 -0.838755 1.90967 38 39 34
-0.24286 -0.727323 1.65596 37 38 34
-0.267972 -0.832254 1.89486 37 39 34
-0.248238 -0.800615 1.82283 37 39 34
-0.23869 -0.800615 1.82283 37 39 34
-0.219012 -0.765218 1.74224 37 39 34
-0.210661 -0.768042 1.74867 37 39 33
-0.204878 -0.78091 1.77797 37 39 33
-0.210051 -0.838755 1.90967 37 38 33
-0.188054 -0.788466 1.79517 37 39 34
-0.182168 -0.803984 1.8305 38 39 34
-0.170645 -0.794967 1.80997 37 39 34
-0.164198 -0.809932 1.84404 36 39 34
-0.147309 -0.772037 1.75776 35 39 34
-0.14579 -0.815015 1.85562 35 39 33
-0.130377 -0.78091 1.77797 34 39 33
-0.117689 -0.75914 1.7284 35 39 33
-0.10991 -0.768042 1.74867 35 40 34
-0.100751 -0.768042 1.74867 35 40 34
-0.0915917 -0.768042 1.74867 35 40 34
-0.0893241 -0.832254 1.89486 34 40 34
-0.07401 -0.775765 1.76625 34 39 34
-0.067611 -0.809932 1.84404 32 37 33
-0.0552408 -0.772037 1.75776 33 38 34
-0.045265 -0.75914 1.7284 34 37 34
-0.0361349 -0.757524 1.72472 36 37 35
-0.0279379 -0.78091 1.77797 37 37 35
-0.0197517 -0.828142 1.8855 37 37 34
-0.00931262 -0.78091 1.77797 37 37 32
0 -0.796936 1.81445 37 36 32
0.00950373 -0.796936 1.81445 38 37 32
0.0184136 -0.772037 1.75776 38 36 34
0.0287633 -0.803984 1.8305 36 36 34
0.0388773 -0.815015 1.85562 35 37 35
0.047738 -0.800615 1.82283 35 37 35
0.0564163 -0.788466 1.79517 36 37 37
0.0633711 -0.75914 1.7284 37 38 37
0.0772697 -0.809932 1.84404 37 38 38
0.0824325 -0.768042 1.74867 38 38 37
0.100024 -0.838755 1.90967 39 38 37
0.106913 -0.815015 1.85562 39 38 36
0.108636 -0.75914 1.7284 39 37 36
0.120266 -0.775765 1.76625 39 38 36
0.126742 -0.75914 1.7284 39 37 36
0.141041 -0.788466 1.79517 39 37 36
0.150444 -0.788466 1.79517 39 37 37
0.153901 -0.75914 1.7284 39 38 38
0.166523 -0.775765 1.76625 37 38 38
0.17694 -0.78091 1.77797 36 38 38
0.186252 -0.78091 1.77797 36 38 38
0.195565 -0.78091 1.77797 34 37 38
0.213825 -0.815015 1.85562 35 38 39
0.208219 -0.75914 1.7284 34 38 39
0.223503 -0.78091 1.77797 35 37 38
0.235068 -0.788466 1.79517 35 38 39
0.235378 -0.75914 1.7284 36 39 40
0.244431 -0.75914 1.7284 35 38 40
0.263276 -0.788466 1.79517 37 39 39
0.262537 -0.75914 1.7284 37 39 37
0.282082 -0.788466 1.79517 36 39 37
0.280643 -0.75914 1.7284 36 38 37
0.289696 -0.75914 1.7284 36 38 36
0.298113 -0.757524 1.72472 36 38 36
0.319692 -0.788466 1.79517 36 38 37
0.325942 -0.78091 1.77797 35 37 36
0.347714 -0.809932 1.84404 36 37 35
0.344567 -0.78091 1.77797 36 38 35
0.36025 -0.794967 1.80997 36 38 35
0.357208 -0.768042 1.74867 38 40 36
0.396996 -0.832254 1.89486 38 40 37
0.393099 -0.803984 1.8305 37 39 35
0.388553 -0.775765 1.76625 36 38 34
0.400443 -0.78091 1.77797 37 38 35
0.424983 -0.809932 1.84404 36 37 35
0.426611 -0.794967 1.80997 37 37 36
0.441038 -0.803984 1.8305 36 37 36
0.450626 -0.803984 1.8305 36 37 36
0.460213 -0.803984 1.8305 36 38 34
0.464532 -0.794967 1.80997 36 38 32
0.465631 -0.78091 1.77797 36 38 34
0.50617 -0.832254 1.89486 37 40 34
0.513545 -0.828142 1.8855 37 40 35
0.511912 -0.809932 1.84404 36 38 35
0.533297 -0.828142 1.8855 36 38 35
0.503754 -0.768042 1.74867 36 38 35
0.515581 -0.772037 1.75776 37 38 34
0.546503 -0.803984 1.8305 38 38 32
0.551217 -0.796936 1.81445 38 38 32
0.543201 -0.772037 1.75776 39 38 32
0.558757 -0.78091 1.77797 39 39 33
0.584855 -0.803984 1.8305 40 38 33
0.589231 -0.796936 1.81445 40 38 32
0.639025 -0.850563 1.93655 38 37 30
0.601774 -0.788466 1.79517 39 37 31
0.60532 -0.78091 1.77797 38 37 31
0.599348 -0.76149 1.73375 38 39 33
0.661683 -0.828142 1.8855 39 40 34
0.646254 -0.796936 1.81445 39 39 35
0.661557 -0.803984 1.8305 39 39 36
0.694743 -0.832254 1.89486 39 38 36
0.691998 -0.817289 1.86079 38 37 35
0.695427 -0.809932 1.84404 38 37 35
0.74265 -0.853082 1.94228 38 38 37
0.752823 -0.853082 1.94228 38 38 37
0.736303 -0.823237 1.87433 38 39 37
0.746121 -0.823237 1.87433 37 38 37
0.806621 -0.878431 2 36 38 37
0.733412 -0.788466 1.79517 36 39 36
0.769969 -0.817289 1.86079 36 39 34
0.772697 -0.809932 1.84404 35 39 34
0.789462 -0.817289 1.86079 36 39 34
0.824996 -0.84366 1.92083 36 39 35
0.869474 -0.878431 2 36 39 36
0.845118 -0.84366 1.92083 36 39 36
0.843617 -0.832254 1.89486 36 39 36
0.830649 -0.809932 1.84404 36 40 37
0.875301 -0.84366 1.92083 36 41 36
0.840189 -0.800615 1.82283 35 41 36
0.859626 -0.809932 1.84404 35 41 37
0.905484 -0.84366 1.92083 35 40 36
0.953279 -0.878431 2 34 39 35
0.963754 -0.878431 2 35 40 36
0.97423 -0.878431 2 36 40 37
0.932941 -0.832254 1.89486 36 39 36
0.942866 -0.832254 1.89486 36 39 37
1.00566 -0.878431 2 36 38 38
1.10615 -0.956248 2.17717 35 37 38
0.980239 -0.838755 1.90967 35 38 38
0.945213 -0.800615 1.82283 36 38 39
0.92068 -0.772037 1.75776 37 38 39
1.00242 -0.832254 1.89486 37 38 39
1.01234 -0.832254 1.89486 38 38 38
1.07899 -0.878431 2 38 38 38
1.08946 -0.878431 2 38 39 36
1.01416 -0.809932 1.84404 38 39 35
1.11041 -0.878431 2 38 39 35
1.03348 -0.809932 1.84404 38 40 35
1.20245 -0.933626 2.12567 38 39 35
1.14184 -0.878431 2 37 38 35
1.15232 -0.878431 2 37 38 36
1.16279 -0.878431 2 37 38 37
1.17327 -0.878431 2 36 39 36
1.18374 -0.878431 2 36 39 36
1.07191 -0.788466 1.79517 36 39 36
1.20469 -0.878431 2 36 39 36
1.21517 -0.878431 2 36 40 36
1.30266 -0.933626 2.12567 36 40 36
1.41855 -1.00807 2.29517 35 40 35
1.14939 -0.809932 1.84404 35 40 35
-0.509095 -0.351516 0.80997 31 35 39
-0.462635 -0.322122 0.742238 33 36 40
-0.508558 -0.357097 0.822829 34 37 38
-0.504248 -0.357097 0.822829 37 37 35
-0.525933 -0.375665 0.865614 40 36 33
-0.547934 -0.394783 0.909666 40 36 30
-0.522073 -0.37945 0.874334 40 36 30
-0.493677 -0.361986 0.834095 40 36 31
-0.475155 -0.351516 0.80997 40 36 30
-0.558292 -0.416742 0.960263 40 36 30
-0.465061 -0.350304 0.807177 40 36 30
-0.486928 -0.37014 0.852883 41 37 32
-0.482461 -0.37014 0.852883 42 38 34
-0.439388 -0.340246 0.784 41 38 34
-0.489694 -0.382778 0.882004 39 38 33
-0.488812 -0.385728 0.8888 40 37 33
-0.464592 -0.37014 0.852883 40 38 33
-0.501487 -0.403414 0.929553 41 38 34
-0.516371 -0.419459 0.966525 39 37 34
-0.45119 -0.37014 0.852883 39 37 34
-0.446723 -0.37014 0.852883 39 38 33
-0.432513 -0.361986 0.834095 39 37 32
-0.477143 -0.403414 0.929553 39 37 31
-0.472275 -0.403414 0.929553 39 36 30
-0.446914 -0.385728 0.8888 40 36 29
-0.462537 -0.403414 0.929553 40 36 30
-0.474957 -0.418654 0.964669 41 37 31
-0.432948 -0.385728 0.8888 41 36 31
-0.445951 -0.401632 0.925446 40 36 31
-0.460684 -0.419459 0.966525 41 37 33
-0.471402 -0.433987 1 40 37 33
-0.484688 -0.451232 1.03974 39 37 32
-0.460926 -0.433987 1 38 36 34
-0.436377 -0.415595 0.957621 37 37 36
-0.45045 -0.433987 1 37 37 37
-0.445213 -0.433987 1 37 37 36
-0.407173 -0.401632 0.925446 37 37 34
-0.434737 -0.433987 1 37 38 32
-0.413434 -0.417754 0.962595 38 40 33
-0.407403 -0.416742 0.960263 37 39 31
-0.454383 -0.470609 1.08438 36 38 31
-0.431322 -0.452379 1.04238 36 39 30
-0.440892 -0.468344 1.07917 37 40 34
-0.420402 -0.452379 1.04238 36 38 34
-0.451568 -0.492309 1.13439 36 38 34
-0.392835 -0.433987 1 37 38 36
-0.420304 -0.470609 1.08438 38 38 36
-0.416899 -0.473191 1.09033 38 38 36
-0.408945 -0.470609 1.08438 37 38 35
-0.425578 -0.496648 1.14438 38 37 35
-0.366646 -0.433987 1 38 36 34
-0.361408 -0.433987 1 39 37 34
-0.393617 -0.479615 1.10514 40 37 34
-0.401602 -0.496648 1.14438 41 39 34
-0.38204 -0.479615 1.10514 41 39 35
-0.379438 -0.483678 1.1145 39 37 31
-0.392039 -0.507548 1.1695 38 35 30
-0.381444 -0.501671 1.15596 37 34 31
-0.379788 -0.507548 1.1695 36 34 30
-0.396902 -0.539115 1.24224 37 36 33
-0.407029 -0.562086 1.29517 38 37 33
-0.383889 -0.539115 1.24224 37 36 31
-0.36016 -0.514512 1.18555 37 37 31
-0.370876 -0.539115 1.24224 38 38 33
-0.379894 -0.562086 1.29517 38 39 32
-0.362335 -0.545852 1.25776 39 39 31
-0.366326 -0.562086 1.29517 39 39 31
-0.400383 -0.625932 1.44228 38 38 30
-0.369223 -0.588319 1.35562 37 37 28
-0.381873 -0.620407 1.42955 36 37 28
-0.348444 -0.577419 1.3305 35 38 29
-0.372434 -0.629769 1.45113 36 38 31
-0.362611 -0.625932 1.44228 35 37 31
-0.343382 -0.605352 1.39486 35 38 33
-0.375314 -0.676028 1.55772 36 38 34
-0.370156 -0.681553 1.57045 37 39 35
-0.36193 -0.681553 1.57045 38 40 35
-0.353704 -0.681553 1.57045 38 39 35
-0.342678 -0.676028 1.55772 38 40 33
-0.358525 -0.724542 1.6695 38 40 31
-0.314268 -0.65098 1.5 39 40 31
-0.332081 -0.705518 1.62567 38 40 31
-0.349858 -0.762846 1.75776 38 40 30
-0.330394 -0.739875 1.70483 38 39 30
-0.321464 -0.739875 1.70483 37 39 29
-0.312535 -0.739875 1.70483 37 39 30
-0.294901 -0.718664 1.65596 37 40 32
-0.303824 -0.762846 1.75776 37 39 33
-0.277554 -0.718664 1.65596 37 38 32
-0.295976 -0.791084 1.82283 37 38 32
-0.262335 -0.724542 1.6695 38 38 33
-0.251534 -0.718664 1.65596 38 38 34
-0.270444 -0.80029 1.84404 38 38 34
-0.234186 -0.718664 1.65596 38 39 35
-0.260063 -0.82877 1.90967 38 40 35
-0.231982 -0.768851 1.7716 37 39 33
-0.231809 -0.80029 1.84404 36 38 33
-0.210661 -0.758899 1.74867 37 39 33
-0.203528 -0.766529 1.76625 37 39 34
-0.189708 -0.748506 1.72472 37 39 34
-0.186636 -0.773202 1.78162 38 39 35
-0.169662 -0.739875 1.70483 38 39 34
-0.170645 -0.785503 1.80997 36 38 33
-0.161563 -0.787449 1.81445 36 38 34
-0.150444 -0.779079 1.79517 35 38 33
-0.14579 -0.805313 1.85562 35 39 34
-0.132724 -0.785503 1.80997 35 39 33
-0.124119 -0.791084 1.82283 35 39 34
-0.111981 -0.773202 1.78162 35 40 34
-0.0995831 -0.750103 1.7284 35 40 34
-0.0948025 -0.785503 1.80997 35 40 34
-0.0859284 -0.791084 1.82283 35 40 34
-0.0732733 -0.758899 1.74867 34 39 34
-0.065819 -0.779079 1.79517 34 39 35
-0.058316 -0.805313 1.85562 34 39 35
-0.0465631 -0.771614 1.77797 35 37 35
-0.0376109 -0.779079 1.79517 35 37 34
-0.0279379 -0.771614 1.77797 36 37 35
-0.0186252 -0.771614 1.77797 37 37 34
-0.00940272 -0.779079 1.79517 37 37 32
0 -0.80029 1.84404 37 36 33
0.00965871 -0.80029 1.84404 37 37 32
0.018106 -0.750103 1.7284 38 37 34
0.0284408 -0.785503 1.80997 37 37 35
0.0396996 -0.822346 1.89486 37 38 36
0.047738 -0.791084 1.82283 37 38 36
0.0568815 -0.785503 1.80997 37 37 37
0.067611 -0.80029 1.84404 37 37 37
0.0732733 -0.758899 1.74867 37 37 37
0.0853223 -0.785503 1.80997 38 38 36
0.0867357 -0.718664 1.65596 39 38 36
0.106913 -0.805313 1.85562 39 38 36
0.112833 -0.779079 1.79517 39 37 36
0.120266 -0.766529 1.76625 39 38 36
0.136804 -0.809652 1.86561 39 37 36
0.143817 -0.794413 1.8305 39 37 36
0.145296 -0.752425 1.73375 39 37 37
0.169432 -0.825799 1.90282 38 37 37
0.171067 -0.787449 1.81445 36 37 37
0.17694 -0.771614 1.77797 36 37 37
0.199332 -0.825799 1.90282 35 37 38
0.201739 -0.795973 1.8341 35 38 38
0.212492 -0.80029 1.84404 36 38 39
0.21419 -0.771614 1.77797 34 37 38
0.22809 -0.787449 1.81445 35 37 38
0.242983 -0.805313 1.85562 35 38 39
0.254064 -0.809652 1.86561 37 39 41
0.253873 -0.779079 1.79517 36 39 40
0.270444 -0.80029 1.84404 37 39 39
0.265616 -0.758899 1.74867 37 39 37
0.277538 -0.766529 1.76625 36 39 37
0.276817 -0.739875 1.70483 36 39 37
0.311019 -0.805313 1.85562 36 38 37
0.316397 -0.794413 1.8305 36 38 37
0.317281 -0.773202 1.78162 36 37 36
0.316181 -0.748506 1.72472 36 37 36
0.338498 -0.779079 1.79517 36 37 36
0.351638 -0.787449 1.81445 36 38 35
0.357303 -0.779079 1.79517 37 39 36
0.357208 -0.758899 1.74867 38 40 36
0.386349 -0.80029 1.84404 39 41 37
0.393099 -0.794413 1.8305 37 39 35
0.405666 -0.80029 1.84404 36 37 34
0.404317 -0.779079 1.79517 37 37 34
0.427651 -0.805313 1.85562 37 37 35
0.448496 -0.825799 1.90282 37 37 36
0.444301 -0.80029 1.84404 36 37 36
0.445572 -0.785503 1.80997 36 37 36
0.466528 -0.805313 1.85562 36 38 34
0.48632 -0.822346 1.89486 36 38 33
0.493794 -0.818283 1.8855 37 39 35
0.492594 -0.80029 1.84404 37 40 35
0.518262 -0.825799 1.90282 38 40 36
0.523421 -0.818283 1.8855 37 39 36
0.494595 -0.758899 1.74867 37 39 36
0.521414 -0.785503 1.80997 37 38 35
0.544283 -0.805313 1.85562 37 38 34
0.559591 -0.813437 1.87433 38 39 33
0.549855 -0.785503 1.80997 39 39 33
0.598452 -0.840437 1.93655 39 39 33
0.568815 -0.785503 1.80997 39 39 33
0.579728 -0.787449 1.81445 40 39 33
0.649487 -0.867974 2 40 38 33
0.608499 -0.80029 1.84404 38 38 32
0.618158 -0.80029 1.84404 38 37 31
0.617743 -0.787449 1.81445 38 38 32
0.651808 -0.818283 1.8855 38 39 33
0.647134 -0.80029 1.84404 39 39 34
0.651969 -0.794413 1.8305 39 39 35
0.681435 -0.818283 1.8855 39 39 36
0.691311 -0.818283 1.8855 39 39 36
0.720171 -0.840437 1.93655 38 38 36
0.717594 -0.825799 1.90282 38 37 36
0.720939 -0.818283 1.8855 38 38 36
0.752823 -0.842926 1.94228 38 38 37
0.764877 -0.845003 1.94707 38 38 37
0.750566 -0.818283 1.8855 37 38 37
0.783343 -0.842926 1.94228 37 39 37
0.741291 -0.787449 1.81445 37 40 36
0.798422 -0.837401 1.92955 36 39 34
0.838047 -0.867974 2 35 38 34
0.810197 -0.82877 1.90967 35 39 34
0.805025 -0.813437 1.87433 36 39 35
0.814843 -0.813437 1.87433 36 39 36
0.845118 -0.833616 1.92083 36 39 36
0.820991 -0.80029 1.84404 37 40 37
0.830649 -0.80029 1.84404 37 41 37
0.847941 -0.807559 1.86079 36 40 37
0.803043 -0.756108 1.74224 36 40 36
0.890217 -0.82877 1.90967 35 40 36
0.900219 -0.82877 1.90967 35 39 35
0.79575 -0.724542 1.6695 35 40 35
0.920224 -0.82877 1.90967 35 40 36
0.930227 -0.82877 1.90967 35 40 36
0.945728 -0.833616 1.92083 35 38 36
0.893258 -0.779079 1.79517 36 39 37
0.970234 -0.837401 1.92955 38 40 39
1.01613 -0.867974 2 37 39 40
0.972641 -0.822346 1.89486 37 39 40
1.1433 -0.956869 2.20483 37 39 39
0.940272 -0.779079 1.79517 37 38 39
1.00242 -0.822346 1.89486 37 38 38
1.06851 -0.867974 2 37 37 38
0.919745 -0.739875 1.70483 37 38 38
1.08946 -0.867974 2 37 38 36
1.03082 -0.813437 1.87433 37 38 34
1.11041 -0.867974 2 37 38 35
1.12089 -0.867974 2 38 39 35
1.24723 -0.956869 2.20483 38 40 36
1.21358 -0.922511 2.12567 37 38 35
1.07991 -0.813437 1.87433 36 37 35
1.25346 -0.935658 2.15596 36 38 35
0.87995 -0.65098 1.5 36 39 36
1.06251 -0.779079 1.79517 36 39 35
1.26925 -0.922511 2.12567 36 38 35
1.32807 -0.956869 2.20483 36 39 36
1.21517 -0.867974 2 36 39 36
1.04476 -0.739875 1.70483 36 40 35
1.33251 -0.935658 2.15596 35 39 35
1.2466 -0.867974 2 34 39 34
-0.524259 -0.357625 0.834095 31 34 39
-0.539535 -0.371139 0.865614 32 35 39
-0.491461 -0.340934 0.795167 35 37 38
-0.522666 -0.365681 0.852883 38 38 36
-0.506783 -0.357625 0.834095 40 36 33
-0.502414 -0.357625 0.834095 40 36 31
-0.498046 -0.357625 0.834095 40 36 30
-0.517493 -0.374878 0.874334 41 36 31
-0.509141 -0.372121 0.867904 40 36 31
-0.484939 -0.357625 0.834095 41 36 31
