ply
format ascii 1.0
element vertex 1367
property float x
property float y
property float z
property uchar red
property uchar green
property uchar blue
end_header
0.0614928 0.385859 1.67717 37 37 34
0.0681193 0.374009 1.62567 36 36 34
0.0783231 0.382252 1.66149 36 36 33
0.0892957 0.392223 1.70483 36 36 33
0.0997215 0.398198 1.7308 36 36 33
0.104083 0.380979 1.65596 36 37 34
0.114201 0.385859 1.67717 37 38 35
0.124041 0.389172 1.69157 37 38 35
0.132902 0.389172 1.69157 36 37 34
0.136239 0.374009 1.62567 36 37 34
0.14699 0.379788 1.65078 36 36 33
0.160732 0.392223 1.70483 35 36 32
0.166909 0.385859 1.67717 35 35 32
0.179874 0.395039 1.71707 35 35 32
0.1862 0.38946 1.69282 34 35 31
0.198011 0.395339 1.71838 34 34 31
0.203597 0.388817 1.69003 34 34 30
0.210832 0.385859 1.67717 35 35 32
0.216162 0.379788 1.65078 36 36 34
0.226267 0.382252 1.66149 36 36 34
0.244771 0.398198 1.7308 36 36 33
0.248083 0.389172 1.69157 35 36 33
0.253044 0.383267 1.6659 35 36 33
0.272431 0.398876 1.73375 35 37 34
0.279016 0.395339 1.71838 35 37 34
0.28111 0.385859 1.67717 35 36 33
0.297017 0.395339 1.71838 34 36 33
0.303605 0.392223 1.70483 34 36 32
0.320135 0.401761 1.74629 33 35 31
0.326361 0.398198 1.7308 34 36 32
0.325033 0.385859 1.67717 34 36 33
0.342019 0.395339 1.71838 35 36 32
0.345229 0.388817 1.69003 35 37 33
0.36002 0.395339 1.71838 35 37 33
0.356805 0.382252 1.66149 35 36 33
0.375042 0.392223 1.70483 35 36 32
0.380637 0.388817 1.69003 35 36 32
0.399565 0.398876 1.73375 35 36 33
0.40183 0.392223 1.70483 35 37 33
0.427733 0.40843 1.77528 34 36 33
0.416046 0.388817 1.69003 34 36 33
0.432024 0.395339 1.71838 33 36 31
0.426426 0.382252 1.66149 32 35 30
0.46034 0.4044 1.75776 32 35 30
0.471182 0.405808 1.76388 33 35 31
0.460726 0.389172 1.69157 32 35 32
0.480476 0.398198 1.7308 33 36 32
0.507747 0.413006 1.79517 32 36 33
0.499457 0.398876 1.73375 33 36 34
0.495714 0.388817 1.69003 32 36 33
0.524787 0.4044 1.75776 32 36 34
0.533994 0.4044 1.75776 33 36 34
0.541214 0.402921 1.75133 33 36 35
0.540537 0.39571 1.71999 33 37 35
0.549546 0.39571 1.71999 35 38 36
0.56578 0.400829 1.74224 35 39 37
0.567563 0.39571 1.71999 35 39 37
0.582427 0.399727 1.73745 35 39 37
0.594537 0.401761 1.74629 34 37 36
0.613704 0.40843 1.77528 33 36 34
0.608429 0.398876 1.73375 33 35 34
0.61646 0.398198 1.7308 33 36 34
0.61079 0.388817 1.69003 36 39 37
0.661895 0.41533 1.80527 39 42 40
0.66344 0.410436 1.784 38 42 40
0.653834 0.398876 1.73375 38 41 40
0.678794 0.40843 1.77528 35 39 37
0.673431 0.399727 1.73745 35 39 37
0.705204 0.413006 1.79517 33 37 35
0.68468 0.39571 1.71999 32 36 34
0.711392 0.405808 1.76388 33 37 35
0.750169 0.422442 1.83618 34 37 36
0.705436 0.392223 1.70483 33 36 35
0.742342 0.407584 1.7716 32 36 35
0.756882 0.410436 1.784 32 36 35
0.746234 0.399727 1.73745 31 36 34
0.814843 0.431219 1.87433 35 38 37
0.750084 0.392223 1.70483 36 39 38
0.799231 0.413006 1.79517 36 39 38
0.835863 0.426913 1.85562 34 38 37
0.830642 0.41937 1.82283 33 37 37
0.827439 0.413006 1.79517 34 38 38
0.823362 0.406353 1.76625 33 38 37
0.832613 0.406353 1.76625 34 38 37
0.889225 0.429213 1.86561 35 39 38
0.883809 0.421962 1.8341 36 40 39
0.881663 0.416411 1.80997 37 41 41
0.913617 0.426913 1.85562 36 40 40
0.886519 0.40989 1.78162 34 39 38
0.902661 0.413006 1.79517 35 40 39
0.930015 0.421134 1.8305 35 39 39
0.939602 0.421134 1.8305 35 39 38
0.94087 0.417443 1.81445 35 39 39
0.958778 0.421134 1.8305 35 39 39
0.968366 0.421134 1.8305 34 38 38
1.01234 0.435942 1.89486 35 37 38
0.96848 0.413006 1.79517 34 37 38
1.00451 0.42425 1.84404 33 36 37
0.953508 0.398876 1.73375 34 37 37
1.04684 0.433789 1.8855 36 38 39
1.0169 0.417443 1.81445 35 38 39
1.05262 0.428104 1.86079 34 38 38
1.10561 0.445533 1.93655 34 38 38
1.07211 0.428104 1.86079 35 39 39
1.07212 0.42425 1.84404 35 39 39
1.17327 0.460131 2 34 39 39
1.12151 0.435942 1.89486 33 39 39
1.14695 0.441917 1.92083 34 39 39
1.20469 0.460131 2 35 40 40
1.21517 0.460131 2 35 40 40
1.11707 0.41937 1.82283 35 39 39
1.23612 0.460131 2 35 39 39
1.2466 0.460131 2 35 39 39
-0.664812 0.248874 1.05772 37 35 33
-0.710066 0.268049 1.13921 36 35 33
-0.683041 0.260032 1.10514 35 35 32
-0.677252 0.260032 1.10514 35 35 32
-0.677152 0.262235 1.1145 35 35 32
-0.689316 0.269267 1.14438 36 36 33
-0.672145 0.264863 1.12567 37 36 34
-0.633566 0.25187 1.07045 37 36 33
-0.623856 0.250224 1.06345 36 36 33
-0.710485 0.287538 1.22203 36 36 33
-0.704084 0.287538 1.22203 36 35 32
-0.667691 0.275177 1.1695 36 35 32
-0.661566 0.275177 1.1695 36 36 33
-0.696205 0.292291 1.24224 36 35 34
-0.689698 0.292291 1.24224 37 36 34
-0.672081 0.287538 1.22203 36 35 33
-0.66568 0.287538 1.22203 36 34 32
-0.698734 0.304745 1.29517 37 35 33
-0.643688 0.28349 1.20483 38 36 34
-0.703857 0.313059 1.3305 37 35 33
-0.631067 0.28349 1.20483 36 35 32
-0.702943 0.318968 1.35562 37 35 32
-0.664814 0.304745 1.29517 36 34 32
-0.737268 0.341441 1.45113 35 34 33
-0.669013 0.313059 1.3305 35 35 34
-0.674541 0.318968 1.35562 35 34 33
-0.762593 0.364441 1.54887 35 35 33
-0.669459 0.323373 1.37433 36 35 34
-0.672153 0.328203 1.39486 36 35 34
-0.69476 0.34297 1.45762 36 36 33
-0.707102 0.352941 1.5 36 35 33
-0.726151 0.366521 1.55772 36 35 33
-0.668862 0.341441 1.45113 36 35 32
-0.760772 0.392824 1.6695 35 34 31
-0.697691 0.364441 1.54887 35 34 31
-0.714627 0.377679 1.60514 36 35 32
-0.734539 0.392824 1.6695 37 36 34
-0.714875 0.386914 1.64438 37 36 34
-0.732224 0.401137 1.70483 36 35 32
-0.708305 0.392824 1.6695 37 36 34
-0.699561 0.392824 1.6695 38 37 35
-0.733063 0.416847 1.7716 38 37 35
-0.733412 0.422392 1.79517 37 36 33
-0.663197 0.386914 1.64438 37 36 33
-0.722284 0.42693 1.81445 37 36 33
-0.681077 0.407941 1.73375 36 35 31
-0.660788 0.401137 1.70483 35 34 30
-0.668619 0.411451 1.74867 36 35 33
-0.668108 0.416847 1.7716 37 36 34
-0.655959 0.415031 1.76388 37 36 34
-0.634591 0.407248 1.7308 37 35 33
-0.61614 0.401137 1.70483 37 36 34
-0.621977 0.410892 1.74629 37 36 34
-0.633528 0.42477 1.80527 37 36 35
-0.639948 0.435575 1.85119 38 37 36
-0.590267 0.407941 1.73375 37 37 36
-0.58539 0.410892 1.74629 37 36 35
-0.589236 0.420157 1.78567 36 36 35
-0.57651 0.417713 1.77528 36 36 35
-0.55795 0.410892 1.74629 36 35 35
-0.552408 0.413591 1.75776 35 35 35
-0.55476 0.422392 1.79517 35 35 34
-0.53051 0.410892 1.74629 35 35 34
-0.518724 0.408812 1.73745 35 35 34
-0.491942 0.394628 1.67717 35 36 35
-0.50307 0.410892 1.74629 36 36 35
-0.493923 0.410892 1.74629 37 37 36
-0.477027 0.404324 1.71838 36 36 35
-0.460726 0.398017 1.69157 36 35 35
-0.477001 0.420157 1.78567 35 35 34
-0.461943 0.415031 1.76388 35 35 35
-0.441025 0.404324 1.71838 35 35 34
-0.444572 0.416067 1.76828 35 35 34
-0.41288 0.394628 1.67717 35 36 34
-0.41076 0.401137 1.70483 35 36 34
-0.414306 0.413591 1.75776 36 36 34
-0.409136 0.417713 1.77528 37 37 35
-0.401802 0.419765 1.784 36 36 34
-0.384162 0.410892 1.74629 35 35 33
-0.371689 0.407248 1.7308 36 36 34
-0.354081 0.397654 1.69003 36 36 34
-0.348253 0.401137 1.70483 36 36 34
-0.331575 0.391978 1.6659 35 35 33
-0.338429 0.410892 1.74629 34 35 32
-0.313292 0.39094 1.66149 35 35 33
-0.315018 0.404324 1.71838 36 36 34
-0.301244 0.398017 1.69157 36 36 35
-0.301842 0.410892 1.74629 36 36 34
-0.278482 0.39094 1.66149 36 37 35
-0.271778 0.393836 1.6738 37 37 35
-0.26354 0.394628 1.67717 36 37 35
-0.256943 0.398017 1.69157 36 36 34
-0.256108 0.410892 1.74629 36 36 34
-0.246388 0.409938 1.74224 35 35 33
-0.234233 0.404703 1.71999 35 35 33
-0.221666 0.398311 1.69282 35 35 33
-0.216012 0.404324 1.71838 35 35 32
-0.198869 0.388419 1.65078 37 37 35
-0.191456 0.39094 1.66149 37 38 35
-0.183239 0.391978 1.6659 37 37 34
-0.174051 0.39094 1.66149 35 36 34
-0.169662 0.401137 1.70483 36 36 34
-0.160732 0.401137 1.70483 36 36 34
-0.14934 0.394628 1.67717 35 36 33
-0.145049 0.407248 1.7308 35 35 33
-0.128958 0.386207 1.64138 35 36 34
-0.124041 0.398017 1.69157 35 36 34
-0.115181 0.398017 1.69157 35 36 34
-0.103758 0.388419 1.65078 35 35 34
-0.0966315 0.394628 1.67717 36 36 35
-0.0878468 0.394628 1.67717 36 37 36
-0.078531 0.391978 1.6659 36 37 36
-0.0714365 0.401137 1.70483 36 37 36
-0.0610797 0.391978 1.6659 36 37 35
-0.0518788 0.388419 1.65078 36 37 35
-0.0433679 0.389637 1.65596 36 37 35
-0.0349027 0.391978 1.6659 37 37 35
-0.0274402 0.410892 1.74629 35 36 34
-0.0177202 0.398017 1.69157 34 35 33
-0.00886011 0.398017 1.69157 35 36 34
0 0.404324 1.71838 35 36 34
0.00864646 0.388419 1.65078 36 37 35
0.0177202 0.398017 1.69157 36 37 35
0.0267887 0.401137 1.70483 36 37 34
0.0351955 0.395266 1.67988 36 37 34
0.0433679 0.389637 1.65596 36 37 34
0.0522154 0.39094 1.66149 37 37 35
0.0610797 0.391978 1.6659 36 36 33
0.0703909 0.395266 1.67988 35 35 32
0.079741 0.398017 1.69157 35 36 33
0.0859722 0.386207 1.64138 35 35 32
0.0974612 0.398017 1.69157 36 36 33
0.1064 0.398311 1.69282 36 37 34
0.112404 0.388419 1.65078 36 37 34
0.120361 0.386207 1.64138 36 37 34
0.13177 0.394628 1.67717 36 37 34
0.138777 0.389637 1.65596 35 36 33
0.154115 0.407248 1.7308 35 36 33
0.158124 0.394628 1.67717 35 36 32
0.165788 0.391978 1.6659 35 36 33
0.174513 0.391978 1.6659 36 36 33
0.187521 0.401137 1.70483 35 36 33
0.191965 0.391978 1.6659 35 36 33
0.20538 0.401137 1.70483 35 36 33
0.210832 0.394628 1.67717 35 35 32
0.223239 0.401137 1.70483 36 36 33
0.234013 0.404324 1.71838 36 37 34
0.241098 0.401137 1.70483 35 36 32
0.250028 0.401137 1.70483 34 35 31
0.258957 0.401137 1.70483 35 36 33
0.270015 0.404324 1.71838 35 37 34
0.272325 0.394628 1.67717 35 36 33
0.281564 0.395266 1.67988 34 35 32
0.297017 0.404324 1.71838 34 35 32
0.303605 0.401137 1.70483 34 36 32
0.317296 0.407248 1.7308 34 36 32
0.318964 0.398017 1.69157 34 36 32
0.335427 0.407248 1.7308 34 36 32
0.345816 0.408812 1.73745 34 36 32
0.356722 0.410892 1.74629 35 36 33
0.363241 0.407941 1.73375 35 37 33
0.375016 0.410892 1.74629 34 36 32
0.371785 0.397654 1.69003 34 35 31
0.380985 0.398017 1.69157 34 36 32
0.392901 0.401137 1.70483 34 36 32
0.40183 0.401137 1.70483 34 35 31
0.417727 0.407941 1.73375 32 35 30
0.41969 0.401137 1.70483 32 35 30
0.421665 0.394628 1.67717 32 35 30
0.455629 0.417713 1.77528 32 35 30
0.450025 0.404324 1.71838 32 35 30
0.451865 0.398017 1.69157 32 35 31
0.467671 0.404017 1.71707 32 35 31
0.469586 0.398017 1.69157 32 35 31
0.490376 0.407941 1.73375 32 35 32
0.491126 0.401137 1.70483 31 35 32
0.512217 0.410892 1.74629 31 35 32
0.530017 0.417713 1.77528 32 36 33
0.535854 0.415031 1.76388 34 36 34
0.55476 0.422392 1.79517 33 37 35
0.544862 0.407941 1.73375 32 36 34
0.544704 0.401137 1.70483 35 39 37
0.549327 0.398017 1.69157 36 40 38
0.576244 0.410892 1.74629 36 39 37
0.58708 0.412078 1.75133 36 39 37
0.590267 0.407941 1.73375 34 37 35
0.617295 0.420157 1.78567 32 35 34
0.598281 0.401137 1.70483 34 36 35
0.612034 0.404324 1.71838 35 37 36
0.644752 0.419765 1.784 38 41 39
0.642118 0.412078 1.75133 39 42 40
0.66344 0.419765 1.784 38 42 40
0.676996 0.422392 1.79517 37 41 39
0.690262 0.42477 1.80527 35 39 37
0.660788 0.401137 1.70483 36 39 38
0.681077 0.407941 1.73375 33 37 35
0.70669 0.417713 1.77528 31 35 34
0.70633 0.412078 1.75133 33 37 35
0.723784 0.416847 1.7716 34 37 36
0.72987 0.415031 1.76388 33 36 35
0.733849 0.412078 1.75133 31 36 35
0.730593 0.405185 1.72203 32 36 35
0.771023 0.422392 1.79517 32 36 35
0.785647 0.425218 1.80718 34 38 37
0.773371 0.413591 1.75776 36 39 38
0.799231 0.422392 1.79517 34 38 37
0.802533 0.419206 1.78162 33 37 35
0.785935 0.405817 1.72472 34 38 37
0.840189 0.428901 1.82283 37 40 40
0.854989 0.431552 1.8341 36 40 39
0.846245 0.422392 1.79517 35 38 38
0.849192 0.419206 1.78162 34 38 38
0.842643 0.411451 1.74867 35 39 38
0.933125 0.450733 1.91561 36 40 40
0.869618 0.415588 1.76625 36 40 40
0.923337 0.436615 1.85562 37 41 40
0.922235 0.431552 1.8341 37 41 41
0.926118 0.428901 1.82283 35 39 39
0.935665 0.428901 1.82283 33 37 37
0.94087 0.42693 1.81445 33 37 36
0.940272 0.422392 1.79517 34 37 37
0.929887 0.413591 1.75776 34 37 38
1.00137 0.44102 1.87433 34 37 38
0.9483 0.413591 1.75776 34 37 38
1.0549 0.455659 1.93655 33 36 37
1.06119 0.454013 1.92955 35 38 39
1.06646 0.451961 1.92083 37 39 40
1.03348 0.433892 1.84404 35 39 39
1.09547 0.455659 1.93655 33 38 38
1.10889 0.457008 1.94228 34 38 38
1.10027 0.449333 1.90967 35 39 39
1.12183 0.454013 1.92955 35 40 39
1.08178 0.433892 1.84404 35 40 40
1.13028 0.449333 1.90967 33 39 38
1.14028 0.449333 1.90967 33 38 38
1.20469 0.470588 2 34 39 39
1.21517 0.470588 2 35 40 40
1.22564 0.470588 2 34 39 38
1.23612 0.470588 2 33 38 37
1.16827 0.44102 1.87433 35 39 39
-0.628536 0.240523 1 38 36 34
-0.656288 0.253254 1.05293 37 37 34
-0.650773 0.253254 1.05293 36 35 33
-0.761271 0.298787 1.24224 36 36 33
-0.710571 0.281292 1.1695 36 36 33
-0.678041 0.270748 1.12567 37 36 34
-0.707901 0.285151 1.18555 37 36 34
-0.666249 0.270748 1.12567 37 36 33
-0.695481 0.285151 1.18555 36 36 33
-0.710485 0.293927 1.22203 36 35 32
-0.704084 0.293927 1.22203 36 35 33
-0.659959 0.278034 1.15596 36 36 33
-0.636769 0.270748 1.12567 36 36 33
-0.725869 0.311517 1.29517 35 35 32
-0.689698 0.298787 1.24224 36 35 33
-0.619081 0.270748 1.12567 37 36 34
-0.676685 0.298787 1.24224 37 36 34
-0.698734 0.311517 1.29517 37 36 34
-0.643688 0.28979 1.20483 38 36 34
-0.685166 0.311517 1.29517 37 35 33
-0.663236 0.304562 1.26625 37 35 33
-0.702943 0.326057 1.35562 38 36 34
-0.664814 0.311517 1.29517 37 36 34
-0.737268 0.349029 1.45113 36 35 33
-0.725221 0.346902 1.44228 35 35 33
-0.644463 0.311517 1.29517 35 34 33
-0.686765 0.335496 1.39486 36 35 33
-0.679459 0.335496 1.39486 36 35 34
-0.750628 0.374666 1.55772 36 36 34
-0.738255 0.37254 1.54887 36 36 34
-0.664519 0.339057 1.40967 36 35 33
-0.766553 0.395512 1.64438 36 36 34
-0.739849 0.386072 1.60514 36 35 33
-0.661261 0.349029 1.45113 37 36 34
-0.716367 0.382512 1.59033 36 35 33
-0.642123 0.346902 1.44228 36 35 32
-0.685356 0.374666 1.55772 36 35 33
-0.714875 0.395512 1.64438 37 36 34
-0.71705 0.401553 1.6695 37 35 33
-0.680998 0.386072 1.60514 38 36 34
-0.742342 0.42611 1.7716 39 37 35
-0.733063 0.42611 1.7716 40 38 36
-0.741291 0.436417 1.81445 39 38 35
-0.750476 0.447563 1.86079 38 37 34
-0.664583 0.401553 1.6695 37 35 33
-0.730983 0.447563 1.86079 36 34 31
-0.681303 0.422782 1.75776 36 35 32
-0.696975 0.438432 1.82283 38 36 34
-0.653834 0.417007 1.73375 37 36 34
-0.633999 0.410051 1.70483 37 36 34
-0.635672 0.417007 1.73375 37 35 34
-0.666451 0.443534 1.84404 37 36 34
-0.612034 0.413309 1.71838 37 36 35
-0.620548 0.425313 1.76828 38 37 35
-0.603684 0.420023 1.74629 37 37 36
-0.590267 0.417007 1.73375 37 37 36
-0.595107 0.426995 1.77528 37 36 35
-0.577906 0.421235 1.75133 36 35 34
-0.553633 0.410051 1.70483 36 35 35
-0.561615 0.422782 1.75776 35 35 35
-0.554332 0.424254 1.76388 35 35 35
-0.567435 0.441644 1.83618 35 35 35
-0.509511 0.403398 1.67717 35 35 35
-0.517619 0.417007 1.73375 35 35 35
-0.495714 0.406491 1.69003 36 36 35
-0.478641 0.399627 1.66149 37 37 36
-0.474373 0.403398 1.67717 37 37 36
-0.477027 0.413309 1.71838 37 37 36
-0.481619 0.425313 1.76828 36 36 35
-0.466483 0.420023 1.74629 35 35 35
-0.467648 0.429494 1.78567 36 36 35
-0.441025 0.413309 1.71838 36 36 35
-0.432024 0.413309 1.71838 36 36 35
-0.416425 0.406862 1.69157 36 36 34
-0.426048 0.425313 1.76828 35 35 33
-0.405402 0.413696 1.71999 36 36 34
-0.389845 0.406862 1.69157 37 37 35
-0.377741 0.403398 1.67717 37 36 34
-0.365508 0.399627 1.66149 36 36 34
-0.374145 0.419048 1.74224 35 35 33
-0.365869 0.420023 1.74629 36 36 34
-0.353558 0.416298 1.7308 36 36 34
-0.336684 0.406862 1.69157 35 35 32
-0.330394 0.410051 1.70483 34 34 31
-0.326917 0.417007 1.73375 35 35 32
-0.319392 0.419048 1.74224 36 36 33
-0.305785 0.412996 1.71707 36 36 33
-0.290363 0.40405 1.67988 36 36 34
-0.276687 0.397051 1.65078 36 37 34
-0.26978 0.399627 1.66149 37 37 34
-0.270015 0.413309 1.71838 36 37 34
-0.26335 0.417007 1.73375 36 36 34
-0.258688 0.424254 1.76388 36 36 34
-0.235593 0.400688 1.6659 35 36 34
-0.234013 0.413309 1.71838 35 36 34
-0.221301 0.406491 1.69003 35 35 34
-0.212643 0.406862 1.69157 35 36 34
-0.20538 0.410051 1.70483 38 38 36
-0.193263 0.403398 1.67717 37 38 36
-0.189011 0.413309 1.71838 37 38 35
-0.178591 0.410051 1.70483 36 37 34
-0.166909 0.403398 1.67717 35 36 33
-0.163181 0.416298 1.7308 35 36 34
-0.14699 0.397051 1.65078 35 35 33
-0.140555 0.403398 1.67717 34 35 33
-0.135134 0.413696 1.71999 35 35 34
-0.127134 0.417007 1.73375 35 35 33
-0.114201 0.403398 1.67717 35 35 34
-0.1064 0.407163 1.69282 35 36 34
-0.0990984 0.413696 1.71999 36 37 35
-0.0870257 0.399627 1.66149 36 37 36
-0.0790621 0.403398 1.67717 36 37 36
-0.0687778 0.39479 1.64138 36 37 35
-0.060715 0.398296 1.65596 37 37 35
-0.0518788 0.397051 1.65078 36 37 35
-0.0435128 0.399627 1.66149 36 37 35
-0.0351387 0.403398 1.67717 37 37 35
-0.026177 0.400688 1.6659 36 37 34
-0.0174513 0.400688 1.6659 35 36 34
-0.00859722 0.39479 1.64138 35 36 34
0 0.403398 1.67717 35 37 34
0.00851491 0.39101 1.62567 36 37 35
0.0177202 0.406862 1.69157 36 37 35
0.0267887 0.410051 1.70483 35 37 34
0.0351387 0.403398 1.67717 35 36 34
0.0433679 0.398296 1.65596 35 36 34
0.052354 0.400688 1.6659 36 36 34
0.060918 0.399627 1.66149 35 35 32
0.072004 0.413309 1.71838 35 35 32
0.078531 0.400688 1.6659 36 36 33
0.0872567 0.400688 1.6659 35 36 33
0.10038 0.419048 1.74224 35 35 32
0.104431 0.399627 1.66149 35 35 32
0.116084 0.410051 1.70483 35 36 32
0.125014 0.410051 1.70483 35 37 34
0.13177 0.403398 1.67717 35 36 32
0.140555 0.403398 1.67717 35 36 32
0.148336 0.400688 1.6659 35 36 33
0.158124 0.403398 1.67717 36 37 33
0.16102 0.389165 1.618 36 37 33
0.175977 0.40405 1.67988 36 37 33
0.192636 0.421235 1.75133 36 37 34
0.198011 0.413309 1.71838 36 37 34
0.203597 0.406491 1.69003 37 37 34
0.208166 0.398296 1.65596 36 37 34
0.219176 0.402588 1.6738 36 37 34
0.243177 0.429494 1.78567 36 36 34
0.248584 0.422782 1.75776 35 36 33
0.247857 0.406491 1.69003 35 36 32
0.253044 0.400688 1.6659 35 36 33
0.26354 0.403398 1.67717 35 37 34
0.279277 0.413696 1.71999 35 36 33
0.283265 0.406491 1.69003 34 35 32
0.301842 0.420023 1.74629 33 35 32
0.306017 0.413309 1.71838 34 36 32
0.305398 0.400688 1.6659 35 37 33
0.318673 0.406491 1.69003 35 37 33
0.335427 0.416298 1.7308 35 37 33
0.347576 0.420023 1.74629 34 36 32
0.351349 0.413696 1.71999 34 36 32
0.365869 0.420023 1.74629 34 35 31
0.353131 0.395512 1.64438 33 35 31
0.399157 0.436417 1.81445 34 36 32
0.375204 0.400688 1.6659 34 36 33
0.399565 0.417007 1.73375 34 36 32
0.395949 0.40405 1.67988 33 35 31
0.41076 0.410051 1.70483 32 35 31
0.426808 0.417007 1.73375 32 35 30
0.424898 0.406491 1.69003 32 35 30
0.429585 0.402588 1.6738 32 35 30
0.450447 0.413696 1.71999 32 35 31
0.467829 0.421235 1.75133 33 36 32
0.468026 0.413309 1.71838 32 36 32
0.477027 0.413309 1.71838 31 35 31
0.493923 0.420023 1.74629 30 34 31
0.50307 0.420023 1.74629 30 34 31
0.500056 0.410051 1.70483 30 34 31
0.508985 0.410051 1.70483 32 35 33
0.525804 0.416298 1.7308 34 36 35
0.543201 0.422782 1.75776 35 38 36
0.567339 0.434209 1.80527 34 38 36
0.544704 0.410051 1.70483 35 39 37
0.548194 0.406023 1.68808 35 38 37
0.562563 0.410051 1.70483 34 37 36
0.58539 0.420023 1.74629 34 37 35
0.604406 0.426995 1.77528 32 36 34
0.579789 0.403398 1.67717 32 35 33
0.629982 0.431779 1.79517 34 37 35
0.632301 0.426995 1.77528 36 38 36
0.648788 0.431779 1.79517 39 42 40
0.635672 0.417007 1.73375 38 42 40
0.671351 0.434209 1.80527 37 41 39
0.665198 0.424254 1.76388 37 40 38
0.674437 0.424254 1.76388 35 39 37
0.688093 0.426995 1.77528 35 38 37
0.717909 0.439558 1.82751 34 37 36
0.74073 0.447563 1.86079 33 36 35
0.711392 0.424254 1.76388 34 37 36
0.703534 0.414189 1.72203 34 36 36
0.747784 0.434668 1.80718 31 35 34
0.728033 0.417897 1.73745 31 35 34
0.756882 0.429093 1.784 33 37 36
0.760901 0.42611 1.7716 34 38 37
0.757415 0.419048 1.74224 34 38 37
0.779459 0.42611 1.7716 34 38 37
0.782578 0.422782 1.75776 34 38 36
0.798018 0.42611 1.7716 33 37 36
0.818037 0.431779 1.79517 35 39 38
0.814111 0.424823 1.76625 37 40 39
0.859626 0.443534 1.84404 37 40 40
0.83986 0.428521 1.78162 35 39 38
0.889225 0.448723 1.86561 34 37 37
0.920224 0.459318 1.90967 34 37 37
0.930227 0.459318 1.90967 34 38 38
0.883856 0.431779 1.79517 36 39 39
0.910839 0.440277 1.8305 37 42 41
0.902661 0.431779 1.79517 39 42 42
0.903324 0.427641 1.77797 35 39 39
0.952495 0.446318 1.85562 33 37 36
0.956213 0.443534 1.84404 32 36 36
0.971933 0.446318 1.85562 34 37 37
0.940575 0.427641 1.77797 34 37 37
0.994137 0.447563 1.86079 34 37 38
1.00388 0.447563 1.86079 35 38 39
1.02101 0.45082 1.87433 36 39 39
1.03082 0.45082 1.87433 37 40 40
1.07518 0.465784 1.93655 37 40 40
1.05046 0.45082 1.87433 37 40 40
1.13136 0.481046 2 34 38 38
1.17807 0.496307 2.06345 33 38 37
1.10027 0.459318 1.90967 34 38 38
1.03 0.42611 1.7716 34 39 39
1.0531 0.431779 1.79517 34 39 39
1.13028 0.459318 1.90967 33 38 38
1.08843 0.438432 1.82283 33 39 38
1.09797 0.438432 1.82283 34 39 38
1.13882 0.45082 1.87433 34 39 39
1.22564 0.481046 2 33 38 38
1.17114 0.455758 1.89486 34 38 37
1.2466 0.481046 2 35 39 38
-0.700502 0.27389 1.1145 37 35 33
-0.694664 0.27389 1.1145 36 35 33
-0.732739 0.29135 1.18555 35 35 32
-0.651706 0.261345 1.06345 36 36 33
-0.677152 0.27389 1.1145 37 37 34
-0.678041 0.276634 1.12567 37 37 34
-0.597109 0.245752 1 37 37 34
-0.723287 0.300317 1.22203 37 36 34
-0.695481 0.29135 1.18555 36 36 33
-0.647964 0.27389 1.1145 36 36 33
-0.683062 0.29135 1.18555 36 36 33
-0.709218 0.305282 1.24224 36 36 34
-0.681552 0.29609 1.20483 36 36 34
-0.630873 0.276634 1.12567 36 36 34
-0.734443 0.325087 1.32283 37 36 34
-0.672081 0.300317 1.22203 37 36 34
-0.689765 0.311183 1.26625 37 36 34
-0.670179 0.305282 1.24224 37 36 34
-0.724245 0.333145 1.35562 37 35 33
-0.685166 0.318289 1.29517 36 35 32
-0.596694 0.279962 1.13921 36 35 32
-0.730971 0.346428 1.40967 37 35 33
-0.705451 0.337745 1.37433 37 35 34
-0.658031 0.318289 1.29517 36 35 34
-0.754243 0.368627 1.5 36 35 34
-0.658227 0.325087 1.32283 36 36 34
-0.766946 0.382811 1.55772 37 36 34
-0.730673 0.368627 1.5 36 36 34
-0.641137 0.326972 1.3305 37 36 34
-0.664847 0.34279 1.39486 36 36 33
-0.707102 0.368627 1.5 36 35 33
-0.722029 0.380638 1.54887 36 35 33
-0.713917 0.380638 1.54887 36 35 33
-0.709833 0.382811 1.55772 36 35 33
-0.732282 0.39951 1.62567 36 35 33
-0.714627 0.394465 1.60514 36 35 33
-0.685356 0.382811 1.55772 36 34 32
-0.706737 0.39951 1.62567 35 34 31
-0.732224 0.418965 1.70483 35 33 31
-0.76162 0.441165 1.79517 35 34 32
-0.681192 0.39951 1.62567 36 35 33
-0.664183 0.394465 1.60514 38 37 34
-0.733412 0.441165 1.79517 38 37 34
-0.743721 0.453176 1.84404 37 36 33
-0.728671 0.449848 1.8305 36 35 31
-0.678976 0.424757 1.7284 36 35 31
-0.669923 0.424757 1.7284 36 35 32
-0.686399 0.441165 1.79517 37 36 34
-0.676996 0.441165 1.79517 37 36 34
-0.655959 0.433477 1.76388 37 36 34
-0.640271 0.429154 1.74629 36 35 33
-0.639072 0.434559 1.76828 36 35 34
-0.649237 0.447963 1.82283 37 36 34
-0.611408 0.428158 1.74224 37 36 34
-0.634758 0.451245 1.83618 37 36 34
-0.594537 0.429154 1.74629 36 36 34
-0.576572 0.42269 1.71999 36 36 34
-0.603044 0.449114 1.82751 36 35 34
-0.567097 0.429154 1.74629 36 35 34
-0.553943 0.426072 1.73375 36 35 35
-0.561177 0.43883 1.78567 35 36 35
-0.539657 0.429154 1.74629 35 35 35
-0.533994 0.431973 1.75776 35 36 35
-0.522868 0.430393 1.75133 36 36 35
-0.523277 0.438421 1.784 36 37 36
-0.51715 0.441165 1.79517 37 37 36
-0.474373 0.412167 1.67717 37 37 36
-0.48796 0.431973 1.75776 37 36 35
-0.460306 0.415328 1.69003 36 36 35
-0.459026 0.422294 1.71838 36 36 35
-0.461943 0.433477 1.76388 36 36 35
-0.429585 0.41134 1.6738 36 36 35
-0.441926 0.431973 1.75776 36 37 35
-0.423024 0.422294 1.71838 35 36 34
-0.41076 0.418965 1.70483 35 35 33
-0.405023 0.422294 1.71838 36 36 34
-0.408288 0.435373 1.7716 37 37 35
-0.37421 0.408315 1.66149 36 36 34
-0.372125 0.415706 1.69157 36 36 34
-0.371689 0.425348 1.7308 36 36 34
-0.36002 0.422294 1.71838 36 36 34
-0.345544 0.415706 1.69157 36 36 34
-0.344492 0.425348 1.7308 36 36 33
-0.330394 0.418965 1.70483 35 35 32
-0.318964 0.415706 1.69157 36 36 32
-0.320135 0.429154 1.74629 36 36 32
-0.301244 0.415706 1.69157 35 35 31
-0.301141 0.428158 1.74224 36 36 32
-0.290099 0.425348 1.7308 36 36 33
-0.274866 0.416014 1.69282 37 36 34
-0.271968 0.425348 1.7308 37 36 34
-0.256943 0.415706 1.69157 36 36 34
-0.244319 0.409399 1.6659 35 36 33
-0.246388 0.428158 1.74224 35 36 34
-0.235705 0.425348 1.7308 36 36 34
-0.227026 0.426072 1.73375 35 35 33
-0.204358 0.39951 1.62567 35 35 33
-0.202374 0.412833 1.67988 37 37 35
-0.191456 0.408315 1.66149 37 38 35
-0.189011 0.422294 1.71838 37 38 35
-0.18001 0.422294 1.71838 36 37 34
-0.17101 0.422294 1.71838 35 36 34
-0.160732 0.418965 1.70483 36 36 34
-0.14934 0.412167 1.67717 35 35 33
-0.139241 0.408315 1.66149 34 35 32
-0.135008 0.422294 1.71838 35 35 33
-0.123928 0.415328 1.69003 34 35 33
-0.115181 0.415706 1.69157 35 35 34
-0.105416 0.412167 1.67717 36 36 34
-0.0974612 0.415706 1.69157 36 36 35
-0.0886011 0.415706 1.69157 36 36 35
-0.0810045 0.422294 1.71838 35 36 34
-0.0714365 0.418965 1.70483 35 36 34
-0.062507 0.418965 1.70483 35 36 34
-0.0527081 0.412167 1.67717 35 36 34
-0.0450025 0.422294 1.71838 36 37 35
-0.0354404 0.415706 1.69157 37 38 35
-0.0273765 0.428158 1.74224 36 37 34
-0.0175694 0.412167 1.67717 35 36 34
-0.00886011 0.415706 1.69157 35 36 34
0 0.415706 1.69157 36 37 34
0.00899368 0.421974 1.71707 36 37 35
0.0171944 0.403372 1.64138 36 37 35
0.0259394 0.405683 1.65078 36 37 34
0.0357183 0.418965 1.70483 35 36 34
0.0436283 0.409399 1.6659 36 37 34
0.0515833 0.403372 1.64138 37 37 35
0.062507 0.418965 1.70483 36 36 33
0.0698053 0.409399 1.6659 35 35 32
0.0776454 0.404782 1.64712 36 36 33
0.0879887 0.412833 1.67988 36 37 34
0.0974612 0.415706 1.69157 36 36 33
0.106321 0.415706 1.69157 35 35 31
0.110694 0.39951 1.62567 35 36 33
0.126125 0.42269 1.71999 36 37 34
0.13177 0.412167 1.67717 34 35 31
0.142873 0.418965 1.70483 34 35 30
0.149581 0.412833 1.67988 35 36 31
0.161886 0.421974 1.71707 35 36 32
0.161783 0.39951 1.62567 36 37 33
0.171212 0.401653 1.63439 36 37 33
0.178813 0.39951 1.62567 37 38 34
0.193575 0.412833 1.67988 36 37 34
0.20069 0.409399 1.6659 36 37 34
0.210832 0.412167 1.67717 36 36 33
0.219617 0.412167 1.67717 35 36 33
0.228402 0.412167 1.67717 35 36 32
0.235593 0.409399 1.6659 35 36 32
0.253837 0.425348 1.7308 35 35 32
0.252374 0.408315 1.66149 35 36 33
0.274402 0.429154 1.74629 35 36 33
0.276817 0.418965 1.70483 35 36 33
0.283523 0.415706 1.69157 34 36 33
0.303824 0.431973 1.75776 34 36 33
0.303605 0.418965 1.70483 34 36 32
0.307464 0.412167 1.67717 35 36 33
0.318964 0.415706 1.69157 35 37 33
0.338429 0.429154 1.74629 35 37 33
0.345079 0.426072 1.73375 34 36 32
0.35416 0.426072 1.73375 34 36 31
0.36002 0.422294 1.71838 33 35 30
0.366112 0.418965 1.70483 34 36 32
0.384162 0.429154 1.74629 35 37 34
0.383971 0.418965 1.70483 34 36 33
0.396393 0.42269 1.71999 34 36 32
0.40183 0.418965 1.70483 34 36 32
0.420749 0.429154 1.74629 33 36 32
0.41288 0.412167 1.67717 32 35 31
0.435148 0.425348 1.7308 31 34 30
0.441438 0.42269 1.71999 31 35 30
0.443005 0.415706 1.69157 32 35 31
0.451454 0.415328 1.69003 33 36 32
0.472214 0.426072 1.73375 33 36 33
0.46246 0.409399 1.6659 31 35 32
0.469939 0.408315 1.66149 30 34 31
0.499457 0.426072 1.73375 29 33 30
0.512217 0.429154 1.74629 28 33 29
0.526615 0.433477 1.76388 30 34 32
0.542471 0.43883 1.78567 32 36 34
0.539657 0.429154 1.74629 33 37 35
0.557913 0.436278 1.77528 33 37 35
0.569998 0.438421 1.784 33 37 35
0.558031 0.422294 1.71838 33 37 35
0.585809 0.436278 1.77528 33 37 35
0.582427 0.426981 1.73745 32 36 34
0.585033 0.422294 1.71838 31 35 33
0.611286 0.434559 1.76828 31 34 33
0.612831 0.429154 1.74629 34 37 35
0.639385 0.441165 1.79517 35 38 36
0.648788 0.441165 1.79517 37 40 38
0.640271 0.429154 1.74629 37 40 38
0.66344 0.438421 1.784 37 40 38
0.665198 0.433477 1.76388 36 39 37
0.672096 0.431973 1.75776 34 38 36
0.699718 0.443648 1.80527 35 38 36
0.709173 0.443648 1.80527 32 36 35
0.678647 0.418965 1.70483 32 36 34
0.737053 0.449114 1.82751 33 37 35
0.733412 0.441165 1.79517 34 37 36
0.766697 0.455349 1.85288 32 36 35
0.76577 0.449114 1.82751 30 35 34
0.76162 0.441165 1.79517 32 36 35
0.765206 0.437837 1.78162 33 37 36
0.7498 0.423853 1.72472 32 36 35
0.78387 0.437837 1.78162 30 35 34
0.766672 0.423193 1.72203 33 37 36
0.830649 0.453176 1.84404 35 39 37
0.818037 0.441165 1.79517 36 40 39
0.85991 0.458478 1.86561 37 40 39
0.854989 0.450732 1.8341 36 39 39
0.832613 0.434059 1.76625 35 38 38
0.862703 0.444803 1.80997 33 37 37
0.87838 0.447963 1.82283 33 37 37
0.887927 0.447963 1.82283 33 37 37
0.865439 0.431973 1.75776 34 37 37
0.938208 0.463365 1.8855 37 41 41
0.910104 0.444803 1.80997 40 43 43
0.962716 0.465666 1.89486 37 41 41
0.929065 0.444803 1.80997 35 39 38
0.967399 0.458478 1.86561 34 38 38
0.940272 0.441165 1.79517 36 39 39
0.968366 0.449848 1.8305 35 38 38
0.977953 0.449848 1.8305 34 37 37
0.935346 0.426072 1.73375 35 38 38
0.997129 0.449848 1.8305 36 39 38
1.03697 0.463365 1.8855 37 40 40
1.04064 0.460621 1.87433 37 40 40
1.00609 0.441165 1.79517 35 39 38
1.05262 0.457292 1.86079 33 38 37
1.01144 0.435373 1.7716 33 38 37
1.0343 0.441165 1.79517 34 39 38
1.20882 0.510959 2.07917 34 39 38
1.17327 0.491503 2 33 38 38
1.13028 0.469303 1.90967 33 38 38
1.14028 0.469303 1.90967 34 39 38
1.14136 0.465666 1.89486 34 39 38
1.06799 0.431973 1.75776 34 39 38
1.16121 0.465666 1.89486 33 38 37
1.18029 0.469303 1.90967 34 37 36
1.32492 0.522386 2.12567 35 39 37
-0.664812 0.265466 1.05772 36 34 32
-0.710066 0.285919 1.13921 35 34 32
-0.657276 0.266905 1.06345 36 35 33
-0.738348 0.302389 1.20483 37 36 34
-0.692165 0.285919 1.13921 37 36 34
-0.748258 0.311777 1.24224 36 36 33
-0.707901 0.297549 1.18555 36 36 33
-0.659639 0.279717 1.1145 37 36 34
-0.706795 0.302389 1.20483 37 36 34
-0.710485 0.306707 1.22203 37 36 34
-0.673817 0.293522 1.1695 36 36 34
-0.701318 0.308304 1.2284 36 36 34
-0.694884 0.308304 1.2284 36 36 34
-0.664433 0.297549 1.18555 36 36 34
-0.632496 0.285919 1.13921 37 36 34
-0.652014 0.297549 1.18555 37 36 35
-0.689765 0.317804 1.26625 37 36 34
-0.698734 0.325062 1.29517 37 36 34
-0.753121 0.353798 1.40967 37 35 33
-0.665378 0.315674 1.25776 36 34 31
-0.730601 0.350083 1.39486 36 35 32
-0.652202 0.315674 1.25776 36 35 32
-0.68295 0.333929 1.3305 36 35 33
-0.688742 0.340233 1.35562 36 35 34
-0.681642 0.340233 1.35562 37 36 35
-0.746386 0.376471 1.5 38 37 36
-0.738529 0.376471 1.5 37 37 35
-0.706865 0.364204 1.45113 36 35 34
-0.773479 0.402858 1.60514 37 36 34
-0.714959 0.376471 1.5 36 36 34
-0.730142 0.388737 1.54887 36 36 34
-0.732085 0.394151 1.57045 37 36 34
-0.691389 0.376471 1.5 36 36 33
-0.731442 0.402858 1.60514 36 35 33
-0.649678 0.361985 1.44228 36 35 33
-0.714627 0.402858 1.60514 35 34 32
-0.750084 0.42788 1.70483 35 34 31
-0.757415 0.437268 1.74224 34 33 30
-0.720344 0.420937 1.67717 34 33 31
-0.735563 0.435137 1.73375 35 34 31
-0.772697 0.462818 1.84404 35 35 32
-0.705436 0.42788 1.70483 36 35 33
-0.760223 0.467022 1.86079 36 35 32
-0.647368 0.402858 1.60514 36 35 32
-0.690158 0.435137 1.73375 36 35 32
-0.69051 0.441164 1.75776 36 35 31
-0.668496 0.432871 1.72472 36 35 32
-0.682128 0.447749 1.784 36 35 33
-0.665198 0.4427 1.76388 37 36 34
-0.660197 0.44556 1.77528 37 36 34
-0.654707 0.448167 1.78567 37 35 34
-0.642571 0.446234 1.77797 36 35 33
-0.621977 0.438285 1.74629 36 35 33
-0.623003 0.44556 1.77528 37 36 34
-0.594033 0.431279 1.71838 36 35 34
-0.607942 0.448167 1.78567 36 35 34
-0.58539 0.438285 1.74629 36 35 34
-0.592371 0.450552 1.79517 35 34 33
-0.553633 0.42788 1.70483 36 35 34
-0.55795 0.438285 1.74629 36 36 35
-0.552408 0.441164 1.75776 35 36 35
-0.539657 0.438285 1.74629 35 35 34
-0.525804 0.434398 1.7308 35 36 35
-0.51351 0.431683 1.71999 36 37 36
-0.517376 0.4427 1.76388 37 37 36
-0.51142 0.44556 1.77528 37 38 36
-0.493923 0.438285 1.74629 37 37 36
-0.48796 0.441164 1.75776 36 36 35
-0.478754 0.441164 1.75776 36 36 34
-0.459026 0.431279 1.71838 36 35 34
-0.450025 0.431279 1.71838 36 35 34
-0.44497 0.435137 1.73375 36 36 34
-0.435148 0.434398 1.7308 35 36 34
-0.43272 0.441164 1.75776 35 36 34
-0.407194 0.424164 1.69003 36 37 35
-0.405402 0.431683 1.71999 37 37 35
-0.38715 0.421617 1.67988 36 37 35
-0.392396 0.437268 1.74224 35 35 33
-0.381403 0.435137 1.73375 35 36 33
-0.371689 0.434398 1.7308 37 37 35
-0.36002 0.431279 1.71838 36 36 34
-0.35102 0.431279 1.71838 37 37 34
-0.34234 0.431683 1.71999 36 36 33
-0.333019 0.431279 1.71838 35 35 32
-0.331445 0.441164 1.75776 36 36 33
-0.302626 0.414314 1.65078 37 36 33
-0.306017 0.431279 1.71838 36 36 32
-0.289894 0.420937 1.67717 37 37 34
-0.278482 0.417002 1.66149 37 36 33
-0.287119 0.443805 1.76828 37 36 33
-0.267887 0.42788 1.70483 37 36 34
-0.256943 0.424551 1.69157 37 37 35
-0.25225 0.431683 1.71999 36 36 34
-0.239005 0.424164 1.69003 35 36 33
-0.230363 0.424551 1.69157 35 36 34
-0.221503 0.424551 1.69157 35 36 33
-0.212449 0.424164 1.69003 35 36 33
-0.20069 0.418109 1.6659 36 37 34
-0.19645 0.42788 1.70483 37 37 35
-0.184478 0.420937 1.67717 37 38 35
-0.177041 0.424164 1.69003 36 37 34
-0.169662 0.42788 1.70483 35 36 34
-0.159482 0.424551 1.69157 35 36 34
-0.155494 0.438285 1.74629 35 35 33
-0.136969 0.410199 1.63439 35 35 33
-0.130885 0.418109 1.6659 35 36 34
-0.121836 0.417002 1.66149 35 36 34
-0.117007 0.431279 1.71838 35 35 34
-0.107155 0.42788 1.70483 35 36 34
-0.0974612 0.424551 1.69157 35 36 34
-0.090005 0.431279 1.71838 35 36 34
-0.0810045 0.431279 1.71838 35 35 34
-0.0689036 0.412708 1.64438 35 36 34
-0.0614928 0.420937 1.67717 35 35 34
-0.054003 0.431279 1.71838 35 36 34
-0.0436283 0.418109 1.6659 36 37 35
-0.0371942 0.44556 1.77528 36 37 34
-0.0267887 0.42788 1.70483 36 37 34
-0.0174513 0.418109 1.6659 35 36 34
-0.00892957 0.42788 1.70483 35 36 33
0 0.424865 1.69282 35 36 33
0.00879887 0.421617 1.67988 35 37 34
0.0175977 0.421617 1.67988 36 37 34
0.026177 0.418109 1.6659 36 37 34
0.0354404 0.424551 1.69157 35 37 34
0.0436283 0.418109 1.6659 36 37 34
0.0532 0.424865 1.69282 36 37 34
0.060918 0.417002 1.66149 36 37 35
0.0691717 0.414314 1.65078 36 36 34
0.077375 0.411955 1.64138 36 36 33
0.0886011 0.424551 1.69157 36 37 34
0.0966315 0.420937 1.67717 37 37 34
0.106321 0.424551 1.69157 36 37 34
0.114201 0.420937 1.67717 36 37 33
0.125014 0.42788 1.70483 34 35 32
0.135008 0.431279 1.71838 32 34 29
0.141762 0.424551 1.69157 33 34 30
0.150622 0.424551 1.69157 34 36 31
0.156646 0.417002 1.66149 35 36 32
0.17254 0.435137 1.73375 36 37 33
0.174051 0.417002 1.66149 37 37 34
0.184478 0.420937 1.67717 38 39 35
0.194745 0.424164 1.69003 37 38 34
0.203782 0.424551 1.69157 35 36 33
0.207515 0.414314 1.65078 34 35 32
0.219617 0.420937 1.67717 34 35 31
0.230363 0.424551 1.69157 34 35 31
0.239223 0.424551 1.69157 34 35 31
0.253837 0.434398 1.7308 34 35 32
0.258957 0.42788 1.70483 35 36 32
0.267887 0.42788 1.70483 35 36 33
0.283548 0.438285 1.74629 34 36 33
0.278482 0.417002 1.66149 34 36 33
0.301842 0.438285 1.74629 35 36 33
0.306017 0.431279 1.71838 34 36 33
0.30459 0.417002 1.66149 33 35 31
0.326361 0.434398 1.7308 34 36 32
0.319919 0.414314 1.65078 34 36 33
0.333818 0.420937 1.67717 34 36 33
0.35102 0.431279 1.71838 35 37 33
0.365869 0.438285 1.74629 34 36 33
0.366112 0.42788 1.70483 35 37 33
0.368957 0.420937 1.67717 35 37 34
0.383971 0.42788 1.70483 35 37 34
0.399565 0.435137 1.73375 34 37 34
0.405023 0.431279 1.71838 34 36 33
0.417727 0.435137 1.73375 33 36 32
0.423024 0.431279 1.71838 32 35 31
0.435148 0.434398 1.7308 32 35 31
0.437549 0.42788 1.70483 32 35 31
0.457336 0.438285 1.74629 33 36 32
0.466483 0.438285 1.74629 34 36 33
0.472214 0.435137 1.73375 33 36 33
0.480476 0.434398 1.7308 32 35 32
0.495348 0.43955 1.75133 31 35 32
0.499457 0.435137 1.73375 30 34 31
0.520719 0.44556 1.77528 29 34 31
0.500727 0.420937 1.67717 29 34 31
0.517915 0.42788 1.70483 30 35 33
0.539657 0.438285 1.74629 30 35 33
0.544862 0.435137 1.73375 31 36 34
0.556655 0.437268 1.74224 32 36 34
0.553633 0.42788 1.70483 33 37 35
0.577906 0.43955 1.75133 33 37 35
0.612616 0.458669 1.82751 32 36 34
0.585033 0.431279 1.71838 31 35 33
0.609765 0.4427 1.76388 32 35 34
0.612831 0.438285 1.74629 34 37 35
0.61751 0.435137 1.73375 35 37 36
0.644752 0.447749 1.784 37 39 37
0.64672 0.4427 1.76388 37 40 38
0.644753 0.435137 1.73375 36 40 38
0.665198 0.4427 1.76388 35 38 37
0.657653 0.431683 1.71999 32 36 35
0.688093 0.44556 1.77528 34 37 36
0.686004 0.438285 1.74629 32 36 35
0.710161 0.447749 1.784 33 36 35
0.750476 0.467022 1.86079 34 37 36
0.703534 0.432197 1.72203 34 38 37
0.734586 0.44556 1.77528 34 38 37
0.761741 0.456256 1.81789 32 36 36
0.745751 0.441164 1.75776 31 36 35
0.780784 0.456256 1.81789 32 36 35
0.760211 0.438881 1.74867 31 35 35
0.801999 0.457494 1.82283 30 35 34
0.793202 0.447153 1.78162 34 38 37
0.826169 0.460322 1.8341 37 40 39
0.811865 0.447153 1.78162 38 41 41
0.834262 0.454267 1.80997 36 40 40
0.828823 0.446234 1.77797 34 38 37
0.87474 0.465723 1.85562 33 37 37
0.889225 0.468232 1.86561 34 37 37
0.842643 0.438881 1.74867 34 37 38
0.891663 0.459419 1.8305 33 37 38
0.936859 0.477571 1.90282 33 36 37
0.907022 0.457494 1.82283 36 40 40
0.869089 0.433795 1.7284 39 42 43
0.893059 0.441164 1.75776 38 42 42
0.931366 0.455392 1.81445 36 39 39
1.00964 0.488677 1.94707 34 38 38
0.958778 0.459419 1.8305 36 39 39
0.949675 0.450552 1.79517 35 38 39
0.977953 0.459419 1.8305 35 38 38
1.01119 0.470421 1.87433 35 38 38
0.988388 0.455392 1.81445 36 39 39
1.06119 0.48428 1.92955 37 40 39
1.0074 0.455392 1.81445 36 39 39
1.03348 0.462818 1.84404 34 38 37
1.05262 0.467022 1.86079 33 38 37
1.06236 0.467022 1.86079 34 38 38
1.06246 0.462818 1.84404 34 39 38
1.08186 0.467022 1.86079 34 39 39
1.08178 0.462818 1.84404 33 39 38
1.07888 0.457494 1.82283 33 38 38
1.04957 0.441164 1.75776 34 39 38
1.15028 0.479289 1.90967 34 39 39
1.15129 0.475573 1.89486 34 39 38
1.16121 0.475573 1.89486 33 37 37
1.23612 0.501961 2 35 37 37
1.2466 0.501961 2 36 39 38
-0.672814 0.274258 1.07045 35 34 32
-0.738949 0.303748 1.18555 36 35 34
-0.732739 0.303748 1.18555 37 37 34
-0.761271 0.318273 1.24224 37 37 34
-0.671464 0.283146 1.10514 37 36 34
-0.678041 0.288406 1.12567 36 36 33
-0.729687 0.313096 1.22203 36 35 32
-0.749457 0.324425 1.26625 36 35 33
-0.620491 0.270996 1.05772 36 35 33
-0.689272 0.303748 1.18555 36 36 34
-0.694174 0.308689 1.20483 37 37 35
-0.709218 0.318273 1.24224 36 36 34
-0.716295 0.324425 1.26625 36 36 34
-0.68845 0.314727 1.2284 36 36 34
-0.649315 0.299637 1.1695 37 36 34
-0.712301 0.331834 1.29517 38 36 35
-0.66568 0.313096 1.22203 38 36 35
-0.649999 0.308689 1.20483 37 36 34
-0.706728 0.338921 1.32283 37 35 33
-0.703857 0.340886 1.3305 36 35 32
-0.696888 0.340886 1.3305 36 35 32
-0.730971 0.361169 1.40967 36 35 31
-0.715989 0.357377 1.39486 36 35 32
-0.675981 0.340886 1.3305 36 35 33
-0.665156 0.338921 1.32283 37 36 34
-0.701436 0.361169 1.40967 38 37 35
-0.686765 0.357377 1.39486 38 37 36
-0.669459 0.352117 1.37433 37 37 35
-0.647663 0.344356 1.34404 37 36 35
-0.742469 0.399101 1.55772 37 36 34
-0.707102 0.384314 1.5 36 36 34
-0.699246 0.384314 1.5 36 36 34
-0.739849 0.411251 1.60514 36 36 34
-0.683532 0.384314 1.5 36 35 33
-0.701674 0.399101 1.55772 36 35 33
-0.723767 0.41651 1.62567 35 34 32
-0.70622 0.411251 1.60514 35 34 31
-0.741154 0.436794 1.70483 35 34 31
-0.74829 0.446377 1.74224 35 34 32
-0.708305 0.427742 1.6695 35 34 32
-0.702774 0.429707 1.67717 35 35 32
-0.69399 0.429707 1.67717 36 35 33
-0.733412 0.459938 1.79517 36 35 32
-0.67642 0.429707 1.67717 36 35 32
-0.678647 0.436794 1.70483 36 35 32
-0.669717 0.436794 1.70483 36 35 32
-0.690552 0.456468 1.78162 36 35 32
-0.667711 0.447416 1.74629 36 36 33
-0.676996 0.459938 1.79517 36 36 34
-0.653683 0.450355 1.75776 37 36 34
-0.650899 0.454843 1.77528 37 36 34
-0.6416 0.454843 1.77528 36 35 33
-0.632301 0.454843 1.77528 36 35 33
-0.626648 0.457504 1.78567 36 35 33
-0.611286 0.45305 1.76828 36 35 33
-0.596253 0.448707 1.75133 37 36 34
-0.581186 0.444203 1.73375 37 36 35
-0.576244 0.447416 1.74629 36 35 34
-0.579883 0.457504 1.78567 35 34 34
-0.55795 0.447416 1.74629 36 36 35
-0.531122 0.433001 1.69003 37 37 37
-0.557883 0.462527 1.80527 37 37 36
-0.53051 0.447416 1.74629 37 37 36
-0.538972 0.462527 1.80527 36 37 35
-0.500056 0.436794 1.70483 36 36 35
-0.495028 0.440264 1.71838 36 36 35
-0.47801 0.433001 1.69003 36 36 34
-0.480476 0.443448 1.7308 36 36 34
-0.481619 0.45305 1.76828 36 36 34
-0.469547 0.450355 1.75776 36 36 34
-0.461943 0.451923 1.76388 36 36 34
-0.437549 0.436794 1.70483 36 36 34
-0.432024 0.440264 1.71838 35 36 34
-0.429896 0.447416 1.74629 36 37 35
-0.41076 0.436794 1.70483 37 38 36
-0.40183 0.436794 1.70483 36 37 34
-0.398886 0.443448 1.7308 35 36 33
-0.383971 0.436794 1.70483 35 35 33
-0.388032 0.451923 1.76388 35 36 33
-0.362933 0.433001 1.69003 36 36 34
-0.351955 0.430401 1.67988 35 36 33
-0.356722 0.447416 1.74629 35 36 33
-0.336377 0.433001 1.69003 35 35 32
-0.333331 0.440677 1.71999 36 36 33
-0.326917 0.444203 1.73375 37 36 33
-0.312535 0.436794 1.70483 36 36 32
-0.303605 0.436794 1.70483 36 35 32
-0.297017 0.440264 1.71838 37 36 33
-0.283523 0.433396 1.69157 36 36 33
-0.276817 0.436794 1.70483 36 36 33
-0.271968 0.443448 1.7308 36 36 34
-0.26335 0.444203 1.73375 36 36 34
-0.256108 0.447416 1.74629 35 36 33
-0.246962 0.447416 1.74629 36 36 34
-0.234013 0.440264 1.71838 36 36 34
-0.223239 0.436794 1.70483 36 36 34
-0.210832 0.429707 1.67717 35 36 33
-0.203782 0.433396 1.69157 36 36 34
-0.198011 0.440264 1.71838 36 37 34
-0.184478 0.429707 1.67717 37 37 35
-0.174513 0.42682 1.6659 36 37 34
-0.165788 0.42682 1.6659 37 37 35
-0.157062 0.42682 1.6659 37 37 35
-0.150622 0.433396 1.69157 36 36 34
-0.139241 0.42569 1.66149 35 36 34
-0.135008 0.440264 1.71838 36 36 34
-0.126007 0.440264 1.71838 36 36 34
-0.116084 0.436794 1.70483 35 36 34
-0.102727 0.418745 1.63439 35 36 34
-0.0990055 0.440264 1.71838 35 36 34
-0.0872567 0.42682 1.6659 35 36 34
-0.0783231 0.42569 1.66149 36 36 35
-0.0708163 0.433001 1.69003 36 37 35
-0.0620207 0.433396 1.69157 35 36 34
-0.0522154 0.42569 1.66149 35 36 33
-0.0439234 0.429707 1.67717 35 35 32
-0.0346943 0.424272 1.65596 35 36 32
-0.0255447 0.41651 1.62567 35 36 33
-0.0177202 0.433396 1.69157 35 36 34
-0.00886011 0.433396 1.69157 35 36 33
0 0.443448 1.7308 35 36 33
0.00886666 0.433717 1.69282 35 36 33
0.0177202 0.433396 1.69157 35 36 34
0.026177 0.42682 1.6659 36 37 34
0.0359747 0.43993 1.71707 35 36 34
0.0437225 0.427742 1.6695 36 37 34
0.0543936 0.443448 1.7308 36 37 35
0.0614928 0.429707 1.67717 36 37 35
0.0691717 0.422946 1.65078 36 37 34
0.0790621 0.429707 1.67717 36 37 34
0.090005 0.440264 1.71838 36 36 33
0.0974612 0.433396 1.69157 36 36 33
0.103758 0.422946 1.65078 36 36 33
0.111968 0.421306 1.64438 35 36 32
0.124041 0.433396 1.69157 34 35 31
0.13177 0.429707 1.67717 33 35 30
0.140555 0.429707 1.67717 34 35 30
0.154115 0.443448 1.7308 34 35 31
0.159337 0.433001 1.69003 34 35 31
0.165788 0.42682 1.6659 35 36 32
0.172259 0.421306 1.64438 36 37 33
0.187521 0.436794 1.70483 36 37 34
0.198197 0.440677 1.71999 36 36 33
0.200159 0.42569 1.66149 34 35 32
0.209416 0.42682 1.6659 34 35 31
0.225224 0.440677 1.71999 33 34 31
0.228402 0.429707 1.67717 34 35 31
0.239223 0.433396 1.69157 34 35 31
0.252014 0.440264 1.71838 34 35 31
0.261015 0.440264 1.71838 34 36 32
0.265561 0.433001 1.69003 35 36 33
0.274663 0.433396 1.69157 34 36 33
0.288016 0.440264 1.71838 34 36 32
0.294676 0.436794 1.70483 34 36 33
0.295887 0.42569 1.66149 34 36 33
0.30459 0.42569 1.66149 33 35 32
0.321464 0.436794 1.70483 33 35 32
0.330394 0.436794 1.70483 34 36 32
0.34234 0.440677 1.71999 33 35 32
0.355894 0.446377 1.74224 34 36 32
0.360358 0.440677 1.71999 34 36 33
0.362933 0.433001 1.69003 35 37 34
0.384162 0.447416 1.74629 35 37 34
0.390484 0.444203 1.73375 35 37 34
0.396022 0.440264 1.71838 34 36 34
0.408646 0.444203 1.73375 33 36 33
0.403284 0.428844 1.6738 32 35 31
0.41288 0.429707 1.67717 32 35 31
0.428619 0.436794 1.70483 32 35 31
0.448189 0.447416 1.74629 32 35 31
0.446478 0.436794 1.70483 33 36 32
0.463133 0.444203 1.73375 33 36 32
0.468026 0.440264 1.71838 32 35 32
0.473267 0.436794 1.70483 32 35 33
0.482197 0.436794 1.70483 33 36 34
0.486862 0.433001 1.69003 32 36 34
0.491942 0.429707 1.67717 31 35 34
0.532621 0.457077 1.784 31 35 34
0.5267 0.444203 1.73375 30 35 34
0.539657 0.447416 1.74629 31 35 34
0.554332 0.451923 1.76388 31 36 34
0.55956 0.448707 1.75133 32 36 34
0.568733 0.448707 1.75133 32 36 34
0.573326 0.445151 1.73745 32 36 35
0.576572 0.440677 1.71999 32 36 34
0.591527 0.445151 1.73745 32 36 34
0.617295 0.457504 1.78567 33 36 35
0.598281 0.436794 1.70483 33 36 35
0.621977 0.447416 1.74629 33 36 34
0.631124 0.447416 1.74629 34 37 35
0.640271 0.447416 1.74629 36 39 38
0.655959 0.451923 1.76388 36 39 38
0.676996 0.459938 1.79517 35 38 37
0.686399 0.459938 1.79517 34 37 36
0.700456 0.463015 1.80718 34 38 37
0.700817 0.457077 1.784 33 36 35
0.714607 0.459938 1.79517 33 37 36
0.719505 0.457077 1.784 34 37 36
0.715503 0.448707 1.75133 35 38 37
0.724676 0.448707 1.75133 33 37 36
0.75725 0.463015 1.80718 32 36 35
0.766716 0.463015 1.80718 31 36 35
0.782904 0.467025 1.82283 31 36 35
0.792451 0.467025 1.82283 31 35 35
0.773371 0.450355 1.75776 30 35 34
0.834477 0.480222 1.87433 35 39 38
0.795608 0.452529 1.76625 37 41 40
0.800991 0.450355 1.75776 37 41 40
0.840189 0.467025 1.82283 36 39 39
0.843742 0.463731 1.80997 33 37 37
0.879453 0.477987 1.86561 32 36 36
0.910222 0.489274 1.90967 34 37 37
0.882076 0.468991 1.8305 35 38 38
0.89826 0.47246 1.84404 33 37 37
0.893351 0.464879 1.81445 33 36 37
0.968844 0.498857 1.94707 35 40 40
0.920427 0.468991 1.8305 39 42 42
0.897372 0.452529 1.76625 38 42 42
0.912637 0.455531 1.77797 36 39 39
0.94919 0.468991 1.8305 35 39 38
0.958778 0.468991 1.8305 36 39 39
0.968366 0.468991 1.8305 35 38 38
1.03768 0.497631 1.94228 34 37 38
0.978885 0.464879 1.81445 34 37 37
0.997129 0.468991 1.8305 34 37 37
1.06504 0.496162 1.93655 36 39 38
1.11041 0.512418 2 36 39 39
1.05046 0.480222 1.87433 35 38 38
1.00216 0.4539 1.7716 33 38 37
1.09664 0.492135 1.92083 34 38 38
1.07211 0.476752 1.86079 34 39 38
1.08186 0.476752 1.86079 35 40 39
1.0531 0.459938 1.79517 35 40 39
1.18374 0.512418 2 34 39 39
1.19422 0.512418 2 34 39 38
1.14136 0.485481 1.89486 35 39 38
1.10752 0.467025 1.82283 35 39 38
1.16121 0.485481 1.89486 35 38 38
1.18029 0.489274 1.90967 35 38 37
1.2466 0.512418 2 35 38 37
-0.668417 0.278026 1.06345 35 35 33
-0.667207 0.279855 1.07045 36 35 34
-0.732739 0.309947 1.18555 37 37 35
-0.682989 0.291372 1.1145 38 38 35
-0.72032 0.309947 1.18555 38 37 35
-0.762721 0.331046 1.26625 37 37 34
-0.729687 0.319486 1.22203 36 35 33
-0.684178 0.302211 1.15596 35 34 32
-0.716886 0.319486 1.22203 35 34 32
-0.689272 0.309947 1.18555 35 35 33
-0.656364 0.297832 1.13921 36 36 34
-0.642665 0.294292 1.12567 37 37 35
-0.670643 0.309947 1.18555 37 37 35
-0.741372 0.345838 1.32283 36 36 34
-0.70303 0.331046 1.26625 37 36 35
-0.712301 0.338606 1.29517 38 36 35
-0.645804 0.309947 1.18555 37 36 34
-0.649999 0.314989 1.20483 37 35 34
-0.724245 0.354409 1.35562 37 36 34
-0.649845 0.32115 1.2284 37 36 33
-0.696888 0.347843 1.3305 37 35 33
-0.803156 0.404935 1.54887 36 34 31
-0.695843 0.354409 1.35562 36 35 32
-0.708683 0.36467 1.39486 36 35 33
-0.754243 0.392157 1.5 36 35 33
-0.701436 0.36854 1.40967 36 36 34
-0.667441 0.354409 1.35562 38 37 35
-0.706865 0.379379 1.45113 38 37 36
-0.722816 0.392157 1.5 37 37 35
-0.714959 0.392157 1.5 37 37 35
-0.707102 0.392157 1.5 37 37 35
-0.722029 0.404935 1.54887 36 35 33
-0.710922 0.403236 1.54238 35 35 33
-0.709833 0.407246 1.55772 36 35 33
-0.694765 0.403236 1.54238 36 35 33
-0.811546 0.476557 1.82283 36 35 33
-0.734539 0.436471 1.6695 36 35 33
-0.725794 0.436471 1.6695 36 35 32
-0.782904 0.476557 1.82283 36 35 33
-0.674718 0.415774 1.59033 36 35 33
-0.726482 0.453268 1.73375 36 35 33
-0.680423 0.429904 1.64438 36 35 33
-0.71813 0.459546 1.75776 36 35 33
-0.724009 0.469325 1.79517 37 36 34
-0.705225 0.463163 1.7716 36 36 33
-0.69051 0.459546 1.75776 36 36 34
-0.681303 0.459546 1.75776 36 36 34
-0.690262 0.471966 1.80527 37 36 34
-0.658564 0.456547 1.74629 36 36 33
-0.674765 0.474367 1.81445 35 35 33
-0.640271 0.456547 1.74629 36 36 34
-0.626591 0.453268 1.73375 36 36 34
-0.621977 0.456547 1.74629 36 35 33
-0.616856 0.459546 1.75776 36 35 34
