ply
format ascii 1.0
element vertex 1330
property float x
property float y
property float z
property uchar red
property uchar green
property uchar blue
end_header
-0.0527081 0.017539 1.67717 37 37 33
-0.0428029 0.0170916 1.63439 37 36 32
-0.0335597 0.0167509 1.6018 37 36 33
-0.0261077 0.0173751 1.66149 37 36 33
-0.0172929 0.0172631 1.65078 38 37 34
-0.00874451 0.0174588 1.6695 38 38 35
0 0.0170004 1.62567 38 37 34
0.00861295 0.0171962 1.64438 37 36 33
0.0181621 0.0181307 1.73375 36 36 31
0.0263011 0.0175038 1.6738 36 35 30
0.0338691 0.0169053 1.61657 37 35 31
0.0432323 0.0172631 1.65078 37 36 32
0.0496281 0.0165142 1.57917 38 36 33
0.0599241 0.0170916 1.63439 38 37 33
0.0684846 0.0170916 1.63439 37 36 32
0.078531 0.0174212 1.6659 37 36 33
0.0870257 0.0173751 1.66149 37 37 34
0.0974612 0.0176896 1.69157 37 36 34
0.0999582 0.0166309 1.59033 37 36 34
0.113971 0.0175038 1.6738 37 36 34
0.12105 0.0172631 1.65078 37 36 34
0.127121 0.0169202 1.618 37 37 34
0.141762 0.0176896 1.69157 38 37 34
0.14642 0.0171962 1.64438 38 37 35
0.15409 0.0170916 1.63439 37 37 34
0.161783 0.0170004 1.62567 36 35 32
0.175694 0.017539 1.67717 36 35 32
0.181576 0.0172631 1.65078 37 36 34
0.191456 0.0173751 1.66149 38 36 33
0.20538 0.0178283 1.70483 38 37 34
0.207515 0.0172631 1.65078 38 37 34
0.217564 0.0173751 1.66149 38 37 34
0.228771 0.0175674 1.67988 37 36 34
0.226528 0.0167509 1.6018 37 36 34
0.235928 0.0168229 1.60869 37 36 34
0.256943 0.0176896 1.69157 37 36 34
0.259394 0.0172631 1.65078 37 36 34
0.266514 0.0171648 1.64138 37 36 34
0.278482 0.0173751 1.66149 37 36 34
0.289894 0.017539 1.67717 37 36 34
0.303605 0.0178283 1.70483 37 36 34
0.307464 0.017539 1.67717 36 35 32
0.316248 0.017539 1.67717 36 35 32
0.327525 0.0176735 1.69003 37 36 33
0.345079 0.0181307 1.73375 36 36 33
0.338269 0.0173172 1.65596 36 36 33
0.344518 0.0171962 1.64438 36 36 33
0.359448 0.0175038 1.6738 37 36 33
0.365508 0.0173751 1.66149 37 36 33
0.380637 0.0176735 1.69003 37 36 34
0.376666 0.0170916 1.63439 37 36 34
0.398342 0.0176735 1.69003 37 37 35
0.41076 0.0178283 1.70483 36 36 33
0.395147 0.0167857 1.60514 35 35 32
0.413422 0.0171962 1.64438 35 35 32
0.441438 0.0179868 1.71999 36 36 33
0.442602 0.0176735 1.69003 36 36 34
0.450934 0.0176532 1.68808 37 37 34
0.472214 0.0181307 1.73375 37 37 34
0.482322 0.0181694 1.73745 36 36 34
0.486483 0.0179868 1.71999 37 37 35
0.495492 0.0179868 1.71999 37 37 35
0.500056 0.0178283 1.70483 37 37 35
0.504566 0.0176735 1.69003 37 37 35
0.508488 0.0175038 1.6738 35 36 33
0.531528 0.0179868 1.71999 34 34 31
0.540537 0.0179868 1.71999 34 34 31
0.539974 0.0176735 1.69003 35 35 33
0.54465 0.017539 1.67717 35 35 33
0.567563 0.0179868 1.71999 36 36 33
0.56653 0.0176735 1.69003 36 36 34
0.590267 0.0181307 1.73375 36 36 34
0.599348 0.0181307 1.73375 36 36 34
0.598281 0.0178283 1.70483 36 36 34
0.61751 0.0181307 1.73375 36 37 34
0.631124 0.0182619 1.74629 36 36 35
0.64672 0.0184458 1.76388 35 36 34
0.66344 0.0186562 1.784 35 36 34
0.648644 0.0179868 1.71999 36 36 34
0.674437 0.0184458 1.76388 36 37 35
0.666037 0.0179699 1.71838 36 37 34
0.681077 0.0181307 1.73375 36 36 34
0.691632 0.0181694 1.73745 36 36 34
0.70633 0.0183146 1.75133 36 36 33
0.72885 0.0186562 1.784 35 36 33
0.705436 0.0178283 1.70483 35 36 33
0.708163 0.0176735 1.69003 35 36 34
0.751621 0.0185265 1.7716 36 36 34
0.766226 0.0186562 1.784 35 35 33
0.77018 0.0185265 1.7716 35 36 34
0.757652 0.0180082 1.72203 35 36 34
0.793202 0.0186314 1.78162 36 37 35
0.791785 0.0183818 1.75776 35 37 35
0.800991 0.0183818 1.75776 34 36 34
0.821197 0.0186314 1.78162 34 35 34
0.812168 0.0182195 1.74224 33 35 34
0.821294 0.0182195 1.74224 34 36 34
0.830419 0.0182195 1.74224 34 36 34
0.87838 0.0190623 1.82283 34 36 34
0.862973 0.0185265 1.7716 34 36 34
0.849171 0.0180363 1.72472 33 36 34
0.907022 0.0190623 1.82283 33 36 34
0.910104 0.0189278 1.80997 33 36 34
0.876272 0.0180363 1.72472 34 36 35
0.897598 0.0182867 1.74867 34 36 35
0.938545 0.0189278 1.80997 34 36 35
0.971933 0.0194051 1.85562 33 35 34
0.949675 0.018773 1.79517 28 32 29
1.01234 0.0198156 1.89486 27 31 30
0.978885 0.0189747 1.81445 25 29 29
1.00451 0.0192841 1.84404 24 28 29
1.02338 0.0194593 1.86079 24 27 28
1.0074 0.0189747 1.81445 25 28 29
1.03348 0.0192841 1.84404 27 31 32
1.01549 0.018773 1.79517 31 35 35
1.10561 0.0202515 1.93655 34 38 38
1.07211 0.0194593 1.86079 35 39 39
1.03 0.0185265 1.7716 36 39 39
1.03928 0.0185265 1.7716 36 39 39
1.10936 0.0196009 1.87433 37 40 39
1.07191 0.018773 1.79517 37 40 40
1.15701 0.0200871 1.92083 37 41 40
1.12041 0.0192841 1.84404 37 40 40
1.22564 0.020915 2 35 39 38
1.13973 0.0192841 1.84404 35 38 38
0.991252 0.0166309 1.59033 34 37 37
-0.581676 0.0145168 0.925446 37 37 35
-0.599983 0.0150995 0.962595 37 37 35
-0.576794 0.014639 0.933233 37 37 35
-0.589899 0.0150995 0.962595 37 37 34
-0.586118 0.0151321 0.964669 36 36 34
-0.642563 0.0167336 1.06677 36 36 34
-0.597109 0.0156863 1 37 36 34
-0.572058 0.0151612 0.966525 37 37 34
-0.586633 0.0156863 1 37 37 34
-0.581395 0.0156863 1 37 36 34
-0.595445 0.0162114 1.03348 37 36 33
-0.550748 0.0151321 0.964669 37 36 33
-0.565682 0.0156863 1 37 36 34
-0.560444 0.0156863 1 36 36 33
-0.607832 0.0171731 1.09479 35 35 31
-0.584865 0.0166816 1.06345 35 34 30
-0.563977 0.0162405 1.03533 35 35 31
-0.610758 0.0177584 1.1321 37 36 32
-0.571892 0.0167913 1.07045 36 36 32
-0.548805 0.016273 1.03741 36 36 32
-0.558751 0.0167336 1.06677 36 36 32
-0.555071 0.0167913 1.07045 37 36 32
-0.564478 0.0172501 1.0997 37 36 32
-0.548288 0.0169281 1.07917 36 35 30
-0.555694 0.0173355 1.10514 35 34 29
-0.575194 0.0181327 1.15596 36 35 31
-0.564786 0.017994 1.14712 37 37 34
-0.544593 0.0175372 1.118 37 37 34
-0.567252 0.0184654 1.17717 36 36 33
-0.540693 0.0177943 1.13439 37 37 34
-0.560982 0.0186671 1.19003 37 37 34
-0.561649 0.0188993 1.20483 37 36 33
-0.555339 0.0188993 1.20483 36 35 32
-0.579453 0.0199467 1.2716 37 36 33
-0.583409 0.0203163 1.29517 38 37 34
-0.536407 0.0188993 1.20483 38 37 34
-0.57984 0.0206728 1.31789 38 37 34
-0.563057 0.0203163 1.29517 37 36 34
-0.577265 0.021083 1.34404 37 37 34
-0.570225 0.021083 1.34404 37 37 34
-0.542706 0.0203163 1.29517 37 37 34
-0.547368 0.0207503 1.32283 37 36 34
-0.569869 0.0218802 1.39486 37 36 33
-0.546734 0.0212646 1.35562 37 36 33
-0.547085 0.0215582 1.37433 37 37 33
-0.519653 0.0207503 1.32283 37 36 33
-0.532688 0.0215582 1.37433 37 37 34
-0.554851 0.0227628 1.45113 37 37 34
-0.526033 0.0218802 1.39486 37 37 34
-0.576001 0.0242961 1.54887 36 36 33
-0.565507 0.0241942 1.54238 36 36 32
-0.574759 0.0249464 1.59033 37 37 34
-0.534255 0.0235294 1.5 38 38 35
-0.577068 0.0257943 1.64438 38 37 34
-0.579789 0.0263086 1.67717 37 37 34
-0.580422 0.0267425 1.70483 37 37 34
-0.53311 0.0249464 1.59033 38 37 34
-0.542616 0.0257943 1.64438 38 37 34
-0.51645 0.0249464 1.59033 38 37 34
-0.544704 0.0267425 1.70483 38 37 34
-0.552408 0.0275727 1.75776 37 36 34
-0.502379 0.0255006 1.62567 37 36 33
-0.509511 0.0263086 1.67717 36 36 33
-0.5022 0.026386 1.68211 37 37 34
-0.489692 0.0261883 1.6695 38 37 35
-0.482187 0.0262557 1.6738 38 37 34
-0.469939 0.0260627 1.66149 37 37 34
-0.469158 0.0265103 1.69003 37 36 33
-0.449616 0.0258946 1.65078 37 36 33
-0.451865 0.0265345 1.69157 37 36 33
-0.436283 0.0261318 1.6659 37 36 33
-0.430449 0.0263086 1.67717 37 36 33
-0.416331 0.0259758 1.65596 37 36 33
-0.409021 0.0260627 1.66149 37 36 32
-0.407565 0.0265345 1.69157 36 36 32
-0.398705 0.0265345 1.69157 36 36 31
-0.392901 0.0267425 1.70483 36 36 32
-0.368105 0.0256374 1.63439 37 36 32
-0.368957 0.0263086 1.67717 37 36 32
-0.360172 0.0263086 1.67717 37 37 33
-0.354081 0.0265103 1.69003 37 37 33
-0.335905 0.0257943 1.64438 38 37 33
-0.323566 0.0255006 1.62567 38 37 33
-0.333331 0.0269802 1.71999 37 36 33
-0.314124 0.0261318 1.6659 37 36 33
-0.300903 0.0257472 1.64138 37 36 33
-0.289507 0.0255006 1.62567 37 36 33
-0.292384 0.0265345 1.69157 37 36 34
-0.273939 0.0256374 1.63439 38 37 34
-0.26804 0.0258946 1.65078 37 36 33
-0.261077 0.0260627 1.66149 37 36 32
-0.237812 0.0245588 1.56562 37 36 32
-0.247857 0.0265103 1.69003 38 36 33
-0.239005 0.0265103 1.69003 38 36 33
-0.232169 0.0267425 1.70483 38 36 34
-0.219617 0.0263086 1.67717 37 36 34
-0.212449 0.0265103 1.69003 37 36 33
-0.196893 0.0256374 1.63439 38 37 34
-0.189485 0.0257943 1.64438 39 38 35
-0.184108 0.0262557 1.6738 38 38 36
-0.18001 0.0269549 1.71838 37 38 35
-0.173788 0.0273928 1.74629 37 37 35
-0.160732 0.0267425 1.70483 37 37 34
-0.14642 0.0257943 1.64438 37 36 34
-0.140273 0.0262557 1.6738 37 37 34
-0.129194 0.0257943 1.64438 37 36 34
-0.123928 0.0265103 1.69003 37 36 33
-0.111288 0.0256374 1.63439 37 36 33
-0.102727 0.0256374 1.63439 37 37 33
-0.0959824 0.0261318 1.6659 37 36 33
-0.0851491 0.0255006 1.62567 36 35 32
-0.079741 0.0265345 1.69157 37 36 33
-0.0666388 0.0249464 1.59033 37 37 33
-0.0599241 0.0256374 1.63439 38 37 33
-0.0518788 0.0258946 1.65078 38 37 34
-0.0439234 0.0263086 1.67717 38 37 33
-0.0343889 0.0257472 1.64138 37 36 33
-0.0261077 0.0260627 1.66149 37 37 34
-0.0174513 0.0261318 1.6659 37 37 34
-0.00851491 0.0255006 1.62567 38 37 34
0 0.0255006 1.62567 38 37 34
0.00846727 0.025358 1.61657 38 37 33
0.0164514 0.0246345 1.57045 37 36 33
0.0254018 0.025358 1.61657 37 36 32
0.0345858 0.0258946 1.65078 37 36 32
0.0423737 0.0253803 1.618 37 36 32
0.0516777 0.0257943 1.64438 37 36 32
0.058982 0.0252344 1.60869 38 36 32
0.0674081 0.0252344 1.60869 37 36 32
0.0778182 0.0258946 1.65078 37 36 32
0.0851491 0.0255006 1.62567 37 36 33
0.0974612 0.0265345 1.69157 37 36 34
0.101607 0.025358 1.61657 37 36 34
0.114201 0.0263086 1.67717 37 36 34
0.122986 0.0263086 1.67717 37 36 34
0.129194 0.0257943 1.64438 37 36 34
0.137556 0.0257472 1.64138 36 36 33
0.150485 0.0265103 1.69003 37 36 34
0.150583 0.0250538 1.59718 37 37 34
0.164283 0.0258946 1.65078 37 36 34
0.169495 0.0253803 1.618 37 36 33
0.180872 0.0257943 1.64438 37 36 33
0.191456 0.0260627 1.66149 37 36 33
0.194747 0.025358 1.61657 37 36 33
0.206711 0.0257943 1.64438 37 36 33
0.206373 0.0247221 1.57603 37 36 33
0.226267 0.0260627 1.66149 37 36 33
0.23255 0.0257943 1.64438 36 35 33
0.250028 0.0267425 1.70483 36 35 34
0.245551 0.025358 1.61657 37 36 34
0.250971 0.0250538 1.59718 37 36 34
0.26804 0.0258946 1.65078 37 36 34
0.283265 0.0265103 1.69003 37 36 34
0.282499 0.0256374 1.63439 37 36 34
0.29106 0.0256374 1.63439 37 36 34
0.302626 0.0258946 1.65078 36 35 32
0.318673 0.0265103 1.69003 36 35 31
0.327525 0.0265103 1.69003 36 35 32
0.336377 0.0265103 1.69003 36 35 32
0.327888 0.0251786 1.60514 36 35 32
0.336295 0.0251786 1.60514 36 35 33
0.359448 0.0262557 1.6738 36 36 33
0.368216 0.0262557 1.6738 36 35 33
0.387385 0.0269802 1.71999 37 36 34
0.386526 0.0263086 1.67717 37 36 34
0.390311 0.0259758 1.65596 37 36 34
0.393787 0.0256374 1.63439 36 36 33
0.402812 0.0256671 1.63628 36 36 33
0.417723 0.0260627 1.66149 36 36 33
0.425005 0.0259758 1.65596 36 36 33
0.446478 0.0267425 1.70483 36 36 33
0.459456 0.0269802 1.71999 37 37 34
0.473222 0.0272541 1.73745 36 36 34
0.477474 0.0269802 1.71999 37 36 34
0.474373 0.0263086 1.67717 37 36 34
0.491126 0.0267425 1.70483 37 36 34
0.515581 0.0275727 1.75776 36 36 34
0.492848 0.0258946 1.65078 36 36 34
0.517915 0.0267425 1.70483 36 36 34
0.517255 0.0262557 1.6738 34 35 32
0.516777 0.0257943 1.64438 34 34 31
0.553943 0.0271961 1.73375 35 35 33
0.572809 0.0276688 1.76388 36 36 34
0.562563 0.0267425 1.70483 36 36 34
0.581186 0.0271961 1.73375 36 36 34
0.604406 0.0278475 1.77528 36 36 33
0.63176 0.0286668 1.82751 35 35 33
0.588574 0.0263086 1.67717 36 36 34
0.601938 0.0265103 1.69003 36 37 34
0.626591 0.0271961 1.73375 36 36 34
0.640271 0.0273928 1.74629 35 36 34
0.639036 0.0269549 1.71838 36 36 34
0.660465 0.0274719 1.75133 37 37 35
0.678794 0.0278475 1.77528 36 37 34
0.683676 0.0276688 1.76388 36 37 34
0.692915 0.0276688 1.76388 35 35 32
0.723654 0.028516 1.81789 34 34 31
0.711392 0.0276688 1.76388 35 36 33
0.733412 0.0281595 1.79517 35 36 34
0.724676 0.0274719 1.75133 36 36 34
0.736544 0.0275727 1.75776 35 36 34
0.753183 0.0278475 1.77528 35 36 33
0.746234 0.0272541 1.73745 35 35 33
0.733872 0.0264797 1.68808 35 36 34
0.764435 0.0272541 1.73745 35 36 35
0.766672 0.0270123 1.72203 35 36 35
0.830649 0.0289261 1.84404 34 36 35
0.800991 0.0275727 1.75776 34 36 34
0.794969 0.0270544 1.72472 34 36 35
0.849737 0.0285934 1.82283 34 36 35
0.83986 0.027947 1.78162 35 37 35
0.837819 0.0275727 1.75776 34 36 34
0.858524 0.027947 1.78162 33 36 34
0.874453 0.0281595 1.79517 34 36 34
0.869618 0.0277059 1.76625 33 36 34
0.907022 0.0285934 1.82283 33 36 35
0.910104 0.0283917 1.80997 34 36 35
0.926118 0.0285934 1.82283 34 36 35
0.921467 0.0281595 1.79517 34 36 35
0.962214 0.0291077 1.85562 34 36 35
0.92068 0.0275727 1.75776 34 36 35
0.940575 0.0278897 1.77797 31 34 33
1.00734 0.0295765 1.8855 30 34 34
1.01721 0.0295765 1.8855 29 32 33
0.965045 0.0277898 1.7716 29 33 34
1.03082 0.0294013 1.87433 29 33 34
0.996688 0.0281595 1.79517 31 34 35
1.04287 0.0291889 1.86079 32 35 36
1.09151 0.0302675 1.92955 34 37 37
1.10889 0.0304672 1.94228 35 38 38
1.11173 0.0302675 1.92955 35 39 39
1.03 0.0277898 1.7716 35 38 38
1.08178 0.0289261 1.84404 34 37 37
1.09143 0.0289261 1.84404 35 38 38
1.04031 0.0273292 1.74224 36 39 39
1.20469 0.0313726 2 37 40 40
1.16028 0.0299555 1.90967 37 40 40
1.06768 0.0273292 1.74224 35 39 39
1.23612 0.0313726 2 34 37 38
1.13617 0.0285934 1.82283 33 37 37
-0.606328 0.0201761 0.964669 36 36 33
-0.601276 0.0201761 0.964669 36 36 34
-0.5935 0.0200839 0.960263 37 37 34
-0.612822 0.020915 1 37 36 34
-0.607584 0.020915 1 36 36 33
-0.602347 0.020915 1 37 36 34
-0.597109 0.020915 1 37 36 34
-0.611684 0.0216152 1.03348 37 37 34
-0.606271 0.0216152 1.03348 38 37 34
-0.581395 0.020915 1 38 37 34
-0.636733 0.023114 1.10514 37 36 34
-0.588214 0.0215486 1.03029 37 36 34
-0.565682 0.020915 1 37 36 34
-0.580245 0.021654 1.03533 36 35 32
-0.592276 0.0223115 1.06677 35 34 30
-0.568379 0.0216152 1.03348 34 33 28
-0.596364 0.0228975 1.09479 35 35 31
-0.577498 0.0223884 1.07045 37 36 33
-0.587518 0.0230002 1.0997 37 36 32
-0.584637 0.023114 1.10514 36 36 31
-0.557014 0.0222421 1.06345 36 36 31
-0.553163 0.0223115 1.06677 36 36 31
-0.570383 0.0232408 1.1112 36 36 32
-0.543858 0.0223884 1.07045 36 35 30
-0.558743 0.0232408 1.1112 35 34 29
-0.575194 0.0241769 1.15596 35 35 30
-0.569139 0.0241769 1.15596 36 36 32
-0.563085 0.0241769 1.15596 36 36 33
-0.567252 0.0246206 1.17717 37 36 33
-0.516861 0.0226799 1.08438 37 37 34
-0.56796 0.0251991 1.20483 37 37 34
-0.52881 0.0237257 1.13439 37 37 34
-0.527477 0.0239348 1.14438 38 37 34
-0.549028 0.0251991 1.20483 38 38 35
-0.572793 0.0265955 1.2716 38 38 35
-0.576625 0.0270885 1.29517 38 37 34
-0.559472 0.0265955 1.2716 38 37 34
-0.552811 0.0265955 1.2716 37 36 33
-0.577265 0.0281107 1.34404 36 36 33
-0.602805 0.0297168 1.42083 36 35 32
-0.563185 0.0281107 1.34404 37 36 34
-0.56868 0.0287442 1.37433 38 37 34
-0.549106 0.0281107 1.34404 37 37 34
-0.604965 0.0313726 1.5 37 37 33
-0.569066 0.0298992 1.42955 37 36 33
-0.532533 0.0283527 1.35562 36 35 31
-0.559025 0.0301654 1.44228 36 36 32
-0.525489 0.0287442 1.37433 36 36 33
-0.54725 0.0303503 1.45113 37 36 33
-0.557825 0.0313726 1.5 36 36 33
-0.549969 0.0313726 1.5 37 36 33
-0.542112 0.0313726 1.5 37 37 34
-0.579014 0.0340009 1.62567 38 37 34
-0.563294 0.0335715 1.60514 38 37 34
-0.518542 0.0313726 1.5 38 37 34
-0.553469 0.0340009 1.62567 38 37 34
-0.551229 0.0343924 1.64438 38 37 34
-0.529665 0.0335715 1.60514 38 37 34
-0.542159 0.0349177 1.6695 38 37 34
-0.544704 0.0356566 1.70483 37 36 33
-0.535774 0.0356566 1.70483 37 36 34
-0.526844 0.0356566 1.70483 37 36 34
-0.540132 0.0371862 1.77797 37 36 33
-0.508985 0.0356566 1.70483 37 36 33
-0.523277 0.0373124 1.784 38 37 34
-0.473712 0.0343924 1.64438 39 38 35
-0.474373 0.0350781 1.67717 38 37 34
-0.469158 0.035347 1.69003 37 36 33
-0.447873 0.0343924 1.64438 37 36 33
-0.448742 0.0351347 1.67988 37 36 33
-0.446478 0.0356566 1.70483 36 36 33
-0.441025 0.0359399 1.71838 37 36 33
-0.432429 0.0359736 1.71999 37 36 33
-0.416046 0.035347 1.69003 37 36 33
-0.397737 0.0345262 1.65078 37 37 33
-0.398705 0.0353793 1.69157 37 36 32
-0.396022 0.0359399 1.71838 37 36 32
-0.394444 0.0366292 1.75133 38 37 34
-0.375042 0.0356566 1.70483 37 37 34
-0.369367 0.0359736 1.71999 37 37 33
-0.348103 0.0347502 1.66149 37 37 33
-0.340301 0.0348425 1.6659 37 37 33
-0.336377 0.035347 1.69003 38 37 33
-0.325033 0.0350781 1.67717 38 37 34
-0.313292 0.0347502 1.66149 38 37 34
-0.30459 0.0347502 1.66149 38 37 34
-0.296673 0.0348425 1.6659 37 36 34
-0.285333 0.0345262 1.65078 37 36 33
-0.273939 0.0341832 1.63439 37 36 34
-0.272325 0.0350781 1.67717 37 36 33
-0.266 0.0354054 1.69282 37 36 33
-0.256943 0.0353793 1.69157 37 36 32
-0.245477 0.0350076 1.6738 38 36 33
-0.239223 0.0353793 1.69157 38 36 33
-0.222575 0.0341832 1.63439 37 36 33
-0.215324 0.0343924 1.64438 37 36 33
-0.205454 0.0341832 1.63439 38 36 33
-0.198098 0.0343924 1.64438 37 36 34
-0.191456 0.0347502 1.66149 38 37 35
-0.186062 0.0353793 1.69157 37 37 35
-0.174051 0.0347502 1.66149 37 37 35
-0.165349 0.0347502 1.66149 37 37 35
-0.160732 0.0356566 1.70483 37 37 34
-0.14642 0.0343924 1.64438 36 36 33
-0.136239 0.0340009 1.62567 37 36 33
-0.126111 0.0335715 1.60514 37 36 33
-0.123928 0.035347 1.69003 37 36 33
-0.114201 0.0350781 1.67717 37 36 33
-0.101112 0.0336459 1.60869 37 35 32
-0.0966315 0.0350781 1.67717 37 36 32
-0.0847473 0.0338404 1.618 37 36 32
-0.0770452 0.0341832 1.63439 38 36 33
-0.0696205 0.0347502 1.66149 38 36 33
-0.0599241 0.0341832 1.63439 37 37 33
-0.0513635 0.0341832 1.63439 38 37 34
-0.0428029 0.0341832 1.63439 39 38 34
-0.0348103 0.0347502 1.66149 38 37 34
-0.026177 0.0348425 1.6659 38 37 34
-0.0170298 0.0340009 1.62567 37 37 34
-0.00859722 0.0343295 1.64138 37 36 34
0 0.0343295 1.64138 37 36 33
0.00832985 0.0332619 1.59033 38 37 33
0.0171212 0.0341832 1.63439 38 37 34
0.026354 0.0350781 1.67717 39 38 34
0.0345858 0.0345262 1.65078 38 37 34
0.04213 0.0336459 1.60869 37 36 32
0.0508036 0.0338107 1.61657 38 36 33
0.0596043 0.0340009 1.62567 38 37 34
0.0691717 0.0345262 1.65078 38 37 33
0.0796683 0.035347 1.69003 38 37 34
0.0851491 0.0340009 1.62567 37 36 33
0.0957282 0.0347502 1.66149 37 36 34
0.101607 0.0338107 1.61657 37 36 34
0.113133 0.0347502 1.66149 37 37 34
0.124041 0.0353793 1.69157 37 36 34
0.127724 0.0340009 1.62567 37 36 34
0.144143 0.0359736 1.71999 37 36 33
0.143242 0.0336459 1.60869 37 36 33
0.157807 0.0350076 1.6738 37 36 33
0.160878 0.0338107 1.61657 37 37 34
0.172259 0.0343924 1.64438 37 36 34
0.184478 0.0350781 1.67717 36 36 33
0.187328 0.0340009 1.62567 36 35 32
0.202048 0.0350781 1.67717 36 35 32
0.212449 0.035347 1.69003 36 36 33
0.217564 0.0347502 1.66149 36 35 32
0.224808 0.0345262 1.65078 36 35 33
0.234969 0.0347502 1.66149 35 35 33
0.239696 0.0341832 1.63439 35 35 33
0.254244 0.0350076 1.6738 36 36 34
0.256817 0.0341832 1.63439 36 36 34
0.26978 0.0347502 1.66149 37 36 34
0.28111 0.0350781 1.67717 37 36 34
0.282499 0.0341832 1.63439 37 36 34
0.283215 0.0332619 1.59033 37 36 33
0.307464 0.0350781 1.67717 37 36 33
0.316248 0.0350781 1.67717 37 36 33
0.320922 0.0346344 1.65596 37 36 33
0.331575 0.0348425 1.6659 36 35 32
0.337212 0.0345262 1.65078 36 35 33
0.349027 0.0348425 1.6659 37 36 34
0.362933 0.035347 1.69003 36 36 34
0.365508 0.0347502 1.66149 36 35 33
0.370357 0.0343924 1.64438 36 35 33
0.37256 0.0338107 1.61657 36 36 33
0.398342 0.035347 1.69003 36 36 33
0.41076 0.0356566 1.70483 36 36 33
0.416046 0.035347 1.69003 36 36 34
0.402716 0.0335018 1.6018 37 37 34
0.437549 0.0356566 1.70483 37 37 34
0.442602 0.035347 1.69003 37 37 34
0.448019 0.0350781 1.67717 37 37 34
0.472214 0.0362614 1.73375 37 36 34
0.486175 0.0366292 1.75133 37 36 34
0.486483 0.0359736 1.71999 36 35 34
0.486862 0.035347 1.69003 35 35 33
0.504501 0.0359736 1.71999 35 35 33
0.522868 0.0366292 1.75133 35 35 33
0.517915 0.0356566 1.70483 35 35 33
0.517255 0.0350076 1.6738 36 36 34
0.540537 0.0359736 1.71999 35 36 34
0.56357 0.0368917 1.76388 35 35 33
0.568733 0.0366292 1.75133 35 36 33
0.572105 0.0362614 1.73375 36 36 34
0.580198 0.0361998 1.7308 36 36 34
0.571004 0.0350781 1.67717 35 35 32
0.598329 0.0361998 1.7308 35 35 32
0.611408 0.036439 1.74224 35 35 32
0.591774 0.0347502 1.66149 35 35 33
0.606143 0.0350781 1.67717 35 36 34
0.62507 0.0356566 1.70483 35 36 34
0.644753 0.0362614 1.73375 36 36 34
0.669496 0.03713 1.77528 36 37 34
0.678794 0.03713 1.77528 36 36 34
0.671996 0.0362614 1.73375 35 36 33
0.687984 0.0366292 1.75133 34 35 32
0.697157 0.0366292 1.75133 35 35 32
0.70633 0.0366292 1.75133 36 36 34
0.709832 0.0363389 1.73745 36 36 34
0.711706 0.0359736 1.71999 36 36 34
0.747538 0.0373124 1.784 35 36 34
0.737134 0.0363389 1.73745 35 35 33
0.732224 0.0356566 1.70483 34 35 33
0.741154 0.0356566 1.70483 34 35 33
0.784915 0.0373124 1.784 34 36 34
0.788738 0.0370531 1.7716 35 36 35
0.784792 0.036439 1.74224 34 36 35
0.784711 0.0360164 1.72203 34 36 35
0.816576 0.0370531 1.7716 34 36 35
0.842441 0.0377972 1.80718 34 36 34
0.828612 0.0367636 1.75776 34 36 35
0.855647 0.037546 1.79517 34 36 34
0.839545 0.036439 1.74224 33 35 33
0.860367 0.0369412 1.76625 31 35 32
0.857796 0.036439 1.74224 31 34 32
0.910839 0.0382849 1.8305 32 35 34
0.91657 0.0381245 1.82283 33 36 35
0.952286 0.0392018 1.87433 34 36 35
0.912637 0.0371862 1.77797 34 36 35
0.956213 0.0385682 1.84404 34 37 36
0.992491 0.0396311 1.89486 35 37 36
0.97553 0.0385682 1.84404 32 35 34
0.959077 0.037546 1.79517 30 34 34
0.96848 0.037546 1.79517 28 32 33
0.957507 0.0367636 1.75776 30 34 34
1.00672 0.0382849 1.8305 33 36 36
1.04684 0.0394353 1.8855 34 37 38
1.0169 0.0379493 1.81445 36 38 39
1.06659 0.0394353 1.8855 36 39 40
1.10162 0.0403567 1.92955 36 39 40
1.0343 0.037546 1.79517 36 39 39
1.0437 0.037546 1.79517 35 38 38
1.0916 0.0389185 1.86079 34 37 37
1.13689 0.0401743 1.92083 34 37 37
1.03524 0.0362614 1.73375 35 38 38
1.09797 0.0381245 1.82283 36 39 39
1.10752 0.0381245 1.82283 35 39 39
1.06768 0.036439 1.74224 35 38 38
1.15008 0.0389185 1.86079 34 37 38
1.11892 0.037546 1.79517 33 36 37
-0.605025 0.0251659 0.962595 35 34 30
-0.623298 0.0261438 1 36 35 32
-0.596223 0.0252201 0.964669 36 36 33
-0.567134 0.0241947 0.925446 36 35 33
-0.586118 0.0252201 0.964669 35 35 32
-0.602347 0.0261438 1 37 36 34
-0.57712 0.0252686 0.966525 37 36 34
-0.570959 0.0252201 0.964669 37 36 34
-0.586633 0.0261438 1 37 37 34
-0.624741 0.0280929 1.07455 37 36 34
-0.576158 0.0261438 1 37 36 33
-0.616118 0.0282135 1.07917 37 36 33
-0.607856 0.0280929 1.07455 38 37 34
-0.582714 0.0271827 1.03974 36 36 32
-0.555206 0.0261438 1 35 34 30
-0.5694 0.0270675 1.03533 36 36 32
-0.581101 0.0278893 1.06677 38 37 34
-0.539493 0.0261438 1 38 38 35
-0.569926 0.0278893 1.06677 38 37 34
-0.529017 0.0261438 1 37 36 32
-0.562829 0.0280929 1.07455 36 36 31
-0.576204 0.029051 1.1112 37 36 32
-0.570383 0.029051 1.1112 37 37 33
-0.631139 0.0324768 1.24224 37 36 32
-0.552958 0.0287502 1.0997 36 35 30
-0.556304 0.0292287 1.118 36 36 32
-0.598701 0.0317909 1.216 36 36 33
-0.558778 0.02999 1.14712 36 36 33
-0.55703 0.0302211 1.15596 36 36 33
-0.555716 0.0304812 1.1659 36 36 33
-0.610544 0.0338606 1.29517 36 36 33
-0.543503 0.0304812 1.1659 37 37 34
-0.568668 0.0322549 1.23375 38 38 35
-0.532928 0.0305752 1.1695 38 38 34
-0.563663 0.0327146 1.25133 38 37 34
-0.544065 0.0319486 1.22203 39 38 34
-0.542819 0.0322549 1.23375 38 38 35
-0.531264 0.0319486 1.22203 37 37 34
-0.596489 0.0363085 1.3888 37 36 33
-0.527034 0.0324768 1.24224 37 37 34
-0.542706 0.0338606 1.29517 38 37 35
-0.523956 0.0331046 1.26625 38 37 35
-0.540439 0.0345838 1.32283 37 37 34
-0.585254 0.0379379 1.45113 37 36 33
-0.577653 0.0379379 1.45113 37 36 33
-0.553766 0.036854 1.40967 36 36 32
-0.581395 0.0392157 1.5 36 35 31
-0.613739 0.0419644 1.60514 37 36 33
-0.531615 0.036854 1.40967 37 37 34
-0.611519 0.0429904 1.64438 37 36 33
-0.567888 0.0404935 1.54887 37 36 33
-0.542112 0.0392157 1.5 37 36 33
-0.571702 0.0419644 1.60514 37 37 34
-0.526398 0.0392157 1.5 37 37 34
-0.54977 0.0415774 1.59033 37 37 34
-0.54648 0.0419644 1.60514 38 37 34
-0.551229 0.0429904 1.64438 38 38 35
-0.529665 0.0419644 1.60514 38 37 34
-0.534003 0.0429904 1.64438 37 37 34
-0.508121 0.0415774 1.59033 37 36 33
-0.544862 0.0453268 1.73375 37 36 33
-0.535781 0.0453268 1.73375 37 36 34
-0.533994 0.0459546 1.75776 37 36 34
-0.508985 0.0445708 1.70483 37 37 34
-0.48572 0.043293 1.65596 38 37 34
-0.478641 0.0434377 1.66149 38 37 34
-0.482197 0.0445708 1.70483 38 37 34
-0.473267 0.0445708 1.70483 37 36 33
-0.472214 0.0453268 1.73375 37 36 34
-0.455408 0.0445708 1.70483 37 36 33
-0.442602 0.0441838 1.69003 36 36 33
-0.419468 0.0427291 1.63439 36 36 32
-0.432024 0.0449249 1.71838 36 35 31
-0.426808 0.0453268 1.73375 36 36 32
-0.393787 0.0427291 1.63439 37 37 33
-0.395311 0.0438476 1.67717 36 36 32
-0.386526 0.0438476 1.67717 36 36 32
-0.377741 0.0438476 1.67717 37 37 33
-0.368957 0.0438476 1.67717 37 37 33
-0.362933 0.0441838 1.69003 37 37 33
-0.342423 0.0427291 1.63439 37 36 33
-0.345229 0.0441838 1.69003 37 37 33
-0.326694 0.0429119 1.64138 37 36 33
-0.338429 0.0456547 1.74629 38 37 34
-0.321464 0.0445708 1.70483 38 37 34
-0.307464 0.0438476 1.67717 38 37 34
-0.298679 0.0438476 1.67717 37 36 34
-0.284227 0.0429904 1.64438 37 36 33
-0.279221 0.0435531 1.6659 37 36 33
-0.272325 0.0438476 1.67717 37 36 33
-0.259394 0.0431577 1.65078 37 36 33
-0.256709 0.0441838 1.69003 37 36 32
-0.245971 0.0438476 1.67717 38 37 34
-0.237569 0.0439184 1.67988 37 36 32
-0.228402 0.0438476 1.67717 36 34 30
-0.223239 0.0445708 1.70483 38 36 33
-0.202224 0.0420573 1.60869 39 37 34
-0.200159 0.0434377 1.66149 38 37 34
-0.194922 0.0442241 1.69157 37 37 34
-0.182754 0.0434377 1.66149 36 36 33
-0.178591 0.0445708 1.70483 36 36 33
-0.164798 0.043293 1.65596 37 37 34
-0.156646 0.0434377 1.66149 38 37 35
-0.14642 0.0429904 1.64438 37 36 34
-0.136239 0.0425011 1.62567 36 36 32
-0.129194 0.0429904 1.64438 37 36 33
-0.11712 0.0417563 1.59718 37 36 33
-0.112404 0.0431577 1.65078 37 36 32
-0.103758 0.0431577 1.65078 36 35 31
-0.0951111 0.0431577 1.65078 37 36 32
-0.090005 0.0449249 1.71838 38 36 33
-0.0778182 0.0431577 1.65078 38 37 33
-0.0691717 0.0431577 1.65078 37 36 32
-0.060918 0.0434377 1.66149 37 36 32
-0.0535774 0.0445708 1.70483 37 36 32
-0.0429861 0.0429119 1.64138 37 36 32
-0.033704 0.0420573 1.60869 38 37 33
-0.0267887 0.0445708 1.70483 38 37 34
-0.016852 0.0420573 1.60869 38 37 34
-0.00842601 0.0420573 1.60869 37 36 34
0 0.0431577 1.65078 37 36 32
0.00846727 0.0422633 1.61657 37 36 31
0.0171212 0.0427291 1.63439 37 36 32
0.0255447 0.0425011 1.62567 38 37 34
0.0340596 0.0425011 1.62567 38 37 34
0.0433679 0.043293 1.65596 38 37 34
0.052354 0.0435531 1.6659 38 37 34
0.0601806 0.0429119 1.64138 38 37 34
0.0698053 0.0435531 1.6659 38 37 34
0.0758341 0.0420573 1.60869 37 36 33
0.0867357 0.043293 1.65596 36 36 33
0.0945694 0.0429119 1.64138 37 36 34
0.102727 0.0427291 1.63439 38 37 34
0.111288 0.0427291 1.63439 37 36 34
0.119209 0.0425011 1.62567 37 36 34
0.129697 0.0431577 1.65078 37 36 33
0.137556 0.0429119 1.64138 37 36 33
0.142217 0.0417563 1.59718 37 37 33
0.149937 0.0415774 1.59033 37 36 33
0.166574 0.0437595 1.6738 38 37 34
0.171212 0.0427291 1.63439 38 37 34
0.181576 0.0431577 1.65078 37 36 33
0.188333 0.0427291 1.63439 36 36 32
0.20069 0.0435531 1.6659 37 36 33
0.205454 0.0427291 1.63439 37 36 33
0.218142 0.0435531 1.6659 37 36 34
0.219076 0.0420573 1.60869 37 36 34
0.243531 0.0450205 1.72203 36 35 33
0.242101 0.0431577 1.65078 35 35 33
0.249776 0.0429904 1.64438 36 35 33
0.25278 0.0420573 1.60869 36 36 33
0.274413 0.0441838 1.69003 37 37 34
0.270953 0.0422633 1.61657 38 37 35
0.289312 0.0437595 1.6738 38 37 34
0.298679 0.0438476 1.67717 37 36 33
0.321059 0.0457865 1.75133 37 36 33
0.311273 0.0431577 1.65078 38 36 34
0.316742 0.0427291 1.63439 37 36 33
0.333147 0.0437595 1.6738 36 35 32
0.337212 0.0431577 1.65078 36 35 33
0.348103 0.0434377 1.66149 37 36 34
0.347158 0.0422633 1.61657 36 35 33
0.36429 0.043293 1.65596 36 35 32
0.372964 0.043293 1.65596 36 36 33
0.38575 0.0437595 1.6738 36 36 33
0.40183 0.0445708 1.70483 36 36 33
0.400318 0.0434377 1.66149 36 36 33
0.41969 0.0445708 1.70483 37 36 34
0.416331 0.043293 1.65596 37 37 34
0.426426 0.0434377 1.66149 37 37 34
0.442602 0.0441838 1.69003 36 36 33
0.443831 0.0434377 1.66149 36 36 32
0.435016 0.0417563 1.59718 36 35 32
0.461236 0.0434377 1.66149 36 36 34
0.495348 0.0457865 1.75133 36 36 34
0.491126 0.0445708 1.70483 36 36 34
0.491942 0.0438476 1.67717 35 36 34
0.513029 0.0449249 1.71838 35 36 34
0.522519 0.044967 1.71999 35 35 33
0.518296 0.0438476 1.67717 36 36 34
0.535774 0.0445708 1.70483 36 37 34
0.530857 0.0434377 1.66149 36 36 34
0.553633 0.0445708 1.70483 36 36 33
0.548262 0.0434377 1.66149 36 36 33
0.571492 0.0445708 1.70483 36 36 33
0.575907 0.0442241 1.69157 36 36 33
0.603684 0.0456547 1.74629 35 35 32
0.593086 0.0441838 1.69003 35 35 32
0.607211 0.0445708 1.70483 34 35 32
0.626591 0.0453268 1.73375 35 35 32
0.64672 0.0461146 1.76388 35 36 33
0.639036 0.0449249 1.71838 36 36 34
0.631227 0.0437595 1.6738 36 37 34
0.682128 0.0466405 1.784 36 36 34
0.683676 0.0461146 1.76388 35 35 33
0.686004 0.0456547 1.74629 35 35 32
0.714607 0.0469325 1.79517 35 36 33
0.711392 0.0461146 1.76388 36 36 34
0.696506 0.0445708 1.70483 35 36 34
0.718933 0.0454236 1.73745 35 36 34
0.739109 0.0461146 1.76388 35 36 34
0.751621 0.0463163 1.7716 34 35 33
0.739613 0.0450205 1.72203 34 35 32
0.741154 0.0445708 1.70483 33 35 32
0.757652 0.0450205 1.72203 33 35 32
0.773535 0.0454236 1.73745 34 36 34
0.767943 0.0445708 1.70483 35 37 35
0.800991 0.0459546 1.75776 35 37 36
0.832975 0.0472465 1.80718 35 37 35
0.842441 0.0472465 1.80718 34 36 35
0.821294 0.0455487 1.74224 34 36 34
0.849192 0.0465784 1.78162 32 35 33
0.86505 0.0469325 1.79517 31 34 31
0.887927 0.0476557 1.82283 30 33 30
0.877188 0.0465784 1.78162 29 32 30
0.886519 0.0465784 1.78162 31 34 33
0.938084 0.0487742 1.86561 32 35 34
0.912064 0.0469325 1.79517 31 34 34
0.935665 0.0476557 1.82283 30 34 33
0.962214 0.0485128 1.85562 34 36 35
0.892957 0.0445708 1.70483 36 38 38
0.968366 0.0478562 1.8305 35 37 37
0.926265 0.0453268 1.73375 33 36 36
0.9592 0.0464828 1.77797 30 34 34
1.01363 0.0486481 1.86079 30 34 35
0.997892 0.0474367 1.81445 32 35 36
1.0163 0.0478562 1.8305 34 37 37
0.99645 0.0464828 1.77797 35 38 39
1.0264 0.0474367 1.81445 37 41 41
1.10162 0.0504458 1.92955 37 41 41
1.07211 0.0486481 1.86079 37 40 40
1.08186 0.0486481 1.86079 36 39 39
1.03928 0.0463163 1.7716 35 38 38
1.18374 0.0522876 2 35 38 38
1.14695 0.0502179 1.92083 35 38 38
1.129 0.0490022 1.87433 35 38 39
1.12041 0.0482102 1.84404 34 37 38
1.17713 0.0502179 1.92083 34 38 38
1.13973 0.0482102 1.84404 34 38 38
1.19029 0.0499259 1.90967 33 37 37
-0.628536 0.0313726 1 36 35 32
-0.623298 0.0313726 1 37 36 33
-0.61806 0.0313726 1 36 35 32
-0.612822 0.0313726 1 34 34 31
-0.607584 0.0313726 1 35 34 31
-0.554661 0.0288889 0.920833 37 37 35
-0.552592 0.0290336 0.925446 37 37 34
-0.569732 0.0301991 0.962595 37 36 33
-0.608576 0.032546 1.03741 37 36 33
-0.601937 0.032481 1.03533 37 36 34
-0.530545 0.0288889 0.920833 37 36 33
-0.57092 0.0313726 1 37 36 34
-0.586841 0.032546 1.03741 37 36 34
-0.626574 0.0350744 1.118 37 36 33
-0.575974 0.032546 1.03741 37 36 33
-0.590971 0.0337115 1.07455 38 38 35
-0.599038 0.0345003 1.0997 38 38 35
-0.559673 0.032546 1.03741 38 38 35
-0.568154 0.0333632 1.06345 38 37 34
-0.545843 0.0323703 1.0318 37 36 32
-0.575998 0.0345003 1.0997 36 36 31
-0.557201 0.0337115 1.07455 36 36 31
-0.553941 0.0338562 1.07917 37 36 32
-0.568016 0.0350744 1.118 37 37 33
-0.542636 0.0338562 1.07917 37 36 33
-0.556304 0.0350744 1.118 37 37 34
-0.550449 0.0350744 1.118 37 38 34
-0.581042 0.0374219 1.19282 36 37 33
-0.515824 0.0335826 1.07045 36 36 33
-0.529642 0.0348612 1.1112 35 35 32
-0.56796 0.0377987 1.20483 35 36 33
-0.548755 0.0369309 1.17717 35 35 32
-0.563268 0.0383383 1.22203 36 36 33
-0.570217 0.0392575 1.25133 37 37 34
-0.583409 0.0406327 1.29517 37 37 34
-0.576625 0.0406327 1.29517 39 38 34
-0.559472 0.0398933 1.2716 38 38 34
-0.563057 0.0406327 1.29517 37 36 32
-0.577265 0.042166 1.34404 36 36 33
-0.539491 0.0398933 1.2716 37 37 33
-0.542706 0.0406327 1.29517 38 37 34
-0.603143 0.0457293 1.45762 38 37 34
-0.553834 0.0425291 1.35562 37 36 33
-0.546734 0.0425291 1.35562 36 35 31
-0.561149 0.0442248 1.40967 36 35 32
-0.572604 0.0457293 1.45762 37 37 33
-0.581395 0.0470588 1.5 37 37 34
-0.592226 0.0485921 1.54887 37 37 33
-0.565682 0.0470588 1.5 37 36 33
-0.557825 0.0470588 1.5 37 36 33
-0.57113 0.0488695 1.55772 36 35 32
-0.521253 0.0452481 1.44228 35 35 31
-0.639385 0.056319 1.79517 36 35 32
-0.54355 0.0485921 1.54887 37 36 33
-0.568455 0.0515885 1.64438 38 37 34
-0.593157 0.0546584 1.74224 38 37 34
-0.571492 0.0534849 1.70483 38 37 34
-0.584594 0.0555796 1.7716 38 37 33
-0.534003 0.0515885 1.64438 37 36 33
-0.552234 0.0542243 1.7284 37 36 32
-0.584787 0.0583778 1.86079 37 36 33
-0.543201 0.0551455 1.75776 37 36 33
-0.531232 0.0548602 1.74867 37 36 33
-0.498437 0.0523765 1.6695 38 37 34
-0.500056 0.0534849 1.70483 37 37 34
-0.491126 0.0534849 1.70483 37 36 32
-0.474373 0.0526171 1.67717 36 35 32
-0.465588 0.0526171 1.67717 36 35 32
-0.460726 0.0530689 1.69157 37 36 33
-0.455408 0.0534849 1.70483 37 36 33
-0.456274 0.0546584 1.74224 37 36 33
-0.430449 0.0526171 1.67717 37 36 33
-0.425285 0.0530689 1.69157 36 35 32
-0.410106 0.0522637 1.6659 36 35 31
-0.414411 0.0539604 1.71999 36 35 31
-0.408646 0.0543922 1.73375 36 35 31
-0.389845 0.0530689 1.69157 36 35 31
-0.380637 0.0530206 1.69003 37 37 34
-0.381403 0.0543922 1.73375 38 37 34
-0.360172 0.0526171 1.67717 38 37 34
-0.365019 0.0546584 1.74224 38 37 34
-0.35102 0.0539098 1.71838 38 37 34
-0.323566 0.0510013 1.62567 38 37 33
-0.327525 0.0530206 1.69003 38 37 34
-0.324322 0.0539604 1.71999 38 37 34
-0.29962 0.0512749 1.63439 38 37 34
-0.29284 0.0515885 1.64438 38 37 34
-0.294676 0.0534849 1.70483 37 36 33
-0.276687 0.0517893 1.65078 36 35 32
-0.26978 0.0521253 1.66149 36 35 32
-0.258389 0.0515885 1.64438 36 35 31
-0.254756 0.0526171 1.67717 37 35 31
-0.254269 0.0543922 1.73375 38 36 33
-0.241098 0.0534849 1.70483 37 36 32
-0.228402 0.0526171 1.67717 37 35 32
-0.216162 0.0517893 1.65078 38 36 34
-0.208862 0.0521253 1.66149 39 36 34
-0.199492 0.0519516 1.65596 38 37 34
-0.193263 0.0526171 1.67717 36 36 33
-0.185893 0.0530206 1.69003 34 34 32
-0.174051 0.0521253 1.66149 35 35 33
-0.166909 0.0526171 1.67717 36 36 34
-0.153268 0.0510013 1.62567 37 37 34
-0.144753 0.0510013 1.62567 38 37 34
-0.140273 0.0525115 1.6738 37 37 34
-0.132902 0.0530689 1.69157 37 36 33
-0.12105 0.0517893 1.65078 37 36 33
-0.114201 0.0526171 1.67717 37 36 33
-0.105416 0.0526171 1.67717 37 36 32
-0.0990984 0.0539604 1.71999 38 37 33
-0.0886011 0.0530689 1.69157 38 37 34
-0.0803661 0.0534849 1.70483 38 37 34
-0.0696205 0.0521253 1.66149 38 36 33
-0.0605252 0.0517893 1.65078 37 36 31
-0.0522154 0.0521253 1.66149 36 35 31
-0.0446478 0.0534849 1.70483 36 35 30
-0.0351955 0.0527021 1.67988 37 36 33
-0.0251698 0.0502527 1.6018 38 36 34
-0.0170298 0.0510013 1.62567 38 36 34
-0.00886011 0.0530689 1.69157 38 36 34
0 0.0517893 1.65078 37 36 32
0.00829868 0.0497062 1.58438 36 35 31
0.0170298 0.0510013 1.62567 37 36 32
0.0255447 0.0510013 1.62567 39 37 34
0.0345858 0.0517893 1.65078 38 37 34
0.0414934 0.0497062 1.58438 38 37 34
0.0531606 0.0530689 1.69157 38 37 34
0.0610797 0.0522637 1.6659 38 36 34
0.0691717 0.0517893 1.65078 38 36 34
0.078531 0.0522637 1.6659 37 36 33
0.0851491 0.0510013 1.62567 36 36 33
0.0945694 0.0514943 1.64138 37 36 34
0.102727 0.0512749 1.63439 37 37 34
0.110075 0.050716 1.61657 37 36 34
0.122986 0.0526171 1.67717 37 36 33
0.12639 0.0504688 1.60869 36 35 33
0.139241 0.0521253 1.66149 37 36 33
0.146153 0.0514943 1.64138 38 37 34
0.147608 0.0491176 1.56562 37 36 33
0.160878 0.050716 1.61657 37 36 33
0.175694 0.0526171 1.67717 37 36 33
0.179772 0.0512749 1.63439 37 36 33
0.183257 0.0498928 1.59033 37 36 33
0.198098 0.0515885 1.64438 38 37 34
0.212449 0.0530206 1.69003 38 37 34
0.212873 0.0510013 1.62567 37 36 34
0.230363 0.0530689 1.69157 37 36 34
0.241098 0.0534849 1.70483 36 36 34
0.247857 0.0530206 1.69003 36 36 34
0.258957 0.0534849 1.70483 36 36 34
0.256817 0.0512749 1.63439 37 36 33
0.276817 0.0534849 1.70483 37 37 34
0.278482 0.0521253 1.66149 38 37 34
0.294676 0.0534849 1.70483 38 37 34
0.295887 0.0521253 1.66149 38 36 34
0.301453 0.0515885 1.64438 37 36 33
0.308181 0.0512749 1.63439 37 36 33
0.327148 0.0529595 1.68808 37 35 33
0.351077 0.0553375 1.76388 36 35 32
0.335905 0.0515885 1.64438 36 35 32
0.365869 0.0547857 1.74629 36 35 32
0.354505 0.0517893 1.65078 36 35 32
0.378376 0.0539604 1.71999 36 35 32
0.376983 0.0525115 1.6738 37 36 34
0.381637 0.0519516 1.65596 37 36 34
0.391615 0.0521253 1.66149 37 36 34
0.406724 0.0529595 1.68808 36 36 34
0.41969 0.0534849 1.70483 37 36 34
0.435889 0.0543922 1.73375 37 36 34
0.429585 0.0525115 1.6738 37 36 33
0.446478 0.0534849 1.70483 36 35 32
0.442352 0.0519516 1.65596 35 35 31
0.452533 0.0521253 1.66149 36 35 33
0.473267 0.0534849 1.70483 37 36 34
0.474373 0.0526171 1.67717 36 36 34
0.499457 0.0543922 1.73375 36 36 34
0.504501 0.0539604 1.71999 36 37 35
0.517619 0.0543922 1.73375 36 37 35
0.539316 0.055695 1.77528 36 36 34
0.536925 0.0545083 1.73745 35 36 34
0.540537 0.0539604 1.71999 36 36 34
0.553943 0.0543922 1.73375 36 36 34
0.568733 0.0549437 1.75133 35 36 32
0.571132 0.0542997 1.7308 36 36 32
0.56222 0.0526171 1.67717 36 36 32
0.585033 0.0539098 1.71838 36 36 33
0.589351 0.0534849 1.70483 36 35 32
0.607395 0.0542997 1.7308 35 35 32
0.628243 0.0553375 1.76388 34 35 32
0.61614 0.0534849 1.70483 35 35 33
0.654096 0.0559686 1.784 35 36 33
0.629068 0.0530689 1.69157 36 36 34
0.658564 0.0547857 1.74629 36 36 34
0.651858 0.0534849 1.70483 36 36 34
0.65505 0.0530206 1.69003 35 36 33
0.663903 0.0530206 1.69003 35 36 33
0.68468 0.0539604 1.71999 35 36 33
0.699239 0.0543922 1.73375 35 36 34
0.683829 0.0525115 1.6738 35 36 33
0.705436 0.0534849 1.70483 34 36 33
0.747538 0.0559686 1.784 34 35 32
0.737134 0.0545083 1.73745 33 35 32
0.740766 0.0541089 1.72472 33 35 32
0.741154 0.0534849 1.70483 33 35 32
0.764435 0.0545083 1.73745 33 35 32
0.775666 0.0546584 1.74224 33 35 33
0.826169 0.0575402 1.8341 34 36 35
0.807297 0.0555796 1.7716 36 38 36
0.827439 0.056319 1.79517 35 37 35
0.823362 0.0554118 1.76625 33 36 34
0.803661 0.0534849 1.70483 32 35 32
0.803398 0.0528799 1.68555 31 34 31
0.812227 0.0528799 1.68555 31 34 31
0.887927 0.0571868 1.82283 31 33 31
0.877188 0.0558941 1.78162 28 30 29
0.917578 0.0578523 1.84404 31 33 32
0.888121 0.0554118 1.76625 30 33 32
0.897372 0.0554118 1.76625 29 33 32
0.921467 0.056319 1.79517 29 32 32
0.906758 0.0548602 1.74867 33 35 35
0.958778 0.0574274 1.8305 36 38 38
0.940575 0.0557793 1.77797 37 39 39
1.00734 0.059153 1.8855 35 38 38
0.978885 0.056924 1.81445 33 35 36
1.02101 0.0588026 1.87433 33 36 36
0.974324 0.0555796 1.7716 33 36 36
1.0074 0.056924 1.81445 33 36 36
1.0169 0.056924 1.81445 34 37 37
1.03548 0.0574274 1.8305 36 39 39
1.0528 0.0578523 1.84404 38 41 41
1.11576 0.0607545 1.93655 37 40 40
1.0437 0.056319 1.79517 36 39 39
1.09955 0.0588026 1.87433 35 38 39
1.02616 0.0543922 1.73375 35 38 38
1.15215 0.060535 1.92955 35 38 39
1.16647 0.0607545 1.93655 36 39 40
1.12041 0.0578523 1.84404 35 38 39
1.27416 0.0652288 2.07917 34 38 38
1.12662 0.0571868 1.82283 34 38 38
1.2466 0.0627451 2 34 37 38
-0.628536 0.0366013 1 37 35 32
-0.599983 0.0352322 0.962595 37 36 33
-0.596223 0.0353081 0.964669 37 36 34
-0.589899 0.0352322 0.962595 35 34 31
-0.631728 0.0380557 1.03974 34 33 29
-0.623628 0.0378945 1.03533 35 35 32
-0.641625 0.0393301 1.07455 37 36 34
-0.591871 0.0366013 1 36 35 32
-0.586633 0.0366013 1 36 35 32
-0.601937 0.0378945 1.03533 37 36 34
-0.576158 0.0366013 1 37 36 34
-0.591091 0.0378945 1.03533 37 36 33
-0.565682 0.0366013 1 37 36 34
-0.622765 0.0406714 1.1112 37 36 33
-0.616945 0.0406714 1.1112 37 36 32
-0.5694 0.0378945 1.03533 37 37 33
-0.585342 0.0393301 1.07455 37 37 33
-0.575513 0.0390451 1.06677 37 37 33
-0.569926 0.0390451 1.06677 37 37 33
-0.568458 0.0393301 1.07455 37 36 32
-0.562829 0.0393301 1.07455 37 36 32
-0.562299 0.0396899 1.08438 37 36 32
-0.60678 0.0432666 1.18211 37 36 32
-0.568016 0.0409201 1.118 37 36 32
-0.56216 0.0409201 1.118 36 36 32
-0.549906 0.0404495 1.10514 37 37 33
-0.554225 0.0412008 1.12567 37 38 34
-0.563085 0.0423096 1.15596 37 37 34
-0.538737 0.0409201 1.118 36 37 34
-0.568546 0.0436589 1.19282 36 36 34
-0.601169 0.0466769 1.27528 36 37 34
-0.524745 0.0412008 1.12567 36 36 34
-0.568668 0.0451569 1.23375 36 36 33
-0.58113 0.0466769 1.27528 36 36 32
-0.53605 0.0435567 1.19003 36 36 31
-0.566132 0.0465422 1.2716 37 36 32
-0.561091 0.0466769 1.27528 37 37 33
-0.597474 0.0503024 1.37433 37 36 32
-0.524863 0.0447281 1.22203 36 36 32
-0.575135 0.0496173 1.35562 37 36 33
-0.58194 0.0508319 1.3888 37 36 33
-0.587921 0.0520043 1.42083 38 37 34
-0.553834 0.0496173 1.35562 38 36 33
-0.554283 0.0503024 1.37433 37 36 32
-0.577653 0.0531131 1.45113 36 35 31
-0.553766 0.0515956 1.40967 37 36 32
-0.581395 0.054902 1.5 37 37 34
-0.554851 0.0531131 1.45113 36 35 31
-0.543916 0.0527895 1.44228 35 35 30
-0.557825 0.054902 1.5 36 36 33
-0.583089 0.0582083 1.59033 37 37 34
-0.574759 0.0582083 1.59033 37 37 34
-0.513699 0.0527895 1.44228 37 36 34
-0.563294 0.0587501 1.60514 38 37 34
-0.589351 0.0623991 1.70483 39 38 34
-0.553469 0.0595015 1.62567 38 37 34
-0.538072 0.0587501 1.60514 39 38 34
-0.542616 0.0601866 1.64438 38 37 33
-0.553633 0.0623991 1.70483 36 36 32
-0.566036 0.0648428 1.7716 37 37 33
-0.556757 0.0648428 1.7716 37 37 34
-0.518296 0.0613867 1.67717 37 37 33
-0.500894 0.0603484 1.64881 36 36 33
-0.490938 0.0601866 1.64438 37 37 34
-0.495714 0.0618573 1.69003 38 37 34
-0.486862 0.0618573 1.69003 37 36 33
-0.47801 0.0618573 1.69003 36 36 32
-0.465588 0.0613867 1.67717 37 36 32
-0.471411 0.0633496 1.7308 37 36 33
-0.43659 0.0598207 1.63439 37 36 33
-0.454051 0.0634575 1.73375 37 36 33
-0.426426 0.0608128 1.66149 37 36 33
-0.432024 0.0628948 1.71838 36 36 32
-0.423024 0.0628948 1.71838 37 36 33
-0.407194 0.0618573 1.69003 37 35 32
-0.398342 0.0618573 1.69003 36 35 31
-0.374656 0.0595015 1.62567 36 35 31
-0.371798 0.0604208 1.65078 37 37 33
-0.378021 0.0628948 1.71838 38 38 35
-0.341524 0.0582083 1.59033 38 37 34
-0.351387 0.0613867 1.67717 38 37 34
-0.332081 0.0595015 1.62567 38 37 33
-0.331575 0.0609743 1.6659 37 36 33
-0.311762 0.0588803 1.60869 38 37 34
-0.313292 0.0608128 1.66149 39 38 35
-0.30459 0.0608128 1.66149 39 37 34
-0.305785 0.0628471 1.71707 38 37 35
-0.292117 0.0618573 1.69003 37 36 33
-0.28111 0.0613867 1.67717 36 35 32
-0.271778 0.0612634 1.6738 36 35 32
-0.261077 0.0608128 1.66149 36 36 32
-0.252374 0.0608128 1.66149 38 37 33
-0.242101 0.0604208 1.65078 39 37 34
-0.237186 0.0613867 1.67717 39 37 34
-0.226267 0.0608128 1.66149 38 36 33
-0.223239 0.0623991 1.70483 38 36 33
-0.208862 0.0608128 1.66149 38 36 33
-0.198098 0.0601866 1.64438 37 36 33
-0.18628 0.0591686 1.61657 36 36 34
-0.179772 0.0598207 1.63439 36 35 34
-0.171212 0.0598207 1.63439 36 36 34
-0.163646 0.0601866 1.64438 36 36 34
-0.158124 0.0613867 1.67717 36 36 34
-0.150485 0.0618573 1.69003 37 37 34
-0.144143 0.0629538 1.71999 37 36 34
-0.130104 0.0606102 1.65596 37 36 33
-0.121836 0.0608128 1.66149 37 36 32
-0.111288 0.0598207 1.63439 37 36 33
-0.103758 0.0604208 1.65078 37 36 32
-0.0916283 0.0582083 1.59033 38 37 33
-0.0870257 0.0608128 1.66149 38 37 33
-0.0778182 0.0604208 1.65078 38 37 33
-0.0671194 0.0586281 1.6018 38 37 33
-0.062507 0.0623991 1.70483 38 36 32
-0.0513635 0.0598207 1.63439 37 36 31
-0.0443005 0.0619137 1.69157 37 36 32
-0.0348103 0.0608128 1.66149 38 37 34
-0.0267887 0.0623991 1.70483 38 37 34
-0.0175977 0.0614858 1.67988 37 36 34
-0.00864646 0.0604208 1.65078 37 36 34
0 0.0595015 1.62567 37 36 32
0.00832985 0.0582083 1.59033 36 35 31
0.0173471 0.0606102 1.65596 37 36 32
0.0250743 0.0584058 1.59573 37 36 32
0.0333194 0.0582083 1.59033 37 36 32
0.0436283 0.0609743 1.6659 37 36 33
0.0516777 0.0601866 1.64438 38 36 33
0.060918 0.0608128 1.66149 38 37 34
0.0691717 0.0604208 1.65078 38 37 34
0.0790621 0.0613867 1.67717 37 36 34
0.0864646 0.0604208 1.65078 36 36 33
0.0966315 0.0613867 1.67717 37 37 34
0.104431 0.0608128 1.66149 38 37 35
0.113434 0.0609743 1.6659 38 37 35
0.122986 0.0613867 1.67717 37 37 34
0.127009 0.0591686 1.61657 36 36 33
0.134239 0.0586281 1.6018 36 36 33
0.147944 0.0608128 1.66149 37 36 33
0.157807 0.0612634 1.6738 37 36 32
0.166909 0.0613867 1.67717 36 36 32
0.16852 0.0588803 1.60869 36 35 31
0.182754 0.0608128 1.66149 36 35 32
0.187328 0.0595015 1.62567 37 36 33
0.198869 0.0604208 1.65078 37 37 34
0.21431 0.0623991 1.70483 38 37 34
0.211868 0.0592208 1.618 37 36 34
0.221388 0.0595015 1.62567 36 36 33
0.227502 0.0588803 1.60869 36 36 33
0.247857 0.0618573 1.69003 36 36 34
0.245551 0.0591686 1.61657 37 36 33
0.259394 0.0604208 1.65078 36 36 33
0.272325 0.0613867 1.67717 37 36 34
0.269632 0.0588803 1.60869 37 36 33
0.284227 0.0601866 1.64438 38 37 33
0.300969 0.0618573 1.69003 38 37 34
0.312535 0.0623991 1.70483 38 36 33
0.321464 0.0623991 1.70483 37 36 33
0.333728 0.0630287 1.72203 37 35 33
0.330698 0.0608128 1.66149 36 35 32
0.324864 0.0582083 1.59033 36 35 32
0.357183 0.0623991 1.70483 36 35 33
0.369367 0.0629538 1.71999 36 35 31
0.371785 0.0618573 1.69003 35 34 31
0.383971 0.0623991 1.70483 37 36 34
0.37897 0.0601866 1.64438 37 36 34
0.40183 0.0623991 1.70483 37 36 34
0.421963 0.064101 1.75133 37 36 34
0.406384 0.0604208 1.65078 36 36 33
0.405908 0.0590927 1.6145 36 36 33
0.43375 0.0618573 1.69003 36 35 32
0.438352 0.0612634 1.6738 35 35 32
0.451454 0.0618573 1.69003 35 35 32
0.464337 0.0623991 1.70483 35 35 32
0.458263 0.0604208 1.65078 36 36 33
0.482197 0.0623991 1.70483 36 36 34
0.486301 0.0617861 1.68808 36 36 34
0.508538 0.0634575 1.73375 36 36 34
0.508985 0.0623991 1.70483 36 37 35
0.508488 0.0612634 1.6738 36 37 35
0.513451 0.0608128 1.66149 36 36 34
0.540537 0.0629538 1.71999 35 36 33
0.52539 0.0601866 1.64438 35 35 31
0.572809 0.0645604 1.76388 34 34 30
0.576244 0.0639166 1.74629 34 34 30
0.58539 0.0639166 1.74629 34 34 30
0.575907 0.0619137 1.69157 36 36 32
0.589351 0.0623991 1.70483 36 36 32
0.623003 0.0649775 1.77528 35 36 32
0.601938 0.0618573 1.69003 34 35 31
0.6416 0.0649775 1.77528 35 35 33
0.60918 0.0608128 1.66149 35 36 34
0.633999 0.0623991 1.70483 35 36 33
0.665198 0.0645604 1.76388 35 36 33
0.669638 0.064101 1.75133 35 36 33
0.660788 0.0623991 1.70483 35 36 33
0.686004 0.0639166 1.74629 36 37 34
0.697157 0.064101 1.75133 36 37 34
0.681607 0.0618573 1.69003 35 36 34
0.72953 0.0653577 1.78567 34 35 32
0.724676 0.064101 1.75133 34 35 32
0.747538 0.0652967 1.784 34 35 32
0.771262 0.0665373 1.81789 34 35 32
0.784914 0.0668892 1.82751 33 35 32
0.761369 0.064101 1.75133 33 35 32
0.799828 0.0665373 1.81789 33 35 32
0.788738 0.0648428 1.7716 33 35 33
0.826169 0.0671303 1.8341 32 35 33
0.82351 0.0661451 1.80718 33 35 33
0.854042 0.0678179 1.85288 33 35 33
0.854989 0.0671303 1.8341 32 35 33
0.832613 0.064647 1.76625 31 34 32
0.884459 0.0679179 1.85562 31 34 31
0.839545 0.0637682 1.74224 31 34 31
0.893415 0.0671303 1.8341 27 29 28
0.849171 0.063127 1.72472 23 25 24
0.928312 0.0682839 1.86561 27 30 29
0.87928 0.0640035 1.74867 28 31 30
0.962716 0.0693545 1.89486 29 32 31
0.929065 0.0662473 1.80997 28 31 31
0.906758 0.0640035 1.74867 34 37 36
0.948025 0.0662473 1.80997 38 40 40
0.97553 0.0674943 1.84404 38 41 41
0.949887 0.0650759 1.77797 36 39 39
0.955765 0.0648428 1.7716 35 37 37
0.988388 0.0664113 1.81445 34 36 36
1.03082 0.0686031 1.87433 32 35 35
1.04064 0.0686031 1.87433 31 35 35
1.04287 0.0681074 1.86079 32 36 35
0.964393 0.0623991 1.70483 33 37 37
1.0528 0.0674943 1.84404 36 39 40
1.0038 0.0637682 1.74224 36 40 40
1.05491 0.0664113 1.81445 36 40 40
1.09955 0.0686031 1.87433 36 40 40
1.07392 0.0664113 1.81445 35 39 40
1.15215 0.0706242 1.92955 35 38 39
1.11075 0.0674943 1.84404 34 38 39
1.21517 0.0732026 2 34 38 39
1.11707 0.0667179 1.82283 34 38 39
1.18029 0.0698963 1.90967 34 38 39
1.19725 0.070305 1.92083 34 38 38
-0.628536 0.0418301 1 37 36 32
-0.573953 0.0385185 0.920833 37 36 33
-0.594941 0.0402654 0.962595 37 37 34
-0.612822 0.0418301 1 37 36 33
