ply
format ascii 1.0
element vertex 1325
property float x
property float y
property float z
property uchar red
property uchar green
property uchar blue
end_header
-0.299674 -0.362614 1.73375 37 38 34
-0.285746 -0.356566 1.70483 37 38 34
-0.272325 -0.350781 1.67717 37 38 34
-0.272431 -0.362614 1.73375 37 38 35
-0.254756 -0.350781 1.67717 38 39 35
-0.252014 -0.359399 1.71838 38 39 35
-0.241098 -0.356566 1.70483 38 39 35
-0.235705 -0.361998 1.7308 38 38 34
-0.221301 -0.35347 1.69003 38 37 34
-0.216215 -0.359736 1.71999 38 37 34
-0.203597 -0.35347 1.69003 38 38 35
-0.201228 -0.365238 1.74629 38 37 34
-0.185893 -0.35347 1.69003 37 37 34
-0.178591 -0.356566 1.70483 37 37 33
-0.177706 -0.373473 1.78567 37 37 34
-0.162161 -0.359736 1.71999 37 37 34
-0.14934 -0.350781 1.67717 37 37 34
-0.144143 -0.359736 1.71999 37 37 34
-0.133943 -0.356566 1.70483 37 37 34
-0.122986 -0.350781 1.67717 36 37 34
-0.114201 -0.350781 1.67717 37 38 34
-0.109761 -0.365238 1.74629 37 38 35
-0.0951111 -0.345262 1.65078 38 38 35
-0.0872567 -0.348424 1.6659 37 37 34
-0.0803661 -0.356566 1.70483 36 36 32
-0.0714365 -0.356566 1.70483 36 36 32
-0.058982 -0.336459 1.60869 38 38 35
-0.0543936 -0.361998 1.7308 38 38 35
-0.0457336 -0.365238 1.74629 38 39 35
-0.0354081 -0.35347 1.69003 38 39 35
-0.0270268 -0.359736 1.71999 38 39 35
-0.0178591 -0.356566 1.70483 38 38 35
-0.00876704 -0.350076 1.6738 37 38 35
0 -0.359736 1.71999 37 38 34
0.00870257 -0.347502 1.66149 37 39 35
0.0174051 -0.347502 1.66149 37 39 35
0.0265803 -0.353793 1.69157 37 39 35
0.0338691 -0.338107 1.61657 36 38 35
0.0446478 -0.356566 1.70483 35 37 33
0.0522154 -0.347502 1.66149 35 36 33
0.060918 -0.347502 1.66149 34 36 32
0.0696205 -0.347502 1.66149 35 36 32
0.0817293 -0.362614 1.73375 34 36 32
0.0864646 -0.345262 1.65078 34 36 32
0.0973724 -0.35347 1.69003 35 36 32
0.105416 -0.350781 1.67717 35 37 33
0.114201 -0.350781 1.67717 37 38 34
0.122986 -0.350781 1.67717 38 39 35
0.132902 -0.353793 1.69157 39 40 36
0.140782 -0.351347 1.67988 38 39 35
0.151803 -0.356566 1.70483 37 38 35
0.162161 -0.359736 1.71999 37 38 35
0.173788 -0.365238 1.74629 37 38 34
0.178591 -0.356566 1.70483 37 37 34
0.186062 -0.353793 1.69157 37 37 34
0.199783 -0.362614 1.73375 37 37 34
0.207012 -0.359399 1.71838 37 37 35
0.212643 -0.353793 1.69157 37 38 35
0.221503 -0.353793 1.69157 37 38 35
0.232169 -0.356566 1.70483 37 38 35
0.239005 -0.35347 1.69003 38 38 35
0.250028 -0.356566 1.70483 38 38 34
0.249776 -0.343924 1.64438 37 38 34
0.265561 -0.35347 1.69003 37 37 33
0.267001 -0.343924 1.64438 36 37 32
0.295644 -0.368917 1.76388 36 38 33
0.297295 -0.359736 1.71999 37 39 34
0.310989 -0.365238 1.74629 37 39 34
0.315313 -0.359736 1.71999 37 39 35
0.326917 -0.362614 1.73375 37 39 35
0.333331 -0.359736 1.71999 36 37 35
0.34234 -0.359736 1.71999 36 38 35
0.341914 -0.350076 1.6738 37 39 36
0.357183 -0.356566 1.70483 37 38 35
0.362933 -0.35347 1.69003 37 39 35
0.375042 -0.356566 1.70483 36 38 34
0.391318 -0.363389 1.73745 36 38 34
0.392901 -0.356566 1.70483 36 38 35
0.398342 -0.35347 1.69003 37 39 35
0.424988 -0.368917 1.76388 37 39 36
0.41969 -0.356566 1.70483 37 39 36
0.443465 -0.368917 1.76388 36 38 35
0.437549 -0.356566 1.70483 37 39 36
0.461943 -0.368917 1.76388 37 39 36
0.471182 -0.368917 1.76388 38 40 36
0.480421 -0.368917 1.76388 38 40 36
0.481295 -0.362614 1.73375 38 39 36
0.489542 -0.361998 1.7308 38 38 35
0.50307 -0.365238 1.74629 37 37 34
0.519639 -0.370531 1.7716 37 37 34
0.508985 -0.356566 1.70483 37 37 34
0.53051 -0.365238 1.74629 36 37 33
0.539657 -0.365238 1.74629 36 37 33
0.544862 -0.362614 1.73375 36 37 33
0.573566 -0.37546 1.79517 37 38 34
0.579342 -0.373124 1.784 36 38 34
0.585809 -0.3713 1.77528 37 38 34
0.58708 -0.366292 1.75133 37 38 34
0.590267 -0.362614 1.73375 37 38 34
0.603684 -0.365238 1.74629 37 38 34
0.612831 -0.365238 1.74629 37 38 34
0.628243 -0.368917 1.76388 37 38 34
0.645354 -0.373473 1.78567 37 38 34
0.640271 -0.365238 1.74629 37 38 34
0.639635 -0.359736 1.71999 38 39 35
0.662889 -0.367637 1.75776 38 39 35
0.686399 -0.37546 1.79517 37 38 34
0.678811 -0.366292 1.75133 36 38 33
0.700817 -0.373124 1.784 36 37 33
0.68468 -0.359736 1.71999 37 38 34
0.704298 -0.365238 1.74629 37 39 34
0.72885 -0.373124 1.784 36 38 33
0.738194 -0.373124 1.784 35 36 31
0.761741 -0.380213 1.81789 35 37 32
0.76162 -0.37546 1.79517 36 38 34
0.784914 -0.382224 1.82751 36 38 34
0.785647 -0.377972 1.80718 35 37 34
0.799828 -0.380213 1.81789 36 38 35
0.809349 -0.380213 1.81789 36 38 35
0.821094 -0.381245 1.82283 36 39 35
0.840308 -0.385682 1.84404 36 38 34
0.814111 -0.369412 1.76625 36 38 34
0.842441 -0.377972 1.80718 36 38 34
0.869284 -0.385682 1.84404 36 38 35
0.862703 -0.378556 1.80997 36 38 34
0.858524 -0.372627 1.78162 36 38 34
0.908768 -0.390194 1.86561 36 38 34
0.883856 -0.37546 1.79517 36 38 34
0.950232 -0.399407 1.90967 36 37 33
0.920427 -0.382849 1.8305 36 37 34
0.921862 -0.379493 1.81445 36 38 34
0.967836 -0.394353 1.8855 36 38 35
1.00716 -0.406229 1.94228 36 39 35
0.948025 -0.378556 1.80997 35 38 35
0.949675 -0.37546 1.79517 35 37 34
1.00137 -0.392018 1.87433 35 37 34
1.01721 -0.394353 1.8855 36 38 35
1.02709 -0.394353 1.8855 37 38 35
1.01416 -0.385682 1.84404 37 39 36
1.06646 -0.401743 1.92083 37 39 36
1.04287 -0.389185 1.86079 37 39 36
1.05262 -0.389185 1.86079 36 38 35
1.10162 -0.403567 1.92955 35 37 35
1.02072 -0.370531 1.7716 36 38 35
1.12183 -0.403567 1.92955 35 37 35
1.06933 -0.381245 1.82283 35 37 34
1.07888 -0.381245 1.82283 36 38 35
1.13144 -0.396311 1.89486 36 37 35
1.20469 -0.418301 2 35 37 34
1.12041 -0.385682 1.84404 35 37 34
1.10012 -0.37546 1.79517 36 38 35
1.18029 -0.399407 1.90967 35 37 35
1.13617 -0.381245 1.82283 36 38 36
-0.542882 -0.176132 0.863725 40 37 35
-0.538358 -0.176132 0.863725 39 37 35
-0.537243 -0.177257 0.869241 38 37 35
-0.545644 -0.181568 0.89038 36 36 34
-0.528137 -0.177257 0.869241 35 35 33
-0.536317 -0.181568 0.89038 36 36 34
-0.55171 -0.188417 0.923969 36 36 34
-0.536452 -0.184828 0.906367 37 38 35
-0.506689 -0.176132 0.863725 39 39 36
-0.520269 -0.182482 0.894863 38 37 35
-0.545662 -0.193128 0.947071 37 36 33
-0.513255 -0.183325 0.898997 37 37 33
-0.484006 -0.174478 0.855615 37 37 33
-0.533053 -0.193955 0.951125 37 38 34
-0.528071 -0.193955 0.951125 37 38 34
-0.508154 -0.188417 0.923969 36 37 33
-0.504893 -0.189008 0.926867 36 37 33
-0.510938 -0.193128 0.947071 35 36 32
-0.508144 -0.193955 0.951125 35 36 33
-0.505002 -0.194664 0.954604 36 36 34
-0.500002 -0.194664 0.954604 36 35 34
-0.518542 -0.203922 1 37 36 35
-0.513304 -0.203922 1 37 37 35
-0.508066 -0.203922 1 37 36 34
-0.490523 -0.198931 0.975527 37 36 34
-0.484926 -0.198732 0.974549 38 37 35
-0.517375 -0.214285 1.05082 38 37 35
-0.500029 -0.209328 1.02651 37 37 35
-0.470084 -0.198931 0.975527 37 37 34
-0.491078 -0.210099 1.03029 37 37 35
-0.527888 -0.228357 1.11983 38 38 36
-0.490838 -0.214715 1.05293 40 39 37
-0.487529 -0.215691 1.05772 39 39 37
-0.470181 -0.210407 1.0318 37 37 34
-0.491142 -0.222343 1.09033 36 36 34
-0.487413 -0.223251 1.09479 38 37 35
-0.452698 -0.209818 1.02892 38 38 35
-0.462322 -0.216861 1.06345 39 38 35
-0.458175 -0.217537 1.06677 39 38 35
-0.452588 -0.217537 1.06677 37 36 33
-0.460799 -0.224252 1.0997 36 36 32
-0.468445 -0.230859 1.1321 36 36 34
-0.439007 -0.219125 1.07455 37 38 35
-0.462644 -0.233922 1.14712 36 37 34
-0.448097 -0.229548 1.12567 36 37 34
-0.447521 -0.232309 1.13921 36 37 34
-0.448046 -0.235725 1.15596 36 37 34
-0.450102 -0.240051 1.17717 36 37 34
-0.465273 -0.251588 1.23375 36 37 34
-0.467741 -0.256485 1.25776 37 38 35
-0.452349 -0.251588 1.23375 37 37 35
-0.445887 -0.251588 1.23375 36 37 34
-0.433949 -0.248453 1.21838 35 36 33
-0.454516 -0.264113 1.29517 37 38 35
-0.447732 -0.264113 1.29517 38 39 36
-0.422928 -0.253319 1.24224 37 38 35
-0.460703 -0.280256 1.37433 36 36 34
-0.436509 -0.269753 1.32283 36 36 34
-0.446306 -0.280256 1.37433 36 36 35
-0.439107 -0.280256 1.37433 37 36 35
-0.458083 -0.29724 1.45762 36 36 34
-0.435629 -0.287461 1.40967 38 37 35
-0.428245 -0.287461 1.40967 38 37 35
-0.43324 -0.295916 1.45113 36 35 33
-0.423046 -0.294113 1.44228 35 34 31
-0.442894 -0.31351 1.53741 37 36 34
-0.424261 -0.305882 1.5 38 37 36
-0.391328 -0.287461 1.40967 37 36 35
-0.408548 -0.305882 1.5 36 35 34
-0.43926 -0.335325 1.64438 37 36 35
-0.420369 -0.327322 1.60514 37 36 34
-0.428481 -0.340447 1.6695 37 36 34
-0.391632 -0.317652 1.55772 36 36 33
-0.448737 -0.371714 1.82283 37 38 35
-0.361408 -0.305882 1.5 38 38 36
-0.40183 -0.347652 1.70483 38 38 35
-0.41372 -0.366073 1.79517 38 38 35
-0.383971 -0.347652 1.70483 37 38 35
-0.381403 -0.353549 1.73375 36 37 34
-0.366112 -0.347652 1.70483 37 38 35
-0.361349 -0.351708 1.72472 37 38 36
-0.351767 -0.35116 1.72203 36 37 35
-0.336377 -0.344634 1.69003 36 37 34
-0.321995 -0.338814 1.66149 37 38 35
-0.313292 -0.338814 1.66149 38 39 36
-0.30459 -0.338814 1.66149 37 38 34
-0.306017 -0.350414 1.71838 37 37 34
-0.294676 -0.347652 1.70483 37 38 34
-0.288016 -0.350414 1.71838 38 38 35
-0.276817 -0.347652 1.70483 37 38 34
-0.265561 -0.344634 1.69003 36 37 34
-0.256943 -0.344948 1.69157 37 38 35
-0.254269 -0.353549 1.73375 38 39 35
-0.241098 -0.347652 1.70483 38 38 34
-0.230153 -0.344634 1.69003 37 37 34
-0.219176 -0.341324 1.6738 38 38 34
-0.21431 -0.347652 1.70483 38 38 35
-0.207012 -0.350414 1.71838 38 38 35
-0.19645 -0.347652 1.70483 37 37 34
-0.186062 -0.344948 1.69157 37 37 34
-0.177202 -0.344948 1.69157 37 37 33
-0.167178 -0.342564 1.67988 37 37 34
-0.160732 -0.347652 1.70483 37 37 34
-0.150622 -0.344948 1.69157 37 36 33
-0.145049 -0.352948 1.7308 36 36 33
-0.134905 -0.350148 1.71707 36 37 33
-0.127406 -0.354304 1.73745 36 37 34
-0.120105 -0.359694 1.76388 37 38 35
-0.105416 -0.342011 1.67717 37 38 35
-0.0964374 -0.341324 1.6738 38 38 35
-0.0908103 -0.353549 1.73375 37 37 34
-0.078531 -0.339714 1.6659 36 36 33
-0.0698053 -0.339714 1.6659 36 36 32
-0.0605252 -0.33663 1.65078 37 38 34
-0.0543936 -0.352948 1.7308 38 39 35
-0.0450025 -0.350414 1.71838 38 39 35
-0.036002 -0.350414 1.71838 37 38 35
-0.0273012 -0.354304 1.73745 37 38 34
-0.0174513 -0.339714 1.6659 37 38 34
-0.00864646 -0.33663 1.65078 37 38 34
0 -0.347652 1.70483 36 38 34
0.00900894 -0.350743 1.71999 37 38 35
0.0180179 -0.350743 1.71999 37 39 35
0.026177 -0.339714 1.6659 37 38 35
0.0354081 -0.344634 1.69003 36 38 35
0.0439234 -0.342011 1.67717 36 37 34
0.0540537 -0.350743 1.71999 36 37 34
0.0619642 -0.344634 1.69003 35 36 33
0.0728033 -0.354304 1.73745 36 37 34
0.0823205 -0.356107 1.74629 36 37 35
0.0914672 -0.356107 1.74629 36 38 35
0.0990984 -0.350743 1.71999 36 38 34
0.107155 -0.347652 1.70483 35 38 34
0.115076 -0.344634 1.69003 36 38 34
0.126007 -0.350414 1.71838 37 38 34
0.127724 -0.331508 1.62567 38 39 35
0.141762 -0.344948 1.69157 37 38 35
0.151803 -0.347652 1.70483 37 38 34
0.155033 -0.335325 1.64438 38 38 35
0.166909 -0.342011 1.67717 38 38 35
0.172929 -0.33663 1.65078 38 38 35
0.194865 -0.361267 1.7716 37 37 34
0.188333 -0.333287 1.63439 36 36 34
0.20931 -0.354304 1.73745 37 37 34
0.212643 -0.344948 1.69157 37 37 34
0.219617 -0.342011 1.67717 37 38 35
0.230153 -0.344634 1.69003 37 38 35
0.241098 -0.347652 1.70483 38 38 35
0.245971 -0.342011 1.67717 38 38 34
0.261259 -0.350743 1.71999 38 38 34
0.265561 -0.344634 1.69003 37 37 33
0.274097 -0.344237 1.68808 37 38 32
0.290593 -0.353549 1.73375 36 37 32
0.301842 -0.356107 1.74629 36 38 32
0.308755 -0.353549 1.73375 36 38 33
0.312535 -0.347652 1.70483 37 38 34
0.324322 -0.350743 1.71999 37 38 35
0.333019 -0.350414 1.71838 36 38 35
0.345079 -0.353549 1.73375 36 38 35
0.348253 -0.347652 1.70483 37 38 36
0.366925 -0.357134 1.75133 37 39 36
0.379738 -0.360591 1.76828 37 38 35
0.388032 -0.359694 1.76388 36 38 35
0.393309 -0.356107 1.74629 36 38 34
0.389489 -0.344634 1.69003 36 38 35
0.395311 -0.342011 1.67717 37 39 36
0.417727 -0.353549 1.73375 37 40 36
0.416046 -0.344634 1.69003 37 39 36
0.428619 -0.347652 1.70483 36 38 35
0.437549 -0.347652 1.70483 36 38 35
0.442602 -0.344634 1.69003 36 38 35
0.455408 -0.347652 1.70483 36 38 35
0.486354 -0.364136 1.78567 36 38 35
0.480476 -0.352948 1.7308 37 38 35
0.482197 -0.347652 1.70483 38 38 35
0.51036 -0.361267 1.7716 37 37 34
0.517376 -0.359694 1.76388 36 37 33
0.526615 -0.359694 1.76388 37 37 34
0.522029 -0.350414 1.71838 36 37 33
0.52227 -0.344634 1.69003 37 37 34
0.560654 -0.363796 1.784 37 38 34
0.534789 -0.341324 1.6738 37 38 34
0.579883 -0.364136 1.78567 36 38 34
0.580028 -0.358446 1.75776 37 39 35
0.56109 -0.341324 1.6738 38 39 35
0.611177 -0.366073 1.79517 37 38 34
0.616719 -0.363796 1.784 36 38 34
0.598281 -0.347652 1.70483 37 38 34
0.653993 -0.374437 1.83618 37 38 34
0.621617 -0.350743 1.71999 37 38 34
0.654096 -0.363796 1.784 36 38 34
0.655959 -0.359694 1.76388 38 39 35
0.665198 -0.359694 1.76388 38 39 35
0.690262 -0.368134 1.80527 38 39 34
0.688093 -0.362018 1.77528 37 39 34
0.705204 -0.366073 1.79517 37 38 33
0.702153 -0.359694 1.76388 36 37 33
0.724009 -0.366073 1.79517 36 38 33
0.733412 -0.366073 1.79517 36 38 33
0.738194 -0.363796 1.784 35 37 32
0.747538 -0.363796 1.784 35 37 32
0.756882 -0.363796 1.784 36 38 34
0.746234 -0.354304 1.73745 35 38 34
0.801673 -0.37604 1.84404 36 38 34
0.815222 -0.377843 1.85288 36 38 35
0.820991 -0.37604 1.84404 36 39 35
0.802533 -0.363312 1.78162 36 39 35
0.800991 -0.358446 1.75776 36 38 34
0.834262 -0.369092 1.80997 36 38 34
0.859626 -0.37604 1.84404 37 38 35
0.83986 -0.363312 1.78162 37 39 35
0.855647 -0.366073 1.79517 37 39 35
0.87838 -0.371714 1.82283 37 38 35
0.874453 -0.366073 1.79517 36 38 34
0.877188 -0.363312 1.78162 36 38 34
0.923337 -0.3784 1.85562 35 37 33
0.973752 -0.394904 1.93655 35 37 33
0.95796 -0.384494 1.8855 36 38 34
0.902266 -0.358446 1.75776 36 38 35
0.94919 -0.373278 1.8305 36 38 35
0.987587 -0.384494 1.8855 36 38 35
1.03003 -0.39705 1.94707 35 37 34
0.977953 -0.373278 1.8305 35 37 34
1.01721 -0.384494 1.8855 35 37 34
0.997129 -0.373278 1.8305 35 37 34
1.03082 -0.382217 1.87433 36 38 35
1.11041 -0.407843 2 37 39 36
1.08141 -0.393478 1.92955 36 38 35
0.994334 -0.358446 1.75776 35 37 35
1.11162 -0.39705 1.94707 36 38 36
1.10027 -0.389422 1.90967 37 39 36
1.11676 -0.391699 1.92083 35 37 35
1.06933 -0.371714 1.82283 34 36 34
1.14205 -0.393478 1.92955 36 37 35
1.24816 -0.426264 2.09033 36 37 35
1.15028 -0.389422 1.90967 35 37 34
1.17237 -0.393478 1.92955 35 36 34
1.10012 -0.366073 1.79517 35 37 34
1.23612 -0.407843 2 35 37 35
1.2466 -0.407843 2 35 37 36
-0.542882 -0.171616 0.863725 39 36 34
-0.534621 -0.170425 0.85773 39 37 35
-0.56913 -0.182963 0.920833 38 37 35
-0.550925 -0.178624 0.898997 37 36 34
-0.559484 -0.182963 0.920833 36 36 34
-0.526652 -0.173724 0.874334 36 37 34
-0.519031 -0.172712 0.869241 36 37 34
-0.506414 -0.170005 0.855615 36 37 34
-0.529624 -0.179384 0.90282 37 37 34
-0.535368 -0.182963 0.920833 38 37 34
-0.532352 -0.183586 0.923969 38 36 33
-0.539394 -0.187721 0.944781 37 36 33
-0.524312 -0.184162 0.926867 38 36 33
-0.50598 -0.179384 0.90282 37 37 34
-0.555206 -0.198693 1 37 38 35
-0.523089 -0.188982 0.951125 38 39 35
-0.544731 -0.198693 1 37 38 35
-0.512075 -0.188595 0.949179 37 38 34
-0.509107 -0.18934 0.952929 36 37 34
-0.49175 -0.184696 0.929553 36 36 34
-0.510449 -0.193636 0.974549 36 35 34
-0.46815 -0.179384 0.90282 36 35 33
-0.457036 -0.176912 0.89038 36 36 34
-0.469438 -0.183586 0.923969 36 35 34
-0.515134 -0.203555 1.02447 37 36 34
-0.497591 -0.198693 1 38 38 36
-0.505972 -0.204189 1.02766 37 37 35
-0.512898 -0.209209 1.05293 36 36 34
-0.481877 -0.198693 1 36 37 34
-0.463455 -0.193197 0.972338 37 37 35
-0.497432 -0.209664 1.05522 39 38 36
-0.479059 -0.204189 1.02766 40 40 38
-0.474255 -0.204438 1.02892 39 39 36
-0.493315 -0.215099 1.08257 36 36 33
-0.491142 -0.216642 1.09033 37 36 34
-0.487413 -0.217526 1.09479 38 37 35
-0.495265 -0.223662 1.12567 38 37 34
-0.492164 -0.224939 1.1321 38 37 34
-0.486234 -0.224939 1.1321 37 36 33
-0.493763 -0.231242 1.16382 37 37 33
-0.477356 -0.226353 1.13921 37 37 34
-0.45729 -0.219583 1.10514 37 37 34
-0.453979 -0.220787 1.1112 37 37 34
-0.46621 -0.229681 1.15596 35 36 33
-0.488992 -0.244074 1.2284 35 36 33
-0.436518 -0.220787 1.1112 35 36 32
-0.451901 -0.231657 1.1659 35 36 33
-0.465857 -0.242083 1.21838 35 36 33
-0.448786 -0.23645 1.19003 36 37 34
-0.43777 -0.233895 1.17717 36 37 34
-0.419584 -0.227381 1.14438 36 37 34
-0.430086 -0.23645 1.19003 36 36 33
-0.484673 -0.270379 1.36079 36 37 34
-0.432963 -0.245137 1.23375 37 38 35
-0.447732 -0.25734 1.29517 38 39 36
-0.440948 -0.25734 1.29517 37 38 35
-0.416422 -0.246824 1.24224 36 37 34
-0.436509 -0.262837 1.32283 36 36 34
-0.42958 -0.262837 1.32283 36 37 35
-0.450396 -0.28009 1.40967 37 37 35
-0.431909 -0.27307 1.37433 36 36 34
-0.463545 -0.298039 1.5 36 35 33
-0.455688 -0.298039 1.5 37 36 34
-0.462423 -0.30775 1.54887 36 35 33
-0.425639 -0.288328 1.45113 35 34 32
-0.406095 -0.28009 1.40967 36 35 33
-0.424261 -0.298039 1.5 37 36 35
-0.441482 -0.315988 1.59033 37 36 34
-0.433152 -0.315988 1.59033 37 36 35
-0.428776 -0.318929 1.60514 38 37 35
-0.463964 -0.352004 1.7716 38 37 35
-0.428481 -0.331718 1.6695 37 37 34
-0.428619 -0.338738 1.70483 36 36 34
-0.404809 -0.326727 1.64438 37 38 35
-0.402247 -0.331718 1.6695 38 38 35
-0.40183 -0.338738 1.70483 38 38 35
-0.408288 -0.352004 1.7716 37 38 35
-0.370357 -0.326727 1.64438 37 37 34
-0.384685 -0.347448 1.74867 36 37 34
-0.361232 -0.334222 1.68211 35 36 34
-0.368272 -0.349255 1.75776 36 36 34
-0.360316 -0.350471 1.76388 36 36 34
-0.339324 -0.338738 1.70483 36 37 34
-0.325033 -0.333242 1.67717 37 38 35
-0.330232 -0.347977 1.75133 37 38 35
-0.30459 -0.330127 1.66149 37 38 34
-0.298079 -0.332573 1.6738 37 37 34
-0.294676 -0.338738 1.70483 38 38 35
-0.278482 -0.330127 1.66149 38 38 35
-0.286405 -0.350471 1.76388 36 37 34
-0.274402 -0.346976 1.74629 36 37 34
-0.26335 -0.344484 1.73375 36 37 34
-0.248083 -0.336103 1.69157 36 37 34
-0.245188 -0.344484 1.73375 37 37 34
-0.234013 -0.341429 1.71838 37 37 33
-0.219617 -0.333242 1.67717 38 38 34
-0.216012 -0.341429 1.71838 39 38 35
-0.207206 -0.341749 1.71999 39 39 36
-0.191456 -0.330127 1.66149 38 38 35
-0.187521 -0.338738 1.70483 37 37 34
-0.172929 -0.327999 1.65078 37 37 34
-0.169662 -0.338738 1.70483 38 38 35
-0.160732 -0.338738 1.70483 38 38 34
-0.154377 -0.344484 1.73375 37 36 33
-0.139241 -0.330127 1.66149 36 36 33
-0.132902 -0.336103 1.69157 36 37 34
-0.121836 -0.330127 1.66149 36 37 34
-0.118907 -0.346976 1.74629 36 37 34
-0.107155 -0.338738 1.70483 37 38 35
-0.0982252 -0.338738 1.70483 37 38 35
-0.0923886 -0.350471 1.76388 37 37 34
-0.0803661 -0.338738 1.70483 37 37 34
-0.072004 -0.341429 1.71838 37 37 33
-0.0613693 -0.332573 1.6738 38 38 35
-0.0522154 -0.330127 1.66149 38 39 35
-0.0428029 -0.324741 1.63439 38 39 35
-0.0357183 -0.338738 1.70483 37 38 35
-0.0267887 -0.338738 1.70483 36 37 34
-0.0178591 -0.338738 1.70483 36 37 34
-0.00914672 -0.346976 1.74629 36 37 34
0 -0.327999 1.65078 36 38 34
0.00870257 -0.330127 1.66149 36 38 34
0.0180179 -0.341749 1.71999 36 38 34
0.0261077 -0.330127 1.66149 36 38 34
0.036002 -0.341429 1.71838 36 38 35
0.0450447 -0.341749 1.71999 36 38 35
0.0522154 -0.330127 1.66149 36 37 34
0.0619642 -0.335797 1.69003 36 37 34
0.0702774 -0.333242 1.67717 37 38 35
0.078531 -0.331003 1.6659 37 39 36
0.0914672 -0.346976 1.74629 36 38 35
0.0982252 -0.338738 1.70483 36 38 34
0.106224 -0.335797 1.69003 35 37 33
0.113434 -0.331003 1.6659 35 37 33
0.124041 -0.336103 1.69157 37 37 34
0.13177 -0.333242 1.67717 37 38 34
0.139241 -0.330127 1.66149 37 37 34
0.153152 -0.341749 1.71999 36 37 33
0.158124 -0.333242 1.67717 38 38 35
0.168189 -0.335797 1.69003 39 39 36
0.178591 -0.338738 1.70483 38 38 35
0.187521 -0.338738 1.70483 38 39 35
0.193263 -0.333242 1.67717 38 38 35
0.208864 -0.344484 1.73375 38 38 35
0.216215 -0.341749 1.71999 37 37 34
0.221301 -0.335797 1.69003 37 38 35
0.232169 -0.338738 1.70483 38 38 35
0.239005 -0.335797 1.69003 38 38 35
0.250028 -0.338738 1.70483 38 38 35
0.258957 -0.338738 1.70483 39 39 35
0.267887 -0.338738 1.70483 39 39 35
0.285411 -0.349255 1.75776 38 39 34
0.288016 -0.341429 1.71838 37 37 33
0.292384 -0.336103 1.69157 36 37 32
0.303605 -0.338738 1.70483 36 38 33
0.309821 -0.335797 1.69003 36 38 34
0.318673 -0.335797 1.69003 36 38 34
0.333019 -0.341429 1.71838 36 37 35
0.336377 -0.335797 1.69003 36 38 35
0.351349 -0.341749 1.71999 37 38 36
0.363241 -0.344484 1.73375 37 39 36
0.356805 -0.330127 1.66149 37 39 35
0.388032 -0.350471 1.76388 36 38 35
0.380637 -0.335797 1.69003 36 38 34
0.399565 -0.344484 1.73375 36 38 35
0.414306 -0.349255 1.75776 37 39 36
0.41076 -0.338738 1.70483 37 39 36
0.423024 -0.341429 1.71838 37 39 36
0.432429 -0.341749 1.71999 36 38 35
0.449483 -0.347977 1.75133 36 38 35
0.439234 -0.333242 1.67717 36 38 34
0.466483 -0.346976 1.74629 36 37 34
0.47563 -0.346976 1.74629 36 38 34
0.473267 -0.338738 1.70483 37 38 34
0.490376 -0.344484 1.73375 37 37 34
0.50307 -0.346976 1.74629 37 37 34
0.512217 -0.346976 1.74629 37 37 34
0.526615 -0.350471 1.76388 38 38 35
0.522519 -0.341749 1.71999 37 38 34
0.535781 -0.344484 1.73375 37 38 34
0.540537 -0.341749 1.71999 37 38 34
0.56357 -0.350471 1.76388 37 38 34
0.570822 -0.349255 1.75776 37 39 35
0.572105 -0.344484 1.73375 38 39 36
0.571492 -0.338738 1.70483 38 39 35
0.590267 -0.344484 1.73375 36 38 34
0.599348 -0.344484 1.73375 37 38 34
0.612831 -0.346976 1.74629 37 38 35
0.623772 -0.347977 1.75133 37 39 35
0.635269 -0.349255 1.75776 38 39 35
0.640271 -0.346976 1.74629 37 39 35
0.651291 -0.347977 1.75133 38 39 35
0.676996 -0.356687 1.79517 38 39 35
0.662915 -0.344484 1.73375 38 39 34
0.681303 -0.349255 1.75776 38 39 34
0.705204 -0.356687 1.79517 38 39 35
0.70669 -0.352735 1.77528 37 38 34
0.728085 -0.358694 1.80527 36 37 33
0.723784 -0.352004 1.7716 36 37 32
0.738194 -0.354468 1.784 35 37 32
0.752218 -0.356687 1.79517 35 37 33
0.766716 -0.359073 1.80718 36 38 34
0.746234 -0.345219 1.73745 36 38 34
0.764164 -0.349255 1.75776 36 39 34
0.799828 -0.361203 1.81789 36 39 35
0.799231 -0.356687 1.79517 37 39 36
0.775691 -0.342156 1.72203 37 39 35
0.835776 -0.364422 1.8341 37 38 35
0.845382 -0.364422 1.8341 37 38 35
0.836842 -0.356687 1.79517 37 38 35
0.853223 -0.359628 1.80997 38 39 35
0.874202 -0.364422 1.8341 38 39 36
0.883809 -0.364422 1.8341 38 39 35
0.881663 -0.359628 1.80997 35 37 33
0.860962 -0.347448 1.74867 35 37 33
0.950232 -0.379437 1.90967 34 36 32
0.91657 -0.362183 1.82283 35 37 32
0.878142 -0.343421 1.7284 35 38 34
0.897598 -0.347448 1.74867 35 38 35
0.930869 -0.356687 1.79517 36 39 35
0.931262 -0.353269 1.77797 36 39 35
0.968366 -0.363707 1.8305 35 37 34
0.959077 -0.356687 1.79517 35 37 34
1.04475 -0.384778 1.93655 35 36 34
0.997129 -0.363707 1.8305 35 37 34
1.00672 -0.363707 1.8305 36 38 35
0.983603 -0.352004 1.7716 36 38 35
1.03348 -0.366398 1.84404 35 38 35
1.09151 -0.383388 1.92955 35 38 35
1.06236 -0.369726 1.86079 36 38 36
1.11576 -0.384778 1.93655 36 38 36
1.16279 -0.397386 2 35 37 35
1.12682 -0.381656 1.92083 36 37 35
1.13689 -0.381656 1.92083 37 39 36
1.11109 -0.369726 1.86079 36 38 36
1.24713 -0.411383 2.07045 35 37 34
1.10752 -0.362183 1.82283 34 36 34
1.16121 -0.376496 1.89486 33 35 33
1.02348 -0.329027 1.65596 34 36 34
1.14939 -0.366398 1.84404 35 37 35
-0.562453 -0.173124 0.894863 39 36 34
-0.554972 -0.172256 0.89038 38 36 34
-0.52538 -0.164454 0.850047 37 36 34
-0.53269 -0.168167 0.869241 36 36 33
-0.555162 -0.176772 0.91372 36 36 33
-0.508406 -0.163292 0.844042 36 36 33
-0.549838 -0.178148 0.920833 36 36 33
-0.514479 -0.168167 0.869241 36 36 32
-0.509926 -0.168167 0.869241 36 36 32
-0.517663 -0.172256 0.89038 37 36 33
-0.510188 -0.171313 0.885502 37 36 33
-0.525722 -0.178148 0.920833 37 37 33
-0.55235 -0.188905 0.976432 37 36 33
-0.516076 -0.178148 0.920833 37 37 34
-0.529072 -0.184357 0.952929 37 38 34
-0.5379 -0.189219 0.978056 36 38 34
-0.504893 -0.179315 0.926867 36 37 34
-0.525762 -0.18854 0.974549 36 37 33
-0.505977 -0.183224 0.947071 36 36 33
-0.514993 -0.188335 0.973489 36 36 34
-0.49716 -0.183632 0.949179 35 35 33
-0.518542 -0.193464 1 36 36 34
-0.50024 -0.18854 0.974549 37 37 35
-0.483235 -0.184009 0.951125 36 36 34
-0.490978 -0.188905 0.976432 36 36 34
-0.497591 -0.193464 1 37 37 35
-0.492353 -0.193464 1 38 37 35
-0.500029 -0.198593 1.02651 38 37 35
-0.495812 -0.199059 1.02892 38 38 36
-0.489275 -0.198593 1.02651 38 38 36
-0.499897 -0.205159 1.06045 38 38 36
-0.466164 -0.193464 1 39 39 36
-0.475586 -0.199617 1.0318 39 39 36
-0.481989 -0.20463 1.05772 39 38 36
-0.491142 -0.210941 1.09033 39 38 36
-0.472125 -0.205159 1.06045 38 37 35
-0.46657 -0.205159 1.06045 37 36 34
-0.474009 -0.210941 1.09033 37 36 34
-0.489289 -0.220396 1.13921 36 36 32
-0.483322 -0.220396 1.13921 37 37 33
-0.468467 -0.216292 1.118 38 38 34
-0.45729 -0.213804 1.10514 37 38 34
-0.456755 -0.216292 1.118 37 37 34
-0.495427 -0.237651 1.2284 36 37 34
-0.479611 -0.233092 1.20483 36 36 33
-0.468582 -0.230768 1.19282 35 36 33
-0.472239 -0.235712 1.21838 35 36 33
-0.445794 -0.225561 1.1659 36 37 34
-0.439687 -0.225561 1.1659 36 37 34
-0.453094 -0.235712 1.21838 36 37 34
-0.452349 -0.238686 1.23375 35 36 33
-0.430086 -0.230228 1.19003 36 37 34
-0.475908 -0.258503 1.33618 37 38 35
-0.428851 -0.23642 1.22203 38 39 36
-0.432579 -0.242088 1.25133 38 39 36
-0.431103 -0.244974 1.26625 38 38 35
-0.434165 -0.250568 1.29517 38 38 36
-0.453504 -0.265884 1.37433 37 37 36
-0.471243 -0.280741 1.45113 37 37 36
-0.479258 -0.290196 1.5 37 37 36
-0.443012 -0.27272 1.40967 37 37 35
-0.448441 -0.280741 1.45113 38 38 36
-0.440841 -0.280741 1.45113 40 38 37
-0.460484 -0.298395 1.54238 38 37 35
-0.397624 -0.262263 1.35562 36 35 34
-0.432118 -0.290196 1.5 37 36 34
-0.436248 -0.298395 1.54238 38 37 36
-0.456486 -0.318129 1.64438 37 37 35
-0.42186 -0.299652 1.54887 37 36 35
-0.448019 -0.324472 1.67717 38 37 35
-0.420369 -0.310536 1.60514 38 37 35
-0.428481 -0.322988 1.6695 36 35 33
-0.419736 -0.322988 1.6695 35 35 32
-0.369265 -0.290196 1.5 36 36 34
-0.41076 -0.329824 1.70483 37 38 35
-0.393503 -0.322988 1.6695 37 38 35
-0.392901 -0.329824 1.70483 37 37 35
-0.370357 -0.318129 1.64438 36 37 34
-0.394914 -0.3473 1.79517 36 36 34
-0.374145 -0.33706 1.74224 36 36 34
-0.357183 -0.329824 1.70483 36 36 34
-0.35102 -0.332444 1.71838 36 37 34
-0.325302 -0.316195 1.63439 37 38 35
-0.335998 -0.335418 1.73375 37 38 35
-0.329282 -0.337845 1.74629 36 38 34
-0.318515 -0.336134 1.73745 36 37 34
-0.298079 -0.323821 1.6738 36 37 33
-0.284227 -0.318129 1.64438 37 38 34
-0.291213 -0.336134 1.73745 37 38 34
-0.281512 -0.335418 1.73375 37 38 34
-0.267887 -0.329824 1.70483 37 38 34
-0.249776 -0.318129 1.64438 37 38 34
-0.254269 -0.335418 1.73375 36 38 34
-0.243014 -0.332444 1.71838 37 37 34
-0.230153 -0.32696 1.69003 37 36 33
-0.219617 -0.324472 1.67717 36 36 32
-0.216215 -0.332756 1.71999 36 36 32
-0.212494 -0.341248 1.76388 38 37 34
-0.198197 -0.332756 1.71999 38 38 35
-0.186062 -0.327258 1.69157 37 37 34
-0.184136 -0.340064 1.75776 37 36 33
-0.165788 -0.322293 1.6659 38 37 34
-0.157062 -0.322293 1.6659 38 38 34
-0.157061 -0.341248 1.76388 36 36 32
-0.141633 -0.32696 1.69003 35 35 32
-0.135008 -0.332444 1.71838 36 37 34
-0.125014 -0.329824 1.70483 37 38 35
-0.114201 -0.324472 1.67717 37 38 35
-0.107155 -0.329824 1.70483 37 38 35
-0.0964374 -0.323821 1.6738 37 37 35
-0.0878468 -0.324472 1.67717 37 37 34
-0.0819037 -0.336134 1.73745 37 37 34
-0.0708809 -0.327258 1.69157 37 36 33
-0.0610797 -0.322293 1.6659 38 38 35
-0.0544862 -0.335418 1.73375 38 38 35
-0.0450447 -0.332756 1.71999 38 39 35
-0.0357183 -0.329824 1.70483 37 38 35
-0.0265561 -0.32696 1.69003 36 38 35
-0.0173471 -0.320368 1.65596 37 38 35
-0.00864646 -0.319367 1.65078 36 38 35
0 -0.332444 1.71838 36 38 34
0.00885203 -0.32696 1.69003 37 38 34
0.0178591 -0.329824 1.70483 37 38 35
0.0267887 -0.329824 1.70483 37 38 35
0.0348103 -0.321439 1.66149 37 38 35
0.0454051 -0.335418 1.73375 36 38 35
0.0527081 -0.324472 1.67717 36 37 34
0.0630035 -0.332444 1.71838 36 37 34
0.0714365 -0.329824 1.70483 36 37 35
0.0810805 -0.332756 1.71999 36 38 34
0.0886011 -0.327258 1.69157 36 38 34
0.0966315 -0.324472 1.67717 36 37 34
0.106224 -0.32696 1.69003 35 37 33
0.116084 -0.329824 1.70483 36 37 33
0.12105 -0.319367 1.65078 37 37 33
0.133943 -0.329824 1.70483 37 37 34
0.138343 -0.319367 1.65078 37 37 34
0.14934 -0.324472 1.67717 37 38 34
0.159153 -0.326583 1.68808 38 39 35
0.163646 -0.318129 1.64438 38 38 35
0.178591 -0.329824 1.70483 37 37 34
0.187521 -0.329824 1.70483 37 37 34
0.194745 -0.32696 1.69003 37 38 35
0.210982 -0.33882 1.75133 37 38 35
0.223165 -0.343453 1.77528 36 36 33
0.223239 -0.329824 1.70483 38 38 35
0.237815 -0.337845 1.74629 39 39 36
0.239005 -0.32696 1.69003 38 38 35
0.248083 -0.327258 1.69157 37 37 34
0.256709 -0.32696 1.69003 38 38 34
0.267887 -0.329824 1.70483 38 39 34
0.276817 -0.329824 1.70483 38 38 34
0.270953 -0.312749 1.61657 37 37 32
0.304882 -0.341248 1.76388 36 37 32
0.314121 -0.341248 1.76388 37 38 34
0.312535 -0.329824 1.70483 36 37 33
0.318673 -0.32696 1.69003 35 36 33
0.325033 -0.324472 1.67717 35 36 34
0.353345 -0.343453 1.77528 36 37 34
0.341914 -0.323821 1.6738 36 38 35
0.354081 -0.32696 1.69003 37 38 35
0.376098 -0.33882 1.75133 37 39 35
0.375042 -0.329824 1.70483 37 39 35
0.392396 -0.33706 1.74224 36 38 35
0.396393 -0.332756 1.71999 36 39 35
0.405402 -0.332756 1.71999 37 39 36
0.421963 -0.33882 1.75133 37 39 36
0.41288 -0.324472 1.67717 36 38 35
0.439043 -0.337845 1.74629 35 37 34
0.437549 -0.329824 1.70483 36 38 34
0.446478 -0.329824 1.70483 37 39 35
0.471182 -0.341248 1.76388 37 38 35
0.47563 -0.337845 1.74629 37 38 35
0.477027 -0.332444 1.71838 37 38 35
0.50506 -0.345462 1.78567 37 37 34
0.508137 -0.341248 1.76388 37 37 33
0.508538 -0.335418 1.73375 37 37 33
0.505026 -0.327258 1.69157 37 38 34
0.53051 -0.337845 1.74629 37 38 34
0.521668 -0.326583 1.68808 38 38 34
0.540537 -0.332756 1.71999 38 39 35
0.553943 -0.335418 1.73375 38 38 35
0.58625 -0.349255 1.80527 37 38 35
0.592371 -0.3473 1.79517 38 39 35
0.605161 -0.349255 1.80527 37 38 34
0.596253 -0.33882 1.75133 37 38 34
0.613704 -0.343453 1.77528 38 39 35
0.641332 -0.353557 1.82751 38 39 35
0.639385 -0.3473 1.79517 38 39 36
0.637481 -0.341248 1.76388 38 39 35
0.65819 -0.3473 1.79517 37 38 34
0.644753 -0.335418 1.73375 37 38 34
0.668108 -0.342741 1.7716 38 39 35
0.690262 -0.349255 1.80527 38 39 35
0.666662 -0.332756 1.71999 38 39 34
0.709173 -0.349255 1.80527 38 39 35
0.714607 -0.3473 1.79517 38 39 34
0.714504 -0.342741 1.7716 37 38 34
0.746626 -0.353557 1.82751 36 37 32
0.738883 -0.345462 1.78567 35 37 32
0.747538 -0.34514 1.784 35 37 32
0.748348 -0.341248 1.76388 36 38 33
0.771023 -0.3473 1.79517 36 39 34
0.775571 -0.34514 1.784 37 39 35
0.795113 -0.349624 1.80718 37 39 35
0.775666 -0.33706 1.74224 38 40 36
0.814044 -0.349624 1.80718 37 39 36
0.800991 -0.340064 1.75776 37 39 35
0.827439 -0.3473 1.79517 37 38 35
0.836842 -0.3473 1.79517 37 38 34
0.83986 -0.34468 1.78162 36 37 34
0.855647 -0.3473 1.79517 38 39 35
0.851116 -0.341706 1.76625 38 39 36
0.860367 -0.341706 1.76625 36 37 34
0.928332 -0.364777 1.8855 34 36 32
0.893258 -0.3473 1.79517 34 36 32
0.956792 -0.368127 1.90282 34 36 32
0.936895 -0.356756 1.84404 35 37 34
1.02661 -0.386928 2 35 38 34
0.911473 -0.340064 1.75776 36 38 35
0.958778 -0.354136 1.8305 36 39 36
0.991555 -0.362616 1.87433 35 37 34
0.969381 -0.351031 1.81445 35 37 34
0.987541 -0.354136 1.8305 35 37 34
1.01363 -0.359996 1.86079 35 37 35
1.03697 -0.364777 1.8855 35 37 35
1.07518 -0.374653 1.93655 36 38 35
1.08533 -0.374653 1.93655 35 37 35
1.05262 -0.359996 1.86079 35 37 35
1.06236 -0.359996 1.86079 35 37 35
1.02072 -0.342741 1.7716 36 37 35
1.08186 -0.359996 1.86079 36 37 35
1.12682 -0.371612 1.92083 36 38 35
1.18374 -0.386928 2 37 39 36
1.19422 -0.386928 2 37 38 36
1.15701 -0.371612 1.92083 36 38 35
1.10752 -0.352652 1.82283 35 37 35
1.22564 -0.386928 2 34 36 35
0.97063 -0.303825 1.57045 34 36 35
1.06262 -0.329824 1.70483 34 36 35
-0.539114 -0.161455 0.85773 38 35 33
-0.551931 -0.166683 0.885502 37 35 33
-0.547293 -0.166683 0.885502 37 36 33
-0.52931 -0.162583 0.863725 36 36 33
-0.559484 -0.173333 0.920833 36 36 33
-0.554661 -0.173333 0.920833 36 36 32
-0.528741 -0.166683 0.885502 36 36 32
-0.53209 -0.169223 0.898997 36 36 31
-0.524956 -0.168445 0.894863 36 36 32
-0.550622 -0.178272 0.947071 37 37 33
-0.517964 -0.169223 0.898997 38 37 33
-0.539394 -0.177841 0.944781 38 37 34
-0.535741 -0.178272 0.947071 37 36 33
-0.53078 -0.178272 0.947071 36 36 32
-0.514603 -0.174469 0.926867 35 36 32
-0.496523 -0.169943 0.90282 35 36 32
-0.518107 -0.179035 0.951125 35 36 32
-0.525762 -0.183444 0.974549 35 36 31
-0.521664 -0.183799 0.976432 35 36 33
-0.515553 -0.183444 0.974549 36 36 34
-0.499125 -0.179375 0.952929 36 36 34
-0.532289 -0.193226 1.02651 37 37 35
-0.526368 -0.193026 1.02545 37 37 35
-0.495135 -0.183444 0.974549 36 36 34
-0.515626 -0.193026 1.02545 36 36 34
-0.510782 -0.193226 1.02651 36 36 34
-0.492353 -0.188235 1 37 36 34
-0.487115 -0.188235 1 38 37 35
-0.481877 -0.188235 1 37 38 35
-0.491078 -0.193937 1.03029 38 38 35
-0.484441 -0.193442 1.02766 38 38 35
-0.466164 -0.188235 1 38 37 35
-0.488788 -0.199614 1.06045 38 38 35
-0.470181 -0.194222 1.0318 39 38 36
-0.480525 -0.200803 1.06677 38 38 35
-0.460116 -0.194537 1.03348 37 36 34
-0.495265 -0.21189 1.12567 37 36 34
-0.462322 -0.200179 1.06345 37 37 34
-0.492686 -0.215928 1.14712 37 37 34
-0.466559 -0.207002 1.0997 37 37 34
-0.504853 -0.226792 1.20483 37 37 34
-0.474661 -0.215928 1.14712 37 38 34
-0.488104 -0.22489 1.19473 37 37 34
-0.450899 -0.210446 1.118 36 37 34
-0.448097 -0.21189 1.12567 36 37 33
-0.47862 -0.229341 1.21838 36 37 34
-0.466989 -0.226792 1.20483 36 38 35
-0.465857 -0.229341 1.21838 37 39 36
-0.480935 -0.240053 1.27528 36 38 35
-0.474255 -0.240053 1.27528 36 37 34
-0.474867 -0.243796 1.29517 36 37 34
-0.459566 -0.23936 1.2716 36 38 35
-0.452906 -0.23936 1.2716 38 38 36
-0.471668 -0.252996 1.34404 39 39 36
-0.455589 -0.248074 1.31789 38 39 36
-0.457588 -0.252996 1.34404 37 38 35
-0.416422 -0.233833 1.24224 37 38 35
-0.453504 -0.258698 1.37433 38 38 36
-0.446306 -0.258698 1.37433 37 38 35
-0.433127 -0.255175 1.35562 38 38 36
-0.43836 -0.262562 1.39486 38 38 35
-0.491461 -0.299357 1.59033 39 38 36
-0.423748 -0.262562 1.39486 39 38 36
-0.462423 -0.291553 1.54887 38 37 35
-0.439975 -0.282353 1.5 37 36 34
-0.418038 -0.273153 1.45113 37 36 34
-0.438085 -0.291553 1.54887 38 37 35
-0.416405 -0.282353 1.5 38 38 36
-0.442775 -0.306008 1.62567 37 37 35
-0.41951 -0.295613 1.57045 37 37 35
-0.439234 -0.315703 1.67717 36 36 34
-0.428481 -0.314259 1.6695 35 34 32
-0.438023 -0.327951 1.74224 35 35 33
-0.41969 -0.32091 1.70483 36 36 34
-0.419772 -0.327951 1.74224 37 38 35
-0.423122 -0.337914 1.79517 38 38 36
-0.418164 -0.341544 1.81445 37 38 35
-0.372964 -0.31171 1.65596 36 37 35
-0.36429 -0.31171 1.65596 37 38 36
-0.379302 -0.332471 1.76625 37 37 35
-0.357183 -0.32091 1.70483 36 37 34
-0.341914 -0.315069 1.6738 35 36 34
-0.333147 -0.315069 1.6738 36 37 34
-0.330394 -0.32091 1.70483 37 38 35
-0.321464 -0.32091 1.70483 37 38 35
-0.321059 -0.329662 1.75133 36 37 34
-0.306304 -0.323762 1.71999 36 37 34
-0.294676 -0.32091 1.70483 37 38 35
-0.290593 -0.326353 1.73375 37 38 35
-0.279277 -0.323762 1.71999 37 39 35
-0.263011 -0.315069 1.6738 37 38 34
-0.272679 -0.337914 1.79517 37 38 34
-0.252014 -0.323459 1.71838 36 37 34
-0.241098 -0.32091 1.70483 37 37 34
-0.228402 -0.315703 1.67717 37 37 33
-0.214015 -0.307649 1.63439 36 36 32
-0.210832 -0.315703 1.67717 36 36 32
-0.203597 -0.318123 1.69003 36 36 33
-0.19645 -0.32091 1.70483 37 37 34
-0.180872 -0.309531 1.64438 37 37 34
-0.184777 -0.332025 1.76388 37 37 33
-0.169662 -0.32091 1.70483 37 37 34
-0.167374 -0.33417 1.77528 37 37 34
-0.14934 -0.315703 1.67717 35 35 31
-0.141762 -0.318413 1.69157 36 36 33
-0.132902 -0.318413 1.69157 38 38 35
-0.126007 -0.323459 1.71838 37 38 35
-0.119688 -0.330873 1.75776 37 38 35
-0.108107 -0.323762 1.71999 37 38 35
-0.0982252 -0.32091 1.70483 37 37 34
-0.0885203 -0.318123 1.69003 37 37 34
-0.0783231 -0.312752 1.66149 36 36 33
-0.0696205 -0.312752 1.66149 36 36 33
-0.0635672 -0.326353 1.73375 37 38 34
-0.052354 -0.313582 1.6659 38 38 35
-0.0428029 -0.307649 1.63439 38 39 36
-0.0354404 -0.318413 1.69157 37 39 35
-0.0270268 -0.323762 1.71999 36 38 35
-0.0178591 -0.32091 1.70483 36 38 35
-0.00878468 -0.315703 1.67717 36 38 35
0 -0.326353 1.73375 37 38 35
0.00870257 -0.312752 1.66149 38 39 36
0.0178591 -0.32091 1.70483 38 39 36
0.0274402 -0.328714 1.74629 37 39 35
0.0345858 -0.310736 1.65078 37 38 35
0.0438352 -0.315069 1.6738 36 37 35
0.0531122 -0.318123 1.69003 36 37 34
0.0596043 -0.306008 1.62567 35 36 34
0.0696205 -0.312752 1.66149 36 37 34
0.0780621 -0.31171 1.65596 36 37 34
0.0885203 -0.318123 1.69003 36 37 34
0.0990055 -0.323459 1.71838 36 37 34
0.108787 -0.325798 1.7308 36 38 34
0.116084 -0.32091 1.70483 37 38 35
0.128054 -0.328714 1.74629 37 38 34
0.130885 -0.313582 1.6659 37 38 34
0.146348 -0.328714 1.74629 37 37 34
0.150485 -0.318123 1.69003 37 38 34
0.15409 -0.307649 1.63439 38 38 35
0.17117 -0.323762 1.71999 36 37 34
0.177041 -0.318123 1.69003 36 37 33
0.187521 -0.32091 1.70483 36 36 33
0.189485 -0.309531 1.64438 36 37 34
0.200159 -0.312752 1.66149 38 38 36
0.210409 -0.315069 1.6738 37 38 35
0.223239 -0.32091 1.70483 38 39 36
0.228402 -0.315703 1.67717 39 39 36
0.237186 -0.315703 1.67717 38 38 35
0.241163 -0.309531 1.64438 37 37 34
0.256709 -0.318123 1.69003 37 38 34
0.26354 -0.315703 1.67717 37 38 34
0.276817 -0.32091 1.70483 37 38 33
0.291213 -0.32705 1.73745 36 37 32
0.297017 -0.323459 1.71838 36 37 31
0.314121 -0.332025 1.76388 36 37 33
0.312535 -0.32091 1.70483 36 37 33
0.336392 -0.335812 1.784 35 37 33
0.327525 -0.318123 1.69003 35 36 33
0.339324 -0.32091 1.70483 35 37 34
0.351349 -0.323762 1.71999 37 38 35
0.366925 -0.329662 1.75133 37 39 36
0.383113 -0.335812 1.784 37 39 36
0.378376 -0.323762 1.71999 37 39 35
0.383971 -0.32091 1.70483 36 39 35
0.38715 -0.316213 1.67988 37 39 36
0.423122 -0.337914 1.79517 37 39 35
0.417727 -0.326353 1.73375 36 38 35
0.41969 -0.32091 1.70483 35 38 34
0.443465 -0.332025 1.76388 35 38 34
0.437549 -0.32091 1.70483 37 38 35
0.458656 -0.329662 1.75133 38 38 35
0.463133 -0.326353 1.73375 38 39 35
0.464337 -0.32091 1.70483 37 38 35
0.48966 -0.332025 1.76388 38 38 35
0.500143 -0.332853 1.76828 37 37 34
0.50307 -0.328714 1.74629 36 36 33
0.508538 -0.326353 1.73375 37 36 33
0.530017 -0.33417 1.77528 37 37 34
0.522029 -0.323459 1.71838 37 38 34
0.526844 -0.32091 1.70483 37 38 34
0.535774 -0.32091 1.70483 38 38 35
0.553943 -0.326353 1.73375 38 38 35
0.589231 -0.341544 1.81445 38 38 35
0.580028 -0.330873 1.75776 38 38 35
0.581186 -0.326353 1.73375 37 37 34
0.600526 -0.332025 1.76388 37 38 34
0.59459 -0.323762 1.71999 38 39 35
0.608429 -0.326353 1.73375 38 39 35
0.621977 -0.328714 1.74629 38 39 35
0.627929 -0.32705 1.73745 38 39 35
0.654096 -0.335812 1.784 37 38 35
0.66344 -0.335812 1.784 36 37 34
0.658564 -0.328714 1.74629 37 38 34
0.669638 -0.329662 1.75133 39 39 36
0.708337 -0.344002 1.82751 38 39 35
0.697391 -0.33417 1.77528 38 39 35
0.702153 -0.332025 1.76388 38 39 35
0.724009 -0.337914 1.79517 38 39 35
0.733412 -0.337914 1.79517 36 37 33
0.752219 -0.342192 1.81789 35 36 31
0.733849 -0.329662 1.75133 35 37 32
0.775342 -0.344002 1.82751 36 38 33
0.776181 -0.340175 1.80718 37 39 34
0.805517 -0.348778 1.85288 38 40 35
0.770542 -0.329662 1.75133 37 39 35
0.804578 -0.340175 1.80718 38 40 36
0.784792 -0.327951 1.74224 38 39 36
0.844337 -0.348778 1.85288 37 38 35
0.845382 -0.345241 1.8341 37 38 34
0.873747 -0.352816 1.87433 36 37 34
0.846245 -0.337914 1.79517 36 37 34
0.855647 -0.337914 1.79517 37 38 34
0.87838 -0.343121 1.82283 37 38 34
0.867856 -0.335365 1.78162 35 37 33
0.907919 -0.347114 1.84404 35 37 33
0.893258 -0.337914 1.79517 35 37 33
0.927237 -0.347114 1.84404 35 37 34
0.921862 -0.341544 1.81445 35 38 34
0.939602 -0.344564 1.8305 35 38 34
0.921949 -0.334676 1.77797 34 37 33
0.931262 -0.334676 1.77797 34 37 34
0.968366 -0.344564 1.8305 34 37 33
0.959077 -0.337914 1.79517 35 37 34
0.96848 -0.337914 1.79517 35 37 35
0.977883 -0.337914 1.79517 35 37 35
0.997892 -0.341544 1.81445 35 37 35
1.03312 -0.350267 1.86079 35 37 35
1.07026 -0.359466 1.90967 34 37 34
1.04314 -0.347114 1.84404 35 37 35
1.10162 -0.36321 1.92955 34 37 35
1.15232 -0.376471 2 35 37 35
1.07212 -0.347114 1.84404 35 37 35
1.17327 -0.376471 2 36 37 35
1.09143 -0.347114 1.84404 37 38 36
1.10109 -0.347114 1.84404 36 38 36
1.11075 -0.347114 1.84404 36 37 35
1.12041 -0.347114 1.84404 35 37 35
1.22564 -0.376471 2 35 37 36
1.18029 -0.359466 1.90967 34 37 35
1.19029 -0.359466 1.90967 34 37 35
-0.556569 -0.162053 0.885502 38 35 33
-0.54497 -0.160009 0.874334 38 36 34
-0.537243 -0.159077 0.869241 38 37 34
-0.550925 -0.164522 0.898997 38 37 34
-0.528137 -0.159077 0.869241 37 37 34
-0.55261 -0.167895 0.917429 37 37 33
-0.536799 -0.164522 0.898997 37 37 33
-0.57618 -0.178155 0.973489 37 37 32
-0.524956 -0.163766 0.894863 37 37 33
-0.522673 -0.164522 0.898997 37 37 32
-0.545662 -0.17332 0.947071 37 36 32
-0.493117 -0.158067 0.863725 38 37 33
-0.534445 -0.172901 0.944781 37 36 32
-0.533053 -0.174062 0.951125 37 36 32
-0.514603 -0.169623 0.926867 36 37 33
-0.535389 -0.178155 0.973489 36 37 33
-0.544731 -0.183007 1 36 37 33
-0.514098 -0.174392 0.952929 36 37 33
-0.54733 -0.187485 1.02447 36 36 33
-0.516071 -0.178528 0.975527 36 37 35
-0.52378 -0.183007 1 37 37 35
-0.518542 -0.183007 1 38 37 35
-0.501207 -0.178693 0.976432 38 37 35
-0.52212 -0.188069 1.02766 36 36 34
-0.489498 -0.178155 0.973489 36 36 34
-0.497591 -0.183007 1 37 36 34
-0.4793 -0.178155 0.973489 37 37 35
-0.500589 -0.188069 1.02766 38 37 35
-0.481877 -0.183007 1 37 37 34
-0.490423 -0.188299 1.02892 38 37 35
-0.485681 -0.18855 1.03029 37 37 35
-0.480285 -0.18855 1.03029 37 36 33
-0.518849 -0.206004 1.12567 35 35 32
-0.498881 -0.200353 1.09479 37 37 34
-0.493147 -0.200353 1.09479 38 38 35
-0.50719 -0.208483 1.13921 37 37 34
-0.483839 -0.201252 1.0997 37 36 33
-0.495256 -0.208483 1.13921 37 37 34
-0.468298 -0.199538 1.09033 38 37 34
-0.480305 -0.207181 1.1321 38 38 34
-0.491301 -0.214573 1.17249 37 37 33
-0.442936 -0.195899 1.07045 37 38 34
-0.472265 -0.211548 1.15596 37 38 34
-0.485921 -0.220492 1.20483 37 37 34
-0.451568 -0.2076 1.13439 36 37 33
-0.442201 -0.206004 1.12567 36 37 34
-0.466989 -0.220492 1.20483 36 38 34
-0.450102 -0.21543 1.17717 36 38 35
-0.459475 -0.222971 1.21838 36 37 34
-0.442553 -0.217783 1.19003 36 37 34
-0.474867 -0.237024 1.29517 35 37 34
-0.476297 -0.241183 1.31789 36 38 35
-0.469394 -0.241183 1.31789 38 39 36
-0.454516 -0.237024 1.29517 38 39 36
-0.464628 -0.245968 1.34404 38 39 36
-0.432925 -0.232711 1.2716 38 38 35
-0.454428 -0.248086 1.35562 38 38 36
-0.478844 -0.265565 1.45113 38 38 35
-0.487115 -0.27451 1.5 37 37 35
-0.453964 -0.260022 1.42083 37 37 35
-0.443012 -0.257978 1.40967 37 37 35
-0.463545 -0.27451 1.5 37 37 34
-0.440841 -0.265565 1.45113 37 37 34
-0.394936 -0.242086 1.32283 37 36 34
-0.409136 -0.255269 1.39486 37 36 34
-0.446198 -0.283454 1.54887 37 37 35
-0.449812 -0.291042 1.59033 38 37 35
-0.441482 -0.291042 1.59033 37 37 35
-0.447873 -0.300933 1.64438 37 36 35
-0.455408 -0.311996 1.70483 37 36 34
-0.40795 -0.285072 1.55772 36 36 34
-0.437549 -0.311996 1.70483 36 36 34
-0.413422 -0.300933 1.64438 36 36 34
-0.426808 -0.317288 1.73375 37 37 35
-0.391686 -0.297507 1.62567 37 38 36
-0.393503 -0.30553 1.6695 37 38 36
-0.392901 -0.311996 1.70483 37 38 36
-0.389279 -0.316309 1.7284 38 38 36
-0.370799 -0.308466 1.68555 39 40 38
-0.369806 -0.315144 1.72203 38 38 36
-0.366925 -0.320505 1.75133 36 37 35
-0.35102 -0.314474 1.71838 35 36 34
-0.339324 -0.311996 1.70483 36 37 34
-0.327824 -0.309569 1.69157 37 38 35
-0.318673 -0.309287 1.69003 37 39 35
-0.306846 -0.306317 1.6738 36 38 34
-0.298679 -0.306933 1.67717 36 38 34
-0.308648 -0.326789 1.78567 36 38 34
-0.290593 -0.317288 1.73375 37 38 34
-0.284367 -0.320505 1.75133 36 38 34
-0.273012 -0.317965 1.73745 36 38 34
-0.258957 -0.311996 1.70483 36 37 34
-0.243672 -0.304064 1.66149 35 37 33
-0.245188 -0.317288 1.73375 36 37 34
-0.232169 -0.311996 1.70483 37 37 34
-0.22751 -0.317965 1.73745 36 36 33
-0.219521 -0.319583 1.74629 36 36 32
-0.202048 -0.306933 1.67717 36 37 34
-0.19645 -0.311996 1.70483 37 38 34
-0.187521 -0.311996 1.70483 38 38 35
-0.177202 -0.309569 1.69157 37 38 34
-0.17101 -0.314474 1.71838 38 38 35
-0.162009 -0.314474 1.71838 38 38 35
-0.150622 -0.309569 1.69157 37 37 34
-0.141762 -0.309569 1.69157 37 37 34
-0.133943 -0.311996 1.70483 37 38 35
-0.128054 -0.319583 1.74629 37 38 35
-0.115181 -0.309569 1.69157 37 38 35
-0.109761 -0.319583 1.74629 37 38 34
-0.0998913 -0.317288 1.73375 37 37 34
-0.0876704 -0.306317 1.6738 37 37 34
-0.0803661 -0.311996 1.70483 35 36 32
-0.0689036 -0.300933 1.64438 35 35 32
-0.062507 -0.311996 1.70483 36 37 33
-0.0522154 -0.304064 1.66149 37 37 34
-0.0442602 -0.309287 1.69003 37 38 35
-0.0354081 -0.309287 1.69003 38 39 36
-0.0265561 -0.309287 1.69003 36 38 35
-0.0177041 -0.309287 1.69003 36 37 34
-0.00917312 -0.320505 1.75133 36 37 34
0 -0.304871 1.6659 37 38 34
0.00861295 -0.300933 1.64438 37 39 35
0.0173471 -0.303051 1.65596 38 39 36
0.0270268 -0.314769 1.71999 37 38 34
0.0360358 -0.314769 1.71999 36 37 34
0.0439234 -0.306933 1.67717 35 37 34
0.0535774 -0.311996 1.70483 36 37 34
0.060918 -0.304064 1.66149 37 38 35
0.0714365 -0.311996 1.70483 37 39 36
0.0803661 -0.311996 1.70483 37 38 35
0.0872567 -0.304871 1.6659 37 38 35
0.0916283 -0.291042 1.59033 37 38 35
0.106224 -0.309287 1.69003 37 38 35
0.113434 -0.304871 1.6659 37 38 35
0.127134 -0.317288 1.73375 37 38 34
0.130538 -0.304064 1.66149 36 37 33
0.136239 -0.297507 1.62567 36 37 33
0.151803 -0.311996 1.70483 37 38 34
0.158124 -0.306933 1.67717 38 38 35
0.169662 -0.311996 1.70483 37 37 34
0.177202 -0.309569 1.69157 36 37 34
0.189188 -0.314769 1.71999 36 36 33
0.201228 -0.319583 1.74629 36 37 35
0.20538 -0.311996 1.70483 37 37 35
0.212643 -0.309569 1.69157 36 37 34
0.225224 -0.314769 1.71999 37 38 35
0.234013 -0.314474 1.71838 38 38 35
0.23671 -0.306317 1.6738 38 38 35
0.250028 -0.311996 1.70483 38 38 35
0.26335 -0.317288 1.73375 37 37 34
0.265803 -0.309569 1.69157 37 37 34
0.283548 -0.319583 1.74629 37 37 33
0.294618 -0.321682 1.75776 36 37 32
0.294676 -0.311996 1.70483 36 37 32
0.298679 -0.306933 1.67717 37 38 33
0.312535 -0.311996 1.70483 36 38 34
0.329282 -0.319583 1.74629 36 38 34
0.333019 -0.314474 1.71838 36 38 35
0.333147 -0.306317 1.6738 36 38 35
0.356722 -0.319583 1.74629 37 38 36
0.348103 -0.304064 1.66149 38 39 36
0.362933 -0.309287 1.69003 37 39 36
0.384162 -0.319583 1.74629 37 38 35
0.380637 -0.309287 1.69003 37 39 36
0.389489 -0.309287 1.69003 37 39 36
0.398342 -0.309287 1.69003 37 39 36
0.41076 -0.311996 1.70483 36 39 35
0.444415 -0.330376 1.80527 37 38 35
0.44633 -0.324888 1.77528 37 39 35
0.430449 -0.306933 1.67717 38 39 35
0.458656 -0.320505 1.75133 38 39 35
0.451865 -0.309569 1.69157 37 38 35
0.472214 -0.317288 1.73375 37 38 34
0.484776 -0.319583 1.74629 38 38 35
0.493923 -0.319583 1.74629 37 37 34
0.506374 -0.321682 1.75776 37 36 34
0.520719 -0.324888 1.77528 37 36 34
0.505026 -0.309569 1.69157 37 37 34
0.53051 -0.319583 1.74629 37 38 35
0.531528 -0.314769 1.71999 37 38 35
0.550387 -0.320505 1.75133 38 39 35
0.573566 -0.328527 1.79517 38 38 35
0.548826 -0.309287 1.69003 37 38 34
0.580028 -0.321682 1.75776 36 37 34
0.591287 -0.322802 1.76388 36 37 33
0.590267 -0.317288 1.73375 37 38 35
0.613704 -0.324888 1.77528 38 40 36
0.614599 -0.320505 1.75133 37 38 35
0.628243 -0.322802 1.76388 36 37 34
0.626591 -0.317288 1.73375 36 37 34
0.64672 -0.322802 1.76388 37 38 35
0.667593 -0.328527 1.79517 37 38 35
0.673413 -0.326789 1.78567 37 38 34
0.651858 -0.311996 1.70483 37 38 35
0.678811 -0.320505 1.75133 37 38 34
0.705204 -0.328527 1.79517 37 38 34
0.70669 -0.324888 1.77528 37 38 34
0.719505 -0.326484 1.784 36 37 34
0.725287 -0.324888 1.77528 35 36 31
0.733063 -0.324214 1.7716 35 37 32
0.726482 -0.317288 1.73375 36 38 34
0.76162 -0.328527 1.79517 36 38 34
0.752196 -0.320505 1.75133 37 39 34
0.785647 -0.330725 1.80718 37 39 35
0.764435 -0.317965 1.73745 36 38 34
0.794259 -0.326484 1.784 37 39 35
0.818871 -0.332687 1.81789 38 39 36
0.82351 -0.330725 1.80718 37 38 35
0.845382 -0.335651 1.8341 36 37 33
0.854989 -0.335651 1.8341 36 37 33
0.859285 -0.33359 1.82283 36 37 33
0.841864 -0.323235 1.76625 37 38 34
