ply
format ascii 1.0
element vertex 1337
property float x
property float y
property float z
property uchar red
property uchar green
property uchar blue
end_header
-0.0338691 0.0591686 1.61657 39 38 35
-0.0256817 0.0598207 1.63439 37 37 34
-0.0165974 0.0579906 1.58438 36 36 33
-0.00872567 0.0609743 1.6659 37 36 34
0 0.0588803 1.60869 37 37 34
0.00879887 0.0614858 1.67988 38 37 34
0.0171944 0.0600767 1.64138 38 37 34
0.0261077 0.0608128 1.66149 38 37 33
0.0348103 0.0608128 1.66149 37 36 33
0.0423364 0.0591686 1.61657 37 35 32
0.0513635 0.0598207 1.63439 37 36 32
0.0574029 0.0573039 1.56562 36 36 32
0.0674081 0.0588803 1.60869 37 36 33
0.0778182 0.0604208 1.65078 37 36 32
0.0832985 0.0582083 1.59033 36 36 32
0.0941664 0.0598207 1.63439 37 37 33
0.102179 0.0595015 1.62567 38 37 34
0.110694 0.0595015 1.62567 38 37 34
0.120581 0.0601866 1.64438 38 37 33
0.13177 0.0613867 1.67717 38 37 33
0.140555 0.0613867 1.67717 37 36 32
0.14699 0.0604208 1.65078 37 36 33
0.158124 0.0613867 1.67717 38 37 34
0.162651 0.0598207 1.63439 37 37 34
0.18001 0.0628948 1.71838 37 37 34
0.181576 0.0604208 1.65078 35 36 32
0.18628 0.0591686 1.61657 35 36 32
0.193798 0.0588803 1.60869 35 36 33
0.210832 0.0613867 1.67717 36 36 33
0.218142 0.0609743 1.6659 35 36 32
0.226267 0.0608128 1.66149 34 35 31
0.237186 0.0613867 1.67717 36 37 33
0.239696 0.0598207 1.63439 37 38 35
0.256709 0.0618573 1.69003 37 37 34
0.257917 0.0600767 1.64138 36 36 33
0.257259 0.0579906 1.58438 36 37 34
0.285746 0.0623991 1.70483 38 38 35
0.284227 0.0601866 1.64438 38 38 35
0.295887 0.0608128 1.66149 38 38 35
0.301453 0.0601866 1.64438 38 37 35
0.311273 0.0604208 1.65078 37 36 34
0.316742 0.0598207 1.63439 36 36 32
0.339324 0.0623991 1.70483 36 35 32
0.357752 0.064101 1.75133 35 35 32
0.354081 0.0618573 1.69003 35 34 32
0.360172 0.0613867 1.67717 35 35 32
0.368216 0.0612634 1.6738 35 35 32
0.383971 0.0623991 1.70483 36 36 33
0.392901 0.0623991 1.70483 36 36 34
0.381027 0.0591686 1.61657 36 36 34
0.421963 0.064101 1.75133 36 36 34
0.412051 0.0612634 1.6738 36 36 34
0.420818 0.0612634 1.6738 37 37 35
0.425005 0.0606102 1.65596 37 37 35
0.439234 0.0613867 1.67717 37 37 35
0.438458 0.0600767 1.64138 37 37 35
0.480421 0.0645604 1.76388 37 37 35
0.469158 0.0618573 1.69003 36 36 34
0.482197 0.0623991 1.70483 36 36 33
0.495492 0.0629538 1.71999 36 36 34
0.487344 0.0608128 1.66149 36 36 34
0.508985 0.0623991 1.70483 36 36 34
0.508488 0.0612634 1.6738 35 35 33
0.53103 0.0628948 1.71838 35 36 34
0.531606 0.0619137 1.69157 36 36 34
0.549546 0.0629538 1.71999 36 37 35
0.548826 0.0618573 1.69003 36 37 35
0.577906 0.064101 1.75133 36 37 35
0.581186 0.0634575 1.73375 35 36 34
0.590267 0.0634575 1.73375 35 36 34
0.578624 0.0612634 1.6738 35 36 34
0.623003 0.0649775 1.77528 35 36 34
0.621977 0.0639166 1.74629 35 36 34
0.637481 0.0645604 1.76388 34 36 33
0.640271 0.0639166 1.74629 34 35 33
0.649417 0.0639166 1.74629 34 35 33
0.665198 0.0645604 1.76388 34 36 34
0.693772 0.0664113 1.81445 34 35 34
0.666662 0.0629538 1.71999 34 35 34
0.686004 0.0639166 1.74629 34 35 34
0.695151 0.0639166 1.74629 35 36 34
0.711392 0.0645604 1.76388 35 36 34
0.70832 0.0634575 1.73375 35 35 34
0.724676 0.064101 1.75133 35 35 34
0.756451 0.0660753 1.80527 35 35 34
0.723295 0.0623991 1.70483 34 34 34
0.757587 0.0645604 1.76388 34 34 34
0.77018 0.0648428 1.7716 33 34 34
0.773371 0.0643364 1.75776 33 34 33
0.767868 0.063127 1.72472 34 35 34
0.775691 0.0630287 1.72203 35 36 34
0.800991 0.0643364 1.75776 35 36 34
0.849967 0.0674943 1.84404 35 36 34
0.812168 0.0637682 1.74224 35 36 34
0.828612 0.0643364 1.75776 35 36 35
0.830419 0.0637682 1.74224 32 34 32
0.872183 0.0662473 1.80997 29 31 29
0.84867 0.0637682 1.74224 27 29 28
0.91854 0.0682839 1.86561 26 28 28
0.900624 0.0662473 1.80997 26 28 28
0.933056 0.0679179 1.85562 27 30 30
0.912064 0.0657055 1.79517 29 33 32
0.946554 0.0674943 1.84404 30 34 34
0.921949 0.0650759 1.77797 34 37 37
0.954761 0.0667179 1.82283 37 40 40
0.981653 0.0679179 1.85562 37 40 40
0.934235 0.0640035 1.74867 36 38 38
0.987541 0.0669986 1.8305 35 37 37
0.957507 0.0643364 1.75776 35 37 37
0.997892 0.0664113 1.81445 33 36 36
0.983603 0.0648428 1.7716 32 36 36
1.05672 0.0690118 1.8855 34 37 37
0.977725 0.0632617 1.7284 35 38 38
1.10162 0.0706242 1.92955 37 40 40
1.05466 0.0669986 1.8305 38 42 41
1.08186 0.0681074 1.86079 38 41 40
1.08178 0.0674943 1.84404 37 39 39
1.06251 0.0657055 1.79517 36 39 39
1.08343 0.0664113 1.81445 36 39 38
1.15701 0.070305 1.92083 36 39 38
1.0534 0.0634575 1.73375 35 38 38
1.10012 0.0657055 1.79517 35 38 37
1.10952 0.0657055 1.79517 34 37 37
1.2466 0.0732026 2 34 37 37
-0.628536 0.0418301 1 36 36 34
-0.573953 0.0385185 0.920833 36 37 34
-0.59737 0.0404298 0.966525 38 38 35
-0.569651 0.0388833 0.929553 39 39 34
-0.648151 0.0446229 1.06677 38 38 33
-0.581065 0.0403521 0.964669 37 37 31
-0.555044 0.0388833 0.929553 36 35 30
-0.591871 0.0418301 1 35 34 29
-0.609944 0.0434923 1.03974 36 35 30
-0.600858 0.0432303 1.03348 37 37 33
-0.595445 0.0432303 1.03348 37 36 32
-0.57092 0.0418301 1 36 36 32
-0.585668 0.043308 1.03533 36 36 31
-0.580245 0.043308 1.03533 36 35 31
-0.592276 0.0446229 1.06677 37 36 33
-0.573275 0.0436028 1.04238 38 37 34
-0.563977 0.043308 1.03533 37 36 33
-0.603151 0.0467658 1.118 36 36 32
-0.590425 0.0462279 1.10514 36 36 32
-0.606845 0.047984 1.14712 37 37 33
-0.582024 0.0464816 1.1112 37 37 33
-0.599413 0.0483538 1.15596 37 37 34
-0.573872 0.0467658 1.118 37 37 34
-0.564563 0.0464816 1.1112 36 36 32
-0.56216 0.0467658 1.118 35 36 32
-0.560121 0.0470867 1.12567 36 36 32
-0.574036 0.0487699 1.1659 36 36 33
-0.579682 0.049779 1.19003 36 36 33
-0.55703 0.0483538 1.15596 37 37 34
-0.555716 0.0487699 1.1659 37 37 34
-0.581592 0.0516078 1.23375 37 37 34
-0.57513 0.0516078 1.23375 38 37 35
-0.576771 0.0523433 1.25133 38 37 34
-0.620096 0.056922 1.36079 37 37 34
-0.563663 0.0523433 1.25133 37 37 33
-0.566132 0.0531911 1.2716 38 37 33
-0.604672 0.0574885 1.37433 38 37 33
-0.575083 0.055334 1.32283 37 36 32
-0.524863 0.0511178 1.22203 37 37 32
-0.602805 0.0594335 1.42083 37 37 33
-0.58194 0.0580936 1.3888 38 38 34
-0.577175 0.0583472 1.39486 38 38 34
-0.575916 0.0589664 1.40967 38 38 34
-0.604965 0.0627451 1.5 38 39 35
-0.597109 0.0627451 1.5 37 38 34
-0.572604 0.0609724 1.45762 36 36 32
-0.546382 0.0589664 1.40967 36 37 33
-0.595607 0.0651594 1.55772 36 37 33
-0.565682 0.0627451 1.5 37 37 33
-0.596924 0.067143 1.60514 36 36 32
-0.612116 0.0698353 1.6695 37 36 32
-0.580109 0.067143 1.60514 37 37 33
-0.607211 0.0713133 1.70483 37 37 33
-0.546653 0.0651594 1.55772 38 38 34
-0.554887 0.067143 1.60514 38 38 34
-0.54648 0.067143 1.60514 37 37 33
-0.53311 0.0665238 1.59033 36 37 32
-0.550904 0.0698353 1.6695 36 37 33
-0.575315 0.0741061 1.7716 37 37 34
-0.51285 0.067143 1.60514 37 37 34
-0.527081 0.0701562 1.67717 37 37 33
-0.543201 0.0735273 1.75776 36 36 31
-0.500894 0.0689696 1.64881 36 37 32
-0.508985 0.0713133 1.70483 37 37 33
-0.491942 0.0701562 1.67717 38 37 33
-0.483157 0.0701562 1.67717 38 38 34
-0.493923 0.0730475 1.74629 37 36 32
-0.465588 0.0701562 1.67717 35 35 30
-0.453735 0.0696849 1.6659 37 36 32
-0.455408 0.0713133 1.70483 38 38 34
-0.439234 0.0701562 1.67717 38 38 34
-0.429585 0.0700153 1.6738 37 38 33
-0.421665 0.0701562 1.67717 38 38 33
-0.41969 0.0713133 1.70483 38 38 34
-0.393787 0.0683665 1.63439 38 39 34
-0.387583 0.0687847 1.64438 38 39 34
-0.386526 0.0701562 1.67717 38 39 34
-0.387022 0.0718798 1.71838 37 38 34
-0.375042 0.0713133 1.70483 37 37 32
-0.356805 0.0695004 1.66149 35 36 31
-0.351387 0.0701562 1.67717 36 37 32
-0.348253 0.0713133 1.70483 37 38 34
-0.333818 0.0701562 1.67717 38 38 34
-0.325033 0.0701562 1.67717 38 38 34
-0.326917 0.0725229 1.73375 38 38 34
-0.302626 0.0690523 1.65078 38 38 34
-0.301244 0.0707586 1.69157 38 37 33
-0.287947 0.0696849 1.6659 38 38 34
-0.276687 0.0690523 1.65078 38 37 34
-0.276817 0.0713133 1.70483 37 37 34
-0.254018 0.0676213 1.61657 36 37 33
-0.242605 0.0668101 1.59718 37 38 34
-0.238417 0.0680017 1.62567 37 37 34
-0.235593 0.0696849 1.6659 37 38 34
-0.228402 0.0701562 1.67717 37 37 33
-0.217564 0.0695004 1.66149 37 37 34
-0.208862 0.0695004 1.66149 37 38 34
-0.201642 0.0700153 1.6738 38 38 35
-0.192875 0.0700153 1.6738 38 38 34
-0.185893 0.0706941 1.69003 37 37 34
-0.174051 0.0695004 1.66149 38 37 34
-0.165349 0.0695004 1.66149 38 38 34
-0.158124 0.0701562 1.67717 38 38 34
-0.143944 0.0676213 1.61657 38 37 34
-0.136239 0.0680017 1.62567 38 37 33
-0.129194 0.0687847 1.64438 38 37 33
-0.12105 0.0690523 1.65078 37 36 32
-0.110075 0.0676213 1.61657 37 36 31
-0.106224 0.0706941 1.69003 37 36 32
-0.0959824 0.0696849 1.6659 39 38 34
-0.090005 0.0718798 1.71838 38 37 34
-0.0796683 0.0706941 1.69003 38 37 34
-0.0691717 0.0690523 1.65078 38 37 34
-0.0613693 0.0700153 1.6738 38 37 34
-0.053051 0.0706126 1.68808 38 37 34
-0.0425745 0.0680017 1.62567 38 37 35
-0.0344518 0.0687847 1.64438 38 37 35
-0.0259394 0.0690523 1.65078 37 37 34
-0.0172929 0.0690523 1.65078 37 36 34
-0.00851491 0.0680017 1.62567 37 36 34
0 0.0672917 1.60869 37 37 34
0.00864646 0.0690523 1.65078 38 37 34
0.0171944 0.0686591 1.64138 38 37 34
0.0254018 0.0676213 1.61657 38 37 34
0.0354081 0.0706941 1.69003 37 37 33
0.0450025 0.0718798 1.71838 36 35 32
0.0518788 0.0690523 1.65078 37 36 33
0.0596043 0.0680017 1.62567 37 37 34
0.0691717 0.0690523 1.65078 38 38 34
0.0758341 0.0672917 1.60869 39 38 35
0.0906559 0.0723996 1.7308 38 38 34
0.0922891 0.0670036 1.6018 38 37 34
0.103758 0.0690523 1.65078 38 37 34
0.115076 0.0706941 1.69003 38 37 34
0.121836 0.0695004 1.66149 38 37 34
0.129194 0.0687847 1.64438 39 38 34
0.136969 0.0683665 1.63439 38 37 33
0.144753 0.0680017 1.62567 38 37 33
0.156124 0.0692688 1.65596 38 37 34
0.162651 0.0683665 1.63439 38 38 34
0.171944 0.0686591 1.64138 37 37 34
0.172209 0.0654901 1.56562 36 36 33
0.188333 0.0683665 1.63439 35 37 34
0.201642 0.0700153 1.6738 35 36 34
0.210832 0.0701562 1.67717 35 36 33
0.211868 0.0676809 1.618 34 35 31
0.226267 0.0695004 1.66149 34 35 31
0.234969 0.0695004 1.66149 35 36 32
0.235928 0.0672917 1.60869 36 36 33
0.244354 0.0672917 1.60869 35 36 32
0.261077 0.0695004 1.66149 35 36 32
0.272325 0.0701562 1.67717 36 37 34
0.273939 0.0683665 1.63439 38 38 35
0.287185 0.0695004 1.66149 39 39 36
0.295887 0.0695004 1.66149 38 38 36
0.30459 0.0695004 1.66149 37 37 35
0.324322 0.0719472 1.71999 37 36 34
0.321995 0.0695004 1.66149 36 35 32
0.336377 0.0706941 1.69003 35 35 32
0.337212 0.0690523 1.65078 35 35 32
0.348103 0.0695004 1.66149 35 35 32
0.369367 0.0719472 1.71999 35 35 32
0.355625 0.0676213 1.61657 35 35 32
0.376983 0.0700153 1.6738 36 35 32
0.403617 0.0732583 1.75133 36 36 33
0.40183 0.0713133 1.70483 36 36 33
0.406724 0.0706126 1.68808 36 36 34
0.416046 0.0706941 1.69003 36 36 34
0.413422 0.0687847 1.64438 37 37 35
0.455629 0.07426 1.77528 37 37 35
0.418285 0.0668101 1.59718 37 37 35
0.460003 0.0720328 1.72203 37 37 35
0.451026 0.0692688 1.65596 37 37 35
0.469158 0.0706941 1.69003 36 36 34
0.490376 0.0725229 1.73375 36 36 33
0.495492 0.0719472 1.71999 35 35 32
0.487344 0.0695004 1.66149 35 36 33
0.504566 0.0706941 1.69003 36 36 34
0.509511 0.0701562 1.67717 36 36 34
0.518296 0.0701562 1.67717 36 36 34
0.540537 0.0719472 1.71999 36 36 34
0.535865 0.0701562 1.67717 35 36 34
0.548826 0.0706941 1.69003 35 36 34
0.576244 0.0730475 1.74629 35 36 34
0.56109 0.0700153 1.6738 34 36 33
0.565667 0.0695004 1.66149 33 35 32
0.594033 0.0718798 1.71838 34 35 33
0.608429 0.0725229 1.73375 35 36 34
0.612608 0.0719472 1.71999 35 37 34
0.611347 0.0707586 1.69157 35 36 34
0.630035 0.0718798 1.71838 34 36 33
0.62246 0.0700153 1.6738 34 35 32
0.642929 0.0713133 1.70483 34 35 33
0.646198 0.0706941 1.69003 34 35 33
0.671996 0.0725229 1.73375 34 35 34
0.686004 0.0730475 1.74629 34 36 34
0.697157 0.0732583 1.75133 35 36 34
0.681607 0.0706941 1.69003 36 37 35
0.720631 0.0737834 1.76388 35 36 34
0.711706 0.0719472 1.71999 35 36 34
0.728033 0.0726777 1.73745 35 35 34
0.737134 0.0726777 1.73745 34 34 34
0.739613 0.0720328 1.72203 34 34 34
0.747742 0.0719472 1.71999 33 34 33
0.757652 0.0720328 1.72203 34 34 33
0.788738 0.0741061 1.7716 34 35 33
0.791785 0.0735273 1.75776 33 34 33
0.793917 0.0728779 1.74224 33 34 33
0.785802 0.0713133 1.70483 34 35 33
0.812168 0.0728779 1.74224 34 35 34
0.832613 0.0738823 1.76625 34 35 34
0.855647 0.075092 1.79517 31 33 31
0.851116 0.0738823 1.76625 27 30 29
0.887927 0.076249 1.82283 26 28 27
0.869618 0.0738823 1.76625 25 27 27
0.893258 0.075092 1.79517 24 27 26
0.982831 0.0817612 1.9546 24 29 28
0.912064 0.075092 1.79517 26 31 30
0.939602 0.0765699 1.8305 28 33 32
0.896248 0.0722991 1.7284 34 37 37
0.97717 0.0780387 1.86561 37 40 40
0.997463 0.0788707 1.8855 39 42 41
0.910816 0.0713133 1.70483 37 40 39
0.978885 0.0758987 1.81445 34 37 36
0.977883 0.075092 1.79517 34 36 36
1.00672 0.0765699 1.8305 33 36 36
1.0163 0.0765699 1.8305 33 36 36
1.03348 0.0771364 1.84404 34 37 37
1.05262 0.077837 1.86079 34 38 37
1.07009 0.0784035 1.87433 36 39 39
1.08635 0.0788707 1.8855 37 40 40
1.05491 0.0758987 1.81445 37 40 40
1.07383 0.0765699 1.8305 37 40 39
1.04856 0.0741061 1.7716 37 40 39
1.14028 0.0798814 1.90967 36 39 39
1.09797 0.076249 1.82283 36 39 39
1.10752 0.076249 1.82283 36 38 38
1.08568 0.0741061 1.7716 35 38 37
1.10952 0.075092 1.79517 34 37 37
1.2466 0.0836601 2 33 37 37
-0.605025 0.0452986 0.962595 31 32 29
-0.646612 0.0488191 1.03741 35 36 33
-0.596223 0.0453962 0.964669 38 39 35
-0.633337 0.0486341 1.03348 39 39 35
-0.584858 0.0452986 0.962595 38 37 33
-0.578411 0.0451888 0.960263 37 36 31
-0.597109 0.0470588 1 36 36 30
-0.591871 0.0470588 1 36 35 30
-0.606271 0.0486341 1.03348 36 35 30
-0.622353 0.050374 1.07045 37 36 32
-0.576158 0.0470588 1 37 36 33
-0.591091 0.0487215 1.03533 37 37 32
-0.565682 0.0470588 1 36 36 32
-0.581408 0.0488191 1.03741 36 36 32
-0.574823 0.0487215 1.03533 37 36 33
-0.635741 0.054398 1.15596 37 37 34
-0.562966 0.0486341 1.03348 37 36 33
-0.559673 0.0488191 1.03741 36 36 32
-0.574086 0.0505672 1.07455 37 37 33
-0.587844 0.0522918 1.1112 37 37 33
-0.562829 0.0505672 1.07455 37 37 34
-0.557201 0.0505672 1.07455 37 37 33
-0.612281 0.0561328 1.19282 37 37 33
-0.612135 0.056698 1.20483 36 37 33
-0.58625 0.0548661 1.1659 36 37 33
-0.556304 0.0526116 1.118 36 37 33
-0.554225 0.0529725 1.12567 36 37 34
-0.612675 0.0591888 1.25776 36 37 33
-0.587108 0.0573353 1.21838 37 37 34
-0.588054 0.0580588 1.23375 38 37 34
-0.585593 0.0584583 1.24224 38 37 34
-0.57513 0.0580588 1.23375 38 37 34
-0.596976 0.060949 1.29517 38 37 34
-0.562205 0.0580588 1.23375 37 37 33
-0.563663 0.0588862 1.25133 37 36 32
-0.544065 0.0575075 1.22203 37 37 33
-0.550555 0.0588862 1.25133 38 37 34
-0.575083 0.0622508 1.32283 38 37 34
-0.60545 0.0663372 1.40967 38 38 34
-0.549489 0.060949 1.29517 39 38 34
-0.590683 0.0663372 1.40967 38 38 34
-0.535922 0.060949 1.29517 38 38 33
-0.612822 0.0705882 1.5 37 38 34
-0.533511 0.0622508 1.32283 38 38 34
-0.597109 0.0705882 1.5 38 38 34
-0.6059 0.0725825 1.54238 37 37 33
-0.581395 0.0705882 1.5 37 37 33
-0.573539 0.0705882 1.5 38 38 34
-0.587448 0.0733043 1.55772 38 38 34
-0.576001 0.0728882 1.54887 38 38 34
-0.596043 0.0765019 1.62567 38 37 33
-0.524448 0.0682883 1.45113 36 36 31
-0.56643 0.0748393 1.59033 36 35 30
-0.501676 0.0672731 1.42955 36 36 32
-0.561984 0.0765019 1.62567 37 37 34
-0.611177 0.0844785 1.79517 37 37 34
-0.589235 0.0827182 1.75776 37 37 34
-0.529665 0.0755359 1.60514 37 37 33
-0.553633 0.0802274 1.70483 37 38 34
-0.519409 0.0765019 1.62567 38 38 35
-0.504443 0.0755359 1.60514 38 38 35
-0.526844 0.0802274 1.70483 37 37 33
-0.503067 0.0779274 1.65596 37 37 33
-0.518724 0.0817624 1.73745 37 37 33
-0.504501 0.0809406 1.71999 37 37 33
-0.486862 0.0795308 1.69003 37 37 33
-0.486483 0.0809406 1.71999 37 37 33
-0.469586 0.0796034 1.69157 37 37 32
-0.452533 0.0781879 1.66149 37 37 32
-0.451454 0.0795308 1.69003 38 39 34
-0.446478 0.0802274 1.70483 39 39 35
-0.43375 0.0795308 1.69003 38 38 34
-0.41503 0.0776839 1.65078 38 38 34
-0.412051 0.0787672 1.6738 38 38 34
-0.403284 0.0787672 1.6738 38 38 34
-0.408646 0.0815882 1.73375 38 39 35
-0.389489 0.0795308 1.69003 39 39 35
-0.376983 0.0787672 1.6738 38 38 34
-0.378376 0.0809406 1.71999 37 37 33
-0.369367 0.0809406 1.71999 36 37 32
-0.354081 0.0795308 1.69003 37 37 33
-0.342602 0.0789257 1.67717 37 38 34
-0.331575 0.0783955 1.6659 37 38 33
-0.327824 0.0796034 1.69157 38 38 34
-0.324322 0.0809406 1.71999 38 38 34
-0.312535 0.0802274 1.70483 37 37 33
-0.29284 0.0773828 1.64438 37 37 32
-0.282499 0.0769123 1.63439 37 36 33
-0.276687 0.0776839 1.65078 37 36 33
-0.26804 0.0776839 1.65078 36 36 32
-0.261077 0.0781879 1.66149 35 36 32
-0.242605 0.0751614 1.59718 36 37 33
-0.250028 0.0802274 1.70483 37 37 33
-0.224906 0.0748393 1.59033 37 37 33
-0.228402 0.0789257 1.67717 36 36 32
-0.221503 0.0796034 1.69157 37 37 33
-0.205454 0.0769123 1.63439 38 38 34
-0.200159 0.0781879 1.66149 38 38 35
-0.191456 0.0781879 1.66149 38 38 34
-0.182754 0.0781879 1.66149 37 37 34
-0.172259 0.0773828 1.64438 37 37 34
-0.162651 0.0769123 1.63439 38 38 34
-0.159337 0.0795308 1.69003 38 38 34
-0.147944 0.0781879 1.66149 38 37 34
-0.139241 0.0781879 1.66149 38 37 33
-0.129194 0.0773828 1.64438 37 37 33
-0.122986 0.0789257 1.67717 38 37 33
-0.117007 0.0808647 1.71838 37 36 32
-0.103167 0.0772415 1.64138 37 36 31
-0.0922891 0.075379 1.6018 38 37 33
-0.0870257 0.0781879 1.66149 38 37 33
-0.0790621 0.0789257 1.67717 37 37 32
-0.0714365 0.0802274 1.70483 37 36 32
-0.0610797 0.0783955 1.6659 37 37 33
-0.0515833 0.0772415 1.64138 38 37 34
-0.0439943 0.0790532 1.67988 38 37 34
-0.0348103 0.0781879 1.66149 37 36 33
-0.0255447 0.0765019 1.62567 37 36 33
-0.0171212 0.0769123 1.63439 37 36 33
-0.00864646 0.0776839 1.65078 37 36 34
0 0.0789257 1.67717 37 37 34
0.00859722 0.0772415 1.64138 37 36 33
0.0174513 0.0783955 1.6659 36 36 32
0.026177 0.0783955 1.6659 38 37 34
0.0349027 0.0783955 1.6659 39 38 35
0.0429861 0.0772415 1.64138 38 37 35
0.0527081 0.0789257 1.67717 37 37 34
0.0610797 0.0783955 1.6659 37 37 34
0.0684846 0.0769123 1.63439 37 37 34
0.0762726 0.076141 1.618 38 38 34
0.0864646 0.0776839 1.65078 38 38 34
0.0957282 0.0781879 1.66149 38 38 34
0.103758 0.0776839 1.65078 38 37 34
0.113133 0.0781879 1.66149 38 38 34
0.123184 0.0790532 1.67988 38 37 34
0.137201 0.0821785 1.74629 38 38 34
0.133278 0.0748393 1.59033 39 38 34
0.14699 0.0776839 1.65078 38 37 34
0.15409 0.0769123 1.63439 37 37 33
0.164283 0.0776839 1.65078 37 37 33
0.175694 0.0789257 1.67717 37 37 33
0.182754 0.0781879 1.66149 37 37 34
0.190222 0.0776839 1.65078 37 38 35
0.202048 0.0789257 1.67717 36 37 34
0.211173 0.0790532 1.67988 35 36 34
0.223239 0.0802274 1.70483 35 36 32
0.216576 0.0748393 1.59033 35 36 32
0.234969 0.0781879 1.66149 35 36 33
0.245971 0.0789257 1.67717 36 36 33
0.243308 0.075379 1.6018 35 36 32
0.259394 0.0776839 1.65078 35 36 32
0.272325 0.0789257 1.67717 36 37 34
0.28111 0.0789257 1.67717 37 37 35
0.292117 0.0795308 1.69003 37 37 35
0.292306 0.0772415 1.64138 36 37 34
0.29962 0.0769123 1.63439 37 36 34
0.310066 0.0773828 1.64438 37 36 34
0.318679 0.0773828 1.64438 36 35 32
0.333818 0.0789257 1.67717 35 34 31
0.330224 0.076074 1.61657 35 35 32
0.350681 0.0787672 1.6738 35 35 33
0.354505 0.0776839 1.65078 36 35 33
0.375042 0.0802274 1.70483 36 36 33
0.380637 0.0795308 1.69003 36 36 33
0.382913 0.0781879 1.66149 36 36 33
0.387583 0.0773828 1.64438 36 36 33
0.406724 0.0794392 1.68808 36 36 33
0.407658 0.0779274 1.65596 36 36 34
0.420818 0.0787672 1.6738 37 37 35
0.423677 0.0776839 1.65078 36 36 34
0.442602 0.0795308 1.69003 35 35 32
0.431831 0.076074 1.61657 35 35 33
0.468465 0.0809406 1.71999 36 36 33
0.480476 0.0814495 1.7308 36 36 34
0.471186 0.0783955 1.6659 36 36 33
0.487306 0.0796034 1.69157 36 36 34
0.500056 0.0802274 1.70483 36 36 34
0.505026 0.0796034 1.69157 36 36 34
0.522029 0.0808647 1.71838 36 36 34
0.526844 0.0802274 1.70483 36 36 34
0.544862 0.0815882 1.73375 36 36 34
0.549546 0.0809406 1.71999 35 36 34
0.543556 0.0787672 1.6738 35 36 34
0.557678 0.0795308 1.69003 35 36 34
0.56653 0.0795308 1.69003 35 36 34
0.565667 0.0781879 1.66149 34 35 33
0.603684 0.0821785 1.74629 33 35 32
0.608429 0.0815882 1.73375 35 36 34
0.612608 0.0809406 1.71999 35 37 35
0.626591 0.0815882 1.73375 35 36 34
0.619642 0.0795308 1.69003 34 35 33
0.653683 0.0827182 1.75776 34 35 33
0.658564 0.0821785 1.74629 35 36 34
0.639994 0.0787672 1.6738 35 36 34
0.676858 0.0821785 1.74629 34 36 33
0.692915 0.0830063 1.76388 34 36 34
0.68468 0.0809406 1.71999 35 36 34
0.693039 0.0808647 1.71838 35 36 34
0.689663 0.0794392 1.68808 35 35 34
0.717401 0.0815882 1.73375 35 35 34
0.714365 0.0802274 1.70483 35 35 34
0.751621 0.0833694 1.7716 35 35 34
0.746234 0.0817624 1.73745 35 35 35
0.790306 0.085548 1.81789 34 35 34
0.757652 0.0810369 1.72203 33 34 33
0.811546 0.0857802 1.82283 34 35 33
0.775691 0.0810369 1.72203 33 34 32
0.800991 0.0827182 1.75776 34 35 33
0.832975 0.0850436 1.80718 34 35 33
0.794731 0.0802274 1.70483 33 35 33
0.846245 0.0844785 1.79517 32 34 32
0.874202 0.0863104 1.8341 28 30 29
0.82152 0.0802274 1.70483 25 28 27
0.860367 0.0831176 1.76625 24 26 26
0.897475 0.0857802 1.82283 23 26 26
0.912629 0.0863104 1.8341 23 27 26
0.857238 0.0802274 1.70483 23 28 28
0.912064 0.0844785 1.79517 26 31 30
0.935665 0.0857802 1.82283 28 33 32
0.906758 0.0822903 1.74867 35 38 37
0.965871 0.0867784 1.84404 37 40 39
0.968366 0.0861411 1.8305 37 40 39
1.01234 0.08917 1.89486 37 39 38
0.9592 0.083669 1.77797 34 37 36
1.01363 0.0875666 1.86079 33 36 35
1.03082 0.088204 1.87433 33 36 36
1.0163 0.0861411 1.8305 34 37 37
1.0169 0.085386 1.81445 34 38 37
1.06028 0.088204 1.87433 34 38 37
1.0249 0.0844785 1.79517 34 38 37
1.11173 0.0908025 1.92955 35 38 38
1.08973 0.088204 1.87433 36 38 38
1.17327 0.0941176 2 36 39 38
1.14619 0.0911317 1.93655 36 39 39
1.04031 0.0819877 1.74224 36 39 39
1.12084 0.0875666 1.86079 36 40 39
1.12041 0.0867784 1.84404 36 40 39
1.17713 0.0903921 1.92083 36 39 39
1.23612 0.0941176 2 36 39 39
1.11892 0.0844785 1.79517 35 38 38
-0.628536 0.0522876 1 31 32 29
-0.581682 0.0487965 0.933233 33 34 30
-0.644252 0.0545035 1.04238 36 37 33
-0.634474 0.054135 1.03533 39 39 35
-0.607584 0.0522876 1 38 37 33
-0.602347 0.0522876 1 38 37 32
-0.549838 0.0481481 0.920833 38 37 33
-0.61401 0.0542434 1.03741 38 37 34
-0.586633 0.0522876 1 37 36 32
-0.622353 0.0559711 1.07045 38 37 33
-0.576158 0.0522876 1 37 37 33
-0.591091 0.054135 1.03533 37 37 33
-0.585668 0.054135 1.03533 37 37 33
-0.580245 0.054135 1.03533 37 36 32
-0.555206 0.0522876 1 37 36 33
-0.630878 0.05998 1.14712 38 37 34
-0.583105 0.0559711 1.07045 37 36 33
-0.579714 0.0561858 1.07455 36 36 31
-0.593664 0.0581019 1.1112 37 36 32
-0.587844 0.0581019 1.1112 37 37 33
-0.600836 0.05998 1.14712 37 37 33
-0.588227 0.0593143 1.13439 36 36 32
-0.577809 0.0588583 1.12567 37 37 33
-0.561483 0.0577849 1.10514 37 37 34
-0.58625 0.0609623 1.1659 37 37 33
-0.585749 0.0615514 1.17717 37 37 34
-0.569139 0.0604423 1.15596 37 37 34
-0.56793 0.0609623 1.1659 37 37 33
-0.55703 0.0604423 1.15596 37 37 34
-0.561086 0.0615514 1.17717 38 38 34
-0.539465 0.0598371 1.14438 37 37 34
-0.583326 0.0654291 1.25133 37 37 34
-0.576771 0.0654291 1.25133 37 37 34
-0.562205 0.0645098 1.23375 37 37 33
-0.593646 0.0689095 1.31789 37 36 32
-0.557109 0.0654291 1.25133 37 37 33
-0.559472 0.0664889 1.2716 37 37 33
-0.584305 0.0702767 1.34404 38 37 33
-0.546151 0.0664889 1.2716 38 38 34
-0.583077 0.0718606 1.37433 39 39 35
-0.554297 0.0691675 1.32283 38 38 34
-0.535922 0.0677212 1.29517 37 37 32
-0.645166 0.0825708 1.57917 37 37 32
-0.568533 0.073708 1.40967 36 36 31
-0.529635 0.0695686 1.3305 37 36 32
-0.572604 0.0762155 1.45762 37 36 32
-0.581395 0.0784314 1.5 37 37 33
-0.557335 0.0762155 1.45762 38 38 34
-0.543916 0.0754135 1.44228 38 38 34
-0.611519 0.0859809 1.64438 38 38 35
-0.565507 0.0806472 1.54238 38 37 33
-0.580109 0.0839287 1.60514 36 36 31
-0.571702 0.0839287 1.60514 37 36 31
-0.585882 0.0872942 1.6695 37 37 32
-0.561984 0.0850021 1.62567 37 38 34
-0.568393 0.0872942 1.6695 38 38 34
-0.559648 0.0872942 1.6695 37 37 34
-0.580028 0.0919091 1.75776 37 37 33
-0.589231 0.0948733 1.81445 37 38 34
-0.494874 0.0809869 1.54887 38 38 35
-0.510894 0.0850021 1.62567 37 38 34
-0.526844 0.0891416 1.70483 37 38 34
-0.513418 0.0883676 1.69003 37 38 34
-0.508985 0.0891416 1.70483 38 38 34
-0.500056 0.0891416 1.70483 37 37 33
-0.491126 0.0891416 1.70483 37 37 33
-0.474373 0.0876952 1.67717 37 37 33
-0.465588 0.0876952 1.67717 38 38 35
-0.460306 0.0883676 1.69003 39 39 35
-0.451454 0.0883676 1.69003 39 39 35
-0.429861 0.0858239 1.64138 39 39 35
-0.441025 0.0898497 1.71838 38 38 34
-0.424898 0.0883676 1.69003 38 38 34
-0.416046 0.0883676 1.69003 37 37 33
-0.407565 0.0884482 1.69157 37 37 32
-0.405402 0.089934 1.71999 36 37 32
-0.380444 0.0863154 1.65078 37 37 33
-0.370357 0.0859809 1.64438 36 37 32
-0.384162 0.0913094 1.74629 37 37 32
-0.366112 0.0891416 1.70483 37 37 33
-0.351387 0.0876952 1.67717 37 38 34
-0.345229 0.0883676 1.69003 38 38 34
-0.331575 0.0871061 1.6659 38 38 34
-0.318679 0.0859809 1.64438 38 38 34
-0.311273 0.0863154 1.65078 38 38 34
-0.312535 0.0891416 1.70483 37 37 33
-0.295887 0.0868755 1.66149 36 36 33
-0.297017 0.0898497 1.71838 35 35 31
-0.278482 0.0868755 1.66149 35 36 32
-0.272325 0.0876952 1.67717 36 36 32
-0.259394 0.0863154 1.65078 36 36 32
-0.252374 0.0868755 1.66149 36 37 33
-0.254269 0.0906536 1.73375 36 37 33
-0.239223 0.0884482 1.69157 36 36 32
-0.230363 0.0884482 1.69157 36 36 32
-0.218142 0.0871061 1.6659 36 37 32
-0.210832 0.0876952 1.67717 37 37 34
-0.196893 0.0854581 1.63439 37 38 34
-0.191456 0.0868755 1.66149 37 37 34
-0.187521 0.0891416 1.70483 36 36 33
-0.175341 0.0875191 1.6738 37 37 33
-0.168189 0.0883676 1.69003 37 37 33
-0.152411 0.0845266 1.61657 38 37 34
-0.147944 0.0868755 1.66149 37 36 33
-0.135476 0.0845266 1.61657 37 36 32
-0.130538 0.0868755 1.66149 37 36 32
-0.120581 0.0859809 1.64438 38 37 33
-0.113133 0.0868755 1.66149 38 37 33
-0.101607 0.0845266 1.61657 37 37 32
-0.0990055 0.0898497 1.71838 38 37 33
-0.0856058 0.0854581 1.63439 38 37 32
-0.077375 0.0858239 1.64138 37 36 32
-0.0687778 0.0858239 1.64138 37 36 31
-0.0601806 0.0858239 1.64138 37 36 31
-0.0503395 0.0837544 1.6018 37 36 32
-0.0425745 0.0850021 1.62567 37 36 33
-0.0345858 0.0863154 1.65078 37 36 33
-0.026177 0.0871061 1.6659 36 36 33
-0.0172929 0.0863154 1.65078 37 36 34
-0.00878468 0.0876952 1.67717 37 36 34
0 0.0863154 1.65078 37 36 33
0.00829868 0.0828437 1.58438 36 36 32
0.0174513 0.0871061 1.6659 37 36 33
0.0254018 0.0845266 1.61657 38 37 34
0.0342423 0.0854581 1.63439 38 38 35
0.0419496 0.0837544 1.6018 38 38 35
0.0513635 0.0854581 1.63439 38 37 34
0.0599241 0.0854581 1.63439 36 36 33
0.0691717 0.0863154 1.65078 36 36 33
0.0762055 0.0845266 1.61657 37 37 33
0.0842601 0.0841147 1.60869 37 38 34
0.0941664 0.0854581 1.63439 39 38 35
0.101112 0.0841147 1.60869 38 38 34
0.116084 0.0891416 1.70483 39 38 34
0.124133 0.0885136 1.69282 38 37 33
0.131983 0.0878369 1.67988 38 37 33
0.142873 0.0891416 1.70483 38 37 33
0.144753 0.0850021 1.62567 38 37 34
0.153268 0.0850021 1.62567 37 37 33
0.163646 0.0859809 1.64438 36 36 32
0.16852 0.0841147 1.60869 36 36 33
0.181576 0.0863154 1.65078 37 37 34
0.188333 0.0854581 1.63439 36 37 34
0.198869 0.0863154 1.65078 36 37 34
0.207515 0.0863154 1.65078 36 37 34
0.217564 0.0868755 1.66149 36 37 34
0.230153 0.0883676 1.69003 36 37 34
0.231136 0.0854581 1.63439 36 37 33
0.247857 0.0883676 1.69003 35 36 32
0.244354 0.0841147 1.60869 35 35 32
0.257917 0.0858239 1.64138 35 36 32
0.272325 0.0876952 1.67717 36 37 34
0.276687 0.0863154 1.65078 36 37 34
0.285333 0.0863154 1.65078 36 37 34
0.294901 0.0865861 1.65596 36 36 34
0.29962 0.0854581 1.63439 36 35 33
0.315613 0.0875191 1.6738 36 36 33
0.32438 0.0875191 1.6738 36 35 32
0.336377 0.0883676 1.69003 36 35 33
0.348253 0.0891416 1.70483 36 36 33
0.342423 0.0854581 1.63439 36 36 34
0.347158 0.0845266 1.61657 36 36 34
0.361744 0.0859809 1.64438 36 36 33
0.376983 0.0875191 1.6738 36 36 33
0.389489 0.0883676 1.69003 36 36 33
0.387583 0.0859809 1.64438 37 37 34
0.404095 0.0876952 1.67717 36 36 34
0.409021 0.0868755 1.66149 36 36 34
0.408716 0.0850021 1.62567 36 36 33
0.430449 0.0876952 1.67717 35 35 32
0.435128 0.0868755 1.66149 35 35 32
0.443831 0.0868755 1.66149 35 35 33
0.473222 0.0908471 1.73745 36 36 33
0.473267 0.0891416 1.70483 36 36 34
0.47801 0.0883676 1.69003 36 36 34
0.486862 0.0883676 1.69003 36 36 34
0.484202 0.0863154 1.65078 36 36 34
0.508985 0.0891416 1.70483 36 36 34
0.522519 0.089934 1.71999 36 36 34
0.531528 0.089934 1.71999 35 36 34
0.544862 0.0906536 1.73375 35 36 34
0.544704 0.0891416 1.70483 35 36 34
0.534003 0.0859809 1.64438 35 36 34
0.567032 0.0898497 1.71838 35 36 34
0.589235 0.0919091 1.75776 35 36 34
0.590267 0.0906536 1.73375 34 36 34
0.584767 0.0884482 1.69157 34 36 33
0.603599 0.089934 1.71999 35 36 34
0.607211 0.0891416 1.70483 35 36 34
0.611347 0.0884482 1.69157 34 35 33
0.614928 0.0876952 1.67717 34 35 33
0.623712 0.0876952 1.67717 34 35 33
0.653834 0.0906536 1.73375 35 36 34
0.662915 0.0906536 1.73375 36 37 35
0.676858 0.0913094 1.74629 35 36 34
0.681077 0.0906536 1.73375 35 36 34
0.690158 0.0906536 1.73375 34 35 33
0.687577 0.0891416 1.70483 34 34 32
0.690459 0.0883676 1.69003 34 35 33
0.711706 0.089934 1.71999 34 35 33
0.733849 0.0915729 1.75133 34 35 33
0.76162 0.0938649 1.79517 35 35 34
0.784914 0.0955561 1.82751 34 35 34
0.775571 0.093281 1.784 34 35 34
0.779459 0.0926327 1.7716 34 35 33
0.759013 0.0891416 1.70483 34 35 33
0.791785 0.0919091 1.75776 34 35 33
0.800991 0.0919091 1.75776 34 35 33
0.845382 0.0959004 1.8341 34 35 33
0.812168 0.0910974 1.74224 32 34 32
0.828612 0.0919091 1.75776 29 32 31
0.812591 0.0891416 1.70483 26 29 29
0.87838 0.0953113 1.82283 24 27 28
0.867856 0.0931568 1.78162 23 26 26
0.883856 0.0938649 1.79517 24 27 27
0.858205 0.0901815 1.72472 26 30 29
0.938084 0.0975484 1.86561 27 32 31
0.897372 0.0923529 1.76625 28 33 32
0.946554 0.0964205 1.84404 32 36 35
0.921949 0.0929655 1.77797 36 39 38
0.987587 0.0985883 1.8855 35 38 37
0.997463 0.0985883 1.8855 34 37 36
0.977953 0.0957123 1.8305 35 38 37
0.96848 0.0938649 1.79517 35 37 36
0.988388 0.0948733 1.81445 34 36 36
1.02338 0.0972963 1.86079 34 37 37
1.0074 0.0948733 1.81445 35 38 38
1.08854 0.101557 1.94228 36 39 38
0.985552 0.0910974 1.74224 35 38 38
1.0528 0.0964205 1.84404 34 38 37
1.01275 0.0919091 1.75776 35 38 38
1.08186 0.0972963 1.86079 35 38 38
1.03116 0.0919091 1.75776 36 39 38
1.14205 0.100892 1.92955 36 39 39
1.14695 0.100436 1.92083 36 39 39
1.16226 0.100892 1.92955 36 40 40
1.25797 0.108259 2.07045 36 40 40
1.10012 0.0938649 1.79517 37 40 40
1.18719 0.100436 1.92083 37 41 41
1.2466 0.104575 2 36 39 39
-0.600003 0.0549053 0.954604 30 31 27
-0.599983 0.0553649 0.962595 32 34 30
-0.5935 0.0552308 0.960263 35 36 31
-0.612822 0.0575163 1 37 37 32
-0.633333 0.0599538 1.04238 37 36 31
-0.602347 0.0575163 1 37 37 32
-0.620836 0.0598019 1.03974 38 37 33
-0.61539 0.0598019 1.03974 38 37 33
-0.586633 0.0575163 1 37 36 32
-0.560854 0.0554842 0.964669 37 36 32
-0.596514 0.0595485 1.03533 37 36 32
-0.591091 0.0595485 1.03533 37 37 33
-0.586841 0.0596677 1.03741 36 36 32
-0.540643 0.0554842 0.964669 37 36 33
-0.575974 0.0596677 1.03741 37 36 33
-0.596378 0.0623698 1.08438 38 37 34
-0.565106 0.0596677 1.03741 37 37 34
-0.614595 0.0655231 1.13921 37 37 33
-0.593664 0.0639121 1.1112 37 37 33
-0.573658 0.0623698 1.08438 37 37 33
-0.585584 0.064303 1.118 37 37 33
-0.559593 0.0620697 1.07917 37 37 33
-0.556619 0.0623698 1.08438 36 36 32
-0.592357 0.0670586 1.1659 37 37 33
-0.566017 0.0647442 1.12567 37 37 33
-0.536983 0.0620697 1.07917 37 38 34
-0.5339 0.0623698 1.08438 37 38 34
-0.548329 0.0647442 1.12567 37 37 33
-0.594516 0.0709608 1.23375 37 36 33
-0.561086 0.0677066 1.17717 36 36 33
-0.610544 0.0744933 1.29517 36 36 32
-0.57513 0.0709608 1.23375 37 36 33
-0.57258 0.071449 1.24224 37 36 33
-0.566073 0.071449 1.24224 36 36 32
-0.53605 0.0684462 1.19003 36 36 31
-0.586743 0.0758004 1.31789 37 37 32
-0.546553 0.071449 1.24224 37 37 33
-0.572937 0.0758004 1.31789 37 37 32
-0.610247 0.0817211 1.42083 37 37 32
-0.618413 0.083837 1.45762 38 37 33
-0.610778 0.083837 1.45762 38 37 33
-0.5833 0.0810788 1.40967 38 37 33
-0.612822 0.0862745 1.5 38 37 33
-0.585254 0.0834634 1.45113 37 37 33
-0.539633 0.07797 1.35562 37 37 33
-0.570052 0.0834634 1.45113 37 37 33
-0.581395 0.0862745 1.5 37 37 34
-0.592226 0.0890856 1.54887 37 37 33
-0.605331 0.0923216 1.60514 36 36 31
-0.579289 0.0895941 1.55772 37 37 33
-0.583089 0.0914702 1.59033 38 37 33
-0.580109 0.0923216 1.60514 38 38 34
-0.607211 0.0980557 1.70483 39 38 34
-0.546653 0.0895941 1.55772 38 38 34
-0.535437 0.0890856 1.54887 38 38 34
-0.571004 0.0964647 1.67717 37 38 34
-0.601774 0.103251 1.79517 37 37 33
-0.572105 0.099719 1.73375 36 36 32
-0.553633 0.0980557 1.70483 36 36 32
-0.573566 0.103251 1.79517 37 37 34
-0.535774 0.0980557 1.70483 37 38 34
-0.526844 0.0980557 1.70483 37 37 34
-0.517915 0.0980557 1.70483 36 37 33
-0.517619 0.099719 1.73375 37 37 34
-0.487344 0.095563 1.66149 37 37 34
-0.483157 0.0964647 1.67717 37 37 33
-0.482197 0.0980557 1.70483 36 36 32
-0.469158 0.0972043 1.69003 37 37 34
-0.447873 0.094579 1.64438 38 38 34
-0.44097 0.094947 1.65078 38 38 34
-0.450025 0.0988347 1.71838 38 38 34
-0.437549 0.0980557 1.70483 38 38 33
-0.425285 0.097293 1.69157 37 37 33
-0.423024 0.0988347 1.71838 37 37 33
-0.420749 0.10044 1.74629 36 36 32
-0.395311 0.0964647 1.67717 37 37 33
-0.392901 0.0980557 1.70483 37 37 33
-0.376983 0.096271 1.6738 37 37 33
-0.368957 0.0964647 1.67717 37 37 33
-0.366112 0.0980557 1.70483 37 37 33
-0.351387 0.0964647 1.67717 37 38 34
-0.342602 0.0964647 1.67717 38 38 34
-0.330698 0.095563 1.66149 37 38 34
-0.325033 0.0964647 1.67717 37 37 33
-0.313292 0.095563 1.66149 37 37 33
-0.30459 0.095563 1.66149 37 38 34
-0.295887 0.095563 1.66149 38 38 35
-0.299165 0.0995494 1.7308 36 37 34
-0.278482 0.095563 1.66149 36 36 32
-0.26804 0.094947 1.65078 37 37 34
-0.258389 0.094579 1.64438 38 38 35
-0.248257 0.0940039 1.63439 38 38 34
-0.243672 0.095563 1.66149 37 38 34
-0.234969 0.095563 1.66149 37 37 33
-0.226267 0.095563 1.66149 37 37 33
-0.219617 0.0964647 1.67717 37 37 34
-0.206711 0.094579 1.64438 37 37 34
-0.200159 0.095563 1.66149 38 38 35
-0.194745 0.0972043 1.69003 38 39 35
-0.184108 0.096271 1.6738 37 37 34
-0.177041 0.0972043 1.69003 37 37 34
-0.164283 0.094947 1.65078 37 37 34
-0.155636 0.094947 1.65078 37 37 34
-0.14553 0.0940039 1.63439 37 36 33
-0.135476 0.0929793 1.61657 36 36 32
-0.12639 0.0925261 1.60869 37 37 33
-0.11712 0.0918639 1.59718 38 38 35
-0.111968 0.094579 1.64438 38 37 34
-0.103758 0.094947 1.65078 37 37 32
-0.093664 0.0935024 1.62567 37 37 32
-0.0856058 0.0940039 1.63439 37 36 32
-0.0770452 0.0940039 1.63439 38 37 32
-0.0691717 0.094947 1.65078 37 37 32
-0.0602907 0.094579 1.64438 37 36 32
-0.0531606 0.097293 1.69157 37 36 32
-0.0436283 0.0958167 1.6659 36 36 32
-0.0338989 0.0930612 1.618 36 36 32
-0.0254242 0.0930612 1.618 38 37 34
-0.0175694 0.0964647 1.67717 38 38 35
-0.00864646 0.094947 1.65078 37 36 34
0 0.094947 1.65078 37 36 33
0.00864646 0.094947 1.65078 37 36 33
0.0175977 0.0966205 1.67988 37 36 33
0.026354 0.0964647 1.67717 37 36 33
0.0340596 0.0935024 1.62567 38 37 34
0.0432323 0.094947 1.65078 37 37 34
0.0527932 0.0966205 1.67988 37 37 34
0.0592709 0.0929793 1.61657 36 36 33
0.0691717 0.094947 1.65078 36 36 32
0.0758341 0.0925261 1.60869 36 36 32
0.0878468 0.0964647 1.67717 36 37 33
0.09314 0.0929793 1.61657 37 37 33
0.0987081 0.0903263 1.57045 36 36 32
0.109538 0.0925261 1.60869 38 37 33
0.12105 0.094947 1.65078 38 37 33
0.129194 0.094579 1.64438 39 38 34
0.134816 0.0925261 1.60869 38 37 33
0.14553 0.0940039 1.63439 38 37 33
0.151668 0.0925261 1.60869 38 37 34
0.161783 0.0935024 1.62567 37 36 33
0.173471 0.0952447 1.65596 36 36 32
0.180872 0.094579 1.64438 36 36 33
0.193263 0.0964647 1.67717 36 37 34
0.198869 0.094947 1.65078 37 38 35
0.207515 0.094947 1.65078 37 38 34
0.225224 0.0989274 1.71999 36 37 33
0.228402 0.0964647 1.67717 36 37 34
0.229902 0.0935024 1.62567 35 36 33
0.242101 0.094947 1.65078 35 36 32
0.261015 0.0988347 1.71838 35 36 32
0.26177 0.0958167 1.6659 36 36 33
0.274413 0.0972043 1.69003 36 36 33
0.276687 0.094947 1.65078 36 36 34
0.289894 0.0964647 1.67717 37 37 34
0.29398 0.094947 1.65078 37 37 34
0.296355 0.0929793 1.61657 37 37 34
0.304822 0.0929793 1.61657 37 37 34
0.333019 0.0988347 1.71838 37 37 34
0.330698 0.095563 1.66149 37 37 34
0.345544 0.097293 1.69157 37 37 35
0.342423 0.0940039 1.63439 37 37 35
0.372322 0.099719 1.73375 37 37 34
0.359544 0.0940039 1.63439 37 37 34
0.370357 0.094579 1.64438 36 37 34
0.399565 0.099719 1.73375 36 36 33
0.394517 0.096271 1.6738 36 37 34
0.403284 0.096271 1.6738 36 36 34
0.416046 0.0972043 1.69003 36 36 33
0.424898 0.0972043 1.69003 35 36 33
0.43325 0.0970924 1.68808 36 36 33
0.438352 0.096271 1.6738 36 36 33
0.467829 0.10073 1.75133 36 35 33
0.491693 0.103833 1.80527 36 36 33
0.461236 0.095563 1.66149 36 36 34
0.482197 0.0980557 1.70483 37 37 35
0.4657 0.0929793 1.61657 36 36 34
0.500056 0.0980557 1.70483 35 35 33
0.490938 0.094579 1.64438 35 35 33
0.513418 0.0972043 1.69003 35 36 34
0.535781 0.099719 1.73375 35 36 34
0.535774 0.0980557 1.70483 35 36 34
0.540467 0.097293 1.69157 35 36 34
0.548826 0.0972043 1.69003 35 36 34
0.567032 0.0988347 1.71838 34 35 32
0.553374 0.094947 1.65078 34 35 32
0.594537 0.10044 1.74629 34 35 33
0.579789 0.0964647 1.67717 34 36 33
0.608429 0.099719 1.73375 34 36 33
0.612034 0.0988347 1.71838 34 36 34
0.626591 0.099719 1.73375 34 36 33
0.62507 0.0980557 1.70483 34 36 34
0.629068 0.097293 1.69157 34 35 33
0.658564 0.10044 1.74629 34 35 33
0.657037 0.0988347 1.71838 34 35 33
0.671996 0.099719 1.73375 34 35 32
0.663903 0.0972043 1.69003 34 35 33
0.672755 0.0972043 1.69003 34 35 33
0.704298 0.10044 1.74629 34 35 33
0.733412 0.103251 1.79517 35 35 33
0.72987 0.101452 1.76388 34 35 33
0.721573 0.0990451 1.72203 34 34 33
0.751621 0.101896 1.7716 34 34 33
0.739613 0.0990451 1.72203 34 34 33
0.757415 0.100207 1.74224 34 35 34
0.784915 0.102609 1.784 34 35 33
0.773535 0.0999318 1.73745 34 35 33
0.784792 0.100207 1.74224 34 35 33
0.82351 0.103942 1.80718 33 34 32
0.854042 0.106571 1.85288 32 33 31
0.854989 0.10549 1.8341 29 31 29
0.821294 0.100207 1.74224 26 29 29
0.849192 0.102472 1.78162 25 28 30
0.86505 0.103251 1.79517 27 31 31
0.867856 0.102472 1.78162 30 34 35
0.860962 0.100577 1.74867 33 36 36
0.878869 0.101588 1.76625 34 38 37
0.902661 0.103251 1.79517 35 38 38
0.876272 0.0991996 1.72472 34 37 37
0.921467 0.103251 1.79517 33 37 36
0.896248 0.0994113 1.7284 34 37 36
0.97717 0.107303 1.86561 33 37 36
1.0275 0.111713 1.94228 34 37 36
0.923407 0.0994113 1.7284 35 37 37
0.9483 0.1011 1.75776 33 36 35
1.02709 0.108447 1.8855 31 35 34
0.966714 0.1011 1.75776 33 37 36
0.962589 0.099719 1.73375 35 38 38
0.97167 0.099719 1.73375 36 40 39
0.980751 0.099719 1.73375 36 40 39
1.10162 0.110981 1.92955 36 39 39
1.06246 0.106063 1.84404 37 40 39
1.08186 0.107026 1.86079 36 39 39
1.12682 0.110479 1.92083 36 39 38
1.06251 0.103251 1.79517 36 39 39
1.19422 0.115033 2 36 39 39
1.14136 0.108986 1.89486 36 40 40
1.12041 0.106063 1.84404 36 40 40
1.13007 0.106063 1.84404 37 41 41
1.18719 0.110479 1.92083 38 41 41
1.16827 0.107805 1.87433 36 40 40
-0.650743 0.064962 1.03533 35 37 33
-0.579388 0.0583249 0.929553 36 36 33
-0.66699 0.0677124 1.07917 37 36 32
-0.612822 0.0627451 1 38 37 33
-0.607584 0.0627451 1 37 36 32
-0.650032 0.0677124 1.07917 37 37 31
-0.641625 0.067423 1.07455 37 36 32
-0.591871 0.0627451 1 38 37 33
-0.586633 0.0627451 1 37 36 32
-0.604498 0.0652384 1.03974 37 36 32
-0.640226 0.0697223 1.1112 37 36 32
-0.616118 0.0677124 1.07917 36 36 32
-0.610465 0.0677124 1.07917 36 36 32
-0.619368 0.0693419 1.10514 37 36 33
-0.636887 0.071976 1.14712 37 37 34
-0.588712 0.0671653 1.07045 38 38 35
-0.605305 0.0697223 1.1112 37 37 34
-0.623631 0.0725307 1.15596 37 37 34
-0.555485 0.0652384 1.03974 37 37 33
-0.568458 0.067423 1.07455 37 37 33
-0.567979 0.0680398 1.08438 37 37 33
-0.583705 0.07063 1.12567 37 37 33
-0.573872 0.0701488 1.118 36 36 32
-0.576343 0.0711772 1.13439 36 36 32
-0.581249 0.0725307 1.15596 36 37 33
-0.585749 0.0738617 1.17717 38 38 35
-0.593203 0.0755973 1.20483 37 38 34
-0.544593 0.0701488 1.118 37 37 34
-0.567252 0.0738617 1.17717 37 37 34
-0.561086 0.0738617 1.17717 36 35 32
-0.58988 0.0785149 1.25133 35 35 31
-0.614354 0.0826914 1.31789 36 36 32
-0.586113 0.0797866 1.2716 36 36 33
-0.600549 0.0826914 1.31789 36 36 33
-0.583409 0.0812654 1.29517 36 36 32
-0.549281 0.0774118 1.23375 37 37 33
-0.569841 0.0812654 1.29517 37 37 33
-0.612834 0.0884496 1.40967 37 37 32
-0.568154 0.083001 1.32283 36 36 31
-0.583077 0.0862327 1.37433 37 37 32
-0.628536 0.0941176 1.5 38 37 33
-0.5833 0.0884496 1.40967 38 37 33
-0.575916 0.0884496 1.40967 37 37 32
-0.604965 0.0941176 1.5 38 37 33
-0.547085 0.0862327 1.37433 37 37 33
-0.532533 0.0850582 1.35562 38 37 34
-0.600339 0.0971843 1.54887 37 37 33
-0.603809 0.099085 1.57917 37 37 33
-0.642929 0.10697 1.70483 36 36 32
-0.571736 0.0964646 1.53741 37 37 33
-0.549969 0.0941176 1.5 38 37 34
-0.562971 0.097739 1.55772 38 38 34
-0.56643 0.0997857 1.59033 38 38 34
-0.563294 0.100714 1.60514 38 38 34
-0.518542 0.0941176 1.5 38 37 34
-0.568393 0.104753 1.6695 37 37 33
-0.571492 0.10697 1.70483 37 37 33
-0.562563 0.10697 1.70483 36 36 33
-0.527924 0.102003 1.62567 36 37 33
-0.552234 0.108449 1.7284 37 38 34
-0.518166 0.103454 1.64881 38 38 35
-0.53216 0.108049 1.72203 37 38 34
-0.517915 0.10697 1.70483 37 37 34
-0.517619 0.108784 1.73375 37 37 34
-0.496166 0.106138 1.69157 37 37 34
-0.483157 0.105234 1.67717 37 37 33
-0.474373 0.105234 1.67717 37 37 33
-0.473267 0.10697 1.70483 37 37 33
-0.452533 0.104251 1.66149 37 37 33
-0.459026 0.10782 1.71838 38 38 34
-0.446478 0.10697 1.70483 38 38 34
-0.437549 0.10697 1.70483 38 38 34
-0.432024 0.10782 1.71838 38 38 34
-0.407658 0.103903 1.65596 37 37 34
-0.404095 0.105234 1.67717 37 37 34
-0.398705 0.106138 1.69157 38 38 35
-0.382913 0.104251 1.66149 38 38 34
-0.380637 0.106041 1.69003 38 38 35
-0.357626 0.102003 1.62567 38 38 35
-0.366112 0.10697 1.70483 37 38 34
-0.357183 0.10697 1.70483 37 37 33
-0.348253 0.10697 1.70483 37 37 33
-0.321756 0.101432 1.61657 37 37 33
-0.327525 0.106041 1.69003 37 37 34
-0.313292 0.104251 1.66149 37 37 34
-0.305398 0.104527 1.6659 37 38 34
-0.29398 0.103579 1.65078 37 38 34
-0.292117 0.106041 1.69003 37 38 35
-0.278482 0.104251 1.66149 37 38 34
-0.265378 0.10255 1.63439 38 38 35
-0.267887 0.10697 1.70483 37 38 35
-0.248257 0.10255 1.63439 37 38 34
-0.241163 0.103177 1.64438 37 38 34
-0.23671 0.105023 1.6738 37 38 34
-0.224808 0.103579 1.65078 37 37 34
-0.208246 0.0997857 1.59033 38 38 35
-0.212643 0.106138 1.69157 37 38 34
-0.198869 0.103579 1.65078 38 38 34
-0.198011 0.10782 1.71838 38 38 35
-0.180872 0.103177 1.64438 38 38 34
-0.177202 0.106138 1.69157 37 37 34
-0.17117 0.107921 1.71999 37 37 34
-0.156646 0.104251 1.66149 37 37 34
-0.143944 0.101432 1.61657 37 37 34
-0.141633 0.106041 1.69003 37 37 34
-0.128409 0.10255 1.63439 38 37 34
-0.121836 0.104251 1.66149 38 38 34
-0.115076 0.106041 1.69003 38 37 34
-0.102179 0.102003 1.62567 38 37 33
-0.0941664 0.10255 1.63439 38 37 32
-0.0870257 0.104251 1.66149 37 37 32
-0.0770452 0.10255 1.63439 39 38 34
-0.0663895 0.0994124 1.58438 39 38 34
-0.0614928 0.105234 1.67717 38 38 34
-0.0527081 0.105234 1.67717 37 37 33
-0.04213 0.100938 1.60869 37 36 32
-0.0345858 0.103579 1.65078 37 36 34
-0.0261077 0.104251 1.66149 38 37 35
-0.0161889 0.096966 1.5454 37 36 34
-0.00878468 0.105234 1.67717 36 36 32
0 0.103177 1.64438 37 36 33
0.00859722 0.102989 1.64138 38 37 34
0.0169345 0.101432 1.61657 37 37 34
0.0254242 0.101521 1.618 37 36 33
0.0348103 0.104251 1.66149 37 36 33
0.0443005 0.106138 1.69157 36 36 33
0.0513635 0.10255 1.63439 36 36 33
0.0605252 0.103579 1.65078 36 36 32
0.0684294 0.102467 1.63307 35 36 32
0.0780621 0.103903 1.65596 35 35 31
0.0859722 0.102989 1.64138 35 36 31
0.0982252 0.10697 1.70483 35 35 31
0.104431 0.104251 1.66149 35 35 30
0.111288 0.10255 1.63439 37 36 32
0.119848 0.10255 1.63439 38 38 34
0.128958 0.102989 1.64138 40 39 36
0.138343 0.103579 1.65078 39 38 34
0.14553 0.10255 1.63439 37 37 33
0.158124 0.105234 1.67717 38 37 33
0.168342 0.106138 1.69157 37 37 34
0.167314 0.100215 1.59718 37 36 33
0.182754 0.104251 1.66149 36 36 33
0.201809 0.109887 1.75133 36 37 34
0.203597 0.106041 1.69003 37 38 35
0.205454 0.10255 1.63439 36 36 33
0.214015 0.10255 1.63439 34 35 31
0.228402 0.105234 1.67717 35 36 32
0.237186 0.105234 1.67717 36 36 33
0.24286 0.103903 1.65596 36 37 34
0.258957 0.10697 1.70483 37 37 34
0.255447 0.102003 1.62567 36 36 34
0.279277 0.107921 1.71999 35 36 32
0.283523 0.106138 1.69157 35 35 32
0.282499 0.10255 1.63439 37 37 34
0.301244 0.106138 1.69157 37 37 35
0.315018 0.10782 1.71838 38 38 35
0.304822 0.101432 1.61657 38 38 35
0.313289 0.101432 1.61657 38 38 35
0.330698 0.104251 1.66149 37 37 35
0.342602 0.105234 1.67717 37 37 34
0.36002 0.10782 1.71838 36 36 34
0.362515 0.105919 1.68808 36 37 34
0.357626 0.102003 1.62567 36 37 34
0.37421 0.104251 1.66149 36 37 34
0.382913 0.104251 1.66149 36 36 33
0.381027 0.101432 1.61657 36 36 33
0.396196 0.103177 1.64438 36 36 33
0.423024 0.10782 1.71838 36 36 33
0.408716 0.102003 1.62567 36 36 33
0.44497 0.108784 1.73375 36 36 34
0.423364 0.101432 1.61657 36 36 33
0.443831 0.104251 1.66149 35 35 33
0.452533 0.104251 1.66149 36 36 33
0.481295 0.108784 1.73375 36 36 34
0.486483 0.107921 1.71999 36 36 34
0.483157 0.105234 1.67717 36 36 34
0.490954 0.105023 1.6738 34 35 32
0.504566 0.106041 1.69003 34 34 31
0.532041 0.109887 1.75133 34 35 32
0.536925 0.109017 1.73745 35 36 33
0.522154 0.104251 1.66149 35 35 33
0.553001 0.108599 1.7308 35 36 33
0.54465 0.105234 1.67717 35 35 33
0.542616 0.103177 1.64438 34 35 32
0.567047 0.106138 1.69157 34 35 32
0.575382 0.106041 1.69003 33 35 32
0.603684 0.109571 1.74629 34 36 33
0.593086 0.106041 1.69003 34 36 33
0.607211 0.10697 1.70483 34 36 34
0.635269 0.110291 1.75776 35 36 34
0.614928 0.105234 1.67717 35 36 34
0.639635 0.107921 1.71999 34 36 34
0.653834 0.108784 1.73375 34 35 33
0.662915 0.108784 1.73375 33 35 32
0.651116 0.105404 1.67988 34 35 32
0.675038 0.10782 1.71838 33 35 32
0.702153 0.110675 1.76388 34 35 33
0.687577 0.10697 1.70483 35 36 34
0.702698 0.107921 1.71999 35 36 34
0.724676 0.109887 1.75133 34 35 34
0.733849 0.109887 1.75133 34 35 33
0.729724 0.107921 1.71999 34 35 33
0.754957 0.110291 1.75776 34 34 33
0.719906 0.103903 1.65596 35 36 34
0.789828 0.112638 1.79517 35 35 34
0.766672 0.108049 1.72203 34 35 33
0.821094 0.114374 1.82283 34 34 32
0.828393 0.114064 1.81789 32 33 31
0.816576 0.111159 1.7716 31 32 30
0.830529 0.111788 1.78162 28 30 29
0.828612 0.110291 1.75776 26 29 29
0.868832 0.114374 1.82283 24 28 28
0.839545 0.109317 1.74224 28 31 31
0.860367 0.110824 1.76625 33 37 37
0.82819 0.105544 1.68211 35 39 39
0.848309 0.10697 1.70483 37 41 39
0.888121 0.110824 1.76625 37 41 39
0.926118 0.114374 1.82283 35 39 38
0.902266 0.110291 1.75776 34 38 37
0.956213 0.115705 1.84404 33 37 36
0.971933 0.116431 1.85562 34 37 36
0.914354 0.108449 1.7284 34 37 36
0.977953 0.114855 1.8305 34 37 36
0.987541 0.114855 1.8305 33 36 35
1.02101 0.117605 1.87433 32 35 34
0.997892 0.113848 1.81445 32 36 35
1.0074 0.113848 1.81445 34 38 37
1.02589 0.114855 1.8305 37 41 40
1.01549 0.112638 1.79517 37 41 40
1.07009 0.117605 1.87433 37 40 39
1.02072 0.111159 1.7716 37 40 39
1.07212 0.115705 1.84404 36 39 39
1.17327 0.12549 2 36 39 39
1.14619 0.121509 1.93655 36 39 38
1.23628 0.12991 2.07045 36 39 39
1.11075 0.115705 1.84404 36 40 40
1.15129 0.118893 1.89486 36 40 40
1.22564 0.12549 2 37 40 40
1.18029 0.119822 1.90967 37 41 40
1.2466 0.12549 2 36 39 39
-0.628536 0.0679739 1 38 38 34
-0.623298 0.0679739 1 37 37 33
-0.644252 0.0708545 1.04238 37 36 31
-0.592308 0.0656984 0.966525 38 37 32
-0.607584 0.0679739 1 38 37 33
-0.602347 0.0679739 1 38 37 32
-0.64438 0.0733551 1.07917 37 36 31
-0.61539 0.0706749 1.03974 37 36 32
-0.586633 0.0679739 1 37 36 32
-0.603142 0.0705164 1.03741 37 36 32
-0.597709 0.0705164 1.03741 37 36 32
-0.619097 0.0737098 1.08438 36 36 31
-0.628586 0.0755325 1.1112 35 35 31
