ply
format ascii 1.0
element vertex 1326
property float x
property float y
property float z
property uchar red
property uchar green
property uchar blue
end_header
-0.144008 -0.431279 1.71838 37 39 34
-0.130885 -0.418109 1.6659 37 39 35
-0.122159 -0.418109 1.6659 37 39 35
-0.113434 -0.418109 1.6659 37 38 34
-0.106321 -0.424551 1.69157 37 38 34
-0.0951111 -0.414314 1.65078 38 39 34
-0.0912549 -0.437268 1.74224 38 39 35
-0.0803661 -0.42788 1.70483 38 39 35
-0.0714365 -0.42788 1.70483 37 39 34
-0.0592709 -0.405728 1.61657 38 39 34
-0.0535774 -0.42788 1.70483 37 38 33
-0.0439234 -0.420937 1.67717 37 38 34
-0.0354081 -0.424164 1.69003 38 39 35
-0.0267887 -0.42788 1.70483 40 41 37
-0.0174051 -0.417002 1.66149 39 40 36
-0.00900894 -0.431683 1.71999 38 39 35
0 -0.410199 1.63439 37 39 34
0.00908103 -0.435137 1.73375 38 39 34
0.0171212 -0.410199 1.63439 37 39 34
0.0270015 -0.431279 1.71838 36 38 35
0.0363241 -0.435137 1.73375 37 39 35
0.0446478 -0.42788 1.70483 37 39 35
0.054003 -0.431279 1.71838 36 38 34
0.060918 -0.417002 1.66149 35 36 32
0.0731738 -0.438285 1.74629 35 36 31
0.0817293 -0.435137 1.73375 35 37 31
0.0870257 -0.417002 1.66149 35 37 31
0.0982252 -0.42788 1.70483 36 37 31
0.107155 -0.42788 1.70483 36 37 32
0.111288 -0.410199 1.63439 36 38 33
0.124041 -0.424551 1.69157 37 38 33
0.135134 -0.431683 1.71999 37 38 34
0.138343 -0.414314 1.65078 36 38 34
0.150485 -0.424164 1.69003 36 37 34
0.159482 -0.424551 1.69157 36 37 34
0.165788 -0.418109 1.6659 36 38 34
0.18001 -0.431279 1.71838 37 38 34
0.189188 -0.431683 1.71999 38 39 35
0.198197 -0.431683 1.71999 38 39 35
0.208864 -0.435137 1.73375 38 39 35
0.212449 -0.424164 1.69003 37 38 34
0.223239 -0.42788 1.70483 37 38 34
0.24021 -0.4427 1.76388 36 38 34
0.228616 -0.405728 1.61657 36 38 34
0.254269 -0.435137 1.73375 36 38 35
0.258957 -0.42788 1.70483 37 39 35
0.275194 -0.43955 1.75133 37 39 35
0.276817 -0.42788 1.70483 36 38 34
0.288286 -0.431683 1.71999 36 37 33
0.294676 -0.42788 1.70483 37 38 34
0.303605 -0.42788 1.70483 37 38 34
0.319392 -0.437268 1.74224 37 38 34
0.324018 -0.431279 1.71838 37 39 35
0.338429 -0.438285 1.74629 38 39 36
0.339324 -0.42788 1.70483 38 39 35
0.350754 -0.430952 1.71707 38 39 35
0.345858 -0.414314 1.65078 37 39 35
0.371689 -0.434398 1.7308 37 38 35
0.381403 -0.435137 1.73375 36 37 34
0.387022 -0.431279 1.71838 36 38 35
0.398886 -0.434398 1.7308 37 38 35
0.404716 -0.430952 1.71707 37 38 35
0.407565 -0.424551 1.69157 38 39 36
0.426808 -0.435137 1.73375 38 40 36
0.421665 -0.420937 1.67717 37 39 36
0.44069 -0.430952 1.71707 37 38 35
0.450025 -0.431279 1.71838 37 38 34
0.466483 -0.438285 1.74629 36 37 34
0.480421 -0.4427 1.76388 37 38 34
0.48966 -0.4427 1.76388 38 38 35
0.495348 -0.43955 1.75133 37 38 34
0.508137 -0.4427 1.76388 37 38 34
0.511027 -0.437268 1.74224 37 38 35
0.520153 -0.437268 1.74224 38 38 35
0.525804 -0.434398 1.7308 38 39 35
0.53103 -0.431279 1.71838 37 37 34
0.543936 -0.434398 1.7308 35 36 32
0.553001 -0.434398 1.7308 35 36 33
0.56578 -0.437268 1.74224 36 37 34
0.582048 -0.4427 1.76388 36 36 34
0.581186 -0.435137 1.73375 36 38 34
0.614617 -0.453088 1.80527 38 40 36
0.589351 -0.42788 1.70483 38 40 36
0.603599 -0.431683 1.71999 37 39 35
0.607211 -0.42788 1.70483 36 39 34
0.61614 -0.42788 1.70483 36 38 34
0.64672 -0.4427 1.76388 36 38 35
0.644753 -0.435137 1.73375 36 38 34
0.676996 -0.450552 1.79517 36 39 35
0.690991 -0.453566 1.80718 36 39 35
0.683676 -0.4427 1.76388 36 39 35
0.705204 -0.450552 1.79517 36 38 35
0.723654 -0.456256 1.81789 36 38 35
0.699239 -0.435137 1.73375 35 38 34
0.720631 -0.4427 1.76388 35 38 34
0.734586 -0.44556 1.77528 35 38 34
0.76577 -0.458669 1.82751 36 38 35
0.737134 -0.436066 1.73745 36 39 36
0.771023 -0.450552 1.79517 36 38 35
0.785647 -0.453566 1.80718 35 38 35
0.795113 -0.453566 1.80718 36 38 35
0.809349 -0.456256 1.81789 36 39 36
0.808634 -0.450552 1.79517 36 38 35
0.835776 -0.460322 1.8341 35 37 34
0.821197 -0.447153 1.78162 36 37 35
0.854989 -0.460322 1.8341 36 37 35
0.846245 -0.450552 1.79517 36 37 35
0.889225 -0.468232 1.86561 38 39 37
0.851116 -0.443294 1.76625 39 40 38
0.903898 -0.465723 1.85562 39 40 38
0.897475 -0.457494 1.82283 39 40 37
0.968844 -0.488677 1.94707 37 39 36
0.910104 -0.454267 1.80997 37 38 35
0.905183 -0.447153 1.78162 36 38 35
0.921467 -0.450552 1.79517 36 38 35
0.986692 -0.477571 1.90282 36 38 35
0.958778 -0.459419 1.8305 35 38 35
0.97553 -0.462818 1.84404 35 37 34
0.969381 -0.455392 1.81445 35 37 34
1.01721 -0.473224 1.8855 35 38 35
0.968512 -0.446234 1.77797 36 38 35
0.974324 -0.444637 1.7716 36 38 35
1.0713 -0.48428 1.92955 35 38 35
0.97167 -0.435137 1.73375 35 37 34
0.964393 -0.42788 1.70483 35 38 34
1.04069 -0.457494 1.82283 35 37 34
1.1067 -0.482091 1.92083 35 37 34
1.11027 -0.479289 1.90967 33 36 33
1.0531 -0.450552 1.79517 34 37 34
1.04037 -0.441164 1.75776 34 37 34
1.19422 -0.501961 2 35 38 35
1.0269 -0.42788 1.70483 35 38 35
1.09072 -0.450552 1.79517 34 37 35
1.30266 -0.5335 2.12567 33 36 34
1.17114 -0.475573 1.89486 33 36 34
1.19029 -0.479289 1.90967 34 37 35
-0.521998 -0.204096 0.830499 37 39 34
-0.512867 -0.202212 0.822829 37 38 33
-0.501813 -0.19953 0.811916 37 38 33
-0.53269 -0.213617 0.869241 36 37 32
-0.516475 -0.208901 0.850047 36 36 32
-0.529493 -0.216028 0.87905 36 36 33
-0.522073 -0.214869 0.874334 37 37 34
-0.517493 -0.214869 0.874334 38 38 35
-0.531705 -0.222741 0.906367 39 39 36
-0.497451 -0.210269 0.855615 38 38 35
-0.506471 -0.216028 0.87905 38 38 35
-0.513255 -0.22093 0.898997 37 37 34
-0.500912 -0.217613 0.885502 37 37 34
-0.499008 -0.218812 0.89038 37 37 34
-0.496834 -0.219914 0.894863 37 37 34
-0.49442 -0.22093 0.898997 36 36 32
-0.517047 -0.233262 0.949179 36 37 32
-0.487065 -0.22187 0.90282 36 36 32
-0.493635 -0.227067 0.923969 36 37 32
-0.490329 -0.227779 0.926867 37 37 33
-0.474737 -0.222741 0.906367 37 38 33
-0.483307 -0.229053 0.93205 36 37 32
-0.490002 -0.234596 0.954604 37 37 33
-0.496092 -0.23996 0.976432 37 38 35
-0.477274 -0.233262 0.949179 37 38 35
-0.485413 -0.239737 0.975527 37 38 34
-0.479822 -0.239497 0.974549 37 37 34
-0.463307 -0.233741 0.951125 37 38 34
-0.481877 -0.245752 1 37 38 34
-0.453344 -0.233741 0.951125 37 38 34
-0.471402 -0.245752 1 37 37 33
-0.478028 -0.252006 1.02545 37 37 33
-0.460926 -0.245752 1 37 37 33
-0.481989 -0.259935 1.05772 37 37 33
-0.476449 -0.259935 1.05772 38 38 34
-0.459372 -0.253568 1.0318 38 38 34
-0.439975 -0.245752 1 38 37 33
-0.434737 -0.245752 1 38 38 34
-0.443159 -0.253568 1.0318 38 38 34
-0.464476 -0.269046 1.09479 37 37 34
-0.433051 -0.253978 1.03348 37 37 34
-0.441413 -0.26216 1.06677 37 37 34
-0.451502 -0.271589 1.10514 37 37 34
-0.443519 -0.270252 1.0997 38 38 34
-0.456636 -0.281906 1.14712 38 38 35
-0.450627 -0.281906 1.14712 38 38 35
-0.444619 -0.281906 1.14712 37 38 34
-0.432867 -0.278214 1.1321 39 38 35
-0.435937 -0.284079 1.15596 39 38 35
-0.401324 -0.265207 1.07917 38 38 34
-0.427474 -0.286523 1.1659 37 37 33
-0.440331 -0.299418 1.21838 37 37 33
-0.447977 -0.309097 1.25776 37 36 33
-0.413107 -0.289292 1.17717 38 38 34
-0.426501 -0.303196 1.23375 38 38 35
-0.422928 -0.305282 1.24224 37 37 34
-0.41947 -0.307517 1.25133 36 36 32
-0.458278 -0.3413 1.3888 36 36 32
-0.451004 -0.3413 1.3888 36 37 33
-0.443729 -0.3413 1.3888 37 38 34
-0.414172 -0.323875 1.31789 37 38 34
-0.400245 -0.318289 1.29517 37 38 34
-0.431638 -0.349172 1.42083 37 38 34
-0.426799 -0.351315 1.42955 36 37 33
-0.397624 -0.333145 1.35562 36 37 32
-0.395916 -0.337745 1.37433 37 37 33
-0.398711 -0.346428 1.40967 37 38 33
-0.387218 -0.34279 1.39486 38 38 34
-0.408548 -0.368627 1.5 38 39 35
-0.372606 -0.34279 1.39486 37 38 34
-0.392835 -0.368627 1.5 36 38 34
-0.408163 -0.390827 1.59033 37 37 34
-0.403554 -0.394465 1.60514 37 38 34
-0.381296 -0.380638 1.54887 37 38 34
-0.402247 -0.410283 1.6695 37 38 34
-0.367155 -0.382811 1.55772 37 38 34
-0.392901 -0.418965 1.70483 37 38 34
-0.383971 -0.418965 1.70483 38 38 34
-0.368957 -0.412167 1.67717 38 38 35
-0.374145 -0.428158 1.74224 38 38 35
-0.383511 -0.449848 1.8305 38 38 35
-0.338269 -0.406954 1.65596 38 38 35
-0.339324 -0.418965 1.70483 38 38 35
-0.320922 -0.406954 1.65596 37 38 34
-0.326361 -0.425348 1.7308 36 38 34
-0.317296 -0.425348 1.7308 37 37 34
-0.303605 -0.418965 1.70483 37 38 34
-0.297017 -0.422294 1.71838 38 38 34
-0.288016 -0.422294 1.71838 37 38 34
-0.281033 -0.425348 1.7308 38 38 34
-0.270015 -0.422294 1.71838 39 39 35
-0.256709 -0.415328 1.69003 38 38 34
-0.248083 -0.415706 1.69157 37 37 33
-0.239005 -0.415328 1.69003 36 37 34
-0.234013 -0.422294 1.71838 37 38 35
-0.223239 -0.418965 1.70483 36 38 35
-0.21431 -0.418965 1.70483 37 38 35
-0.203597 -0.415328 1.69003 38 39 36
-0.193263 -0.412167 1.67717 37 39 35
-0.184478 -0.412167 1.67717 38 39 36
-0.175694 -0.412167 1.67717 38 40 36
-0.17101 -0.422294 1.71838 37 39 35
-0.167374 -0.436278 1.77528 37 38 34
-0.154377 -0.426072 1.73375 37 39 35
-0.147309 -0.431973 1.75776 38 39 35
-0.138102 -0.431973 1.75776 38 39 35
-0.126007 -0.422294 1.71838 38 39 35
-0.111288 -0.401653 1.63439 38 39 35
-0.108006 -0.422294 1.71838 37 39 34
-0.0974612 -0.415706 1.69157 38 38 34
-0.090005 -0.422294 1.71838 37 39 34
-0.0790621 -0.412167 1.67717 37 38 33
-0.0702774 -0.412167 1.67717 36 37 32
-0.062507 -0.418965 1.70483 37 38 33
-0.0550387 -0.430393 1.75133 36 37 32
-0.0442602 -0.415328 1.69003 36 37 32
-0.0351387 -0.412167 1.67717 37 38 33
-0.0256817 -0.401653 1.63439 38 39 35
-0.0182934 -0.429154 1.74629 38 40 35
-0.00861295 -0.40411 1.64438 38 39 34
0 -0.426072 1.73375 37 38 34
0.00900894 -0.42269 1.71999 37 38 33
0.0174051 -0.408315 1.66149 36 38 34
0.026177 -0.409399 1.6659 36 38 34
0.0357183 -0.418965 1.70483 36 38 35
0.0461943 -0.433477 1.76388 37 39 35
0.0544862 -0.426072 1.73375 37 39 35
0.062507 -0.418965 1.70483 36 38 34
0.0702774 -0.412167 1.67717 36 38 34
0.0789033 -0.41134 1.6738 37 38 34
0.090005 -0.422294 1.71838 37 38 33
0.100614 -0.429154 1.74629 37 38 34
0.109761 -0.429154 1.74629 37 39 34
0.114201 -0.412167 1.67717 37 38 34
0.128895 -0.431973 1.75776 36 37 33
0.130885 -0.409399 1.6659 37 38 34
0.142873 -0.418965 1.70483 37 38 34
0.153009 -0.422294 1.71838 36 38 34
0.160732 -0.418965 1.70483 36 37 34
0.166909 -0.412167 1.67717 37 38 35
0.183462 -0.430393 1.75133 38 39 35
0.192081 -0.429154 1.74629 38 39 35
0.198197 -0.42269 1.71999 38 39 35
0.203597 -0.415328 1.69003 37 38 34
0.21431 -0.418965 1.70483 37 37 34
0.227026 -0.426072 1.73375 36 37 34
0.230153 -0.415328 1.69003 35 37 33
0.23873 -0.414849 1.68808 35 37 34
0.241163 -0.40411 1.64438 36 38 34
0.258957 -0.418965 1.70483 36 38 35
0.272431 -0.426072 1.73375 37 39 35
0.276817 -0.418965 1.70483 36 38 35
0.294618 -0.431973 1.75776 36 38 34
0.289312 -0.41134 1.6738 37 38 34
0.306017 -0.422294 1.71838 37 38 35
0.315018 -0.422294 1.71838 37 39 35
0.321464 -0.418965 1.70483 37 39 35
0.333019 -0.422294 1.71838 38 39 35
0.339324 -0.418965 1.70483 38 38 35
0.356722 -0.429154 1.74629 38 39 35
0.348103 -0.408315 1.66149 37 38 35
0.360172 -0.412167 1.67717 37 37 34
0.368957 -0.412167 1.67717 36 37 34
0.383971 -0.418965 1.70483 37 38 35
0.396022 -0.422294 1.71838 37 39 36
0.408646 -0.426072 1.73375 38 39 36
0.407565 -0.415706 1.69157 38 40 36
0.42342 -0.42269 1.71999 37 39 36
0.435889 -0.426072 1.73375 37 38 35
0.44497 -0.426072 1.73375 36 37 34
0.45328 -0.425348 1.7308 36 37 34
0.459026 -0.422294 1.71838 36 37 34
0.488941 -0.441165 1.79517 36 37 34
0.492823 -0.436278 1.77528 37 37 34
0.493923 -0.429154 1.74629 36 37 34
0.495028 -0.422294 1.71838 37 37 34
0.529516 -0.443648 1.80527 37 38 34
0.521363 -0.429154 1.74629 38 39 35
0.53051 -0.429154 1.74629 39 40 36
0.539657 -0.429154 1.74629 38 39 35
0.543936 -0.425348 1.7308 37 38 35
0.561615 -0.431973 1.75776 37 38 35
0.574238 -0.434559 1.76828 37 37 35
0.5835 -0.434559 1.76828 37 37 35
0.592762 -0.434559 1.76828 37 38 34
0.60532 -0.436938 1.77797 38 39 35
0.607649 -0.431973 1.75776 37 39 35
0.619004 -0.433477 1.76388 37 39 34
0.62981 -0.434559 1.76828 36 38 34
0.621035 -0.422294 1.71838 36 38 34
0.665261 -0.445905 1.81445 36 39 35
0.649417 -0.429154 1.74629 36 39 35
0.676996 -0.441165 1.79517 36 39 35
0.690262 -0.443648 1.80527 36 39 35
0.678811 -0.430393 1.75133 36 39 35
0.730983 -0.457292 1.86079 36 38 35
0.705225 -0.435373 1.7716 36 38 34
0.70633 -0.430393 1.75133 35 37 34
0.72885 -0.438421 1.784 35 37 34
0.724676 -0.430393 1.75133 35 38 34
0.742342 -0.435373 1.7716 36 38 34
0.786107 -0.455349 1.85288 36 38 34
0.780784 -0.44675 1.81789 35 38 34
0.805517 -0.455349 1.85288 36 38 35
0.742714 -0.414849 1.68808 36 38 35
0.794259 -0.438421 1.784 36 38 35
0.826169 -0.450732 1.8341 36 39 36
0.793917 -0.428158 1.74224 37 39 36
0.810198 -0.431973 1.75776 37 38 36
0.843742 -0.444803 1.80997 37 38 36
0.864596 -0.450732 1.8341 37 37 35
0.868832 -0.447963 1.82283 38 38 36
0.82152 -0.418965 1.70483 38 38 36
0.84867 -0.428158 1.74224 38 39 36
0.883856 -0.441165 1.79517 38 39 36
0.907022 -0.447963 1.82283 37 38 35
0.960234 -0.469303 1.90967 36 38 35
0.966759 -0.467621 1.90282 35 37 34
0.912637 -0.436938 1.77797 36 38 35
0.938545 -0.444803 1.80997 36 38 35
0.965871 -0.453176 1.84404 35 38 35
1.0275 -0.47732 1.94228 35 38 34
1.00137 -0.460621 1.87433 35 38 35
0.987541 -0.449848 1.8305 36 38 35
1.02101 -0.460621 1.87433 36 39 36
1.06119 -0.474191 1.92955 36 38 35
1.04684 -0.463365 1.8855 35 38 35
1.03348 -0.453176 1.84404 35 38 35
1.06028 -0.460621 1.87433 35 38 35
1.10162 -0.474191 1.92955 35 38 35
1.02072 -0.435373 1.7716 36 39 36
1.10166 -0.465666 1.89486 35 38 35
1.03928 -0.435373 1.7716 34 37 34
1.13689 -0.472048 1.92083 34 37 34
1.26925 -0.522386 2.12567 35 38 35
1.08131 -0.441165 1.79517 35 38 35
1.15129 -0.465666 1.89486 34 37 35
1.11707 -0.447963 1.82283 33 36 34
1.23612 -0.491503 2 33 36 35
1.16827 -0.460621 1.87433 34 37 35
-0.521998 -0.199754 0.830499 37 38 34
-0.484904 -0.187118 0.777965 37 38 34
-0.506396 -0.197068 0.819331 37 38 33
-0.538701 -0.211432 0.87905 37 38 33
-0.524786 -0.207746 0.863725 37 37 34
-0.504493 -0.201449 0.837546 37 37 34
-0.55171 -0.222236 0.923969 37 37 34
-0.514479 -0.209072 0.869241 37 38 35
-0.498666 -0.204456 0.850047 38 38 35
-0.533389 -0.220663 0.917429 37 37 34
-0.517964 -0.216229 0.898997 37 37 34
-0.496267 -0.209072 0.869241 37 37 34
-0.506208 -0.215235 0.894863 38 37 34
-0.53078 -0.227792 0.947071 37 37 34
-0.511252 -0.221481 0.920833 36 36 33
-0.496523 -0.217149 0.90282 35 35 31
-0.515899 -0.227792 0.947071 36 36 31
-0.512075 -0.228299 0.949179 36 36 31
-0.490141 -0.220663 0.917429 37 37 32
-0.503162 -0.228767 0.951125 37 37 33
-0.510449 -0.234401 0.974549 36 36 31
-0.505851 -0.234637 0.975527 35 36 31
-0.499696 -0.234146 0.973489 36 37 33
-0.495632 -0.234637 0.975527 37 38 35
-0.490523 -0.234637 0.975527 37 38 34
-0.484926 -0.234401 0.974549 37 37 34
-0.468289 -0.228767 0.951125 37 37 34
-0.475194 -0.234637 0.975527 36 37 33
-0.470084 -0.234637 0.975527 37 37 34
-0.489824 -0.247176 1.02766 37 38 34
-0.460292 -0.234854 0.976432 38 38 34
-0.466164 -0.240523 1 39 39 35
-0.473145 -0.246899 1.02651 38 37 34
-0.443608 -0.234146 0.973489 37 36 32
-0.436805 -0.233237 0.969708 38 37 33
-0.483625 -0.261275 1.08628 39 39 35
-0.47972 -0.26225 1.09033 39 38 35
-0.462322 -0.255784 1.06345 38 38 34
-0.472319 -0.264502 1.0997 38 38 34
-0.451181 -0.255784 1.06345 37 37 34
-0.477356 -0.274006 1.13921 37 37 34
-0.442936 -0.257467 1.07045 37 37 34
-0.449279 -0.264502 1.0997 37 37 34
-0.448158 -0.267269 1.1112 37 37 34
-0.42465 -0.256582 1.06677 38 38 35
-0.454101 -0.278034 1.15596 38 38 35
-0.454454 -0.282011 1.17249 38 38 35
-0.474981 -0.298787 1.24224 38 38 35
-0.449839 -0.286901 1.19282 39 38 35
-0.43603 -0.282011 1.17249 39 38 35
-0.437343 -0.286901 1.19282 38 37 34
-0.409976 -0.272846 1.13439 37 37 33
-0.429125 -0.28979 1.20483 37 37 33
-0.447537 -0.306734 1.27528 38 37 34
-0.421186 -0.293047 1.21838 37 37 34
-0.410193 -0.28979 1.20483 37 37 34
-0.403883 -0.28979 1.20483 37 37 34
-0.419604 -0.305849 1.2716 37 37 34
-0.406362 -0.300974 1.25133 37 37 34
-0.429429 -0.323273 1.34404 37 38 34
-0.399623 -0.305849 1.2716 37 38 34
-0.36637 -0.285151 1.18555 36 37 33
-0.428245 -0.339057 1.40967 37 38 34
-0.43324 -0.349029 1.45113 37 38 34
-0.439975 -0.360784 1.5 36 37 33
-0.390524 -0.326057 1.35562 36 37 33
-0.398711 -0.339057 1.40967 36 37 32
-0.40464 -0.350591 1.45762 37 37 33
-0.42186 -0.37254 1.54887 37 38 34
-0.400691 -0.360784 1.5 36 37 33
-0.416492 -0.382512 1.59033 36 37 33
-0.395855 -0.370977 1.54238 36 37 33
-0.428619 -0.410051 1.70483 37 38 34
-0.379697 -0.370977 1.54238 38 38 35
-0.386739 -0.386072 1.60514 37 38 34
-0.378332 -0.386072 1.60514 38 38 34
-0.392901 -0.410051 1.70483 37 38 34
-0.361517 -0.386072 1.60514 38 38 34
-0.38973 -0.42611 1.7716 37 38 34
-0.374145 -0.419048 1.74224 37 38 34
-0.340596 -0.39101 1.62567 38 38 34
-0.363192 -0.427641 1.77797 38 38 35
-0.339324 -0.410051 1.70483 38 39 35
-0.330394 -0.410051 1.70483 37 38 35
-0.3192 -0.407163 1.69282 37 38 34
-0.312535 -0.410051 1.70483 37 38 34
-0.296673 -0.400688 1.6659 37 38 34
-0.297017 -0.413309 1.71838 38 38 34
-0.299295 -0.429494 1.78567 37 38 34
-0.279277 -0.413696 1.71999 38 38 34
-0.270015 -0.413309 1.71838 38 38 34
-0.254756 -0.403398 1.67717 37 37 33
-0.25225 -0.413696 1.71999 37 37 33
-0.239223 -0.406862 1.69157 37 38 34
-0.228402 -0.403398 1.67717 36 38 34
-0.221666 -0.407163 1.69282 36 37 34
-0.215848 -0.412996 1.71707 37 38 35
-0.208509 -0.416298 1.7308 37 39 36
-0.197861 -0.412996 1.71707 38 39 36
-0.186062 -0.406862 1.69157 38 39 36
-0.178591 -0.410051 1.70483 37 39 35
-0.177706 -0.429494 1.78567 37 38 35
-0.160732 -0.410051 1.70483 37 38 35
-0.154115 -0.416298 1.7308 37 39 35
-0.142873 -0.410051 1.70483 37 39 35
-0.133943 -0.410051 1.70483 38 39 35
-0.125014 -0.410051 1.70483 38 39 35
-0.117007 -0.413309 1.71838 38 39 35
-0.107155 -0.410051 1.70483 37 39 34
-0.0941664 -0.393107 1.63439 37 38 34
-0.0878468 -0.403398 1.67717 37 38 34
-0.0778182 -0.397051 1.65078 37 38 33
-0.0731738 -0.420023 1.74629 37 38 33
-0.062507 -0.410051 1.70483 38 38 34
-0.054003 -0.413309 1.71838 37 38 34
-0.0450447 -0.413696 1.71999 36 37 33
-0.036002 -0.413309 1.71838 36 37 33
-0.0259394 -0.397051 1.65078 36 37 34
-0.0171212 -0.393107 1.63439 37 38 34
-0.00885203 -0.406491 1.69003 37 39 34
0 -0.417007 1.73375 37 38 34
0.00885203 -0.406491 1.69003 37 38 33
0.0178591 -0.410051 1.70483 36 38 33
0.0263011 -0.402588 1.6738 35 37 33
0.0351387 -0.403398 1.67717 35 38 34
0.0446478 -0.410051 1.70483 37 39 35
0.0516777 -0.395512 1.64438 37 39 35
0.064672 -0.424254 1.76388 38 39 36
0.0714365 -0.410051 1.70483 38 39 36
0.0790621 -0.403398 1.67717 38 40 35
0.0842601 -0.386928 1.60869 37 39 34
0.0959824 -0.400688 1.6659 37 39 34
0.106224 -0.406491 1.69003 38 39 34
0.118053 -0.417007 1.73375 38 39 35
0.125014 -0.410051 1.70483 37 38 35
0.127724 -0.39101 1.62567 38 39 35
0.144143 -0.413696 1.71999 37 38 35
0.14934 -0.403398 1.67717 37 38 35
0.158124 -0.403398 1.67717 37 38 35
0.169662 -0.410051 1.70483 37 38 35
0.174051 -0.399627 1.66149 38 39 36
0.187521 -0.410051 1.70483 38 39 36
0.19645 -0.410051 1.70483 37 38 35
0.195843 -0.39101 1.62567 36 37 34
0.219521 -0.420023 1.74629 36 37 34
0.22664 -0.416298 1.7308 36 37 34
0.227943 -0.402588 1.6738 36 37 34
0.233454 -0.397051 1.65078 35 37 34
0.247857 -0.406491 1.69003 36 37 34
0.258957 -0.410051 1.70483 36 38 34
0.277166 -0.424254 1.76388 37 39 35
0.285411 -0.422782 1.75776 37 39 35
0.288286 -0.413696 1.71999 36 38 34
0.304882 -0.424254 1.76388 37 38 34
0.308755 -0.417007 1.73375 37 38 35
0.312535 -0.410051 1.70483 37 38 34
0.315613 -0.402588 1.6738 37 38 35
0.327525 -0.406491 1.69003 37 38 34
0.336377 -0.406491 1.69003 37 38 34
0.35416 -0.417007 1.73375 38 38 35
0.36002 -0.413309 1.71838 37 38 35
0.362933 -0.406491 1.69003 36 37 34
0.375042 -0.410051 1.70483 36 37 34
0.395892 -0.422782 1.75776 37 38 35
0.402456 -0.420023 1.74629 37 39 36
0.395311 -0.403398 1.67717 38 39 36
0.419772 -0.419048 1.74224 37 38 35
0.43531 -0.425313 1.76828 36 38 34
0.441926 -0.422782 1.75776 36 38 35
0.455629 -0.426995 1.77528 36 37 34
0.46034 -0.422782 1.75776 36 37 34
0.448019 -0.403398 1.67717 36 37 34
0.468465 -0.413696 1.71999 37 37 34
0.484776 -0.420023 1.74629 37 38 35
0.497167 -0.422782 1.75776 37 37 34
0.491126 -0.410051 1.70483 37 38 35
0.523277 -0.429093 1.784 37 38 35
0.521363 -0.420023 1.74629 38 38 35
0.5267 -0.417007 1.73375 38 38 35
0.522746 -0.406862 1.69157 38 39 35
0.566904 -0.433876 1.80389 38 38 35
0.56357 -0.424254 1.76388 38 38 35
0.558031 -0.413309 1.71838 38 38 35
0.549717 -0.400688 1.6659 37 38 35
0.580198 -0.416298 1.7308 37 38 34
0.585033 -0.413309 1.71838 38 39 34
0.594033 -0.413309 1.71838 37 38 34
0.633042 -0.433876 1.80389 37 39 35
0.626062 -0.422782 1.75776 36 38 34
0.655758 -0.436417 1.81445 35 37 33
0.654707 -0.429494 1.78567 36 38 35
0.66406 -0.429494 1.78567 37 39 35
0.673413 -0.429494 1.78567 36 39 35
0.669638 -0.421235 1.75133 36 38 34
0.666662 -0.413696 1.71999 36 38 35
0.687984 -0.421235 1.75133 37 39 35
0.697157 -0.421235 1.75133 36 38 34
0.699239 -0.417007 1.73375 35 37 33
0.709832 -0.417897 1.73745 35 37 34
0.733063 -0.42611 1.7716 36 38 34
0.761741 -0.437245 1.81789 35 37 33
0.756882 -0.429093 1.784 34 37 33
0.739613 -0.414189 1.72203 35 37 33
0.821131 -0.4543 1.8888 35 37 34
0.795113 -0.434668 1.80718 35 37 34
0.782578 -0.422782 1.75776 35 37 34
0.814044 -0.434668 1.80718 36 38 35
0.828393 -0.437245 1.81789 37 39 36
0.834262 -0.435339 1.80997 37 39 36
0.842441 -0.434668 1.80718 37 38 36
0.83986 -0.428521 1.78162 37 37 36
0.833484 -0.420595 1.74867 37 38 36
0.872183 -0.435339 1.80997 37 37 36
0.860367 -0.424823 1.76625 37 38 35
0.877188 -0.428521 1.78162 37 38 36
0.912629 -0.441142 1.8341 36 38 35
0.933056 -0.446318 1.85562 36 38 35
0.947855 -0.448723 1.86561 35 37 34
0.875097 -0.410051 1.70483 36 37 34
0.962214 -0.446318 1.85562 35 37 34
0.92068 -0.422782 1.75776 35 37 34
0.997463 -0.453506 1.8855 35 37 34
1.04023 -0.468315 1.94707 36 38 35
0.987541 -0.440277 1.8305 36 39 36
1.00451 -0.443534 1.84404 36 39 36
1.00672 -0.440277 1.8305 36 38 35
1.11041 -0.481046 2 35 38 35
1.0169 -0.436417 1.81445 35 38 35
1.0264 -0.436417 1.81445 35 38 35
1.10561 -0.465784 1.93655 36 38 35
1.02072 -0.42611 1.7716 36 39 36
1.11027 -0.459318 1.90967 36 39 36
1.08178 -0.443534 1.84404 35 38 35
1.06251 -0.431779 1.79517 35 38 35
1.08843 -0.438432 1.82283 35 38 35
1.129 -0.45082 1.87433 35 38 35
1.12041 -0.443534 1.84404 33 37 34
1.10012 -0.431779 1.79517 32 35 33
1.23612 -0.481046 2 33 36 34
1.19029 -0.459318 1.90967 33 36 35
-0.534285 -0.200011 0.850047 36 38 33
-0.526089 -0.198598 0.844042 37 38 33
-0.537243 -0.204527 0.869241 37 38 34
-0.520928 -0.200011 0.850047 37 38 34
-0.528137 -0.204527 0.869241 38 38 34
-0.504493 -0.19707 0.837546 37 37 34
-0.536799 -0.211529 0.898997 37 37 34
-0.507666 -0.201819 0.85773 38 38 35
-0.512913 -0.205726 0.874334 39 39 36
-0.49868 -0.201819 0.85773 38 38 35
-0.517964 -0.211529 0.898997 37 37 34
-0.513255 -0.211529 0.898997 39 38 35
-0.497263 -0.206835 0.87905 39 39 36
-0.53078 -0.22284 0.947071 38 38 35
-0.512994 -0.217405 0.923969 37 37 34
-0.511225 -0.218718 0.929553 37 37 34
-0.470497 -0.203229 0.863725 37 37 33
-0.482772 -0.210556 0.894863 37 37 33
-0.484231 -0.213263 0.906367 37 38 33
-0.502132 -0.223336 0.949179 36 37 32
-0.485474 -0.218086 0.926867 36 36 31
-0.492189 -0.223336 0.949179 36 37 32
-0.486135 -0.22284 0.947071 37 37 34
-0.484151 -0.224219 0.952929 37 38 35
-0.490031 -0.229306 0.974549 37 38 34
-0.472302 -0.223336 0.949179 37 37 34
-0.503956 -0.240839 1.02357 37 37 34
-0.462359 -0.223336 0.949179 36 37 34
-0.481877 -0.235294 1 37 37 34
-0.476639 -0.235294 1 37 38 34
-0.459404 -0.229306 0.974549 38 38 34
-0.439259 -0.221714 0.942284 38 38 35
-0.448176 -0.228785 0.972338 38 38 35
-0.478847 -0.247252 1.05082 37 37 33
-0.45045 -0.235294 1 37 37 33
-0.483625 -0.255595 1.08628 38 38 34
-0.46427 -0.248287 1.05522 39 39 35
-0.475944 -0.257597 1.09479 39 39 36
-0.458175 -0.251004 1.06677 39 39 36
-0.466559 -0.258752 1.0997 38 38 34
-0.458741 -0.257597 1.09479 37 37 33
-0.441413 -0.251004 1.06677 37 37 33
-0.451502 -0.260032 1.10514 37 37 34
-0.445713 -0.260032 1.10514 38 37 34
-0.470564 -0.278143 1.18211 38 37 34
-0.460595 -0.27588 1.17249 37 37 33
-0.444619 -0.26991 1.14712 37 37 33
-0.424877 -0.261459 1.1112 38 37 34
-0.42162 -0.263058 1.118 38 37 34
-0.433581 -0.27433 1.1659 37 37 34
-0.409908 -0.263058 1.118 37 37 34
-0.435436 -0.28349 1.20483 37 37 33
-0.433949 -0.286677 1.21838 37 37 33
-0.454516 -0.304745 1.29517 38 37 34
-0.432579 -0.294431 1.25133 37 37 33
-0.410193 -0.28349 1.20483 37 37 34
-0.427498 -0.300066 1.27528 38 37 34
-0.43488 -0.310093 1.31789 37 37 34
-0.379788 -0.275177 1.1695 37 37 33
-0.429429 -0.316245 1.34404 37 38 34
-0.415722 -0.311254 1.32283 37 38 35
-0.42471 -0.323373 1.37433 37 38 34
-0.393462 -0.304745 1.29517 37 37 34
-0.410313 -0.323373 1.37433 37 37 33
-0.439975 -0.352941 1.5 36 37 33
-0.395916 -0.323373 1.37433 35 36 32
-0.410438 -0.341441 1.45113 34 35 30
-0.416405 -0.352941 1.5 35 36 32
-0.408548 -0.352941 1.5 36 37 33
-0.424822 -0.374196 1.59033 36 37 33
-0.430648 -0.386914 1.64438 36 37 32
-0.399791 -0.366521 1.55772 37 37 33
-0.389409 -0.364441 1.54887 37 38 34
-0.391503 -0.374196 1.59033 37 38 34
-0.396196 -0.386914 1.64438 36 37 33
-0.353551 -0.352941 1.5 37 37 33
-0.369925 -0.377679 1.60514 36 37 33
-0.377741 -0.394628 1.67717 37 37 34
-0.381403 -0.407941 1.73375 37 37 33
-0.366112 -0.401137 1.70483 37 38 34
-0.357183 -0.401137 1.70483 38 38 34
-0.348253 -0.401137 1.70483 39 39 35
-0.354608 -0.419206 1.78162 39 40 36
-0.327525 -0.397654 1.69003 37 38 34
-0.326361 -0.407248 1.7308 35 36 32
-0.305398 -0.391978 1.6659 35 36 32
-0.308755 -0.407941 1.73375 36 36 32
-0.296792 -0.404017 1.71707 36 37 33
-0.28111 -0.394628 1.67717 36 37 32
-0.272325 -0.394628 1.67717 37 37 33
-0.26177 -0.391978 1.6659 37 38 34
-0.256709 -0.397654 1.69003 37 38 34
-0.253837 -0.407248 1.7308 37 37 34
-0.239005 -0.397654 1.69003 37 38 34
-0.222575 -0.384561 1.63439 37 38 34
-0.225013 -0.404324 1.71838 37 38 34
-0.217574 -0.407248 1.7308 36 38 34
-0.203782 -0.398017 1.69157 37 38 35
-0.194745 -0.397654 1.69003 38 39 36
-0.181576 -0.388419 1.65078 37 39 35
-0.18001 -0.404324 1.71838 36 38 34
-0.162651 -0.384561 1.63439 36 38 35
-0.160732 -0.401137 1.70483 37 39 35
-0.150622 -0.398017 1.69157 37 39 35
-0.143899 -0.404017 1.71707 37 38 34
-0.135984 -0.407248 1.7308 37 39 34
-0.122986 -0.394628 1.67717 37 38 34
-0.112404 -0.388419 1.65078 38 39 35
-0.108006 -0.404324 1.71838 38 39 35
-0.0982252 -0.401137 1.70483 38 38 34
-0.0892957 -0.401137 1.70483 37 38 34
-0.0790621 -0.394628 1.67717 38 38 34
-0.0702774 -0.394628 1.67717 37 38 34
-0.064672 -0.415031 1.76388 38 39 35
-0.0531122 -0.397654 1.69003 38 39 35
-0.0435128 -0.39094 1.66149 37 38 35
-0.0354081 -0.397654 1.69003 37 38 34
-0.0263011 -0.393836 1.6738 37 38 35
-0.0175694 -0.394628 1.67717 37 39 35
-0.00878468 -0.394628 1.67717 38 39 34
0 -0.39094 1.66149 37 39 35
0.00900894 -0.404703 1.71999 37 39 34
0.0172259 -0.386914 1.64438 37 38 34
0.0265561 -0.397654 1.69003 36 37 34
0.0351387 -0.394628 1.67717 36 38 34
0.0435128 -0.39094 1.66149 37 38 35
0.0527081 -0.394628 1.67717 37 39 35
0.062507 -0.401137 1.70483 37 39 36
0.0702774 -0.394628 1.67717 38 39 35
0.0815903 -0.407248 1.7308 37 39 35
0.090005 -0.404324 1.71838 36 38 34
0.0982252 -0.401137 1.70483 37 38 34
0.107155 -0.401137 1.70483 37 38 34
0.119251 -0.412078 1.75133 37 38 34
0.122986 -0.394628 1.67717 37 38 34
0.130538 -0.39094 1.66149 36 37 34
0.139241 -0.39094 1.66149 36 37 34
0.150485 -0.397654 1.69003 36 37 34
0.155033 -0.386914 1.64438 37 38 35
0.17117 -0.404703 1.71999 37 38 35
0.177041 -0.397654 1.69003 37 38 36
0.189011 -0.404324 1.71838 37 38 35
0.198197 -0.404703 1.71999 36 37 34
0.200159 -0.39094 1.66149 36 37 34
0.212643 -0.398017 1.69157 37 38 35
0.225224 -0.404703 1.71999 37 38 35
0.230363 -0.398017 1.69157 37 38 35
0.243014 -0.404324 1.71838 36 38 35
0.24286 -0.389637 1.65596 36 38 35
0.267927 -0.415031 1.76388 37 38 35
0.275194 -0.412078 1.75133 37 38 35
0.274413 -0.397654 1.69003 37 38 35
0.275614 -0.386914 1.64438 36 37 34
0.294676 -0.401137 1.70483 37 38 35
0.311886 -0.412078 1.75133 37 38 35
0.296355 -0.38037 1.61657 37 38 35
0.321464 -0.401137 1.70483 37 38 35
0.335998 -0.407941 1.73375 37 38 34
0.339324 -0.401137 1.70483 37 38 34
0.35102 -0.404324 1.71838 37 38 34
0.344518 -0.386914 1.64438 37 37 34
0.371689 -0.407248 1.7308 36 37 34
0.371785 -0.397654 1.69003 36 36 33
0.386728 -0.404017 1.71707 36 37 34
0.40651 -0.415031 1.76388 36 37 34
0.405023 -0.404324 1.71838 37 38 36
0.423513 -0.413591 1.75776 36 38 35
0.416425 -0.398017 1.69157 37 38 35
0.44633 -0.417713 1.77528 37 39 36
0.430449 -0.394628 1.67717 36 38 35
0.450447 -0.404703 1.71999 36 38 34
0.451454 -0.397654 1.69003 36 37 34
0.456803 -0.394628 1.67717 37 37 34
0.477027 -0.404324 1.71838 37 37 34
0.490376 -0.407941 1.73375 37 37 34
0.491126 -0.401137 1.70483 37 38 35
0.500056 -0.401137 1.70483 38 38 35
0.522868 -0.412078 1.75133 38 39 36
0.535854 -0.415031 1.76388 38 38 35
0.551824 -0.420157 1.78567 38 38 35
0.531606 -0.398017 1.69157 37 37 34
0.576794 -0.42477 1.80527 37 37 34
0.567097 -0.410892 1.74629 37 37 34
0.567032 -0.404324 1.71838 37 38 34
0.576032 -0.404324 1.71838 38 38 34
0.602024 -0.416067 1.76828 37 38 34
0.602282 -0.409938 1.74224 36 37 33
0.616856 -0.413591 1.75776 37 38 34
0.626062 -0.413591 1.75776 37 39 35
0.631124 -0.410892 1.74629 37 39 35
0.630035 -0.404324 1.71838 36 38 35
0.667593 -0.422392 1.79517 36 38 34
0.658564 -0.410892 1.74629 36 38 34
0.698765 -0.430002 1.82751 36 38 34
0.688093 -0.417713 1.77528 36 38 34
0.692915 -0.415031 1.76388 36 38 34
0.723654 -0.42774 1.81789 36 38 34
0.724009 -0.422392 1.79517 36 38 34
0.72885 -0.419765 1.784 37 39 35
0.763038 -0.433892 1.84404 36 38 34
0.739109 -0.415031 1.76388 35 37 33
0.775342 -0.430002 1.82751 35 37 33
0.792015 -0.433892 1.84404 35 37 33
0.741154 -0.401137 1.70483 35 37 33
0.758834 -0.405817 1.72472 35 36 33
0.782578 -0.413591 1.75776 35 36 33
0.844295 -0.44102 1.87433 35 36 33
0.82351 -0.425218 1.80718 36 37 34
0.800837 -0.408812 1.73745 37 38 36
0.842441 -0.425218 1.80718 37 38 36
0.869284 -0.433892 1.84404 37 37 36
0.849192 -0.419206 1.78162 36 37 35
0.82152 -0.401137 1.70483 36 36 34
0.887927 -0.428901 1.82283 37 37 35
0.877188 -0.419206 1.78162 38 39 36
0.907022 -0.428901 1.82283 37 38 35
0.888121 -0.415588 1.76625 36 38 35
0.936895 -0.433892 1.84404 36 38 35
0.939602 -0.430706 1.8305 37 38 35
0.938545 -0.425875 1.80997 35 37 34
0.992491 -0.44585 1.89486 34 36 33
0.959877 -0.42693 1.81445 35 37 34
1.01234 -0.44585 1.89486 36 38 35
0.978885 -0.42693 1.81445 37 39 36
1.01363 -0.437833 1.86079 37 39 36
1.03082 -0.44102 1.87433 36 38 35
1.04064 -0.44102 1.87433 35 37 34
1.08141 -0.454013 1.92955 35 38 35
1.08658 -0.451961 1.92083 35 38 34
1.07009 -0.44102 1.87433 35 38 35
1.06246 -0.433892 1.84404 36 39 36
1.1259 -0.455659 1.93655 36 39 35
1.21971 -0.489216 2.07917 35 38 35
1.03118 -0.409938 1.74224 34 37 34
1.19422 -0.470588 2 34 37 34
1.20469 -0.470588 2 34 37 34
1.16028 -0.449333 1.90967 34 37 34
1.22564 -0.470588 2 33 36 35
1.3011 -0.495326 2.10514 34 36 35
1.2466 -0.470588 2 34 37 35
-0.514979 -0.1885 0.819331 36 38 33
-0.554972 -0.204846 0.89038 37 38 33
-0.555634 -0.206828 0.898997 37 38 34
-0.520928 -0.195566 0.850047 37 37 33
-0.497813 -0.1885 0.819331 37 37 34
-0.539018 -0.205877 0.894863 36 36 33
-0.519031 -0.199982 0.869241 36 37 33
-0.534353 -0.207708 0.90282 37 38 34
-0.480647 -0.1885 0.819331 38 38 35
-0.502165 -0.198713 0.863725 38 38 35
-0.515582 -0.205877 0.894863 38 38 35
-0.508335 -0.204846 0.89038 39 39 35
-0.485203 -0.197334 0.85773 39 39 36
-0.516076 -0.211852 0.920833 38 38 35
-0.494345 -0.204846 0.89038 38 38 35
-0.492147 -0.205877 0.894863 38 38 35
-0.487459 -0.205877 0.894863 38 38 34
-0.480354 -0.204846 0.89038 37 38 34
-0.534255 -0.230065 1 37 38 33
-0.503162 -0.218821 0.951125 36 37 32
-0.485474 -0.21324 0.926867 37 37 33
-0.46815 -0.207708 0.90282 37 38 33
-0.487217 -0.218373 0.949179 37 38 34
-0.45675 -0.206828 0.898997 37 38 35
-0.490523 -0.224435 0.975527 37 37 34
-0.484926 -0.22421 0.974549 36 37 34
-0.492353 -0.230065 1 36 37 34
-0.487115 -0.230065 1 36 37 33
-0.494142 -0.235921 1.02545 36 37 34
-0.451411 -0.217888 0.947071 37 37 33
-0.458362 -0.223701 0.972338 37 37 33
-0.466164 -0.230065 1 37 38 34
-0.487529 -0.243344 1.05772 38 38 34
-0.455688 -0.230065 1 38 38 35
-0.437425 -0.223412 0.971083 38 38 34
-0.445213 -0.230065 1 37 37 33
-0.465368 -0.243344 1.05772 38 38 35
-0.472246 -0.249915 1.08628 39 39 36
-0.443877 -0.237767 1.03348 39 39 35
-0.468867 -0.254254 1.10514 39 38 35
-0.460799 -0.253002 1.0997 38 37 34
-0.442936 -0.246273 1.07045 37 37 34
-0.434471 -0.244663 1.06345 38 37 34
-0.42769 -0.243972 1.06045 38 38 35
-0.426115 -0.246273 1.07045 38 37 34
-0.450627 -0.263912 1.14712 36 36 32
-0.433332 -0.257212 1.118 37 36 33
-0.427476 -0.257212 1.118 38 37 34
-0.442171 -0.269749 1.17249 37 37 34
-0.461968 -0.285796 1.24224 37 36 33
-0.423827 -0.265946 1.15596 37 37 34
-0.425439 -0.270826 1.17717 38 37 34
-0.423853 -0.273785 1.19003 38 38 35
-0.462492 -0.303202 1.31789 38 38 35
-0.447732 -0.297973 1.29517 37 37 34
-0.428214 -0.289367 1.25776 36 36 32
-0.416422 -0.285796 1.24224 36 37 33
-0.407114 -0.283843 1.23375 37 37 33
-0.427977 -0.303202 1.31789 37 37 34
-0.421074 -0.303202 1.31789 37 38 34
-0.397941 -0.29132 1.26625 37 38 34
-0.42471 -0.316187 1.37433 37 38 34
-0.417512 -0.316187 1.37433 37 38 34
-0.447832 -0.345098 1.5 36 37 33
-0.397624 -0.31188 1.35562 36 37 33
-0.442894 -0.353704 1.53741 36 36 33
-0.394524 -0.32091 1.39486 35 36 32
-0.456486 -0.378316 1.64438 35 36 32
-0.433152 -0.365881 1.59033 36 37 33
-0.372606 -0.32091 1.39486 37 37 33
-0.416492 -0.365881 1.59033 37 37 34
-0.41723 -0.374009 1.62567 38 38 34
-0.399833 -0.365881 1.59033 37 37 34
-0.383473 -0.358376 1.55772 37 37 34
-0.396196 -0.378316 1.64438 36 37 33
-0.408646 -0.398876 1.73375 36 36 32
-0.386526 -0.385859 1.67717 36 37 33
-0.361517 -0.369286 1.60514 38 38 35
-0.375042 -0.392223 1.70483 37 38 34
-0.349111 -0.374009 1.62567 38 38 35
-0.330854 -0.363312 1.57917 38 38 35
-0.353067 -0.397645 1.7284 38 39 35
-0.325678 -0.37645 1.63628 38 39 35
-0.327525 -0.388817 1.69003 37 38 35
-0.321464 -0.392223 1.70483 36 36 33
-0.301453 -0.378316 1.64438 35 35 31
-0.306304 -0.39571 1.71999 36 36 32
-0.297017 -0.395339 1.71838 36 37 33
-0.285746 -0.392223 1.70483 36 37 33
-0.276817 -0.392223 1.70483 37 37 33
-0.26981 -0.395039 1.71707 37 38 34
-0.262902 -0.398198 1.7308 38 38 35
-0.244319 -0.383267 1.6659 37 37 34
-0.237186 -0.385859 1.67717 37 38 34
-0.232169 -0.392223 1.70483 37 38 35
-0.216839 -0.380979 1.65596 37 39 35
-0.212643 -0.389172 1.69157 36 38 34
-0.200159 -0.382252 1.66149 37 38 35
-0.193263 -0.385859 1.67717 37 39 36
-0.192081 -0.401761 1.74629 37 39 35
-0.185971 -0.40843 1.77528 36 38 35
-0.166909 -0.385859 1.67717 36 38 35
-0.155636 -0.379788 1.65078 37 39 36
-0.144753 -0.374009 1.62567 38 40 35
-0.145296 -0.398876 1.73375 37 38 34
-0.129697 -0.379788 1.65078 37 38 34
-0.120361 -0.377625 1.64138 37 38 34
-0.118053 -0.398876 1.73375 38 39 35
-0.108006 -0.395339 1.71838 37 38 34
-0.093664 -0.374009 1.62567 37 38 34
-0.0906559 -0.398198 1.7308 38 39 35
-0.0803661 -0.392223 1.70483 39 39 35
-0.0726482 -0.398876 1.73375 38 39 35
-0.0610797 -0.383267 1.6659 38 39 35
-0.0531606 -0.389172 1.69157 38 39 35
-0.0432323 -0.379788 1.65078 37 38 35
-0.0350681 -0.385084 1.6738 37 38 35
-0.0265561 -0.388817 1.69003 37 39 35
-0.0174051 -0.382252 1.66149 38 39 35
-0.00908103 -0.398876 1.73375 38 40 35
0 -0.380979 1.65596 38 39 35
0.00861295 -0.378316 1.64438 38 39 35
0.0172259 -0.378316 1.64438 37 39 35
0.0265803 -0.389172 1.69157 36 38 35
0.0362624 -0.398198 1.7308 36 38 34
0.0446478 -0.392223 1.70483 36 38 35
0.0516777 -0.378316 1.64438 37 38 35
0.0602907 -0.378316 1.64438 37 39 36
0.0708809 -0.389172 1.69157 37 39 35
0.079741 -0.389172 1.69157 37 38 35
0.0870257 -0.382252 1.66149 37 38 34
0.0957282 -0.382252 1.66149 36 38 34
0.105416 -0.385859 1.67717 36 37 33
0.118053 -0.398876 1.73375 35 37 32
0.119848 -0.376016 1.63439 35 36 33
0.130538 -0.382252 1.66149 34 36 32
0.142873 -0.392223 1.70483 35 36 33
0.153152 -0.39571 1.71999 35 36 33
0.151668 -0.370105 1.60869 36 37 35
0.174289 -0.402921 1.75133 37 38 35
0.172259 -0.378316 1.64438 37 38 35
0.182754 -0.382252 1.66149 36 37 34
0.190819 -0.380979 1.65596 37 37 34
0.211756 -0.4044 1.75776 37 37 34
0.212449 -0.388817 1.69003 37 37 34
0.227026 -0.398876 1.73375 37 38 35
0.232169 -0.392223 1.70483 38 38 35
0.231136 -0.376016 1.63439 37 38 35
0.245477 -0.385084 1.6738 37 38 35
0.254244 -0.385084 1.6738 38 38 35
0.267887 -0.392223 1.70483 37 38 35
0.271778 -0.385084 1.6738 37 38 35
0.285746 -0.392223 1.70483 36 38 34
0.289312 -0.385084 1.6738 37 38 34
0.303605 -0.392223 1.70483 37 38 35
0.306846 -0.385084 1.6738 38 39 35
0.321464 -0.392223 1.70483 38 38 35
0.333331 -0.39571 1.71999 38 38 35
0.336684 -0.389172 1.69157 37 38 34
0.356722 -0.401761 1.74629 37 37 34
0.366925 -0.402921 1.75133 36 37 34
0.359448 -0.385084 1.6738 36 37 34
0.378021 -0.395339 1.71838 36 37 34
0.383971 -0.392223 1.70483 36 37 34
0.399565 -0.398876 1.73375 37 38 35
0.395311 -0.385859 1.67717 38 39 36
0.427733 -0.40843 1.77528 37 38 35
0.41288 -0.385859 1.67717 36 38 34
0.441926 -0.4044 1.75776 37 38 35
0.448189 -0.401761 1.74629 37 38 35
0.446478 -0.392223 1.70483 37 38 35
0.451454 -0.388817 1.69003 37 39 35
0.460306 -0.388817 1.69003 37 38 35
0.473267 -0.392223 1.70483 36 37 34
0.486483 -0.39571 1.71999 37 37 34
0.50307 -0.401761 1.74629 37 38 35
0.515581 -0.4044 1.75776 38 38 35
0.522868 -0.402921 1.75133 39 39 36
0.535854 -0.405808 1.76388 38 38 36
0.526844 -0.392223 1.70483 38 38 36
0.54003 -0.395339 1.71838 37 38 35
0.544704 -0.392223 1.70483 37 37 34
0.570822 -0.4044 1.75776 37 37 34
0.572105 -0.398876 1.73375 38 38 35
0.595107 -0.40843 1.77528 38 39 34
0.607942 -0.41082 1.78567 38 39 35
0.613704 -0.40843 1.77528 37 38 34
0.623003 -0.40843 1.77528 36 38 33
0.633258 -0.409048 1.77797 37 38 34
0.635269 -0.4044 1.75776 37 39 36
0.635672 -0.398876 1.73375 37 38 35
0.655959 -0.405808 1.76388 35 37 34
0.673413 -0.41082 1.78567 36 38 34
0.682766 -0.41082 1.78567 36 38 34
0.708337 -0.420447 1.82751 36 38 34
0.681077 -0.398876 1.73375 36 38 34
0.727481 -0.420447 1.82751 36 38 34
0.724009 -0.413006 1.79517 37 39 35
0.691088 -0.389172 1.69157 37 39 35
0.711706 -0.39571 1.71999 37 38 35
0.739109 -0.405808 1.76388 36 37 34
0.756882 -0.410436 1.784 36 38 34
0.795812 -0.426284 1.85288 36 38 35
0.766825 -0.405808 1.76388 36 37 34
0.799828 -0.418234 1.81789 35 37 34
0.799231 -0.413006 1.79517 35 37 34
0.788888 -0.402921 1.75133 35 37 34
0.818037 -0.413006 1.79517 36 37 34
0.827439 -0.413006 1.79517 36 37 35
0.804002 -0.396798 1.72472 36 37 36
0.83986 -0.40989 1.78162 36 37 36
0.855647 -0.413006 1.79517 36 37 35
0.87838 -0.41937 1.82283 36 37 35
0.908768 -0.429213 1.86561 36 37 35
0.857796 -0.400829 1.74224 37 38 36
0.900624 -0.416411 1.80997 37 38 35
0.920427 -0.421134 1.8305 37 39 36
0.919584 -0.416411 1.80997 37 39 36
0.921467 -0.413006 1.79517 37 38 35
0.930869 -0.413006 1.79517 36 38 35
0.992491 -0.435942 1.89486 35 37 34
0.997463 -0.433789 1.8855 35 38 35
0.959077 -0.413006 1.79517 36 39 36
0.978885 -0.417443 1.81445 37 39 36
0.988388 -0.417443 1.81445 36 38 35
0.977825 -0.409048 1.77797 34 37 34
1.0074 -0.417443 1.81445 35 37 34
1.02589 -0.421134 1.8305 35 38 35
1.06028 -0.431219 1.87433 35 38 35
1.0528 -0.42425 1.84404 34 37 34
1.07991 -0.431219 1.87433 35 38 35
1.08186 -0.428104 1.86079 35 38 35
1.0531 -0.413006 1.79517 35 38 35
1.09143 -0.42425 1.84404 34 37 34
1.19422 -0.460131 2 34 37 34
1.20469 -0.460131 2 34 37 34
1.16707 -0.441917 1.92083 35 37 35
1.14863 -0.431219 1.87433 35 38 36
1.17114 -0.435942 1.89486 35 38 36
1.11892 -0.413006 1.79517 33 36 34
-0.542882 -0.194197 0.863725 35 37 32
-0.526089 -0.189771 0.844042 36 37 33
-0.537243 -0.195437 0.869241 37 37 34
-0.535811 -0.196582 0.874334 37 37 33
-0.519858 -0.192374 0.855615 36 37 33
-0.512023 -0.191122 0.850047 36 36 33
-0.507571 -0.191122 0.850047 36 36 33
-0.514479 -0.195437 0.869241 36 37 33
-0.55682 -0.21341 0.949179 36 36 33
-0.522673 -0.202127 0.898997 36 36 33
-0.489761 -0.191122 0.850047 36 36 32
-0.527512 -0.207742 0.923969 37 37 34
-0.508546 -0.202127 0.898997 38 38 34
-0.503838 -0.202127 0.898997 37 37 34
-0.514603 -0.208394 0.926867 37 37 34
-0.504557 -0.206272 0.917429 37 37 34
-0.515899 -0.212936 0.947071 37 37 33
-0.508356 -0.21186 0.942284 37 37 32
-0.520092 -0.218876 0.973489 37 37 33
-0.501017 -0.212936 0.947071 36 37 32
-0.49818 -0.213848 0.951125 37 37 33
-0.518542 -0.224837 1 37 37 32
-0.489142 -0.214253 0.952929 36 37 33
-0.482246 -0.21341 0.949179 37 37 34
-0.502828 -0.224837 1 37 37 34
-0.497591 -0.224837 1 37 37 34
-0.478733 -0.218617 0.972338 37 38 34
-0.499036 -0.230339 1.02447 37 38 35
-0.481877 -0.224837 1 37 38 34
-0.489275 -0.230797 1.02651 36 37 33
-0.483399 -0.230559 1.02545 37 37 33
-0.466164 -0.224837 1 37 38 34
-0.473676 -0.231056 1.02766 37 37 34
-0.467769 -0.230797 1.02651 38 38 34
-0.45045 -0.224837 1 38 38 35
-0.457528 -0.231056 1.02766 38 38 34
-0.481678 -0.246148 1.09479 38 37 34
-0.461016 -0.238428 1.06045 38 37 34
-0.472319 -0.247252 1.0997 38 37 34
-0.452588 -0.239848 1.06677 38 38 35
-0.445611 -0.239103 1.06345 38 38 35
-0.441413 -0.239848 1.06677 38 37 34
-0.465422 -0.256136 1.13921 37 37 33
-0.456586 -0.254537 1.1321 38 37 34
-0.42775 -0.241599 1.07455 38 38 35
-0.450627 -0.257914 1.14712 38 37 34
-0.451901 -0.262138 1.1659 38 37 34
-0.451989 -0.265781 1.18211 38 37 34
-0.424513 -0.253091 1.12567 38 37 34
-0.443591 -0.26819 1.19282 38 37 34
-0.409908 -0.251366 1.118 38 37 34
-0.417773 -0.259902 1.15596 38 37 35
-0.442448 -0.279301 1.24224 38 38 35
-0.439133 -0.281345 1.25133 38 37 34
-0.432579 -0.281345 1.25133 37 37 34
-0.448686 -0.296311 1.31789 37 37 33
-0.434165 -0.291201 1.29517 37 37 34
-0.427381 -0.291201 1.29517 38 38 34
-0.42958 -0.29742 1.32283 37 38 34
-0.422651 -0.29742 1.32283 37 38 34
-0.426026 -0.304792 1.35562 37 38 34
-0.420525 -0.305956 1.36079 37 38 34
-0.411825 -0.304792 1.35562 37 38 34
-0.420862 -0.316944 1.40967 37 38 34
-0.452405 -0.346783 1.54238 37 37 34
-0.418038 -0.326266 1.45113 37 37 34
-0.410438 -0.326266 1.45113 37 38 34
-0.416405 -0.337255 1.5 38 38 35
-0.42186 -0.348244 1.54887 38 39 35
-0.428776 -0.360894 1.60514 38 38 35
-0.392835 -0.337255 1.5 38 38 34
-0.397522 -0.348244 1.54887 37 37 33
-0.399833 -0.357565 1.59033 36 37 33
-0.369265 -0.337255 1.5 36 37 32
-0.391686 -0.365509 1.62567 36 36 32
-0.387583 -0.369718 1.64438 36 36 32
-0.399565 -0.38981 1.73375 36 36 33
-0.383971 -0.383309 1.70483 37 37 34
-0.375042 -0.383309 1.70483 37 37 34
-0.371173 -0.388608 1.7284 37 38 35
-0.344518 -0.369718 1.64438 37 38 35
-0.343611 -0.378199 1.68211 37 38 35
-0.342747 -0.387176 1.72203 37 38 35
-0.335998 -0.38981 1.73375 37 38 35
-0.324018 -0.386354 1.71838 37 38 35
-0.305398 -0.374556 1.6659 37 37 34
-0.295887 -0.373565 1.66149 37 37 34
-0.294676 -0.383309 1.70483 37 37 34
-0.294618 -0.395209 1.75776 37 37 34
-0.274663 -0.380327 1.69157 37 37 33
-0.256817 -0.36747 1.63439 36 37 33
-0.250747 -0.371156 1.65078 37 37 33
-0.245971 -0.377089 1.67717 37 37 34
-0.239223 -0.380327 1.69157 38 38 35
-0.237815 -0.392631 1.74629 38 39 36
-0.219617 -0.377089 1.67717 37 39 35
-0.219521 -0.392631 1.74629 36 38 34
-0.202048 -0.377089 1.67717 37 39 36
-0.198011 -0.386354 1.71838 38 39 36
-0.187521 -0.383309 1.70483 37 39 36
-0.175694 -0.377089 1.67717 36 38 35
-0.169662 -0.383309 1.70483 37 38 35
-0.1596 -0.380608 1.69282 38 39 36
-0.147944 -0.373565 1.66149 37 39 35
-0.144008 -0.386354 1.71838 36 37 33
-0.133943 -0.383309 1.70483 36 37 33
-0.125014 -0.383309 1.70483 36 37 32
-0.116084 -0.383309 1.70483 36 37 33
-0.108787 -0.389148 1.7308 37 37 33
-0.0974612 -0.380327 1.69157 38 38 34
-0.0929855 -0.399148 1.77528 38 38 34
-0.079741 -0.380327 1.69157 38 38 35
-0.0720715 -0.386716 1.71999 37 37 34
-0.0630035 -0.386354 1.71838 37 37 33
-0.052354 -0.374556 1.6659 36 36 33
-0.0439234 -0.377089 1.67717 36 37 34
-0.036002 -0.386354 1.71838 37 38 35
-0.026354 -0.377089 1.67717 37 38 35
-0.0171212 -0.36747 1.63439 37 38 34
-0.00917312 -0.393763 1.75133 37 39 34
0 -0.376332 1.6738 37 38 35
0.00878468 -0.377089 1.67717 37 39 35
0.0171212 -0.36747 1.63439 37 38 35
0.0275194 -0.393763 1.75133 37 38 35
0.0354081 -0.379981 1.69003 36 37 34
0.0435128 -0.373565 1.66149 37 38 35
0.0513635 -0.36747 1.63439 37 38 35
0.062507 -0.383309 1.70483 37 38 35
0.0714365 -0.383309 1.70483 37 38 35
0.0796683 -0.379981 1.69003 37 38 35
0.0908103 -0.38981 1.73375 37 38 34
0.100904 -0.393763 1.75133 37 38 34
0.107155 -0.383309 1.70483 36 38 34
0.110075 -0.363465 1.61657 36 37 33
0.127757 -0.391719 1.74224 36 37 34
0.132902 -0.380327 1.69157 36 37 34
0.144143 -0.386716 1.71999 36 37 34
0.150485 -0.379981 1.69003 37 38 35
0.163459 -0.38981 1.73375 38 39 36
0.169662 -0.383309 1.70483 37 38 36
0.181312 -0.389148 1.7308 37 38 35
0.187521 -0.383309 1.70483 38 38 35
0.191456 -0.373565 1.66149 38 38 35
0.202048 -0.377089 1.67717 37 37 34
0.212449 -0.379981 1.69003 36 37 34
0.230972 -0.396585 1.76388 37 38 35
0.234233 -0.386716 1.71999 38 39 35
0.239223 -0.380327 1.69157 38 38 35
0.238417 -0.365509 1.62567 37 38 35
0.261259 -0.386716 1.71999 37 38 34
0.267887 -0.383309 1.70483 37 38 34
0.271778 -0.376332 1.6738 36 37 34
0.288286 -0.386716 1.71999 36 37 34
0.289894 -0.377089 1.67717 37 38 34
0.298079 -0.376332 1.6738 37 38 35
0.307464 -0.377089 1.67717 37 38 34
0.327615 -0.390643 1.73745 36 37 34
0.327824 -0.380327 1.69157 37 38 34
0.330698 -0.373565 1.66149 37 38 34
0.364765 -0.401483 1.78567 37 37 34
0.357183 -0.383309 1.70483 36 37 34
0.372322 -0.38981 1.73375 36 37 34
0.378021 -0.386354 1.71838 36 37 34
0.383971 -0.383309 1.70483 37 38 35
0.396393 -0.386716 1.71999 38 38 35
0.40183 -0.383309 1.70483 37 38 35
0.414411 -0.386716 1.71999 36 37 34
0.41969 -0.383309 1.70483 36 38 34
0.435148 -0.389148 1.7308 37 38 35
0.437549 -0.383309 1.70483 37 38 35
0.457336 -0.392631 1.74629 37 39 35
0.459026 -0.386354 1.71838 38 39 35
0.472214 -0.38981 1.73375 38 38 35
0.477474 -0.386716 1.71999 37 37 34
0.474373 -0.377089 1.67717 37 37 34
0.50307 -0.392631 1.74629 37 37 34
0.523277 -0.401108 1.784 36 36 34
0.522868 -0.393763 1.75133 37 37 35
0.517915 -0.383309 1.70483 37 37 34
0.526844 -0.383309 1.70483 37 37 34
0.548803 -0.392631 1.74629 37 37 35
0.561615 -0.395209 1.75776 36 36 34
0.572809 -0.396585 1.76388 36 37 33
0.572105 -0.38981 1.73375 37 38 34
0.608239 -0.407955 1.81445 37 38 34
0.580422 -0.383309 1.70483 37 38 34
0.603684 -0.392631 1.74629 37 38 34
0.623003 -0.399148 1.77528 36 38 33
0.61646 -0.389148 1.7308 36 37 33
0.632945 -0.393763 1.75133 36 37 34
0.640271 -0.392631 1.74629 35 37 33
0.644753 -0.38981 1.73375 36 38 34
0.653834 -0.38981 1.73375 37 39 35
0.667711 -0.392631 1.74629 37 39 35
0.676858 -0.392631 1.74629 37 38 34
0.692915 -0.396585 1.76388 37 38 34
0.714607 -0.403619 1.79517 36 38 34
0.724009 -0.403619 1.79517 36 38 34
0.723784 -0.39832 1.7716 36 38 34
0.747784 -0.40632 1.80718 36 38 34
0.742342 -0.39832 1.7716 35 37 33
0.756882 -0.401108 1.784 36 38 35
0.757587 -0.396585 1.76388 38 39 36
0.785647 -0.40632 1.80718 37 38 36
0.811332 -0.414608 1.84404 36 37 35
0.793202 -0.400574 1.78162 36 38 35
0.826169 -0.412372 1.8341 37 38 35
0.828393 -0.408729 1.81789 37 38 35
0.803043 -0.391719 1.74224 37 38 36
0.836842 -0.403619 1.79517 37 37 36
0.879453 -0.419458 1.86561 37 38 36
0.849192 -0.400574 1.78162 37 37 36
0.86505 -0.403619 1.79517 36 37 35
0.887927 -0.409839 1.82283 37 37 36
0.839379 -0.383309 1.70483 37 38 36
0.878869 -0.397118 1.76625 37 38 36
0.942468 -0.421419 1.87433 37 39 36
0.942775 -0.41721 1.85562 37 39 36
0.935665 -0.409839 1.82283 37 38 36
0.977711 -0.42393 1.8855 36 38 35
0.931262 -0.399752 1.77797 36 38 34
1.00242 -0.426035 1.89486 36 38 35
0.926265 -0.38981 1.73375 36 39 35
0.9592 -0.399752 1.77797 35 38 34
0.997129 -0.411563 1.8305 35 37 34
1.01416 -0.414608 1.84404 34 37 33
1.04684 -0.42393 1.8855 35 37 34
1.05672 -0.42393 1.8855 36 38 35
1.09151 -0.433834 1.92955 35 38 35
1.07647 -0.42393 1.8855 35 38 35
