ply
format ascii 1.0
element vertex 1325
property float x
property float y
property float z
property uchar red
property uchar green
property uchar blue
end_header
0.0272431 -0.271961 1.73375 37 38 34
0.0344518 -0.257943 1.64438 37 37 33
0.0432323 -0.258946 1.65078 37 38 34
0.0527081 -0.263086 1.67717 38 39 35
0.0615921 -0.263511 1.67988 38 39 35
0.0708163 -0.265103 1.69003 37 38 34
0.0810805 -0.269802 1.71999 37 37 33
0.0878468 -0.263086 1.67717 37 37 33
0.0982252 -0.267425 1.70483 37 38 34
0.105416 -0.263086 1.67717 37 37 34
0.115181 -0.265345 1.69157 37 38 34
0.123928 -0.265103 1.69003 37 37 34
0.133943 -0.267425 1.70483 36 37 34
0.139611 -0.261318 1.6659 36 37 34
0.14904 -0.262557 1.6738 35 37 34
0.159337 -0.265103 1.69003 35 37 34
0.161783 -0.255006 1.62567 35 37 34
0.175341 -0.262557 1.6738 36 38 34
0.189188 -0.269802 1.71999 37 38 35
0.19645 -0.267425 1.70483 37 39 36
0.200159 -0.260626 1.66149 38 39 36
0.212449 -0.265103 1.69003 38 40 37
0.225013 -0.269549 1.71838 38 39 36
0.230153 -0.265103 1.69003 37 38 35
0.241098 -0.267425 1.70483 35 36 33
0.243672 -0.260626 1.66149 36 37 34
0.254756 -0.263086 1.67717 38 39 35
0.263011 -0.262557 1.6738 38 38 35
0.274413 -0.265103 1.69003 37 38 35
0.283265 -0.265103 1.69003 38 39 36
0.285333 -0.258946 1.65078 38 39 37
0.306017 -0.269549 1.71838 38 38 36
0.321059 -0.274719 1.75133 36 37 35
0.318964 -0.265345 1.69157 36 37 34
0.325033 -0.263086 1.67717 36 37 34
0.333818 -0.263086 1.67717 36 37 34
0.345544 -0.265345 1.69157 36 37 34
0.351387 -0.263086 1.67717 36 37 34
0.362933 -0.265103 1.69003 36 37 35
0.371785 -0.265103 1.69003 36 37 34
0.383971 -0.267425 1.70483 36 37 35
0.392901 -0.267425 1.70483 36 38 35
0.398342 -0.265103 1.69003 37 38 35
0.420749 -0.273928 1.74629 37 38 35
0.42342 -0.269802 1.71999 37 38 35
0.439043 -0.273928 1.74629 36 37 34
0.437549 -0.267425 1.70483 36 37 34
0.435128 -0.260626 1.66149 37 38 34
0.466483 -0.273928 1.74629 37 38 35
0.460726 -0.265345 1.69157 37 38 35
0.469158 -0.265103 1.69003 37 39 35
0.482197 -0.267425 1.70483 38 39 35
0.486862 -0.265103 1.69003 38 39 35
0.517376 -0.276688 1.76388 37 39 35
0.508985 -0.267425 1.70483 36 38 34
0.522519 -0.269802 1.71999 36 38 34
0.541214 -0.274719 1.75133 36 38 34
0.522154 -0.260626 1.66149 37 38 35
0.539974 -0.265103 1.69003 37 38 35
0.567097 -0.273928 1.74629 36 37 34
0.552323 -0.262557 1.6738 36 37 34
0.605161 -0.28318 1.80527 37 38 35
0.604406 -0.278475 1.77528 38 39 36
0.568455 -0.257943 1.64438 37 39 35
0.614599 -0.274719 1.75133 36 38 34
0.621977 -0.273928 1.74629 37 38 35
0.645354 -0.280104 1.78567 37 38 35
0.634591 -0.271498 1.7308 37 38 35
0.66406 -0.280104 1.78567 37 39 36
0.689193 -0.286668 1.82751 37 38 35
0.678794 -0.278475 1.77528 36 37 35
0.695801 -0.281595 1.79517 36 37 34
0.692915 -0.276688 1.76388 36 37 35
0.710161 -0.279843 1.784 36 38 35
0.715988 -0.278475 1.77528 36 38 35
0.720631 -0.276688 1.76388 36 38 35
0.742815 -0.281595 1.79517 37 39 35
0.779715 -0.291889 1.86079 37 38 35
0.76162 -0.281595 1.79517 37 38 34
0.760901 -0.277898 1.7716 36 37 34
0.785647 -0.283479 1.80718 36 37 34
0.770542 -0.274719 1.75133 36 38 34
0.804578 -0.283479 1.80718 37 39 35
0.808634 -0.281595 1.79517 36 38 34
0.811865 -0.27947 1.78162 35 37 33
0.845382 -0.287701 1.8341 34 36 32
0.863747 -0.290648 1.85288 33 35 31
0.859285 -0.285934 1.82283 34 36 32
0.841864 -0.277059 1.76625 34 36 32
0.851116 -0.277059 1.76625 34 36 33
0.874453 -0.281595 1.79517 35 37 34
0.875386 -0.278897 1.77797 35 37 34
0.953192 -0.300489 1.91561 35 37 34
0.952791 -0.297233 1.89486 35 37 34
0.888439 -0.274301 1.74867 35 37 34
0.999439 -0.305423 1.94707 35 37 34
0.977711 -0.295765 1.8855 36 38 35
0.925126 -0.277059 1.76625 37 38 35
0.968366 -0.287137 1.8305 38 39 36
1.01659 -0.298482 1.90282 36 38 35
1.02227 -0.297233 1.89486 35 37 34
1.02709 -0.295765 1.8855 36 37 35
1.01416 -0.289261 1.84404 36 37 35
0.983603 -0.277898 1.7716 36 37 34
1.06196 -0.297233 1.89486 36 37 34
1.05262 -0.291889 1.86079 35 37 34
0.994678 -0.273292 1.74224 35 37 34
1.11173 -0.302675 1.92955 35 37 34
1.00799 -0.271961 1.73375 35 37 34
1.0916 -0.291889 1.86079 34 36 34
1.13689 -0.301307 1.92083 35 37 34
1.07191 -0.281595 1.79517 35 37 35
1.09797 -0.285934 1.82283 36 38 35
1.16028 -0.299555 1.90967 35 37 34
1.17029 -0.299555 1.90967 34 37 33
1.18719 -0.301307 1.92083 33 36 33
1.18106 -0.297233 1.89486 34 37 33
-0.535006 -0.12907 0.851194 39 39 34
-0.554972 -0.135012 0.89038 38 38 34
-0.547293 -0.134272 0.885502 36 37 31
-0.562221 -0.139113 0.917429 36 36 31
-0.574034 -0.143261 0.944781 35 36 31
-0.571734 -0.143928 0.949179 35 36 31
-0.528741 -0.134272 0.885502 36 37 32
-0.542999 -0.139113 0.917429 38 38 34
-0.55682 -0.143928 0.949179 38 38 35
-0.537191 -0.140105 0.923969 39 39 34
-0.576158 -0.151634 1 38 37 33
-0.527512 -0.140105 0.923969 37 37 32
-0.518973 -0.139113 0.917429 36 36 32
-0.503838 -0.136318 0.898997 36 36 33
-0.499129 -0.136318 0.898997 36 37 34
-0.549969 -0.151634 1 36 37 34
-0.530867 -0.147775 0.974549 37 38 35
-0.525191 -0.147614 0.973489 37 38 35
-0.534255 -0.151634 1 37 38 34
-0.514993 -0.147614 0.973489 37 37 34
-0.509894 -0.147614 0.973489 37 37 33
-0.504198 -0.14744 0.972338 37 37 33
-0.541648 -0.160007 1.05522 37 37 33
-0.52212 -0.155828 1.02766 37 38 34
-0.51806 -0.156227 1.03029 37 39 34
-0.513416 -0.156457 1.0318 37 38 34
-0.507267 -0.156227 1.03029 37 38 34
-0.473029 -0.147249 0.971083 36 38 33
-0.514051 -0.161758 1.06677 36 37 33
-0.491799 -0.156457 1.0318 36 37 33
-0.502876 -0.161758 1.06677 36 37 33
-0.508274 -0.165332 1.09033 36 37 32
-0.506878 -0.166751 1.0997 36 37 33
-0.501118 -0.166751 1.0997 36 37 33
-0.50054 -0.168496 1.1112 37 37 33
-0.504024 -0.171664 1.1321 36 37 33
-0.520097 -0.179247 1.18211 36 37 32
-0.492164 -0.171664 1.1321 36 36 32
-0.486234 -0.171664 1.1321 36 37 33
-0.480305 -0.171664 1.1321 36 37 33
-0.510528 -0.184747 1.21838 36 36 33
-0.498543 -0.182694 1.20483 36 37 34
-0.463451 -0.172011 1.13439 36 37 34
-0.485921 -0.182694 1.20483 36 37 34
-0.485002 -0.184747 1.21838 36 37 34
-0.491567 -0.189744 1.25133 37 38 34
-0.428348 -0.167576 1.10514 37 38 34
-0.478458 -0.189744 1.25133 37 38 34
-0.465273 -0.187078 1.23375 37 38 34
-0.472887 -0.192818 1.2716 37 38 35
-0.466226 -0.192818 1.2716 37 38 35
-0.459566 -0.192818 1.2716 37 38 35
-0.442448 -0.188365 1.24224 37 38 35
-0.454516 -0.196391 1.29517 38 39 36
-0.447732 -0.196391 1.29517 39 40 37
-0.47993 -0.213753 1.40967 39 39 36
-0.467584 -0.211509 1.39486 38 39 36
-0.529665 -0.243393 1.60514 36 37 34
-0.440227 -0.205557 1.35562 35 36 32
-0.465718 -0.221025 1.45762 36 37 33
-0.456042 -0.22004 1.45113 36 37 34
-0.448441 -0.22004 1.45113 36 37 34
-0.470536 -0.234862 1.54887 35 36 32
-0.490938 -0.249345 1.64438 36 37 34
-0.454311 -0.234862 1.54887 37 38 34
-0.458142 -0.241149 1.59033 37 38 34
-0.474373 -0.254316 1.67717 37 38 34
-0.445591 -0.243393 1.60514 37 38 35
-0.464337 -0.258511 1.70483 37 38 35
-0.463133 -0.262895 1.73375 37 38 35
-0.421957 -0.244313 1.6112 37 38 35
-0.411962 -0.243393 1.60514 37 38 35
-0.403554 -0.243393 1.60514 36 37 34
-0.41288 -0.254316 1.67717 37 38 35
-0.41076 -0.258511 1.70483 37 38 35
-0.383171 -0.246506 1.62567 37 38 35
-0.383448 -0.252291 1.66382 37 38 35
-0.391318 -0.263457 1.73745 37 38 35
-0.381403 -0.262895 1.73375 37 38 34
-0.355616 -0.2511 1.65596 36 38 34
-0.348103 -0.251939 1.66149 36 37 33
-0.348253 -0.258511 1.70483 35 37 33
-0.344492 -0.262449 1.7308 36 37 33
-0.327525 -0.256266 1.69003 35 37 33
-0.324018 -0.260564 1.71838 36 37 34
-0.320135 -0.264797 1.74629 37 38 34
-0.289507 -0.246506 1.62567 37 37 33
-0.292117 -0.256266 1.69003 36 36 32
-0.28111 -0.254316 1.67717 36 35 30
-0.274413 -0.256266 1.69003 36 36 32
-0.26354 -0.254316 1.67717 36 37 33
-0.262902 -0.262449 1.7308 37 38 35
-0.256108 -0.264797 1.74629 38 39 35
-0.239005 -0.256266 1.69003 37 38 35
-0.236107 -0.262895 1.73375 36 38 35
-0.217564 -0.251939 1.66149 36 37 35
-0.210832 -0.254316 1.67717 36 37 35
-0.202048 -0.254316 1.67717 36 37 35
-0.193263 -0.254316 1.67717 36 37 35
-0.194016 -0.267465 1.76388 36 38 35
-0.177041 -0.256266 1.69003 37 39 36
-0.17117 -0.260809 1.71999 37 38 35
-0.158124 -0.254316 1.67717 37 37 34
-0.151803 -0.258511 1.70483 36 37 34
-0.141762 -0.2565 1.69157 36 37 34
-0.129697 -0.250315 1.65078 37 37 34
-0.124041 -0.2565 1.69157 37 38 34
-0.113434 -0.252608 1.6659 37 38 34
-0.104708 -0.252608 1.6659 37 39 35
-0.0982252 -0.258511 1.70483 37 38 34
-0.0864646 -0.250315 1.65078 36 37 34
-0.0796683 -0.256266 1.69003 36 37 33
-0.0714365 -0.258511 1.70483 36 37 33
-0.0619642 -0.256266 1.69003 37 38 34
-0.054003 -0.260564 1.71838 38 38 34
-0.0446478 -0.258511 1.70483 37 37 34
-0.0357183 -0.258511 1.70483 37 37 33
-0.0270015 -0.260564 1.71838 37 37 34
-0.0171212 -0.247828 1.63439 37 38 34
-0.00892957 -0.258511 1.70483 39 39 36
0 -0.258511 1.70483 40 40 36
0.00886011 -0.2565 1.69157 39 39 35
0.0178591 -0.258511 1.70483 38 39 35
0.0265561 -0.256266 1.69003 37 38 34
0.0345858 -0.250315 1.65078 36 37 33
0.0442602 -0.256266 1.69003 37 38 34
0.0531122 -0.256266 1.69003 38 39 35
0.0585599 -0.242187 1.59718 38 38 34
0.0714365 -0.258511 1.70483 36 37 33
0.0790621 -0.254316 1.67717 36 37 33
0.0886011 -0.2565 1.69157 36 37 33
0.0941664 -0.247828 1.63439 37 37 34
0.105586 -0.254727 1.67988 37 37 34
0.113971 -0.253805 1.6738 37 38 34
0.125014 -0.258511 1.70483 37 38 35
0.135008 -0.260564 1.71838 36 37 34
0.136969 -0.247828 1.63439 36 38 34
0.150485 -0.256266 1.69003 36 37 34
0.162161 -0.260809 1.71999 36 37 34
0.169662 -0.258511 1.70483 36 37 34
0.171212 -0.247828 1.63439 36 37 34
0.197457 -0.272208 1.79517 36 38 35
0.194745 -0.256266 1.69003 37 38 35
0.208864 -0.262895 1.73375 37 38 35
0.212204 -0.255971 1.68808 36 37 35
0.22751 -0.263457 1.73745 37 38 35
0.226267 -0.251939 1.66149 38 38 35
0.245188 -0.262895 1.73375 38 39 36
0.250028 -0.258511 1.70483 38 39 36
0.258957 -0.258511 1.70483 37 38 35
0.272431 -0.262895 1.73375 37 38 35
0.283548 -0.264797 1.74629 37 38 35
0.283523 -0.2565 1.69157 38 39 36
0.292117 -0.256266 1.69003 38 38 36
0.295887 -0.251939 1.66149 37 38 35
0.315018 -0.260564 1.71838 36 37 35
0.336706 -0.270768 1.78567 36 37 35
0.327525 -0.256266 1.69003 37 38 35
0.327292 -0.249345 1.64438 37 39 36
0.342602 -0.254316 1.67717 36 38 34
0.350681 -0.253805 1.6738 36 37 35
0.366112 -0.258511 1.70483 36 37 35
0.365508 -0.251939 1.66149 35 37 34
0.387022 -0.260564 1.71838 37 38 35
0.389489 -0.256266 1.69003 37 39 36
0.398342 -0.256266 1.69003 37 38 35
0.41076 -0.258511 1.70483 37 38 35
0.409021 -0.251939 1.66149 36 37 34
0.424898 -0.256266 1.69003 36 37 34
0.441964 -0.261119 1.72203 36 37 34
0.442602 -0.256266 1.69003 36 37 34
0.462345 -0.262449 1.7308 37 38 34
0.460306 -0.256266 1.69003 37 38 34
0.469586 -0.2565 1.69157 37 38 34
0.498898 -0.267465 1.76388 36 37 34
0.495492 -0.260809 1.71999 37 38 34
0.515581 -0.266536 1.75776 37 38 34
0.496046 -0.251939 1.66149 37 38 34
0.522519 -0.260809 1.71999 37 38 34
0.510141 -0.250315 1.65078 38 39 35
0.557913 -0.269193 1.77528 38 39 35
0.549031 -0.260564 1.71838 37 38 35
0.57651 -0.269193 1.77528 36 37 34
0.572105 -0.262895 1.73375 36 37 34
0.576032 -0.260564 1.71838 36 37 34
0.590267 -0.262895 1.73375 37 38 35
0.613704 -0.269193 1.77528 36 37 34
0.593086 -0.256266 1.69003 37 38 35
0.628243 -0.267465 1.76388 37 39 35
0.626591 -0.262895 1.73375 37 38 35
0.642118 -0.265561 1.75133 37 38 35
0.660197 -0.269193 1.77528 37 38 35
0.669496 -0.269193 1.77528 37 38 35
0.667711 -0.264797 1.74629 36 37 34
0.671996 -0.262895 1.73375 35 36 33
0.701472 -0.270768 1.78567 36 37 35
0.718629 -0.273741 1.80527 37 39 35
0.704298 -0.264797 1.74629 36 38 35
0.720631 -0.267465 1.76388 36 38 34
0.724676 -0.265561 1.75133 36 38 34
0.733849 -0.265561 1.75133 36 38 34
0.743023 -0.265561 1.75133 36 38 34
0.780784 -0.275655 1.81789 36 38 34
0.780426 -0.272208 1.79517 36 37 34
0.779459 -0.268635 1.7716 36 38 34
0.813631 -0.277113 1.82751 36 38 34
0.798018 -0.268635 1.7716 35 37 33
0.82351 -0.27403 1.80718 35 36 32
0.827439 -0.272208 1.79517 34 36 32
0.825856 -0.268635 1.7716 35 37 33
0.900219 -0.28957 1.90967 35 37 34
0.849192 -0.270155 1.78162 35 37 34
0.883809 -0.278111 1.8341 35 37 34
0.867856 -0.270155 1.78162 35 37 34
0.883856 -0.272208 1.79517 35 37 34
0.866921 -0.264182 1.74224 35 37 34
0.894011 -0.2696 1.77797 35 37 34
0.942775 -0.281374 1.85562 35 37 34
0.912637 -0.2696 1.77797 35 37 34
0.94919 -0.277566 1.8305 36 38 34
0.97717 -0.28289 1.86561 36 38 35
0.997463 -0.285906 1.8855 35 37 34
0.994137 -0.282159 1.86079 34 36 32
0.987541 -0.277566 1.8305 35 37 34
1.02709 -0.285906 1.8855 37 39 36
0.987286 -0.272208 1.79517 36 38 35
0.967301 -0.264182 1.74224 35 37 34
1.08141 -0.292586 1.92955 35 37 34
1.0264 -0.275133 1.81445 35 37 34
1.0249 -0.272208 1.79517 35 37 34
1.02072 -0.268635 1.7716 35 37 34
1.08973 -0.284213 1.87433 34 37 34
1.03928 -0.268635 1.7716 34 36 34
1.09143 -0.279619 1.84404 35 37 34
1.15215 -0.292586 1.92955 35 37 35
1.14136 -0.287326 1.89486 35 37 35
1.15129 -0.287326 1.89486 34 37 34
1.281 -0.316966 2.09033 34 37 33
1.0864 -0.266536 1.75776 34 36 33
1.14939 -0.279619 1.84404 34 37 33
-0.535006 -0.124619 0.851194 39 38 33
-0.538358 -0.126454 0.863725 39 39 33
-0.533834 -0.126454 0.863725 37 37 32
-0.545644 -0.130356 0.89038 36 36 31
-0.543705 -0.131013 0.894863 36 37 32
-0.554661 -0.134815 0.920833 37 37 33
-0.540511 -0.132528 0.905214 37 37 33
-0.561791 -0.138965 0.949179 37 38 34
-0.538194 -0.134316 0.917429 39 39 35
-0.565982 -0.142524 0.973489 39 39 35
-0.544343 -0.138321 0.944781 38 38 34
-0.537969 -0.137955 0.942284 37 36 32
-0.535741 -0.138656 0.947071 36 35 31
-0.529497 -0.138321 0.944781 36 36 33
-0.539848 -0.142355 0.972338 36 37 34
-0.520859 -0.138656 0.947071 36 37 34
-0.544731 -0.146405 1 37 38 34
-0.525191 -0.142524 0.973489 37 38 35
-0.534255 -0.146405 1 37 38 34
-0.499805 -0.138321 0.944781 37 37 34
-0.537665 -0.150287 1.02651 37 37 33
-0.504198 -0.142355 0.972338 37 37 33
-0.513304 -0.146405 1 36 37 33
-0.522758 -0.150639 1.02892 36 37 33
-0.502828 -0.146405 1 36 37 33
-0.51198 -0.150639 1.02892 36 37 33
-0.505972 -0.150455 1.02766 36 38 33
-0.501871 -0.15084 1.03029 36 38 33
-0.511006 -0.155255 1.06045 37 38 34
-0.491799 -0.151062 1.0318 36 38 34
-0.499897 -0.155255 1.06045 36 37 33
-0.497288 -0.15618 1.06677 36 37 33
-0.502564 -0.159631 1.09033 36 37 32
-0.486113 -0.15618 1.06677 35 37 32
-0.480525 -0.15618 1.06677 36 37 33
-0.476576 -0.156719 1.07045 35 36 32
-0.504703 -0.167944 1.14712 35 35 31
-0.498694 -0.167944 1.14712 35 35 30
-0.463501 -0.157996 1.07917 36 36 32
-0.490429 -0.169238 1.15596 36 36 33
-0.468467 -0.16368 1.118 36 37 33
-0.478319 -0.169238 1.15596 36 37 33
-0.463451 -0.16608 1.13439 36 37 34
-0.497584 -0.180627 1.23375 36 36 33
-0.473718 -0.174227 1.19003 36 37 33
-0.494093 -0.184143 1.25776 37 38 34
-0.478198 -0.180627 1.23375 37 38 35
-0.467256 -0.178912 1.22203 38 39 35
-0.471904 -0.183202 1.25133 37 38 34
-0.461968 -0.18187 1.24224 36 37 34
-0.458795 -0.183202 1.25133 36 37 34
-0.485747 -0.196775 1.34404 37 38 35
-0.452906 -0.186169 1.2716 38 38 35
-0.526398 -0.219608 1.5 38 39 36
-0.447732 -0.189619 1.29517 38 39 36
-0.467901 -0.20121 1.37433 38 38 35
-0.472547 -0.206382 1.40967 37 38 35
-0.465163 -0.206382 1.40967 37 38 35
-0.440227 -0.198469 1.35562 36 37 34
-0.465718 -0.213403 1.45762 36 37 33
-0.431909 -0.20121 1.37433 36 37 34
-0.508164 -0.240746 1.64438 37 37 34
-0.440841 -0.212452 1.45113 36 37 34
-0.479221 -0.235 1.60514 36 37 34
-0.456904 -0.228058 1.55772 37 37 34
-0.41991 -0.213403 1.45762 37 38 35
-0.449812 -0.232833 1.59033 38 38 35
-0.481295 -0.25383 1.73375 38 38 35
-0.454714 -0.244424 1.6695 36 38 34
-0.424822 -0.232833 1.59033 36 37 34
-0.430648 -0.240746 1.64438 37 38 35
-0.428481 -0.244424 1.6695 37 38 35
-0.399833 -0.232833 1.59033 36 37 34
-0.407658 -0.242441 1.65596 36 37 34
-0.41076 -0.249596 1.70483 36 38 35
-0.406518 -0.252508 1.72472 36 37 34
-0.392901 -0.249596 1.70483 37 38 35
-0.387385 -0.251815 1.71999 37 38 34
-0.380755 -0.253399 1.7308 37 38 34
-0.363264 -0.247655 1.69157 36 37 33
-0.350681 -0.245053 1.6738 36 37 33
-0.348253 -0.249596 1.70483 35 36 32
-0.342019 -0.251579 1.71838 35 37 32
-0.330394 -0.249596 1.70483 35 37 33
-0.311273 -0.241683 1.65078 36 38 34
-0.315018 -0.251579 1.71838 38 38 34
-0.287887 -0.236675 1.61657 37 37 34
-0.297017 -0.251579 1.71838 36 36 32
-0.288016 -0.251579 1.71838 36 36 31
-0.272325 -0.245547 1.67717 36 37 33
-0.259394 -0.241683 1.65078 37 38 34
-0.267927 -0.258242 1.76388 38 39 35
-0.245971 -0.245547 1.67717 38 39 35
-0.234969 -0.243251 1.66149 37 38 34
-0.232169 -0.249596 1.70483 36 37 34
-0.221301 -0.247429 1.69003 35 37 34
-0.216215 -0.251815 1.71999 36 38 36
-0.208864 -0.25383 1.73375 37 38 36
-0.201228 -0.255666 1.74629 36 38 35
-0.184478 -0.245547 1.67717 36 37 34
-0.172259 -0.240746 1.64438 37 39 36
-0.166574 -0.245053 1.6738 38 39 36
-0.162161 -0.251815 1.71999 37 38 35
-0.14904 -0.245053 1.6738 36 37 33
-0.142873 -0.249596 1.70483 36 37 33
-0.132902 -0.247655 1.69157 36 37 34
-0.122986 -0.245547 1.67717 36 37 33
-0.111968 -0.240746 1.64438 36 37 33
-0.103758 -0.241683 1.65078 36 37 34
-0.0974612 -0.247655 1.69157 37 38 35
-0.090005 -0.251579 1.71838 37 38 34
-0.0790621 -0.245547 1.67717 36 37 33
-0.0696205 -0.243251 1.66149 36 37 33
-0.0619642 -0.247429 1.69003 37 37 34
-0.0508036 -0.236675 1.61657 37 38 34
-0.0430648 -0.240746 1.64438 38 38 34
-0.036002 -0.251579 1.71838 37 37 34
-0.0256817 -0.239283 1.63439 37 38 34
-0.0171212 -0.239283 1.63439 37 38 34
-0.00892957 -0.249596 1.70483 38 39 35
0 -0.243897 1.6659 38 39 35
0.00878468 -0.245547 1.67717 38 39 35
0.0178591 -0.249596 1.70483 38 39 35
0.0271968 -0.253399 1.7308 38 38 35
0.0345858 -0.241683 1.65078 36 37 33
0.0430648 -0.240746 1.64438 36 37 33
0.0535774 -0.249596 1.70483 37 38 34
0.0602907 -0.240746 1.64438 37 38 34
0.0687778 -0.240307 1.64138 37 38 34
0.0790621 -0.245547 1.67717 37 37 33
0.0886011 -0.247655 1.69157 37 37 33
0.0990055 -0.251579 1.71838 37 37 34
0.104431 -0.243251 1.66149 37 37 34
0.113133 -0.243251 1.66149 37 37 34
0.121836 -0.243251 1.66149 37 37 34
0.13177 -0.245547 1.67717 36 37 34
0.142873 -0.249596 1.70483 36 37 34
0.151803 -0.249596 1.70483 36 37 34
0.163459 -0.25383 1.73375 36 37 34
0.166909 -0.245547 1.67717 36 37 34
0.178591 -0.249596 1.70483 36 37 34
0.189188 -0.251815 1.71999 36 37 34
0.194745 -0.247429 1.69003 37 38 35
0.197121 -0.239559 1.63628 37 38 35
0.216215 -0.251815 1.71999 36 37 34
0.22751 -0.254372 1.73745 37 37 34
0.232169 -0.249596 1.70483 38 38 35
0.237186 -0.245547 1.67717 39 39 36
0.247857 -0.247429 1.69003 38 39 36
0.254244 -0.245053 1.6738 37 38 35
0.267887 -0.249596 1.70483 37 37 34
0.279277 -0.251815 1.71999 37 37 35
0.278482 -0.243251 1.66149 38 38 35
0.294676 -0.249596 1.70483 37 38 35
0.298679 -0.245547 1.67717 37 37 35
0.302626 -0.241683 1.65078 36 37 35
0.316248 -0.245547 1.67717 36 38 35
0.333019 -0.251579 1.71838 37 39 35
0.339324 -0.249596 1.70483 37 38 35
0.342602 -0.245547 1.67717 36 37 34
0.338691 -0.236675 1.61657 36 37 35
0.381241 -0.25991 1.77528 36 37 35
0.378376 -0.251815 1.71999 36 38 35
0.380637 -0.247429 1.69003 37 38 35
0.392901 -0.249596 1.70483 37 38 35
0.405402 -0.251815 1.71999 37 38 35
0.400318 -0.243251 1.66149 36 38 35
0.42772 -0.254372 1.73745 36 37 34
0.448942 -0.261431 1.78567 36 38 34
0.437549 -0.249596 1.70483 36 38 34
0.450025 -0.251579 1.71838 37 38 34
0.463133 -0.25383 1.73375 37 38 35
0.447873 -0.240746 1.64438 37 38 34
0.492823 -0.25991 1.77528 36 37 34
0.489542 -0.253399 1.7308 36 37 33
0.477046 -0.242441 1.65596 36 38 34
0.504501 -0.251815 1.71999 37 38 34
0.530017 -0.25991 1.77528 38 39 35
0.53051 -0.255666 1.74629 37 39 35
0.538404 -0.255073 1.74224 38 39 36
0.540537 -0.251815 1.71999 38 39 35
0.55956 -0.256404 1.75133 36 37 34
0.589231 -0.265645 1.81445 36 37 34
0.567563 -0.251815 1.71999 36 37 34
0.576572 -0.251815 1.71999 36 37 34
0.614146 -0.264099 1.80389 36 37 34
0.616719 -0.261187 1.784 36 37 34
0.619004 -0.258242 1.76388 37 38 35
0.61751 -0.25383 1.73375 37 39 36
0.6416 -0.25991 1.77528 38 39 36
0.665261 -0.265645 1.81445 38 39 36
0.633999 -0.249596 1.70483 37 38 35
0.637928 -0.247655 1.69157 36 37 34
0.662915 -0.25383 1.73375 36 37 34
0.675286 -0.255073 1.74224 36 37 34
0.686004 -0.255666 1.74629 36 37 34
0.70669 -0.25991 1.77528 36 38 35
0.731787 -0.265645 1.81445 36 38 35
0.72885 -0.261187 1.784 36 38 35
0.738883 -0.261431 1.78567 36 38 34
0.731738 -0.255666 1.74629 36 38 34
0.723295 -0.249596 1.70483 36 38 35
0.780784 -0.266149 1.81789 36 38 34
0.785647 -0.26458 1.80718 35 37 33
0.794274 -0.264301 1.80527 35 37 33
0.788738 -0.259371 1.7716 35 37 33
0.818871 -0.266149 1.81789 35 36 32
0.818037 -0.262822 1.79517 35 37 32
0.810198 -0.257346 1.75776 35 37 33
0.830529 -0.260839 1.78162 36 38 34
0.832613 -0.258588 1.76625 36 38 35
0.868832 -0.266872 1.82283 36 39 35
0.883809 -0.268521 1.8341 36 38 35
0.89826 -0.269977 1.84404 36 38 35
0.877188 -0.260839 1.78162 35 37 34
0.923337 -0.271672 1.85562 35 37 34
0.920427 -0.267995 1.8305 35 37 34
0.912064 -0.262822 1.79517 35 37 34
0.897598 -0.256014 1.74867 35 37 34
0.945213 -0.266872 1.82283 36 37 35
1.01733 -0.284361 1.94228 36 37 34
0.991555 -0.274412 1.87433 34 36 33
1.00734 -0.276047 1.8855 34 36 33
1.04785 -0.284361 1.94228 35 36 34
0.997129 -0.267995 1.8305 37 38 35
0.987286 -0.262822 1.79517 36 38 35
1.04684 -0.276047 1.8855 36 37 35
1.00609 -0.262822 1.79517 35 37 34
1.05262 -0.27243 1.86079 35 37 34
1.0249 -0.262822 1.79517 36 38 36
1.06246 -0.269977 1.84404 36 38 36
1.0437 -0.262822 1.79517 35 38 35
1.0531 -0.262822 1.79517 35 37 35
1.13689 -0.28122 1.92083 35 37 35
1.19422 -0.29281 2 34 37 35
1.20469 -0.29281 2 34 37 35
1.25372 -0.3021 2.06345 34 37 34
1.22564 -0.29281 2 34 37 33
1.23612 -0.29281 2 33 36 33
1.18106 -0.277418 1.89486 33 37 33
-0.556569 -0.125012 0.885502 39 39 33
-0.554972 -0.125701 0.89038 39 39 34
-0.533834 -0.121938 0.863725 38 39 34
-0.548392 -0.126334 0.894863 37 37 32
-0.574034 -0.133381 0.944781 37 37 33
-0.569085 -0.133381 0.944781 38 38 34
-0.512158 -0.121091 0.85773 38 38 34
-0.561791 -0.134002 0.949179 38 38 34
-0.538194 -0.129519 0.917429 39 39 35
-0.54784 -0.133028 0.942284 39 39 35
-0.546876 -0.134002 0.949179 38 38 35
-0.525722 -0.13 0.920833 35 35 31
-0.550034 -0.137271 0.972338 34 34 29
-0.545587 -0.137434 0.973489 36 36 32
-0.540488 -0.137434 0.973489 37 37 35
-0.518227 -0.133028 0.942284 37 38 35
-0.544731 -0.141176 1 37 38 35
-0.510938 -0.133704 0.947071 37 38 34
-0.518806 -0.137094 0.971083 37 37 34
-0.502132 -0.134002 0.949179 36 37 33
-0.509291 -0.137271 0.972338 36 36 33
-0.533537 -0.145259 1.02892 37 38 34
-0.528853 -0.145453 1.03029 37 38 34
-0.53739 -0.149325 1.05772 37 38 34
-0.487597 -0.1369 0.969708 36 38 33
-0.527669 -0.14971 1.06045 36 37 33
-0.51954 -0.148972 1.05522 37 38 34
-0.501201 -0.145259 1.02892 37 38 34
-0.481877 -0.141176 1 37 38 34
-0.491078 -0.145453 1.03029 37 38 34
-0.488057 -0.146164 1.03533 36 37 33
-0.495742 -0.150134 1.06345 36 37 32
-0.488788 -0.14971 1.06045 36 37 32
-0.48779 -0.151122 1.07045 36 37 33
-0.480525 -0.150602 1.06677 37 38 34
-0.492021 -0.156019 1.10514 36 37 32
-0.515866 -0.165528 1.17249 35 35 31
-0.48308 -0.156875 1.1112 35 36 31
-0.46152 -0.151702 1.07455 36 37 33
-0.471439 -0.156875 1.1112 37 38 34
-0.484374 -0.163194 1.15596 37 38 35
-0.482435 -0.164598 1.1659 37 38 35
-0.492232 -0.170094 1.20483 37 37 34
-0.507268 -0.177566 1.25776 35 36 32
-0.473718 -0.168004 1.19003 35 36 32
-0.499528 -0.17952 1.2716 37 37 34
-0.466989 -0.170094 1.20483 37 38 35
-0.486208 -0.17952 1.2716 38 38 35
-0.459475 -0.172006 1.21838 37 38 34
-0.499827 -0.189747 1.34404 36 37 34
-0.474867 -0.182847 1.29517 36 37 34
-0.485747 -0.189747 1.34404 38 39 36
-0.4613 -0.182847 1.29517 38 39 36
-0.462492 -0.186056 1.31789 38 39 35
-0.518542 -0.211765 1.5 37 38 35
-0.496257 -0.205782 1.45762 37 38 34
-0.472547 -0.199012 1.40967 36 37 34
-0.480988 -0.205782 1.45762 36 37 33
-0.487115 -0.211765 1.5 36 37 33
-0.492799 -0.217748 1.54238 36 37 34
-0.504443 -0.226608 1.60514 37 38 35
-0.478649 -0.218665 1.54887 37 39 35
-0.470536 -0.218665 1.54887 38 39 36
-0.479221 -0.226608 1.60514 37 38 35
-0.439975 -0.211765 1.5 36 37 34
-0.446198 -0.218665 1.54887 37 37 34
-0.440586 -0.219913 1.55772 38 38 35
-0.483651 -0.245963 1.74224 37 38 34
-0.442775 -0.229506 1.62567 36 37 34
-0.413747 -0.218665 1.54887 37 38 34
-0.420369 -0.226608 1.60514 37 38 35
-0.422035 -0.232148 1.64438 37 38 35
-0.435889 -0.244765 1.73375 36 37 34
-0.436126 -0.250108 1.7716 37 38 35
-0.398984 -0.233782 1.65596 37 38 35
-0.383171 -0.229506 1.62567 37 38 35
-0.399565 -0.244765 1.73375 37 38 35
-0.37421 -0.234564 1.66149 37 38 35
-0.368957 -0.236777 1.67717 36 38 34
-0.362933 -0.238593 1.69003 36 37 34
-0.357183 -0.240682 1.70483 36 37 34
-0.356722 -0.246535 1.74629 36 37 33
-0.330698 -0.234564 1.66149 36 37 33
-0.339405 -0.247247 1.75133 36 37 33
-0.318673 -0.238593 1.69003 37 38 34
-0.315018 -0.242594 1.71838 38 38 35
-0.314121 -0.249019 1.76388 38 38 34
-0.306852 -0.250628 1.77528 36 37 32
-0.278482 -0.234564 1.66149 36 36 31
-0.267001 -0.232148 1.64438 37 37 33
-0.267887 -0.240682 1.70483 38 39 35
-0.261015 -0.242594 1.71838 38 39 35
-0.248083 -0.23881 1.69157 37 38 34
-0.239223 -0.23881 1.69157 36 37 34
-0.234233 -0.242822 1.71999 36 36 33
-0.223239 -0.240682 1.70483 36 37 35
-0.212449 -0.238593 1.69003 37 38 36
-0.20538 -0.240682 1.70483 36 38 35
-0.198197 -0.242822 1.71999 37 38 36
-0.183239 -0.235187 1.6659 37 39 36
-0.178591 -0.240682 1.70483 38 39 36
-0.166574 -0.236302 1.6738 38 39 36
-0.158124 -0.236777 1.67717 37 38 34
-0.14642 -0.232148 1.64438 36 37 33
-0.138777 -0.233782 1.65596 36 36 32
-0.133943 -0.240682 1.70483 36 37 33
-0.120581 -0.232148 1.64438 36 37 33
-0.117116 -0.242822 1.71999 36 37 33
-0.107155 -0.240682 1.70483 36 37 33
-0.0974612 -0.23881 1.69157 37 38 34
-0.0864646 -0.233052 1.65078 37 39 35
-0.0796683 -0.238593 1.69003 37 38 34
-0.0728033 -0.245287 1.73745 36 37 34
-0.0614928 -0.236777 1.67717 37 37 34
-0.0522154 -0.234564 1.66149 38 38 34
-0.04213 -0.22711 1.60869 37 38 34
-0.0351387 -0.236777 1.67717 37 37 34
-0.0261077 -0.234564 1.66149 37 37 34
-0.0181621 -0.244765 1.73375 36 37 33
-0.0090005 -0.242594 1.71838 37 37 34
0 -0.244765 1.73375 37 37 33
0.00867357 -0.233782 1.65596 38 39 35
0.0182008 -0.245287 1.73745 38 39 35
0.0258389 -0.232148 1.64438 37 38 34
0.0349027 -0.235187 1.6659 36 37 32
0.0457336 -0.246535 1.74629 37 37 33
0.0518788 -0.233052 1.65078 38 38 35
0.0620207 -0.23881 1.69157 38 39 35
0.0726482 -0.244765 1.73375 38 39 35
0.0780621 -0.233782 1.65596 38 39 35
0.0870257 -0.234564 1.66149 38 38 35
0.0982252 -0.240682 1.70483 38 38 35
0.104708 -0.235187 1.6659 37 38 34
0.111968 -0.232148 1.64438 37 37 34
0.126007 -0.242594 1.71838 37 37 34
0.131506 -0.236302 1.6738 37 38 34
0.144143 -0.242822 1.71999 37 38 35
0.14934 -0.236777 1.67717 37 38 35
0.162161 -0.242822 1.71999 36 37 34
0.166574 -0.236302 1.6738 36 37 34
0.174051 -0.234564 1.66149 36 38 35
0.187521 -0.240682 1.70483 37 38 35
0.187328 -0.229506 1.62567 37 39 36
0.203597 -0.238593 1.69003 37 38 35
0.208862 -0.234564 1.66149 36 37 34
0.221301 -0.238593 1.69003 36 36 33
0.226867 -0.235187 1.6659 36 37 33
0.239223 -0.23881 1.69157 36 37 34
0.24286 -0.233782 1.65596 36 37 34
0.258957 -0.240682 1.70483 37 38 34
0.255447 -0.229506 1.62567 37 37 34
0.281512 -0.244765 1.73375 37 38 35
0.276687 -0.233052 1.65078 38 38 36
0.285333 -0.233052 1.65078 38 38 36
0.29284 -0.232148 1.64438 37 38 35
0.312535 -0.240682 1.70483 37 37 35
0.313292 -0.234564 1.66149 37 38 35
0.327824 -0.23881 1.69157 37 38 35
0.34234 -0.242822 1.71999 37 38 35
0.348253 -0.240682 1.70483 37 38 35
0.354081 -0.238593 1.69003 37 38 35
0.347158 -0.228222 1.61657 36 38 35
0.368216 -0.236302 1.6738 37 38 36
0.393309 -0.246535 1.74629 36 37 35
0.399565 -0.244765 1.73375 36 38 35
0.407952 -0.244349 1.7308 37 38 35
0.41076 -0.240682 1.70483 37 38 35
0.431137 -0.247247 1.75133 37 38 35
0.435889 -0.244765 1.73375 37 38 35
0.441438 -0.242822 1.71999 37 38 34
0.446478 -0.240682 1.70483 36 38 34
0.451454 -0.238593 1.69003 36 37 34
0.471411 -0.244349 1.7308 36 37 33
0.469586 -0.23881 1.69157 36 37 33
0.486483 -0.242822 1.71999 35 37 32
0.499457 -0.244765 1.73375 36 37 33
0.507673 -0.244349 1.7308 36 37 34
0.526615 -0.249019 1.76388 36 38 34
0.517915 -0.240682 1.70483 36 37 34
0.548615 -0.250628 1.77528 37 38 35
0.54003 -0.242594 1.71838 37 38 34
0.535865 -0.236777 1.67717 36 37 34
0.558554 -0.242822 1.71999 36 37 34
0.572105 -0.244765 1.73375 36 37 34
0.589235 -0.248155 1.75776 36 37 34
0.575382 -0.238593 1.69003 36 37 34
0.603684 -0.246535 1.74629 36 37 34
0.598281 -0.240682 1.70483 36 38 35
0.61646 -0.244349 1.7308 37 38 35
0.632945 -0.247247 1.75133 38 39 36
0.644476 -0.248155 1.75776 38 40 37
0.660197 -0.250628 1.77528 37 38 35
0.673413 -0.252094 1.78567 36 37 34
0.674437 -0.249019 1.76388 36 37 34
0.708337 -0.258001 1.82751 36 37 34
0.709173 -0.254862 1.80527 36 38 35
0.70669 -0.250628 1.77528 36 38 35
0.693689 -0.242822 1.71999 37 39 35
0.702698 -0.242822 1.71999 37 39 35
0.756198 -0.258001 1.82751 36 38 34
0.742342 -0.250108 1.7716 35 37 33
0.748348 -0.249019 1.76388 36 38 34
0.732224 -0.240682 1.70483 36 38 34
0.780426 -0.253435 1.79517 35 37 34
0.779459 -0.250108 1.7716 34 37 32
0.804578 -0.255131 1.80718 34 36 31
0.818871 -0.256644 1.81789 34 36 32
0.857607 -0.265695 1.882 35 37 33
0.845382 -0.258931 1.8341 36 38 34
0.873747 -0.264612 1.87433 36 38 35
0.851906 -0.255131 1.80718 35 38 34
0.830419 -0.245963 1.74224 35 38 34
0.894179 -0.261969 1.85562 36 38 34
0.874453 -0.253435 1.79517 35 38 34
0.891144 -0.255525 1.80997 35 37 34
0.900624 -0.255525 1.80997 35 37 34
0.927237 -0.260335 1.84404 35 37 35
0.912064 -0.253435 1.79517 35 37 34
0.875097 -0.240682 1.70483 35 37 35
0.962214 -0.261969 1.85562 35 37 35
0.958778 -0.258423 1.8305 35 37 35
0.968366 -0.258423 1.8305 34 36 34
0.969381 -0.256158 1.81445 34 35 33
0.978885 -0.256158 1.81445 36 37 35
0.988388 -0.256158 1.81445 37 39 36
1.04212 -0.26751 1.89486 36 38 36
1.02382 -0.260335 1.84404 36 38 35
1.08533 -0.273395 1.93655 34 36 34
1.06659 -0.266188 1.8855 33 35 32
1.10889 -0.274205 1.94228 35 37 35
1.11576 -0.273395 1.93655 36 38 36
1.16279 -0.282353 2 35 38 36
1.12027 -0.2696 1.90967 35 37 35
1.18374 -0.282353 2 34 36 34
1.13144 -0.26751 1.89486 34 36 34
1.14136 -0.26751 1.89486 34 37 35
1.09072 -0.253435 1.79517 35 37 35
1.13007 -0.260335 1.84404 34 37 33
1.17114 -0.26751 1.89486 32 36 32
1.2466 -0.282353 2 34 37 33
-0.539114 -0.116606 0.85773 39 38 33
-0.538358 -0.117421 0.863725 38 38 33
-0.550308 -0.121045 0.89038 37 37 32
-0.559948 -0.124218 0.91372 36 37 32
-0.521143 -0.116606 0.85773 37 37 33
-0.545252 -0.123062 0.905214 38 38 34
-0.528741 -0.120382 0.885502 38 38 34
-0.529643 -0.121655 0.894863 39 39 35
-0.571081 -0.132344 0.973489 39 39 35
-0.563784 -0.13183 0.969708 39 39 35
-0.544343 -0.128441 0.944781 37 37 33
-0.521661 -0.124218 0.91372 35 34 30
-0.534445 -0.128441 0.944781 35 35 31
-0.528098 -0.128101 0.942284 37 37 34
-0.539848 -0.132187 0.972338 37 37 34
-0.534756 -0.132187 0.972338 38 38 35
-0.528979 -0.132016 0.971083 38 38 34
-0.523892 -0.132016 0.971083 38 38 34
-0.549034 -0.139708 1.02766 37 37 34
-0.514993 -0.132344 0.973489 37 37 34
-0.538926 -0.139879 1.02892 37 38 34
-0.531739 -0.139408 1.02545 37 38 34
-0.513304 -0.135948 1 37 38 34
-0.538778 -0.144165 1.06045 37 38 34
-0.51806 -0.140066 1.03029 37 38 34
-0.526309 -0.143794 1.05772 37 38 33
-0.536829 -0.148228 1.09033 37 38 33
-0.501201 -0.139879 1.02892 36 37 33
-0.481877 -0.135948 1 37 38 34
-0.517764 -0.147677 1.08628 36 37 34
-0.485681 -0.140066 1.03029 36 37 33
-0.497288 -0.145024 1.06677 36 37 32
-0.493397 -0.145525 1.07045 36 37 32
-0.489662 -0.146083 1.07455 36 37 33
-0.482183 -0.145525 1.07045 37 38 34
-0.510711 -0.155948 1.14712 36 37 33
-0.504703 -0.155948 1.14712 36 36 31
-0.52864 -0.165312 1.216 37 37 33
-0.500755 -0.158502 1.1659 37 37 33
-0.511164 -0.163794 1.20483 38 39 35
-0.488542 -0.158502 1.1659 38 39 35
-0.510508 -0.167726 1.23375 38 39 36
-0.497765 -0.165635 1.21838 36 37 33
-0.491383 -0.165635 1.21838 34 35 31
-0.507654 -0.173371 1.27528 35 36 32
-0.499528 -0.172871 1.2716 37 38 34
-0.472239 -0.165635 1.21838 37 38 34
-0.487615 -0.173371 1.27528 38 39 35
-0.513183 -0.184996 1.36079 38 38 35
-0.516472 -0.188804 1.3888 37 38 35
-0.474867 -0.176075 1.29517 37 38 35
-0.501923 -0.188804 1.3888 38 39 36
-0.451 -0.172144 1.26625 38 39 36
-0.454516 -0.176075 1.29517 37 38 35
-0.491174 -0.193159 1.42083 37 38 34
-0.496257 -0.19816 1.45762 36 37 34
-0.486445 -0.197277 1.45113 36 37 34
-0.460279 -0.189628 1.39486 35 36 33
-0.502987 -0.210566 1.54887 36 37 33
-0.463643 -0.197277 1.45113 36 37 34
-0.453263 -0.196075 1.44228 37 38 35
-0.463545 -0.203922 1.5 38 39 36
-0.455688 -0.203922 1.5 38 39 36
-0.447832 -0.203922 1.5 37 38 35
-0.470813 -0.218215 1.60514 36 37 34
-0.46832 -0.221006 1.62567 36 37 34
-0.472203 -0.226965 1.6695 37 38 34
-0.463459 -0.226965 1.6695 37 38 35
-0.442775 -0.221006 1.62567 37 38 35
-0.416109 -0.211768 1.55772 37 38 35
-0.430648 -0.22355 1.64438 37 38 34
-0.437549 -0.231768 1.70483 37 38 35
-0.435889 -0.235699 1.73375 37 38 35
-0.43272 -0.238964 1.75776 37 39 35
-0.421322 -0.237727 1.74867 37 38 35
-0.380539 -0.219487 1.6145 37 38 35
-0.382913 -0.225876 1.66149 37 38 35
-0.397271 -0.239796 1.76388 37 38 35
-0.371785 -0.229756 1.69003 36 37 34
-0.354505 -0.22442 1.65078 37 37 34
-0.360358 -0.233828 1.71999 37 38 34
-0.348253 -0.231768 1.70483 37 38 34
-0.339324 -0.231768 1.70483 36 37 33
-0.330394 -0.231768 1.70483 37 38 33
-0.326917 -0.235699 1.73375 37 38 34
-0.312535 -0.231768 1.70483 38 39 35
-0.306017 -0.233609 1.71838 38 38 34
-0.294676 -0.231768 1.70483 37 37 32
-0.292695 -0.237404 1.74629 36 36 31
-0.26978 -0.225876 1.66149 37 37 32
-0.265561 -0.229756 1.69003 38 38 34
-0.261259 -0.233828 1.71999 38 38 35
-0.243672 -0.225876 1.66149 37 37 34
-0.239223 -0.229965 1.69157 37 37 33
-0.234233 -0.233828 1.71999 36 36 33
-0.217564 -0.225876 1.66149 36 37 34
-0.210409 -0.22755 1.6738 36 38 35
-0.207012 -0.233609 1.71838 35 37 34
-0.193263 -0.228008 1.67717 36 38 35
-0.186062 -0.229965 1.69157 37 39 36
-0.175694 -0.228008 1.67717 37 39 36
-0.169662 -0.231768 1.70483 37 38 35
-0.159337 -0.229756 1.69003 37 37 34
-0.150622 -0.229965 1.69157 36 37 33
-0.136969 -0.222191 1.63439 36 37 33
-0.13177 -0.228008 1.67717 37 38 34
-0.122159 -0.226476 1.6659 37 38 34
-0.118053 -0.235699 1.73375 37 38 34
-0.102727 -0.222191 1.63439 37 38 34
-0.0966315 -0.228008 1.67717 37 38 34
-0.0892957 -0.231768 1.70483 37 38 34
-0.0790621 -0.228008 1.67717 37 38 34
-0.0708163 -0.229756 1.69003 36 37 34
-0.0619642 -0.229756 1.69003 36 37 33
-0.0522154 -0.225876 1.66149 37 38 34
-0.0450447 -0.233828 1.71999 37 38 34
-0.0348103 -0.225876 1.66149 37 37 34
-0.0258389 -0.22355 1.64438 37 37 34
-0.0177041 -0.229756 1.69003 37 37 34
-0.00900894 -0.233828 1.71999 37 38 34
0 -0.22755 1.6738 37 38 34
0.00870257 -0.225876 1.66149 38 39 35
0.0181621 -0.235699 1.73375 38 38 35
0.0259394 -0.22442 1.65078 37 38 34
0.0338691 -0.219769 1.61657 36 37 33
0.0446478 -0.231768 1.70483 37 38 34
0.054003 -0.233609 1.71838 38 38 35
0.0601806 -0.223142 1.64138 38 39 35
0.0691717 -0.22442 1.65078 38 39 35
0.0810045 -0.233609 1.71838 38 38 35
0.0892957 -0.231768 1.70483 38 38 35
0.0957282 -0.225876 1.66149 38 38 35
0.105416 -0.228008 1.67717 37 38 34
0.118053 -0.235699 1.73375 36 37 33
0.122986 -0.228008 1.67717 36 37 34
0.129194 -0.22355 1.64438 37 38 34
0.138777 -0.225124 1.65596 37 38 35
0.151803 -0.231768 1.70483 37 38 35
0.157807 -0.22755 1.6738 36 37 34
0.168189 -0.229756 1.69003 35 37 34
0.175341 -0.22755 1.6738 36 38 35
0.180872 -0.22355 1.64438 37 38 35
0.199783 -0.235699 1.73375 37 39 36
0.207206 -0.233828 1.71999 37 39 36
0.210409 -0.22755 1.6738 36 37 34
0.215324 -0.22355 1.64438 35 36 33
0.223937 -0.22355 1.64438 36 36 33
0.241098 -0.231768 1.70483 36 37 33
0.247571 -0.229491 1.68808 37 37 34
0.26335 -0.235699 1.73375 38 38 35
0.258389 -0.22355 1.64438 37 38 35
0.281512 -0.235699 1.73375 37 38 35
0.290593 -0.235699 1.73375 37 38 35
0.289894 -0.228008 1.67717 37 37 35
0.296673 -0.226476 1.6659 36 37 35
0.312535 -0.231768 1.70483 36 37 35
0.321464 -0.231768 1.70483 37 38 35
0.321995 -0.225876 1.66149 38 39 36
0.333147 -0.22755 1.6738 37 38 35
0.348253 -0.231768 1.70483 37 38 35
0.348103 -0.225876 1.66149 37 38 35
0.362933 -0.229756 1.69003 36 37 35
0.372125 -0.229965 1.69157 36 37 35
0.383971 -0.231768 1.70483 36 37 34
0.389489 -0.229756 1.69003 36 38 35
0.40183 -0.231768 1.70483 37 38 35
0.406724 -0.229491 1.68808 37 38 35
0.42342 -0.233828 1.71999 37 38 35
0.424898 -0.229756 1.69003 37 38 34
0.44497 -0.235699 1.73375 36 37 34
0.461943 -0.239796 1.76388 36 37 34
0.448019 -0.228008 1.67717 36 37 33
0.460306 -0.229756 1.69003 35 37 33
0.473267 -0.231768 1.70483 36 37 33
0.495348 -0.23809 1.75133 35 37 33
0.504522 -0.23809 1.75133 35 36 33
0.495143 -0.229491 1.68808 36 37 33
0.494394 -0.225124 1.65596 36 37 33
0.53051 -0.237404 1.74629 36 37 33
0.541214 -0.23809 1.75133 36 37 34
0.526022 -0.22755 1.6738 36 37 34
0.549546 -0.233828 1.71999 36 37 33
0.563024 -0.235699 1.73375 36 37 34
0.567563 -0.233828 1.71999 36 38 34
0.591287 -0.239796 1.76388 36 37 34
0.600526 -0.239796 1.76388 36 37 34
0.599348 -0.235699 1.73375 35 37 34
0.593086 -0.229756 1.69003 36 37 35
0.621977 -0.237404 1.74629 37 38 35
0.631124 -0.237404 1.74629 37 39 36
0.654707 -0.242757 1.78567 37 39 36
0.660197 -0.241345 1.77528 36 37 35
0.653834 -0.235699 1.73375 36 37 34
0.667711 -0.237404 1.74629 36 37 34
0.671996 -0.235699 1.73375 36 37 35
0.681077 -0.235699 1.73375 37 38 35
0.695151 -0.237404 1.74629 37 38 35
0.711392 -0.239796 1.76388 37 38 35
0.725287 -0.241345 1.77528 36 38 35
0.717401 -0.235699 1.73375 36 37 34
0.739109 -0.239796 1.76388 35 38 34
0.753183 -0.241345 1.77528 35 37 34
0.780784 -0.247139 1.81789 35 37 34
0.775571 -0.242531 1.784 34 36 33
0.770542 -0.23809 1.75133 34 36 32
0.779715 -0.23809 1.75133 34 36 31
0.788888 -0.23809 1.75133 35 36 32
0.807297 -0.240845 1.7716 36 38 34
0.845382 -0.249341 1.8341 36 38 34
0.842441 -0.245682 1.80718 36 38 35
0.83986 -0.242208 1.78162 35 37 34
0.874202 -0.249341 1.8341 34 36 33
0.903199 -0.254811 1.87433 35 37 34
0.840137 -0.234472 1.72472 35 37 34
0.897475 -0.247809 1.82283 35 37 34
0.932651 -0.254811 1.87433 36 38 35
0.927237 -0.250693 1.84404 35 38 35
0.936895 -0.250693 1.84404 36 37 35
0.939602 -0.248852 1.8305 36 37 35
0.930869 -0.244049 1.79517 35 37 34
0.992491 -0.257602 1.89486 35 37 34
0.949675 -0.244049 1.79517 35 37 35
0.969381 -0.246671 1.81445 35 37 35
1.02227 -0.257602 1.89486 37 38 36
1.02709 -0.25633 1.8855 36 39 36
1.00672 -0.248852 1.8305 36 38 36
1.02382 -0.250693 1.84404 36 38 36
1.08533 -0.263269 1.93655 34 36 34
1.13136 -0.271895 2 33 35 33
1.10162 -0.262318 1.92955 32 35 32
1.04541 -0.246671 1.81445 34 36 34
1.12183 -0.262318 1.92955 35 37 35
1.0916 -0.25297 1.86079 34 37 35
1.10936 -0.254811 1.87433 33 36 34
1.14695 -0.261133 1.92083 34 36 34
1.15701 -0.261133 1.92083 34 36 35
1.21517 -0.271895 2 35 37 35
1.17029 -0.259615 1.90967 34 37 34
1.17114 -0.257602 1.89486 34 37 34
1.18106 -0.257602 1.89486 35 38 34
-0.553221 -0.115055 0.880174 37 36 30
-0.564218 -0.118329 0.905214 37 37 31
-0.544001 -0.115055 0.880174 36 37 31
-0.559948 -0.119441 0.91372 37 37 32
-0.538017 -0.115752 0.885502 37 38 33
-0.539018 -0.116976 0.894863 37 37 32
-0.562646 -0.123174 0.942284 36 36 31
-0.52095 -0.115055 0.880174 38 38 34
-0.540191 -0.12037 0.920833 40 40 36
-0.54784 -0.123174 0.942284 38 38 34
-0.544343 -0.123501 0.944781 36 36 32
-0.527512 -0.12078 0.923969 36 36 33
-0.533033 -0.123174 0.942284 37 37 34
-0.528098 -0.123174 0.942284 37 37 34
-0.541076 -0.127392 0.974549 37 37 34
-0.5196 -0.123501 0.944781 38 38 34
-0.511803 -0.122817 0.939552 38 38 34
-0.539493 -0.130719 1 37 38 34
-0.549034 -0.134335 1.02766 37 37 34
-0.529017 -0.130719 1 37 37 34
-0.52378 -0.130719 1 38 38 35
-0.50205 -0.126561 0.968195 37 38 34
-0.528853 -0.134679 1.03029 36 37 33
-0.493374 -0.126939 0.971083 37 38 33
-0.517369 -0.134499 1.02892 36 37 33
-0.497591 -0.130719 1 37 38 34
-0.557391 -0.147986 1.1321 37 38 34
-0.501871 -0.134679 1.03029 37 38 34
-0.527553 -0.143109 1.09479 37 38 34
-0.519696 -0.142527 1.09033 37 38 34
-0.499897 -0.138621 1.06045 37 38 34
-0.527742 -0.147986 1.1321 36 38 33
-0.504616 -0.143109 1.09479 36 37 32
-0.503598 -0.144462 1.10514 37 38 33
-0.480525 -0.139447 1.06677 37 38 34
-0.514647 -0.151106 1.15596 36 37 32
-0.469351 -0.139447 1.06677 35 36 30
-0.513905 -0.154524 1.18211 36 37 31
-0.496483 -0.151106 1.15596 36 37 32
-0.51691 -0.159265 1.21838 38 38 34
-0.475335 -0.148286 1.13439 38 39 35
-0.482435 -0.152406 1.1659 37 38 34
-0.497765 -0.159265 1.21838 35 36 32
-0.497584 -0.161275 1.23375 35 36 32
-0.486458 -0.159743 1.22203 36 37 34
-0.48466 -0.161275 1.23375 36 38 34
-0.485012 -0.163573 1.25133 36 37 33
-0.453305 -0.154973 1.18555 37 38 34
-0.454368 -0.157494 1.20483 37 38 35
-0.511092 -0.179651 1.37433 36 37 34
-0.503894 -0.179651 1.37433 36 37 34
-0.496695 -0.179651 1.37433 36 37 34
-0.496809 -0.182335 1.39486 37 38 34
-0.494697 -0.18427 1.40967 37 38 35
-0.501646 -0.18969 1.45113 37 37 34
-0.47993 -0.18427 1.40967 37 38 34
-0.47629 -0.18573 1.42083 37 38 35
-0.460279 -0.182335 1.39486 37 38 35
-0.487115 -0.196078 1.5 37 38 35
-0.479258 -0.196078 1.5 37 38 35
-0.458083 -0.190539 1.45762 37 38 35
-0.515926 -0.218235 1.6695 37 39 35
-0.483131 -0.207887 1.59033 38 39 36
-0.462423 -0.202467 1.54887 37 38 35
-0.482325 -0.214952 1.64438 36 36 33
-0.491126 -0.222854 1.70483 36 37 33
-0.440586 -0.203623 1.55772 37 38 34
-0.481295 -0.226634 1.73375 38 39 35
-0.447873 -0.214952 1.64438 38 39 35
-0.455408 -0.222854 1.70483 37 38 34
-0.463964 -0.231582 1.7716 36 37 33
-0.428481 -0.218235 1.6695 37 37 34
-0.441926 -0.229773 1.75776 37 37 34
-0.400201 -0.212505 1.62567 37 38 34
-0.405284 -0.219883 1.68211 36 37 34
-0.385671 -0.213892 1.63628 37 38 34
-0.400418 -0.227118 1.73745 37 38 35
-0.394444 -0.228932 1.75133 35 36 33
-0.359544 -0.213645 1.63439 35 36 32
-0.366112 -0.222854 1.70483 36 37 33
-0.334628 -0.208782 1.59718 37 38 34
-0.356722 -0.228274 1.74629 37 38 34
-0.351077 -0.230573 1.76388 36 37 33
-0.339405 -0.228932 1.75133 36 37 32
-0.313292 -0.217189 1.66149 36 37 33
-0.29962 -0.213645 1.63439 36 37 33
-0.303605 -0.222854 1.70483 36 36 31
-0.297295 -0.224835 1.71999 35 36 31
-0.288286 -0.224835 1.71999 35 35 30
-0.276817 -0.222854 1.70483 37 37 32
-0.273012 -0.227118 1.73745 38 38 34
-0.261015 -0.224624 1.71838 38 38 34
-0.247857 -0.220919 1.69003 36 37 33
-0.239005 -0.220919 1.69003 36 37 33
-0.232169 -0.222854 1.70483 36 36 33
-0.223239 -0.222854 1.70483 37 38 35
-0.212449 -0.220919 1.69003 38 39 36
-0.201642 -0.218798 1.6738 37 38 35
-0.19645 -0.222854 1.70483 37 38 35
-0.186062 -0.22112 1.69157 38 39 35
-0.174513 -0.217765 1.6659 38 39 35
-0.166574 -0.218798 1.6738 37 38 34
-0.157807 -0.218798 1.6738 36 36 33
-0.154377 -0.226634 1.73375 36 36 32
-0.138343 -0.215789 1.65078 36 37 32
-0.130538 -0.217189 1.66149 36 37 33
-0.122986 -0.219238 1.67717 37 37 33
-0.115181 -0.22112 1.69157 37 37 34
-0.103758 -0.215789 1.65078 36 37 34
-0.0990055 -0.224624 1.71838 37 38 34
-0.0846727 -0.211317 1.61657 37 38 34
-0.0789033 -0.218798 1.6738 37 38 34
-0.0702774 -0.219238 1.67717 37 37 34
-0.0602907 -0.214952 1.64438 38 38 35
-0.0526022 -0.218798 1.6738 39 39 36
-0.0435128 -0.217189 1.66149 38 38 35
-0.0351387 -0.219238 1.67717 36 37 33
-0.026354 -0.219238 1.67717 36 37 33
-0.0181621 -0.226634 1.73375 37 38 34
-0.00878468 -0.219238 1.67717 37 38 34
0 -0.220919 1.69003 37 38 34
0.00908103 -0.226634 1.73375 37 38 34
0.0172929 -0.215789 1.65078 37 38 34
0.0270268 -0.224835 1.71999 37 38 34
0.0350681 -0.218798 1.6738 36 37 33
0.045328 -0.226249 1.7308 37 38 34
0.0527081 -0.219238 1.67717 38 38 35
0.0602907 -0.214952 1.64438 38 38 34
0.0702774 -0.219238 1.67717 37 38 34
0.0778182 -0.215789 1.65078 38 38 35
0.0870257 -0.217189 1.66149 37 38 34
0.0967876 -0.219592 1.67988 37 38 34
0.102727 -0.213645 1.63439 37 37 33
0.114201 -0.219238 1.67717 37 37 34
0.125014 -0.222854 1.70483 36 37 33
0.133943 -0.222854 1.70483 37 38 34
0.135476 -0.211317 1.61657 37 38 35
0.144753 -0.212505 1.62567 36 37 35
0.159337 -0.220919 1.69003 36 37 34
0.165349 -0.217189 1.66149 35 37 34
0.177041 -0.220919 1.69003 36 38 35
0.189188 -0.224835 1.71999 37 38 35
0.192875 -0.218798 1.6738 37 39 35
0.202048 -0.219238 1.67717 36 37 34
0.206711 -0.214952 1.64438 36 36 33
0.227026 -0.226634 1.73375 36 36 33
0.226267 -0.217189 1.66149 36 37 34
0.241098 -0.222854 1.70483 37 37 34
0.243672 -0.217189 1.66149 37 38 35
0.261259 -0.224835 1.71999 37 37 34
0.263011 -0.218798 1.6738 36 37 33
0.279277 -0.224835 1.71999 35 36 33
0.288286 -0.224835 1.71999 35 36 33
0.287185 -0.217189 1.66149 36 36 34
0.306304 -0.224835 1.71999 36 36 34
0.307464 -0.219238 1.67717 37 38 35
0.321464 -0.222854 1.70483 38 39 36
0.321995 -0.217189 1.66149 37 38 35
0.336684 -0.22112 1.69157 36 37 34
0.344832 -0.220664 1.68808 37 38 35
0.360358 -0.224835 1.71999 38 39 36
0.378793 -0.230573 1.76388 37 38 36
0.368957 -0.219238 1.67717 37 38 35
0.390484 -0.226634 1.73375 37 38 35
0.402456 -0.228274 1.74629 37 38 35
0.405402 -0.224835 1.71999 37 38 35
0.41076 -0.222854 1.70483 37 38 35
0.431137 -0.228932 1.75133 36 38 34
0.435889 -0.226634 1.73375 36 37 34
0.44497 -0.226634 1.73375 37 38 34
0.450447 -0.224835 1.71999 37 38 35
0.455408 -0.222854 1.70483 36 37 34
0.459775 -0.220664 1.68808 35 37 33
0.477474 -0.224835 1.71999 36 37 34
0.47342 -0.218798 1.6738 36 38 35
0.486862 -0.220919 1.69003 36 38 34
0.517376 -0.230573 1.76388 36 38 34
0.508985 -0.222854 1.70483 36 37 34
0.53051 -0.228274 1.74629 36 37 33
0.545093 -0.230573 1.76388 36 37 34
0.544862 -0.226634 1.73375 36 37 34
0.56357 -0.230573 1.76388 36 37 33
0.558031 -0.224624 1.71838 36 37 34
0.567563 -0.224835 1.71999 35 37 33
0.59803 -0.233203 1.784 35 36 33
0.611177 -0.234662 1.79517 35 37 34
0.613704 -0.232063 1.77528 35 37 34
0.608429 -0.226634 1.73375 36 37 35
0.607211 -0.222854 1.70483 36 38 35
0.635269 -0.229773 1.75776 36 38 35
0.650899 -0.232063 1.77528 36 38 35
0.660197 -0.232063 1.77528 35 37 34
0.687428 -0.238278 1.82283 35 36 34
0.690262 -0.235983 1.80527 36 37 34
0.666037 -0.224624 1.71838 37 38 35
0.697391 -0.232063 1.77528 37 38 35
0.697157 -0.228932 1.75133 36 37 34
0.724009 -0.234662 1.79517 36 38 34
0.720631 -0.230573 1.76388 36 37 34
0.746996 -0.235983 1.80527 36 38 34
0.752218 -0.234662 1.79517 36 38 35
0.737134 -0.227118 1.73745 36 38 34
0.766226 -0.233203 1.784 35 37 34
0.759178 -0.228274 1.74629 35 37 33
0.770542 -0.228932 1.75133 35 37 33
0.809349 -0.237633 1.81789 35 37 33
0.791785 -0.229773 1.75776 35 38 34
0.854112 -0.245011 1.87433 35 38 34
0.822292 -0.233203 1.784 35 37 34
0.842441 -0.236232 1.80718 34 37 34
0.905484 -0.251089 1.92083 35 37 34
0.889225 -0.243871 1.86561 35 37 34
0.883809 -0.239751 1.8341 35 37 34
0.860367 -0.230882 1.76625 34 37 34
0.883856 -0.234662 1.79517 34 37 34
0.870121 -0.228584 1.74867 35 37 34
0.952791 -0.247695 1.89486 35 37 34
0.942775 -0.242564 1.85562 35 37 35
0.952495 -0.242564 1.85562 35 37 35
0.921949 -0.232414 1.77797 35 36 34
0.940272 -0.234662 1.79517 35 36 34
1.0275 -0.253893 1.94228 35 36 34
0.985189 -0.241051 1.84404 35 36 34
0.96848 -0.234662 1.79517 35 37 35
1.03219 -0.247695 1.89486 36 38 36
0.966714 -0.229773 1.75776 36 38 36
1.0163 -0.239281 1.8305 36 38 36
1.00609 -0.234662 1.79517 34 37 34
1.04314 -0.241051 1.84404 33 35 33
1.14184 -0.261438 2 33 36 33
1.15232 -0.261438 2 34 36 34
1.07212 -0.241051 1.84404 34 37 35
1.17327 -0.261438 2 34 36 35
1.18374 -0.261438 2 34 36 35
1.19422 -0.261438 2 34 37 35
1.15701 -0.251089 1.92083 34 37 35
1.21517 -0.261438 2 35 37 35
1.22564 -0.261438 2 34 37 34
1.12662 -0.238278 1.82283 33 36 34
1.19725 -0.251089 1.92083 34 36 33
-0.539114 -0.107637 0.85773 37 37 30
-0.551931 -0.111122 0.885502 37 37 31
-0.508558 -0.103257 0.822829 36 37 31
-0.578982 -0.118561 0.944781 37 38 33
-0.574034 -0.118561 0.944781 37 38 33
-0.550376 -0.114663 0.91372 37 37 33
-0.564137 -0.118561 0.944781 37 37 32
-0.559188 -0.118561 0.944781 37 37 33
