ply
format ascii 1.0
element vertex 1335
property float x
property float y
property float z
property uchar red
property uchar green
property uchar blue
end_header
-0.194276 -0.748059 1.76625 38 38 36
-0.193174 -0.781006 1.84404 36 37 35
-0.175774 -0.748059 1.76625 38 38 36
-0.164865 -0.740612 1.74867 39 39 37
-0.155706 -0.740612 1.74867 37 38 35
-0.150444 -0.760306 1.79517 36 37 34
-0.137387 -0.740612 1.74867 36 36 34
-0.126472 -0.73047 1.72472 37 37 34
-0.124119 -0.772022 1.82283 38 37 35
-0.112833 -0.760306 1.79517 38 38 35
-0.100751 -0.740612 1.74867 39 37 34
-0.0958778 -0.77527 1.8305 40 37 33
-0.0839861 -0.75457 1.78162 40 37 33
-0.0714365 -0.722047 1.70483 40 37 32
-0.062507 -0.722047 1.70483 40 37 33
-0.0568815 -0.766575 1.80997 39 36 32
-0.0496245 -0.80253 1.89486 41 38 34
-0.0366367 -0.740612 1.74867 42 40 36
-0.0271012 -0.73047 1.72472 41 39 35
-0.0190952 -0.772022 1.82283 40 38 34
-0.00912549 -0.737889 1.74224 38 38 34
0 -0.77527 1.8305 36 39 34
0.00954761 -0.772022 1.82283 36 39 34
0.0188054 -0.760306 1.79517 36 38 34
0.0277538 -0.748059 1.76625 36 39 34
0.036212 -0.732028 1.7284 37 39 35
0.0474013 -0.766575 1.80997 36 39 35
0.0568815 -0.766575 1.80997 36 39 35
0.0663618 -0.766575 1.80997 36 38 35
0.0781736 -0.790142 1.86561 36 38 34
0.0846245 -0.760306 1.79517 37 38 33
0.0912549 -0.737889 1.74224 38 38 33
0.0969158 -0.712421 1.68211 39 38 34
0.110482 -0.744464 1.75776 38 37 33
0.120266 -0.748059 1.76625 38 38 33
0.128228 -0.740612 1.74867 38 37 35
0.132428 -0.713879 1.68555 37 38 37
0.144848 -0.732028 1.7284 36 39 38
0.159846 -0.760306 1.79517 36 39 39
0.173857 -0.781006 1.84404 36 39 38
0.169662 -0.722047 1.70483 36 38 38
0.189605 -0.766575 1.80997 37 39 37
0.205206 -0.790142 1.86561 36 38 34
0.203528 -0.748059 1.76625 36 37 34
0.203057 -0.713879 1.68555 37 39 35
0.219012 -0.737889 1.74224 37 39 36
0.235068 -0.760306 1.79517 37 39 36
0.252703 -0.785908 1.85562 36 38 35
0.255967 -0.766575 1.80997 36 39 35
0.259035 -0.748059 1.76625 37 39 36
0.255505 -0.712421 1.68211 37 39 36
0.284408 -0.766575 1.80997 37 39 36
0.283934 -0.740612 1.74867 37 39 35
0.28908 -0.73047 1.72472 37 39 36
0.302253 -0.740612 1.74867 37 39 35
0.332238 -0.790142 1.86561 37 38 35
0.334166 -0.772022 1.82283 37 38 35
0.338498 -0.760306 1.79517 37 38 35
0.350769 -0.766575 1.80997 37 38 35
0.362809 -0.772022 1.82283 37 39 36
0.36973 -0.766575 1.80997 37 39 37
0.386349 -0.781006 1.84404 36 39 37
0.385511 -0.760306 1.79517 36 39 37
0.408212 -0.785908 1.85562 36 40 37
0.397804 -0.748059 1.76625 37 40 37
0.41372 -0.760306 1.79517 37 40 36
0.419068 -0.753021 1.77797 37 40 35
0.436092 -0.766575 1.80997 38 39 34
0.456809 -0.785908 1.85562 37 39 34
0.447926 -0.75457 1.78162 37 39 34
0.453312 -0.748059 1.76625 37 38 34
0.47738 -0.772022 1.82283 37 38 33
0.479539 -0.760306 1.79517 37 38 33
0.478754 -0.744464 1.75776 38 38 32
0.511912 -0.781006 1.84404 38 38 32
0.499568 -0.748059 1.76625 39 39 32
0.512194 -0.753021 1.77797 39 40 33
0.540888 -0.781006 1.84404 39 40 32
0.540374 -0.766575 1.80997 38 39 30
0.541243 -0.75457 1.78162 38 40 32
0.540391 -0.740612 1.74867 38 40 32
0.595494 -0.80253 1.89486 37 39 30
0.558709 -0.740612 1.74867 38 40 32
0.589231 -0.768474 1.81445 39 41 33
0.577028 -0.740612 1.74867 40 40 33
0.596008 -0.753021 1.77797 38 40 32
0.631757 -0.785908 1.85562 39 40 32
0.632793 -0.77527 1.8305 38 40 32
0.647134 -0.781006 1.84404 38 39 31
0.651969 -0.77527 1.8305 38 39 31
0.681435 -0.798565 1.8855 39 40 32
0.644476 -0.744464 1.75776 39 41 33
0.633999 -0.722047 1.70483 38 39 31
0.754243 -0.847059 2 37 38 30
0.672096 -0.744464 1.75776 37 38 30
0.752823 -0.822614 1.94228 38 38 32
0.736303 -0.793836 1.87433 38 38 33
0.728671 -0.77527 1.8305 37 38 33
0.755938 -0.793836 1.87433 38 39 35
0.788315 -0.817223 1.92955 38 39 35
0.750795 -0.768474 1.81445 38 39 35
0.742342 -0.750324 1.7716 38 39 35
0.795208 -0.793836 1.87433 38 39 35
0.824996 -0.813529 1.92083 38 39 35
0.808955 -0.7881 1.86079 37 39 35
0.779459 -0.750324 1.7716 36 39 34
0.811546 -0.772022 1.82283 35 39 34
0.900901 -0.847059 2 35 39 34
0.800991 -0.744464 1.75776 36 40 35
0.921852 -0.847059 2 37 40 36
0.890217 -0.808799 1.90967 36 39 36
0.900219 -0.808799 1.90967 35 38 34
0.910222 -0.808799 1.90967 35 38 34
0.963754 -0.847059 2 36 39 36
0.906419 -0.7881 1.86079 37 39 36
0.945728 -0.813529 1.92083 38 40 37
0.955788 -0.813529 1.92083 37 40 36
0.902661 -0.760306 1.79517 37 39 35
0.962716 -0.80253 1.89486 37 39 35
0.935665 -0.772022 1.82283 37 40 36
1.03708 -0.847059 2 38 41 37
1.00024 -0.808799 1.90967 38 41 37
1.00242 -0.80253 1.89486 37 40 37
0.973856 -0.772022 1.82283 36 39 36
0.96848 -0.760306 1.79517 36 39 36
1.02101 -0.793836 1.87433 36 39 36
0.966714 -0.744464 1.75776 37 39 37
1.11041 -0.847059 2 37 40 37
1.12089 -0.847059 2 36 40 37
0.964393 -0.722047 1.70483 36 39 36
1.14184 -0.847059 2 36 39 36
1.27033 -0.933812 2.20483 35 39 36
1.25346 -0.913112 2.15596 35 38 36
1.0531 -0.760306 1.79517 35 38 35
1.35844 -0.972071 2.29517 36 38 36
1.19422 -0.847059 2 36 39 36
1.08131 -0.760306 1.79517 37 39 37
0.911376 -0.635294 1.5 36 39 36
1.22564 -0.847059 2 36 39 36
0.92709 -0.635294 1.5 36 39 36
1.2466 -0.847059 2 36 39 36
-0.499791 -0.332619 0.795167 43 38 28
-0.503112 -0.337643 0.807177 42 39 29
-0.515521 -0.348903 0.834095 40 38 31
-0.501224 -0.342126 0.817894 38 37 33
-0.523003 -0.360069 0.860791 37 37 34
-0.508406 -0.353063 0.844042 37 37 35
-0.503985 -0.353063 0.844042 38 37 35
-0.522032 -0.368943 0.882004 38 38 35
-0.5214 -0.371786 0.8888 38 38 35
-0.516744 -0.371786 0.8888 37 37 35
-0.471236 -0.342126 0.817894 36 35 33
-0.507434 -0.371786 0.8888 35 36 34
-0.482461 -0.356762 0.852883 36 38 37
-0.482425 -0.360069 0.860791 36 38 38
-0.4541 -0.342126 0.817894 36 37 37
-0.513249 -0.390372 0.933233 34 36 36
-0.476277 -0.365735 0.874334 36 37 37
-0.471697 -0.365735 0.874334 37 36 37
-0.463682 -0.363045 0.867904 39 36 37
-0.43086 -0.340686 0.814453 39 36 37
-0.428396 -0.342126 0.817894 39 36 37
-0.450044 -0.363045 0.867904 39 36 37
-0.475035 -0.387115 0.925446 38 37 37
-0.433321 -0.356762 0.852883 38 38 38
-0.452698 -0.376598 0.900304 38 38 37
-0.445275 -0.374322 0.894863 38 37 36
-0.445685 -0.378651 0.905214 37 37 36
-0.422769 -0.363045 0.867904 38 37 36
-0.451302 -0.391759 0.936549 38 38 37
-0.443062 -0.388833 0.929553 39 38 38
-0.471402 -0.418301 1 38 38 37
-0.450559 -0.404298 0.966525 38 37 36
-0.441393 -0.400574 0.957621 38 39 36
-0.438643 -0.402654 0.962595 38 40 35
-0.45045 -0.418301 1 37 40 35
-0.428559 -0.402654 0.962595 37 40 35
-0.42443 -0.403521 0.964669 36 39 34
-0.434737 -0.418301 1 35 38 34
-0.429499 -0.418301 1 35 38 34
-0.439251 -0.43308 1.03533 36 38 34
-0.433828 -0.43308 1.03533 38 38 35
-0.413786 -0.418301 1 39 39 36
-0.42383 -0.433947 1.03741 38 38 36
-0.419337 -0.434923 1.03974 37 37 35
-0.416143 -0.43729 1.0454 37 37 34
-0.392835 -0.418301 1 36 36 33
-0.418282 -0.451416 1.07917 36 36 33
-0.419517 -0.458951 1.09718 38 36 33
-0.393103 -0.436028 1.04238 38 36 33
-0.371884 -0.418301 1 37 36 32
-0.366646 -0.418301 1 39 37 34
-0.425439 -0.492411 1.17717 40 39 36
-0.404034 -0.474514 1.13439 38 39 37
-0.405663 -0.483538 1.15596 37 38 37
-0.38204 -0.462279 1.10514 37 37 36
-0.398165 -0.489203 1.1695 36 36 36
-0.416422 -0.519629 1.24224 37 36 36
-0.385913 -0.489203 1.1695 37 36 36
-0.379788 -0.489203 1.1695 39 37 36
-0.373662 -0.489203 1.1695 40 37 36
-0.372579 -0.495915 1.18555 39 37 36
-0.383889 -0.519629 1.24224 40 37 36
-0.371244 -0.511178 1.22203 39 37 36
-0.359708 -0.503982 1.20483 38 36 35
-0.379894 -0.541769 1.29517 38 37 35
-0.36478 -0.529673 1.26625 38 39 36
-0.366326 -0.541769 1.29517 37 38 36
-0.334465 -0.503982 1.20483 36 37 35
-0.379912 -0.583472 1.39486 36 37 35
-0.387636 -0.607007 1.45113 35 36 35
-0.321706 -0.513841 1.2284 36 37 36
-0.361794 -0.589664 1.40967 36 38 36
-0.340821 -0.567055 1.35562 36 38 36
-0.31884 -0.541769 1.29517 37 38 37
-0.375314 -0.651594 1.55772 37 38 37
-0.353551 -0.627451 1.5 37 38 38
-0.358996 -0.651594 1.55772 36 38 37
-0.314158 -0.583472 1.39486 35 36 36
-0.35311 -0.67143 1.60514 36 37 36
-0.322124 -0.627451 1.5 36 38 37
-0.314268 -0.627451 1.5 37 38 36
-0.320801 -0.656919 1.57045 37 39 36
-0.298554 -0.627451 1.5 36 38 35
-0.367222 -0.792622 1.89486 36 37 34
-0.328517 -0.728779 1.74224 37 37 35
-0.291545 -0.665238 1.59033 37 38 36
-0.279673 -0.656919 1.57045 38 38 37
-0.294676 -0.713133 1.70483 37 37 37
-0.292016 -0.728779 1.74224 36 37 36
-0.276817 -0.713133 1.70483 36 36 36
-0.267887 -0.713133 1.70483 36 37 35
-0.290071 -0.798814 1.90967 36 37 35
-0.282985 -0.807133 1.92955 36 37 35
-0.246388 -0.728779 1.74224 37 38 35
-0.253408 -0.77837 1.86079 37 37 35
-0.246897 -0.788707 1.8855 36 36 34
-0.21431 -0.713133 1.70483 37 37 35
-0.216263 -0.75092 1.79517 37 38 35
-0.200761 -0.728779 1.74224 38 38 36
-0.192343 -0.731469 1.74867 38 38 36
-0.189605 -0.757111 1.80997 37 37 35
-0.173384 -0.728779 1.74224 37 37 35
-0.166523 -0.738823 1.76625 38 38 36
-0.157271 -0.738823 1.76625 38 39 36
-0.14454 -0.721452 1.72472 37 39 35
-0.142204 -0.757111 1.80997 38 38 35
-0.133666 -0.76249 1.82283 39 39 35
-0.117439 -0.721452 1.72472 40 39 36
-0.10991 -0.731469 1.74867 38 38 35
-0.101764 -0.738823 1.76625 39 37 33
-0.0905301 -0.722991 1.7284 40 37 33
-0.0853223 -0.757111 1.80997 41 38 34
-0.0732733 -0.731469 1.74867 40 37 33
-0.0647588 -0.738823 1.76625 40 37 33
-0.0555075 -0.738823 1.76625 39 37 33
-0.0462563 -0.738823 1.76625 40 38 34
-0.0376109 -0.75092 1.79517 41 39 35
-0.0267887 -0.713133 1.70483 41 39 35
-0.0185025 -0.738823 1.76625 40 38 35
-0.00925126 -0.738823 1.76625 38 38 34
0 -0.721452 1.72472 36 39 34
0.00915917 -0.731469 1.74867 36 39 34
0.0185025 -0.738823 1.76625 36 39 35
0.0284408 -0.757111 1.80997 36 39 35
0.0357183 -0.713133 1.70483 37 39 35
0.0462563 -0.738823 1.76625 36 39 35
0.0555075 -0.738823 1.76625 36 38 35
0.0617999 -0.705065 1.68555 35 37 34
0.075842 -0.757111 1.80997 36 38 34
0.0814771 -0.722991 1.7284 37 38 34
0.0971933 -0.776205 1.85562 38 38 34
0.0982252 -0.713133 1.70483 39 38 34
0.113763 -0.757111 1.80997 38 38 34
0.117439 -0.721452 1.72472 39 38 35
0.129518 -0.738823 1.76625 39 38 36
0.146576 -0.780387 1.86561 38 39 37
0.141257 -0.705065 1.68555 36 39 38
0.169432 -0.795951 1.90282 37 39 38
0.169249 -0.75092 1.79517 36 39 38
0.173384 -0.728779 1.74224 36 38 38
0.188054 -0.75092 1.79517 37 39 37
0.202833 -0.771364 1.84404 37 38 35
0.201502 -0.731469 1.74867 36 38 35
0.212779 -0.738823 1.76625 38 40 36
0.21982 -0.731469 1.74867 37 39 36
0.242983 -0.776205 1.85562 38 40 37
0.246487 -0.757111 1.80997 36 38 35
0.251958 -0.745255 1.78162 36 38 35
0.265447 -0.757111 1.80997 37 39 36
0.278046 -0.765699 1.8305 37 39 36
0.271012 -0.721452 1.72472 36 39 35
0.280643 -0.722991 1.7284 36 38 34
0.303368 -0.757111 1.80997 36 38 35
0.294676 -0.713133 1.70483 37 38 35
0.324619 -0.76249 1.82283 37 39 35
0.320571 -0.731469 1.74867 37 39 35
0.338498 -0.75092 1.79517 38 39 35
0.338889 -0.731469 1.74867 37 39 35
0.357303 -0.75092 1.79517 37 39 36
0.366706 -0.75092 1.79517 36 39 36
0.376109 -0.75092 1.79517 36 39 36
0.375526 -0.731469 1.74867 36 39 36
0.384685 -0.731469 1.74867 36 39 36
0.393844 -0.731469 1.74867 36 39 37
0.448728 -0.814461 1.94707 37 40 36
0.41993 -0.745255 1.78162 38 40 35
0.449498 -0.780387 1.86561 38 39 34
0.430481 -0.731469 1.74867 37 38 33
0.455052 -0.757111 1.80997 37 38 33
0.467833 -0.76249 1.82283 36 37 33
0.466589 -0.745255 1.78162 37 38 33
0.483493 -0.757111 1.80997 38 38 33
0.505405 -0.776205 1.85562 38 38 33
0.502453 -0.757111 1.80997 38 38 32
0.499568 -0.738823 1.76625 39 39 33
0.508819 -0.738823 1.76625 39 40 33
0.505889 -0.721452 1.72472 38 39 31
0.535955 -0.75092 1.79517 37 39 30
0.560205 -0.771364 1.84404 38 40 32
0.573441 -0.776205 1.85562 39 40 33
0.595494 -0.792622 1.89486 37 39 30
0.620571 -0.812459 1.94228 38 39 31
0.582969 -0.75092 1.79517 39 41 33
0.608499 -0.771364 1.84404 40 40 34
0.637861 -0.795951 1.90282 38 40 33
0.616216 -0.757111 1.80997 40 40 33
0.655044 -0.792622 1.89486 39 41 34
0.635177 -0.757111 1.80997 38 39 32
0.671559 -0.788707 1.8855 37 39 32
0.661557 -0.765699 1.8305 38 40 32
0.694743 -0.792622 1.89486 38 40 33
0.680732 -0.765699 1.8305 38 40 33
0.706851 -0.784035 1.87433 39 39 32
0.693772 -0.758987 1.81445 38 39 32
0.714745 -0.771364 1.84404 38 38 32
0.74069 -0.788707 1.8855 38 38 33
0.746121 -0.784035 1.87433 38 38 34
0.714504 -0.741061 1.7716 38 39 35
0.741291 -0.758987 1.81445 38 39 35
0.769969 -0.77837 1.86079 38 39 35
0.808529 -0.807133 1.92955 38 39 35
0.76162 -0.75092 1.79517 38 39 35
0.782904 -0.76249 1.82283 38 39 34
0.780426 -0.75092 1.79517 37 39 34
0.789828 -0.75092 1.79517 36 39 34
0.799231 -0.75092 1.79517 36 39 34
0.821094 -0.76249 1.82283 35 39 34
0.847941 -0.77837 1.86079 35 39 34
0.880215 -0.798814 1.90967 36 39 35
0.932328 -0.836601 2 36 40 36
0.821294 -0.728779 1.74224 36 39 36
0.991013 -0.869717 2.07917 36 39 36
0.87838 -0.76249 1.82283 36 39 36
0.930227 -0.798814 1.90967 37 39 37
0.945728 -0.803486 1.92083 37 39 36
0.995181 -0.836601 2 37 39 35
0.965849 -0.803486 1.92083 37 39 35
1.01613 -0.836601 2 37 39 36
0.921467 -0.75092 1.79517 36 39 35
1.08393 -0.874388 2.09033 36 39 35
0.992491 -0.792622 1.89486 36 39 35
1.05803 -0.836601 2 35 38 35
0.973856 -0.76249 1.82283 36 38 35
1.07899 -0.836601 2 36 39 36
1.08946 -0.836601 2 36 39 36
1.03082 -0.784035 1.87433 37 39 37
1.04064 -0.784035 1.87433 36 39 37
1.00609 -0.75092 1.79517 37 40 37
1.13136 -0.836601 2 36 39 36
1.25878 -0.922283 2.20483 35 39 36
1.01275 -0.735273 1.75776 35 39 36
0.945155 -0.680017 1.62567 35 38 36
1.17327 -0.836601 2 35 38 36
1.06251 -0.75092 1.79517 36 39 36
1.31652 -0.922283 2.20483 37 39 37
1.29863 -0.901839 2.15596 37 40 37
1.33962 -0.922283 2.20483 37 39 36
1.45504 -0.993186 2.37433 37 39 36
1.10952 -0.75092 1.79517 37 39 36
1.14939 -0.771364 1.84404 36 40 36
-0.499791 -0.328461 0.795167 43 38 28
-0.450042 -0.298252 0.722035 42 39 28
-0.545131 -0.364331 0.882004 40 38 31
-0.472853 -0.318726 0.771599 38 37 33
-0.476346 -0.323848 0.784 37 37 34
-0.486201 -0.333422 0.807177 38 38 35
-0.481973 -0.333422 0.807177 38 38 35
-0.470636 -0.328461 0.795167 38 38 35
-0.500329 -0.352302 0.852883 38 37 35
-0.48111 -0.341821 0.82751 37 36 35
-0.512089 -0.367138 0.8888 36 36 34
-0.495503 -0.358507 0.867904 36 37 35
-0.482461 -0.352302 0.852883 37 39 38
-0.482425 -0.355569 0.860791 36 38 38
-0.499855 -0.37189 0.900304 36 38 38
-0.469059 -0.352302 0.852883 36 38 38
-0.445532 -0.337849 0.817894 37 39 38
-0.488356 -0.373918 0.905214 38 38 38
-0.485994 -0.375757 0.909666 39 37 37
-0.459136 -0.358507 0.867904 39 37 37
-0.474132 -0.373918 0.905214 40 37 38
-0.444769 -0.354304 0.85773 39 37 37
-0.496979 -0.399934 0.968195 38 37 37
-0.457414 -0.37189 0.900304 38 38 37
-0.465341 -0.382276 0.925446 38 39 37
-0.452641 -0.375757 0.909666 37 37 36
-0.45948 -0.385492 0.933233 36 36 35
-0.422769 -0.358507 0.867904 37 37 36
-0.440301 -0.377432 0.91372 37 38 36
-0.460684 -0.399244 0.966525 37 37 36
-0.471402 -0.413072 1 37 37 36
-0.449694 -0.398477 0.964669 38 38 37
-0.430151 -0.385492 0.933233 38 39 36
-0.455688 -0.413072 1 37 39 35
-0.45045 -0.413072 1 37 39 35
-0.427521 -0.396658 0.960263 36 39 34
-0.439975 -0.413072 1 35 38 34
-0.419377 -0.398477 0.964669 35 37 32
-0.429499 -0.413072 1 34 37 32
-0.424261 -0.413072 1 35 37 32
-0.402373 -0.396658 0.960263 37 37 34
-0.45729 -0.456501 1.10514 38 37 35
-0.408548 -0.413072 1 38 38 36
-0.40331 -0.413072 1 38 38 36
-0.412962 -0.428523 1.03741 38 38 36
-0.425984 -0.447929 1.08438 37 37 35
-0.405192 -0.431824 1.0454 37 37 34
-0.414624 -0.447929 1.08438 38 37 34
-0.443936 -0.486256 1.17717 39 37 34
-0.415764 -0.461813 1.118 38 37 33
-0.415918 -0.468583 1.13439 39 37 34
-0.377814 -0.431824 1.0454 38 38 35
-0.404034 -0.468583 1.13439 37 38 36
-0.382634 -0.450387 1.09033 37 38 37
-0.379289 -0.453214 1.09718 37 38 37
-0.393554 -0.477494 1.15596 38 38 37
-0.409649 -0.504788 1.22203 38 37 37
-0.377625 -0.472713 1.14438 38 37 37
-0.391261 -0.497683 1.20483 39 37 36
-0.399807 -0.51689 1.25133 39 37 36
-0.367537 -0.483088 1.1695 38 37 36
-0.36637 -0.489716 1.18555 39 37 36
-0.373178 -0.507418 1.2284 39 38 36
-0.386678 -0.534997 1.29517 39 37 36
-0.379894 -0.534997 1.29517 38 37 35
-0.347087 -0.497683 1.20483 37 37 35
-0.340776 -0.497683 1.20483 36 37 35
-0.391328 -0.582293 1.40967 36 38 35
-0.360293 -0.546423 1.32283 37 38 36
-0.385274 -0.595767 1.44228 36 37 35
-0.3653 -0.576179 1.39486 35 37 35
-0.341475 -0.549592 1.3305 36 37 35
-0.35441 -0.582293 1.40967 36 38 36
-0.351922 -0.590508 1.42955 36 38 36
-0.336076 -0.576179 1.39486 36 38 36
-0.353551 -0.619608 1.5 37 38 37
-0.345695 -0.619608 1.5 37 38 38
-0.337838 -0.619608 1.5 36 38 37
-0.375042 -0.704219 1.70483 35 37 36
-0.337253 -0.648707 1.57045 36 37 37
-0.340596 -0.671517 1.62567 37 38 36
-0.320801 -0.648707 1.57045 36 38 34
-0.310042 -0.643449 1.55772 36 37 34
-0.30435 -0.648707 1.57045 36 37 34
-0.306537 -0.671517 1.62567 37 37 34
-0.298022 -0.671517 1.62567 37 38 36
-0.313031 -0.726082 1.75776 38 38 36
-0.301141 -0.719669 1.74224 37 38 37
-0.279824 -0.689624 1.6695 38 38 37
-0.27108 -0.689624 1.6695 37 38 37
-0.267887 -0.704219 1.70483 36 37 36
-0.290071 -0.788829 1.90967 36 37 35
-0.250028 -0.704219 1.70483 37 37 35
-0.260785 -0.761722 1.84404 37 38 35
-0.236107 -0.716163 1.73375 37 37 35
-0.226325 -0.713954 1.7284 37 37 35
-0.21681 -0.712434 1.72472 37 37 35
-0.212779 -0.729588 1.76625 38 38 36
-0.201502 -0.722326 1.74867 38 38 36
-0.197457 -0.741533 1.79517 37 37 35
-0.185025 -0.729588 1.76625 36 37 34
-0.169662 -0.704219 1.70483 37 38 35
-0.169249 -0.741533 1.79517 37 38 35
-0.15864 -0.735939 1.78162 38 39 36
-0.152762 -0.752959 1.82283 38 39 35
-0.135795 -0.713954 1.7284 38 38 35
-0.132724 -0.747648 1.80997 39 39 36
-0.124119 -0.752959 1.82283 39 38 35
-0.105726 -0.694831 1.68211 38 38 34
-0.0995831 -0.713954 1.7284 39 37 34
-0.0946563 -0.746494 1.80718 40 37 34
-0.0839861 -0.735939 1.78162 41 38 34
-0.0722699 -0.712434 1.72472 40 38 34
-0.0610031 -0.687276 1.66382 40 38 34
-0.0559907 -0.735939 1.78162 40 37 34
-0.0446478 -0.704219 1.70483 40 38 34
-0.037005 -0.729588 1.76625 40 38 34
-0.0271012 -0.712434 1.72472 40 38 35
-0.0176837 -0.6973 1.68808 39 38 35
-0.00905301 -0.713954 1.7284 37 38 34
0 -0.704219 1.70483 36 38 34
0.00912549 -0.719669 1.74224 36 39 34
0.0183183 -0.722326 1.74867 37 39 35
0.0274775 -0.722326 1.74867 37 39 35
0.0366367 -0.722326 1.74867 38 40 36
0.0441428 -0.696252 1.68555 37 40 36
0.0542024 -0.712434 1.72472 37 39 35
0.0647588 -0.729588 1.76625 37 38 35
0.07401 -0.729588 1.76625 36 38 34
0.0839861 -0.735939 1.78162 36 37 34
0.0915917 -0.722326 1.74867 37 37 34
0.10038 -0.719669 1.74224 38 37 34
0.107155 -0.704219 1.70483 38 37 34
0.120266 -0.729588 1.76625 39 38 35
0.125014 -0.704219 1.70483 39 39 36
0.139689 -0.734428 1.77797 37 39 37
0.150444 -0.741533 1.79517 35 38 37
0.157271 -0.729588 1.76625 36 39 38
0.160732 -0.704219 1.70483 36 39 38
0.189365 -0.786002 1.90282 37 39 38
0.185025 -0.729588 1.76625 37 39 37
0.199085 -0.747648 1.80997 36 38 35
0.208566 -0.747648 1.80997 36 38 35
0.210661 -0.722326 1.74867 37 39 35
0.21431 -0.704219 1.70483 37 39 36
0.228979 -0.722326 1.74867 37 39 35
0.244471 -0.741533 1.79517 36 38 35
0.241098 -0.704219 1.70483 36 38 35
0.26129 -0.735939 1.78162 37 39 36
0.285869 -0.777403 1.882 37 39 36
0.282082 -0.741533 1.79517 37 39 35
0.28289 -0.719669 1.74224 37 39 35
0.309079 -0.761722 1.84404 37 39 35
0.305291 -0.729588 1.76625 37 39 36
0.317281 -0.735939 1.78162 38 39 36
0.34201 -0.770633 1.86561 38 39 36
0.335944 -0.735939 1.78162 38 39 36
0.353261 -0.752959 1.82283 38 39 36
0.357303 -0.741533 1.79517 37 38 35
0.36973 -0.747648 1.80997 36 39 35
0.373271 -0.735939 1.78162 36 39 36
0.375526 -0.722326 1.74867 36 38 36
0.408212 -0.766503 1.85562 35 38 35
0.404317 -0.741533 1.79517 36 38 35
0.431965 -0.774235 1.87433 36 38 35
0.412163 -0.722326 1.74867 37 39 34
0.444301 -0.761722 1.84404 38 39 34
0.441928 -0.741533 1.79517 38 39 34
0.458285 -0.752959 1.82283 38 39 34
0.464532 -0.747648 1.80997 38 39 34
0.488585 -0.770633 1.86561 38 39 34
0.486928 -0.752959 1.82283 38 38 34
0.488941 -0.741533 1.79517 39 38 33
0.5179 -0.770633 1.86561 38 38 33
0.515571 -0.752959 1.82283 39 38 32
0.528364 -0.757613 1.8341 38 38 32
0.534666 -0.752959 1.82283 37 38 31
0.522073 -0.722326 1.74867 37 38 30
0.566759 -0.770633 1.86561 38 39 32
0.569864 -0.761722 1.84404 38 39 32
0.535774 -0.704219 1.70483 36 38 30
0.605419 -0.782715 1.89486 38 39 32
0.59884 -0.761722 1.84404 39 40 33
0.608499 -0.761722 1.84404 39 40 33
0.618158 -0.761722 1.84404 38 39 32
0.631757 -0.766503 1.85562 39 40 33
0.674493 -0.805955 1.95113 39 40 34
0.642381 -0.756128 1.8305 38 40 34
0.639385 -0.741533 1.79517 37 39 33
0.687694 -0.786002 1.90282 38 39 33
0.665261 -0.749499 1.81445 37 40 33
0.685769 -0.761722 1.84404 38 40 33
0.670509 -0.734428 1.77797 39 40 34
0.720939 -0.778848 1.8855 38 39 32
0.709496 -0.756128 1.8305 37 38 32
0.762997 -0.802303 1.94228 37 38 33
0.714607 -0.741533 1.79517 37 37 33
0.764218 -0.782715 1.89486 37 38 34
0.747847 -0.756128 1.8305 38 39 35
0.798422 -0.797044 1.92955 37 38 34
0.760299 -0.749499 1.81445 37 38 34
0.799946 -0.778848 1.8855 37 38 34
0.805025 -0.774235 1.87433 37 38 33
0.78881 -0.749499 1.81445 37 39 34
0.848955 -0.797044 1.92955 37 40 35
0.820991 -0.761722 1.84404 37 40 35
0.808634 -0.741533 1.79517 37 40 35
0.847941 -0.76864 1.86079 36 40 35
0.849967 -0.761722 1.84404 36 40 36
0.812168 -0.719669 1.74224 37 40 37
0.905484 -0.793442 1.92083 36 40 37
0.878943 -0.761722 1.84404 36 39 36
0.929808 -0.797044 1.92955 36 39 36
0.930227 -0.788829 1.90967 36 39 36
0.907919 -0.761722 1.84404 37 39 36
1.03457 -0.858845 2.07917 37 40 36
1.05852 -0.869573 2.10514 37 40 36
0.983895 -0.799934 1.93655 36 39 35
0.980239 -0.788829 1.90967 36 38 35
1.03708 -0.826144 2 36 39 35
1.04756 -0.826144 2 36 39 35
0.991555 -0.774235 1.87433 36 38 35
1.06851 -0.826144 2 35 38 35
1.02227 -0.782715 1.89486 35 38 35
0.977883 -0.741533 1.79517 36 38 35
1.09994 -0.826144 2 36 38 36
1.197 -0.890566 2.15596 36 38 36
1.12089 -0.826144 2 36 39 37
1.13136 -0.826144 2 36 40 37
1.14184 -0.826144 2 36 40 37
1.06246 -0.761722 1.84404 36 40 37
1.16279 -0.826144 2 36 39 36
1.00011 -0.704219 1.70483 36 39 36
1.18374 -0.826144 2 37 39 36
1.07191 -0.741533 1.79517 37 40 37
1.129 -0.774235 1.87433 37 40 37
1.09072 -0.741533 1.79517 36 39 36
1.22564 -0.826144 2 36 39 35
1.23612 -0.826144 2 36 39 35
1.37427 -0.910755 2.20483 36 39 36
-0.524259 -0.34018 0.834095 42 37 27
-0.472311 -0.309048 0.757762 41 38 27
-0.545131 -0.359719 0.882004 39 37 30
-0.501224 -0.333572 0.817894 38 37 32
-0.49694 -0.333572 0.817894 38 38 35
-0.478966 -0.324303 0.795167 39 38 36
-0.494113 -0.337494 0.82751 38 38 35
-0.504797 -0.347843 0.852883 37 37 34
-0.452646 -0.314692 0.771599 36 36 34
-0.47552 -0.333572 0.817894 36 36 34
-0.495951 -0.351068 0.860791 38 37 35
-0.466952 -0.333572 0.817894 37 38 36
-0.486934 -0.351068 0.860791 36 39 37
-0.498123 -0.362491 0.8888 36 38 37
-0.468617 -0.344237 0.844042 36 39 37
-0.497839 -0.369185 0.905214 37 39 38
-0.476277 -0.356591 0.874334 38 39 38
-0.508356 -0.384304 0.942284 39 39 38
-0.467118 -0.356591 0.874334 39 37 37
-0.481229 -0.371001 0.909666 39 37 37
-0.463808 -0.361146 0.885502 40 37 37
-0.464024 -0.364964 0.894863 38 37 37
-0.477143 -0.379112 0.929553 38 37 37
-0.472275 -0.379112 0.929553 38 38 37
-0.455167 -0.369185 0.905214 38 38 37
-0.437967 -0.358973 0.880174 38 38 36
-0.443267 -0.367183 0.900304 36 37 35
-0.456207 -0.381965 0.936549 37 37 35
-0.433836 -0.367183 0.900304 36 37 35
-0.443062 -0.379112 0.929553 36 37 35
-0.439928 -0.380613 0.933233 37 38 36
-0.43504 -0.380613 0.933233 38 39 37
-0.428455 -0.379112 0.929553 38 39 36
-0.423587 -0.379112 0.929553 36 38 34
-0.45045 -0.407843 1 36 38 34
-0.429483 -0.393433 0.964669 36 38 34
-0.439975 -0.407843 1 35 37 33
-0.450998 -0.423099 1.03741 34 36 31
-0.445565 -0.423099 1.03741 34 36 31
-0.408392 -0.392588 0.962595 34 35 31
-0.419024 -0.407843 1 36 36 33
-0.399166 -0.393433 0.964669 37 37 34
-0.440892 -0.440131 1.07917 38 37 35
-0.431722 -0.436574 1.07045 38 38 36
-0.413891 -0.42405 1.03974 38 38 36
-0.392835 -0.407843 1 38 38 35
-0.371171 -0.390559 0.957621 38 38 35
-0.397553 -0.42405 1.03974 39 39 35
-0.393103 -0.425127 1.04238 39 38 35
-0.388765 -0.426358 1.0454 39 38 34
-0.419584 -0.466729 1.14438 38 37 34
-0.394056 -0.444685 1.09033 36 37 34
-0.388345 -0.444685 1.09033 36 38 36
-0.385036 -0.447477 1.09718 36 37 36
-0.376923 -0.444685 1.09033 37 38 37
-0.393554 -0.47145 1.15596 38 39 38
-0.351603 -0.427776 1.04887 38 38 37
-0.397572 -0.491383 1.20483 38 38 37
-0.358886 -0.450722 1.10514 38 37 36
-0.384951 -0.491383 1.20483 38 37 36
-0.36328 -0.47145 1.15596 38 37 35
-0.357226 -0.47145 1.15596 39 38 36
-0.373178 -0.500995 1.2284 39 38 36
-0.359708 -0.491383 1.20483 39 38 36
-0.397624 -0.552878 1.35562 37 37 35
-0.37311 -0.528225 1.29517 36 36 34
-0.358147 -0.516431 1.26625 35 37 34
-0.341008 -0.500995 1.2284 36 38 36
-0.369223 -0.552878 1.35562 36 37 35
-0.372606 -0.568885 1.39486 36 37 36
-0.339191 -0.528225 1.29517 36 37 35
-0.372434 -0.591832 1.45113 35 37 35
-0.334506 -0.542635 1.3305 35 37 35
-0.369265 -0.611765 1.5 35 37 35
-0.378381 -0.640496 1.57045 35 37 36
-0.336947 -0.583034 1.42955 35 37 36
-0.329459 -0.583034 1.42955 37 38 38
-0.350837 -0.635304 1.55772 38 39 39
-0.357626 -0.663017 1.62567 36 38 37
-0.349111 -0.663017 1.62567 36 37 36
-0.346943 -0.675371 1.65596 36 37 35
-0.318201 -0.635304 1.55772 36 37 34
-0.329596 -0.675371 1.65596 36 38 35
-0.315052 -0.663017 1.62567 37 38 35
-0.321464 -0.695304 1.70483 37 38 35
-0.298022 -0.663017 1.62567 38 39 36
-0.324619 -0.743428 1.82283 38 38 37
-0.301141 -0.71056 1.74224 37 37 36
-0.292016 -0.71056 1.74224 37 37 36
-0.263962 -0.663017 1.62567 37 38 37
-0.300073 -0.778844 1.90967 37 38 36
-0.26335 -0.707098 1.73375 36 37 36
-0.255514 -0.71056 1.74224 37 37 35
-0.23255 -0.670651 1.64438 37 38 36
-0.221388 -0.663017 1.62567 37 38 36
-0.231281 -0.720353 1.76625 38 38 36
-0.240059 -0.778844 1.90967 37 38 35
-0.209886 -0.71056 1.74224 37 38 36
-0.200761 -0.71056 1.74224 37 38 35
-0.189708 -0.703416 1.72472 37 37 35
-0.18251 -0.71056 1.74224 37 38 36
-0.175774 -0.720353 1.76625 39 40 37
-0.167972 -0.726623 1.78162 38 39 36
-0.155133 -0.71056 1.74224 38 39 36
-0.141257 -0.687439 1.68555 37 38 35
-0.136882 -0.71056 1.74224 37 38 35
-0.129518 -0.720353 1.76625 38 38 35
-0.116084 -0.695304 1.70483 38 38 35
-0.108405 -0.703416 1.72472 38 38 35
-0.105024 -0.743428 1.82283 39 38 35
-0.0925126 -0.720353 1.76625 40 38 34
-0.0846245 -0.732147 1.79517 42 39 35
-0.0732733 -0.713182 1.74867 41 39 35
-0.0647588 -0.720353 1.76625 41 38 35
-0.0547529 -0.71056 1.74224 39 37 33
-0.0462563 -0.720353 1.76625 39 37 33
-0.0384265 -0.748023 1.8341 39 38 34
-0.0279954 -0.726623 1.78162 39 38 34
-0.0188054 -0.732147 1.79517 38 38 34
-0.00915917 -0.713182 1.74867 37 37 33
0 -0.726623 1.78162 35 37 32
0.00933178 -0.726623 1.78162 36 37 33
0.0186636 -0.726623 1.78162 37 38 35
0.0279954 -0.726623 1.78162 37 39 35
0.0357183 -0.695304 1.70483 38 40 36
0.0480331 -0.748023 1.8341 38 40 37
0.0572856 -0.743428 1.82283 38 40 36
0.0644476 -0.716891 1.75776 37 39 35
0.0714365 -0.695304 1.70483 37 38 34
0.081177 -0.70232 1.72203 36 36 32
0.0933178 -0.726623 1.78162 36 36 33
0.10343 -0.732147 1.79517 37 37 34
0.112833 -0.732147 1.79517 38 38 35
0.120266 -0.720353 1.76625 40 39 36
0.129518 -0.720353 1.76625 39 39 36
0.136882 -0.71056 1.74224 37 38 37
0.146547 -0.713182 1.74867 36 39 37
0.151803 -0.695304 1.70483 36 39 38
0.164865 -0.713182 1.74867 36 39 38
0.178652 -0.732147 1.79517 37 39 39
0.190952 -0.743428 1.82283 37 39 37
0.192343 -0.713182 1.74867 37 39 35
0.205299 -0.726623 1.78162 37 38 35
0.212779 -0.720353 1.76625 37 38 35
0.227526 -0.738184 1.80997 37 39 35
0.228979 -0.713182 1.74867 36 37 34
0.248238 -0.743428 1.82283 36 37 34
0.257785 -0.743428 1.82283 36 38 34
0.247199 -0.687439 1.68555 37 38 35
0.268286 -0.720353 1.76625 37 39 35
0.276204 -0.716891 1.75776 37 39 35
0.280046 -0.703416 1.72472 37 39 36
0.29604 -0.720353 1.76625 37 39 36
0.301141 -0.71056 1.74224 38 40 36
0.307147 -0.703416 1.72472 38 39 36
0.305016 -0.678577 1.66382 38 38 35
0.347714 -0.75208 1.84404 38 39 35
0.342296 -0.720353 1.76625 38 39 36
0.362809 -0.743428 1.82283 37 38 35
0.379054 -0.7568 1.85562 36 38 35
0.366367 -0.713182 1.74867 36 39 36
0.366112 -0.695304 1.70483 36 38 35
0.384685 -0.713182 1.74867 35 38 35
0.404317 -0.732147 1.79517 35 37 34
0.407055 -0.720353 1.76625 35 37 33
0.406518 -0.703416 1.72472 37 38 33
0.447089 -0.7568 1.85562 38 39 35
0.437693 -0.725131 1.77797 38 39 35
0.433619 -0.703416 1.72472 38 39 35
0.463816 -0.737045 1.80718 38 39 35
0.470136 -0.732147 1.79517 38 39 35
0.500686 -0.764434 1.87433 39 39 34
0.481065 -0.720353 1.76625 39 38 33
0.509151 -0.748023 1.8341 38 38 33
0.540132 -0.778844 1.90967 39 38 33
0.521414 -0.738184 1.80997 37 38 31
0.544283 -0.7568 1.85562 37 38 31
0.531912 -0.726623 1.78162 37 38 31
0.563721 -0.7568 1.85562 38 39 32
0.545824 -0.720353 1.76625 38 39 32
0.567938 -0.737045 1.80718 37 38 31
0.573566 -0.732147 1.79517 38 40 33
0.573578 -0.720353 1.76625 39 40 34
0.608499 -0.75208 1.84404 39 39 33
0.618158 -0.75208 1.84404 38 39 33
0.627816 -0.75208 1.84404 39 39 32
0.627246 -0.740012 1.81445 38 40 34
0.629982 -0.732147 1.79517 38 39 33
0.656793 -0.75208 1.84404 37 39 33
0.648788 -0.732147 1.79517 37 38 32
0.633711 -0.704916 1.7284 37 39 33
0.680732 -0.746556 1.8305 38 39 33
0.670509 -0.725131 1.77797 38 39 33
0.720939 -0.768989 1.8855 37 38 31
0.714745 -0.75208 1.84404 37 38 32
0.71278 -0.740012 1.81445 38 38 34
0.728671 -0.746556 1.8305 37 38 34
0.717072 -0.725131 1.77797 38 38 34
0.741291 -0.740012 1.81445 37 38 34
0.727337 -0.716891 1.75776 37 38 34
0.767022 -0.746556 1.8305 37 38 34
0.795208 -0.764434 1.87433 37 38 34
0.828742 -0.786955 1.92955 37 38 34
0.819697 -0.768989 1.8855 37 39 34
0.818701 -0.758911 1.86079 36 39 34
0.834477 -0.764434 1.87433 37 40 35
0.830649 -0.75208 1.84404 37 40 36
0.879275 -0.786955 1.92955 37 40 36
0.880215 -0.778844 1.90967 36 40 36
0.895423 -0.783399 1.92083 37 40 37
0.893242 -0.772807 1.89486 36 40 37
0.878943 -0.75208 1.84404 35 38 35
0.963754 -0.815686 2 35 38 35
0.906419 -0.758911 1.86079 36 39 36
0.984706 -0.815686 2 37 39 36
0.917578 -0.75208 1.84404 38 40 37
1.00566 -0.815686 2 37 39 36
1.01613 -0.815686 2 37 39 36
0.921467 -0.732147 1.79517 37 39 36
0.884027 -0.695304 1.70483 37 40 36
1.04756 -0.815686 2 37 39 36
1.01615 -0.783399 1.92083 37 39 36
1.01234 -0.772807 1.89486 36 38 35
1.07899 -0.815686 2 35 38 35
0.928675 -0.695304 1.70483 36 38 35
1.09994 -0.815686 2 36 39 37
1.11041 -0.815686 2 36 39 36
1.19132 -0.866938 2.12567 36 40 37
1.20245 -0.866938 2.12567 36 39 37
1.21358 -0.866938 2.12567 37 40 37
1.15232 -0.815686 2 37 40 37
1.23585 -0.866938 2.12567 36 39 36
1.17327 -0.815686 2 36 39 36
1.27605 -0.879293 2.15596 37 40 37
1.13144 -0.772807 1.89486 37 40 37
1.29863 -0.879293 2.15596 38 40 37
1.33962 -0.899226 2.20483 36 39 36
1.22564 -0.815686 2 35 38 35
1.23612 -0.815686 2 35 38 35
1.14939 -0.75208 1.84404 35 38 35
-0.481615 -0.308503 0.76625 41 35 24
-0.5316 -0.343383 0.852883 40 36 25
-0.468342 -0.305086 0.757762 39 36 29
-0.507116 -0.333167 0.82751 39 37 33
-0.48927 -0.324214 0.805271 38 37 34
-0.486201 -0.324981 0.807177 38 37 35
-0.462926 -0.312139 0.775279 38 37 35
-0.462621 -0.314693 0.781624 37 36 34
-0.479804 -0.329296 0.817894 36 35 33
-0.495862 -0.343383 0.852883 37 37 35
-0.495951 -0.346567 0.860791 39 38 36
-0.510895 -0.360285 0.894863 37 38 36
-0.455528 -0.324214 0.805271 37 39 37
-0.468634 -0.336659 0.836183 37 38 36
-0.464254 -0.336659 0.836183 36 39 37
-0.495139 -0.362475 0.900304 37 39 38
-0.472774 -0.349431 0.867904 38 39 38
-0.468228 -0.349431 0.867904 39 38 37
-0.483615 -0.364452 0.905214 38 36 36
-0.481229 -0.366244 0.909666 39 37 37
-0.445838 -0.342703 0.851194 40 38 38
-0.488614 -0.379377 0.942284 39 37 38
-0.494104 -0.387555 0.962595 38 37 37
-0.474144 -0.375733 0.933233 38 38 37
-0.472433 -0.378277 0.939552 37 38 36
-0.464368 -0.375733 0.933233 37 37 36
-0.462591 -0.378277 0.939552 37 37 35
-0.438552 -0.362475 0.900304 37 37 35
-0.433836 -0.362475 0.900304 36 36 34
-0.476639 -0.402614 1 36 37 35
-0.424405 -0.362475 0.900304 39 39 37
-0.433324 -0.374252 0.929553 39 40 38
-0.43168 -0.377068 0.936549 39 39 37
-0.421715 -0.372598 0.925446 37 38 34
-0.45045 -0.402614 1 37 39 35
-0.429483 -0.388389 0.964669 36 38 34
-0.40898 -0.374252 0.929553 36 38 34
-0.434737 -0.402614 1 36 38 34
-0.414324 -0.388389 0.964669 36 38 35
-0.439251 -0.416839 1.03533 37 38 35
-0.401266 -0.385552 0.957621 38 38 36
-0.442936 -0.430977 1.07045 37 37 35
-0.408548 -0.402614 1 37 36 34
-0.418396 -0.417674 1.03741 37 37 35
-0.412962 -0.417674 1.03741 38 37 35
-0.409482 -0.419677 1.04238 38 38 35
-0.416494 -0.432631 1.07455 38 38 35
-0.441991 -0.465405 1.15596 38 38 34
-0.439687 -0.46941 1.1659 38 37 34
-0.408023 -0.44174 1.09718 37 36 32
-0.412721 -0.453209 1.12567 36 35 31
-0.409976 -0.45672 1.13439 36 37 34
-0.390783 -0.44174 1.09718 36 38 36
-0.405663 -0.465405 1.15596 36 37 36
-0.399608 -0.465405 1.15596 35 36 35
-0.405154 -0.479123 1.19003 36 37 36
-0.403883 -0.485083 1.20483 37 37 36
-0.374326 -0.45672 1.13439 38 37 36
-0.386454 -0.479123 1.19003 37 36 35
-0.373662 -0.470858 1.1695 37 35 34
-0.353761 -0.453209 1.12567 37 36 34
-0.391309 -0.50981 1.26625 37 36 35
-0.408309 -0.541131 1.34404 37 36 35
-0.394936 -0.53259 1.32283 38 37 36
-0.388008 -0.53259 1.32283 37 37 35
-0.362335 -0.506393 1.25776 36 36 34
-0.358147 -0.50981 1.26625 35 37 34
-0.416405 -0.603922 1.5 36 37 35
-0.362382 -0.535678 1.3305 35 37 35
-0.304314 -0.458662 1.13921 36 37 35
-0.331618 -0.50981 1.26625 36 38 36
-0.357994 -0.561592 1.39486 36 38 36
-0.334506 -0.535678 1.3305 36 38 36
-0.383473 -0.627159 1.55772 36 38 36
-0.344435 -0.575559 1.42955 36 37 36
-0.367155 -0.627159 1.55772 36 37 37
-0.345695 -0.603922 1.5 36 38 37
-0.314158 -0.561592 1.39486 36 38 37
-0.317284 -0.580684 1.44228 36 37 36
-0.337253 -0.632284 1.57045 36 37 36
-0.340596 -0.654516 1.62567 36 37 35
-0.366706 -0.72276 1.79517 37 38 35
-0.339324 -0.68639 1.70483 38 39 36
-0.301883 -0.627159 1.55772 38 38 35
-0.331445 -0.7077 1.75776 37 37 35
-0.291545 -0.640291 1.59033 38 38 36
-0.303605 -0.68639 1.70483 38 38 37
-0.294676 -0.68639 1.70483 37 37 36
-0.279824 -0.672165 1.6695 36 36 35
-0.243558 -0.603922 1.5 36 37 36
-0.262335 -0.672165 1.6695 37 38 37
-0.258957 -0.68639 1.70483 37 38 36
-0.270444 -0.742438 1.84404 37 38 36
-0.236102 -0.672165 1.6695 37 38 36
-0.244471 -0.72276 1.79517 37 38 36
-0.228137 -0.70145 1.74224 37 37 35
-0.223963 -0.717308 1.78162 37 37 35
-0.213423 -0.713271 1.7716 37 37 35
-0.194228 -0.678625 1.68555 37 38 35
-0.191635 -0.70145 1.74224 38 38 36
-0.172722 -0.663833 1.64881 39 39 36
-0.174929 -0.7077 1.75776 38 39 36
-0.164259 -0.70145 1.74224 37 38 35
-0.156516 -0.7077 1.75776 37 38 35
-0.153706 -0.738433 1.8341 37 38 35
-0.138102 -0.7077 1.75776 38 38 35
-0.129518 -0.711118 1.76625 38 38 35
-0.114771 -0.678625 1.68555 37 37 34
-0.111981 -0.717308 1.78162 37 37 34
-0.100751 -0.704039 1.74867 39 38 35
-0.0925126 -0.711118 1.76625 39 38 34
-0.0846245 -0.72276 1.79517 40 38 35
-0.0706284 -0.678625 1.68555 40 39 35
-0.062507 -0.68639 1.70483 39 37 34
-0.0568815 -0.72872 1.80997 38 36 32
-0.0451687 -0.694397 1.72472 39 37 33
-0.037921 -0.72872 1.80997 39 38 34
-0.0284408 -0.72872 1.80997 39 38 34
-0.0180675 -0.694397 1.72472 39 39 35
-0.00912549 -0.70145 1.74224 37 37 33
0 -0.70145 1.74224 35 37 32
0.00933178 -0.717308 1.78162 36 38 34
0.0192132 -0.738433 1.8341 37 39 35
0.029158 -0.747097 1.85562 36 38 34
0.0384265 -0.738433 1.8341 36 38 34
0.0457958 -0.704039 1.74867 37 39 35
0.0559907 -0.717308 1.78162 37 39 35
0.0604527 -0.663833 1.64881 38 39 35
0.075842 -0.72872 1.80997 37 39 35
0.0803661 -0.68639 1.70483 36 37 33
0.0933178 -0.717308 1.78162 36 36 32
0.0982252 -0.68639 1.70483 37 37 33
0.111981 -0.717308 1.78162 38 38 34
0.118631 -0.70145 1.74224 39 38 35
0.127406 -0.699523 1.73745 38 38 36
0.142204 -0.72872 1.80997 37 38 37
0.150444 -0.72276 1.79517 36 38 37
0.155133 -0.70145 1.74224 36 38 38
0.162607 -0.694397 1.72472 36 38 38
0.1674 -0.67724 1.68211 36 38 38
0.186636 -0.717308 1.78162 37 38 36
0.189708 -0.694397 1.72472 37 39 35
0.201502 -0.704039 1.74867 37 39 35
0.207776 -0.694397 1.72472 37 39 35
0.22203 -0.711118 1.76625 37 39 35
0.240165 -0.738433 1.8341 36 38 35
0.242626 -0.717308 1.78162 36 37 34
0.253873 -0.72276 1.79517 36 37 34
0.259035 -0.711118 1.76625 36 38 34
0.278592 -0.738433 1.8341 37 39 34
0.284408 -0.72872 1.80997 37 39 35
0.28289 -0.70145 1.74224 37 39 35
0.285746 -0.68639 1.70483 37 39 35
0.301141 -0.70145 1.74224 37 39 35
0.317281 -0.717308 1.78162 37 38 34
0.312535 -0.68639 1.70483 38 38 34
0.328517 -0.70145 1.74224 38 39 35
0.350769 -0.72872 1.80997 38 38 35
0.346768 -0.70145 1.74224 37 38 35
0.344314 -0.678625 1.68555 37 39 36
0.348589 -0.669877 1.66382 38 41 37
0.391452 -0.733897 1.82283 37 39 36
0.403478 -0.738433 1.8341 36 39 36
0.404317 -0.72276 1.79517 35 37 34
0.407055 -0.711118 1.76625 34 36 31
0.426611 -0.72872 1.80997 35 37 32
0.425558 -0.711118 1.76625 37 38 34
0.424586 -0.694397 1.72472 38 39 35
0.433619 -0.694397 1.72472 38 39 35
0.464532 -0.72872 1.80997 38 39 35
0.46034 -0.7077 1.75776 38 39 34
0.486928 -0.733897 1.82283 38 38 34
0.485253 -0.717308 1.78162 38 38 33
0.520321 -0.754634 1.87433 39 39 34
0.499568 -0.711118 1.76625 40 40 35
0.525118 -0.733897 1.82283 39 39 33
0.511027 -0.70145 1.74224 37 39 32
0.544213 -0.733897 1.82283 37 39 32
0.563721 -0.747097 1.85562 38 40 34
0.559335 -0.72872 1.80997 38 39 32
0.579523 -0.742438 1.84404 36 38 31
0.586004 -0.738433 1.8341 38 39 33
0.560092 -0.694397 1.72472 39 40 34
0.577028 -0.704039 1.74867 39 40 34
0.606736 -0.72872 1.80997 39 40 34
0.647828 -0.766103 1.90282 39 39 34
0.607649 -0.7077 1.75776 38 39 34
0.606552 -0.695879 1.7284 38 39 33
0.639385 -0.72276 1.79517 37 39 34
0.670634 -0.747097 1.85562 37 39 33
0.65819 -0.72276 1.79517 37 39 32
0.667593 -0.72276 1.79517 38 39 33
0.711063 -0.75913 1.8855 38 40 34
0.679821 -0.715834 1.77797 37 39 33
0.726486 -0.754634 1.87433 37 38 32
0.698447 -0.715834 1.77797 37 39 34
0.728671 -0.736985 1.8305 38 39 35
0.738259 -0.736985 1.8305 38 39 35
0.741291 -0.730525 1.81445 38 39 35
0.757434 -0.736985 1.8305 38 39 35
0.736544 -0.7077 1.75776 37 38 34
0.795208 -0.754634 1.87433 37 38 34
0.779306 -0.730525 1.81445 38 39 35
0.819697 -0.75913 1.8855 37 39 35
0.87995 -0.805229 2 36 39 34
0.84716 -0.766103 1.90282 37 39 35
0.874903 -0.781992 1.94228 36 39 35
0.818037 -0.72276 1.79517 36 39 35
0.885362 -0.773355 1.92083 35 39 35
0.899488 -0.776866 1.92955 37 40 37
0.942803 -0.805229 2 38 41 38
0.830419 -0.70145 1.74224 36 39 36
0.896673 -0.749181 1.86079 35 38 35
0.935667 -0.773355 1.92083 36 38 35
0.883856 -0.72276 1.79517 36 38 35
0.950232 -0.768859 1.90967 37 39 36
0.960234 -0.768859 1.90967 37 39 36
1.01613 -0.805229 2 37 39 37
0.946554 -0.742438 1.84404 37 40 36
1.08393 -0.841599 2.09033 37 40 37
1.04756 -0.805229 2 37 40 37
1.01025 -0.768859 1.90967 38 40 38
1.02025 -0.768859 1.90967 37 40 37
1.03025 -0.768859 1.90967 36 39 36
1.03219 -0.762899 1.89486 36 38 35
1.09994 -0.805229 2 36 38 36
1.06026 -0.768859 1.90967 36 39 36
1.02159 -0.733897 1.82283 35 38 36
1.13136 -0.805229 2 35 38 36
1.23088 -0.86802 2.15596 36 39 37
1.09174 -0.762899 1.89486 37 40 37
1.16279 -0.805229 2 36 39 36
1.08178 -0.742438 1.84404 36 39 36
1.25812 -0.855824 2.12567 36 39 36
1.26925 -0.855824 2.12567 37 39 36
1.20469 -0.805229 2 36 39 36
1.12041 -0.742438 1.84404 36 38 36
1.22564 -0.805229 2 35 38 35
1.13973 -0.742438 1.84404 35 37 35
1.11892 -0.72276 1.79517 35 38 35
-0.453824 -0.286926 0.722035 41 35 25
-0.515785 -0.328841 0.82751 40 36 26
-0.511451 -0.328841 0.82751 40 37 30
-0.468125 -0.303556 0.763883 40 38 34
-0.523003 -0.342066 0.860791 38 37 34
-0.498448 -0.328841 0.82751 37 37 34
-0.513986 -0.342066 0.860791 37 37 35
-0.489779 -0.328841 0.82751 37 36 34
-0.512913 -0.347448 0.874334 36 36 34
-0.48111 -0.328841 0.82751 38 38 36
-0.495951 -0.342066 0.860791 39 38 36
-0.477393 -0.332287 0.836183 37 38 36
-0.490957 -0.344892 0.867904 36 39 36
-0.473038 -0.33541 0.844042 37 39 36
-0.485436 -0.347448 0.874334 37 39 37
-0.473408 -0.342066 0.860791 38 39 38
-0.464592 -0.338923 0.852883 38 38 37
-0.471697 -0.347448 0.874334 38 37 36
-0.450934 -0.33541 0.844042 38 36 36
-0.450297 -0.338252 0.851194 38 37 36
-0.478588 -0.363099 0.91372 39 37 37
-0.473802 -0.363099 0.91372 39 37 37
-0.429216 -0.332287 0.836183 39 38 37
-0.459909 -0.359719 0.905214 38 38 37
-0.457406 -0.361488 0.909666 37 38 36
-0.482517 -0.385348 0.969708 37 37 35
-0.474957 -0.383345 0.964669 37 37 36
-0.443112 -0.361488 0.909666 38 38 36
-0.451302 -0.372171 0.936549 36 37 35
-0.431461 -0.359719 0.905214 36 37 35
-0.439928 -0.370853 0.933233 38 39 37
-0.450559 -0.384083 0.966525 39 40 38
-0.445496 -0.384083 0.966525 38 39 36
-0.423587 -0.369391 0.929553 36 38 34
-0.45045 -0.397386 1 37 38 35
-0.428559 -0.382521 0.962595 37 39 35
-0.42443 -0.383345 0.964669 37 39 35
-0.419377 -0.383345 0.964669 38 40 36
-0.429499 -0.397386 1 38 40 36
-0.410059 -0.384083 0.966525 38 39 36
-0.405697 -0.384747 0.968195 39 38 36
-0.413786 -0.397386 1 37 37 35
-0.408548 -0.397386 1 37 37 35
-0.419337 -0.413177 1.03974 37 37 35
-0.42775 -0.427012 1.07455 37 37 35
-0.408445 -0.413177 1.03974 37 37 34
-0.416494 -0.427012 1.07455 37 37 34
-0.412629 -0.428845 1.07917 38 38 34
-0.392107 -0.413177 1.03974 38 37 34
-0.42186 -0.450789 1.13439 37 37 33
-0.412721 -0.447323 1.12567 38 36 34
-0.391905 -0.430919 1.08438 38 38 36
-0.372339 -0.415425 1.0454 37 38 36
-0.366863 -0.415425 1.0454 35 37 35
-0.411387 -0.472901 1.19003 35 36 35
-0.393554 -0.459361 1.15596 34 35 34
-0.387499 -0.459361 1.15596 36 37 36
-0.381444 -0.459361 1.15596 38 38 37
-0.403408 -0.493647 1.24224 38 37 36
-0.390447 -0.485619 1.22203 36 35 34
-0.399623 -0.505315 1.2716 36 36 34
-0.400245 -0.514681 1.29517 37 36 35
-0.36016 -0.471119 1.18555 37 37 35
-0.370876 -0.493647 1.24224 37 37 35
-0.371412 -0.50319 1.26625 36 36 34
-0.418038 -0.576656 1.45113 35 36 34
-0.366326 -0.514681 1.29517 35 37 35
-0.391328 -0.560181 1.40967 36 38 36
-0.36607 -0.534103 1.34404 35 37 35
-0.367123 -0.546141 1.37433 35 36 34
-0.377719 -0.573143 1.44228 36 37 35
-0.361794 -0.560181 1.40967 37 38 36
-0.332578 -0.525673 1.32283 37 38 36
-0.355056 -0.573143 1.44228 37 39 37
-0.33113 -0.546141 1.37433 37 38 37
-0.32877 -0.554299 1.39486 36 38 37
-0.329459 -0.568084 1.42955 36 37 37
-0.337838 -0.596078 1.5 35 37 36
-0.329981 -0.596078 1.5 36 38 37
-0.355616 -0.658054 1.65596 37 39 37
-0.336295 -0.637858 1.60514 38 39 36
-0.338269 -0.658054 1.65596 38 39 36
-0.323566 -0.646016 1.62567 38 39 36
-0.323547 -0.663436 1.6695 38 39 36
-0.306537 -0.646016 1.62567 37 38 35
-0.294258 -0.637858 1.60514 37 38 35
-0.342072 -0.763312 1.92083 37 38 36
-0.318738 -0.732796 1.84404 37 38 36
-0.285746 -0.677476 1.70483 36 37 36
-0.276817 -0.677476 1.70483 36 37 36
-0.267887 -0.677476 1.70483 37 38 36
-0.280103 -0.732796 1.84404 37 38 36
-0.25982 -0.704008 1.7716 37 38 36
-0.248584 -0.698509 1.75776 37 37 35
-0.229074 -0.668445 1.68211 37 37 35
-0.228137 -0.69234 1.74224 36 37 34
-0.21431 -0.677476 1.70483 36 37 35
-0.209886 -0.69234 1.74224 37 38 35
-0.20255 -0.698509 1.75776 37 37 35
-0.191635 -0.69234 1.74224 37 37 35
-0.18251 -0.69234 1.74224 37 38 35
-0.176306 -0.704008 1.7716 37 37 35
-0.169249 -0.713374 1.79517 36 37 34
-0.157748 -0.704008 1.7716 36 36 34
-0.146008 -0.69234 1.74224 36 37 34
-0.136882 -0.69234 1.74224 38 37 35
-0.127757 -0.69234 1.74224 38 37 35
-0.114771 -0.669812 1.68555 37 37 34
-0.111015 -0.701882 1.76625 38 38 35
-0.0971141 -0.669812 1.68555 39 38 35
-0.0871473 -0.661177 1.66382 38 38 34
-0.0821294 -0.69234 1.74224 38 37 34
-0.0730039 -0.69234 1.74224 38 37 34
-0.0668332 -0.724366 1.82283 38 37 33
-0.0515151 -0.651398 1.63921 38 37 33
-0.0456274 -0.69234 1.74224 38 37 33
-0.0342819 -0.650232 1.63628 39 37 34
-0.0278378 -0.704008 1.7716 39 38 34
-0.0186636 -0.707992 1.78162 39 38 35
-0.00940272 -0.713374 1.79517 38 38 34
0 -0.701882 1.76625 36 38 34
0.00948025 -0.719256 1.80997 36 37 33
0.018251 -0.69234 1.74224 36 37 33
0.0271012 -0.685379 1.72472 36 37 34
0.0373271 -0.707992 1.78162 36 38 34
0.0470136 -0.713374 1.79517 37 38 35
0.052467 -0.663436 1.6695 37 39 35
0.0632361 -0.685379 1.72472 38 39 35
0.0730039 -0.69234 1.74224 37 39 35
0.0821294 -0.69234 1.74224 37 38 34
0.0925126 -0.701882 1.76625 37 37 34
0.10265 -0.707992 1.78162 37 36 32
0.111981 -0.707992 1.78162 37 37 34
0.111416 -0.650232 1.63628 38 38 35
0.129518 -0.701882 1.76625 38 38 36
0.136882 -0.69234 1.74224 37 39 36
0.151684 -0.719256 1.80997 36 38 37
0.151803 -0.677476 1.70483 35 37 37
0.167972 -0.707992 1.78162 36 37 37
0.177304 -0.707992 1.78162 35 37 37
0.180675 -0.685379 1.72472 36 38 36
0.191635 -0.69234 1.74224 37 39 35
0.203528 -0.701882 1.76625 38 39 36
0.216263 -0.713374 1.79517 37 39 36
0.229143 -0.724366 1.82283 37 39 35
0.235068 -0.713374 1.79517 37 38 35
0.241261 -0.704008 1.7716 37 38 35
0.243911 -0.685379 1.72472 37 38 35
0.246695 -0.668445 1.68211 37 39 35
0.264639 -0.69234 1.74224 37 38 34
0.284408 -0.719256 1.80997 37 38 34
0.28289 -0.69234 1.74224 37 39 35
0.285746 -0.677476 1.70483 37 39 35
0.307949 -0.707992 1.78162 38 39 35
0.313031 -0.698509 1.75776 38 38 34
0.34201 -0.741368 1.86561 37 38 34
0.343714 -0.724366 1.82283 38 38 34
0.340652 -0.698509 1.75776 38 39 35
0.357303 -0.713374 1.79517 38 38 35
0.36394 -0.707992 1.78162 38 39 36
0.37005 -0.701882 1.76625 37 40 37
0.377479 -0.698509 1.75776 37 39 36
0.379417 -0.685379 1.72472 36 39 36
0.404317 -0.713374 1.79517 35 37 34
0.410598 -0.707992 1.78162 35 37 32
0.416307 -0.701882 1.76625 36 37 32
0.406113 -0.669812 1.68555 37 38 34
0.438594 -0.707992 1.78162 38 39 35
0.455052 -0.719256 1.80997 38 39 35
0.453312 -0.701882 1.76625 38 39 34
0.466589 -0.707992 1.78162 37 38 34
0.467118 -0.694896 1.74867 37 37 33
0.492973 -0.719256 1.80997 38 37 32
0.509151 -0.728843 1.8341 38 38 33
0.507747 -0.713374 1.79517 39 39 33
0.51715 -0.713374 1.79517 39 39 34
0.549773 -0.744833 1.87433 38 40 34
0.554002 -0.737395 1.85562 38 40 34
0.536573 -0.701882 1.76625 38 40 34
0.590144 -0.758874 1.90967 38 39 33
0.586302 -0.741368 1.86561 37 38 31
0.558709 -0.694896 1.74867 37 39 33
0.59561 -0.728843 1.8341 38 39 34
0.597256 -0.719256 1.80997 39 39 33
0.601774 -0.713374 1.79517 38 39 33
0.598442 -0.698509 1.75776 39 40 34
0.641476 -0.737395 1.85562 38 39 34
0.635177 -0.719256 1.80997 37 39 33
0.660915 -0.737395 1.85562 37 39 33
0.626591 -0.688967 1.73375 37 39 33
0.641142 -0.694896 1.74867 37 39 34
0.707628 -0.756153 1.90282 38 40 34
0.651817 -0.686841 1.7284 38 39 34
0.74265 -0.771836 1.94228 38 39 34
0.709496 -0.727414 1.8305 37 39 34
0.719083 -0.727414 1.8305 38 39 35
0.707759 -0.706538 1.77797 38 39 35
0.724009 -0.713374 1.79517 38 39 35
0.765756 -0.744833 1.87433 38 40 36
0.735697 -0.706538 1.77797 39 40 36
0.815869 -0.773738 1.94707 38 39 35
0.803917 -0.752991 1.89486 37 39 35
0.805025 -0.744833 1.87433 37 39 35
0.814843 -0.744833 1.87433 38 40 35
0.789828 -0.713374 1.79517 37 39 35
0.890425 -0.794771 2 37 40 35
0.844295 -0.744833 1.87433 36 39 35
0.882463 -0.769557 1.93655 35 38 35
0.863929 -0.744833 1.87433 35 39 35
0.902749 -0.769557 1.93655 37 40 37
0.883564 -0.744833 1.87433 37 41 37
0.953279 -0.794771 2 37 40 37
0.896673 -0.739452 1.86079 37 39 36
0.856232 -0.698509 1.75776 36 39 36
0.897475 -0.724366 1.82283 36 38 35
0.955788 -0.763312 1.92083 37 39 36
0.965849 -0.763312 1.92083 37 39 36
0.97591 -0.763312 1.92083 37 40 37
0.980239 -0.758874 1.90967 37 40 36
0.945213 -0.724366 1.82283 37 39 37
1.00024 -0.758874 1.90967 38 40 37
1.01025 -0.758874 1.90967 39 41 39
1.06851 -0.794771 2 38 40 37
1.07899 -0.794771 2 36 39 36
1.03219 -0.752991 1.89486 35 38 35
1.09994 -0.794771 2 35 38 35
1.11041 -0.794771 2 35 38 35
1.12089 -0.794771 2 35 37 34
1.04314 -0.732796 1.84404 35 38 35
1.00354 -0.698509 1.75776 36 39 36
1.15232 -0.794771 2 36 39 36
0.962766 -0.658054 1.65596 36 39 36
1.17327 -0.794771 2 36 39 36
1.18374 -0.794771 2 36 39 36
