ply
format ascii 1.0
element vertex 1330
property float x
property float y
property float z
property uchar red
property uchar green
property uchar blue
end_header
0.996688 0.00938649 1.79517 25 32 31
1.05046 0.00980044 1.87433 27 34 33
0.980751 0.00906536 1.73375 29 35 35
1.10162 0.0100892 1.92955 32 37 37
1.15232 0.0104575 2 32 37 37
1.08973 0.00980044 1.87433 35 39 39
1.17327 0.0104575 2 37 42 41
1.10135 0.00972963 1.86079 38 42 41
1.04957 0.00919091 1.75776 37 42 41
1.11075 0.00964205 1.84404 37 42 40
1.09072 0.00938649 1.79517 37 40 40
1.22564 0.0104575 2 36 40 39
1.13973 0.00964205 1.84404 36 39 39
1.19029 0.00998518 1.90967 35 38 38
-0.628536 0.0104575 1 37 36 30
-0.623298 0.0104575 1 37 37 31
-0.594941 0.0100664 0.962595 36 36 31
-0.612822 0.0104575 1 35 36 31
-0.586118 0.010088 0.964669 36 37 32
-0.602347 0.0104575 1 37 38 34
-0.619444 0.0108487 1.03741 38 39 35
-0.612783 0.010827 1.03533 37 38 34
-0.608576 0.0108487 1.03741 36 37 32
-0.601937 0.010827 1.03533 37 37 32
-0.576158 0.0104575 1 37 37 32
-0.609038 0.0111557 1.06677 36 36 32
-0.603451 0.0111557 1.06677 36 36 31
-0.560444 0.0104575 1 36 36 30
-0.53559 0.010088 0.964669 36 36 30
-0.568379 0.0108076 1.03348 35 35 29
-0.544731 0.0104575 1 36 36 30
-0.596214 0.011557 1.10514 37 37 32
-0.608628 0.0119133 1.13921 37 37 32
-0.611522 0.0120885 1.15596 37 37 33
-0.560678 0.0111942 1.07045 38 38 34
-0.537938 0.0108487 1.03741 38 38 34
-0.551573 0.0112372 1.07455 37 38 33
-0.568016 0.0116915 1.118 36 37 32
-0.540316 0.0112372 1.07455 36 36 31
-0.556304 0.0116915 1.118 36 36 30
-0.554225 0.0117717 1.12567 36 36 31
-0.548329 0.0117717 1.12567 36 37 31
-0.551453 0.0119674 1.14438 36 36 31
-0.580726 0.0127412 1.21838 35 36 31
-0.581592 0.012902 1.23375 36 37 32
-0.567963 0.0127412 1.21838 36 37 32
-0.561581 0.0127412 1.21838 36 37 32
-0.58113 0.0133363 1.27528 37 37 33
-0.583409 0.0135442 1.29517 37 37 34
-0.576625 0.0135442 1.29517 37 38 34
-0.537664 0.0127794 1.22203 37 37 34
-0.563057 0.0135442 1.29517 36 37 34
-0.577265 0.0140553 1.34404 37 38 34
-0.583077 0.0143721 1.37433 38 39 35
-0.530589 0.0132418 1.26625 37 38 34
-0.535922 0.0135442 1.29517 36 36 32
-0.553834 0.0141764 1.35562 35 36 32
-0.585254 0.0151752 1.45113 35 35 31
-0.555257 0.0145868 1.39486 35 36 31
-0.532533 0.0141764 1.35562 37 36 32
-0.532688 0.0143721 1.37433 37 37 32
-0.573539 0.0156863 1.5 36 36 31
-0.531615 0.0147416 1.40967 37 37 32
-0.596924 0.0167857 1.60514 39 38 34
-0.588517 0.0167857 1.60514 38 38 34
-0.542112 0.0156863 1.5 39 39 35
-0.554812 0.0162898 1.55772 40 40 36
-0.585882 0.0174588 1.6695 40 39 36
-0.554887 0.0167857 1.60514 40 39 35
-0.54144 0.0166309 1.59033 39 38 34
-0.522176 0.0162898 1.55772 38 37 34
-0.542616 0.0171962 1.64438 37 37 33
-0.542159 0.0174588 1.6695 37 37 33
-0.52539 0.0171962 1.64438 37 37 34
-0.516777 0.0171962 1.64438 37 38 34
-0.497909 0.0168491 1.6112 37 37 33
-0.517915 0.0178283 1.70483 37 37 33
-0.494394 0.0173172 1.65596 36 37 33
-0.515581 0.0183818 1.75776 36 36 33
-0.491126 0.0178283 1.70483 36 36 33
-0.474373 0.017539 1.67717 36 36 33
-0.477027 0.0179699 1.71838 37 37 34
-0.468026 0.0179699 1.71838 37 37 34
-0.455408 0.0178283 1.70483 37 37 34
-0.45328 0.0180999 1.7308 36 36 33
-0.441025 0.0179699 1.71838 34 35 30
-0.428619 0.0178283 1.70483 34 35 31
-0.426083 0.0180999 1.7308 35 36 33
-0.407194 0.0176735 1.69003 35 36 32
-0.399 0.0177027 1.69282 35 36 32
-0.41153 0.0186736 1.78567 36 36 32
-0.380985 0.0176896 1.69157 37 37 33
-0.384162 0.0182619 1.74629 37 37 33
-0.354505 0.0172631 1.65078 37 37 33
-0.357183 0.0178283 1.70483 37 36 33
-0.328614 0.0168229 1.60869 37 37 33
-0.333818 0.017539 1.67717 37 36 33
-0.330394 0.0178283 1.70483 38 38 34
-0.311273 0.0172631 1.65078 37 37 34
-0.312535 0.0178283 1.70483 37 37 33
-0.303605 0.0178283 1.70483 36 36 33
-0.294676 0.0178283 1.70483 37 37 34
-0.270953 0.0169053 1.61657 37 36 33
-0.262717 0.0169202 1.618 37 36 33
-0.272431 0.0181307 1.73375 37 35 32
-0.261259 0.0179868 1.71999 36 35 33
-0.243672 0.0173751 1.66149 36 36 33
-0.243014 0.0179699 1.71838 36 36 33
-0.222575 0.0170916 1.63439 37 37 34
-0.22664 0.0180999 1.7308 38 38 35
-0.21431 0.0178283 1.70483 38 37 34
-0.196893 0.0170916 1.63439 38 38 34
-0.194745 0.0176735 1.69003 38 38 35
-0.185893 0.0176735 1.69003 38 38 36
-0.178591 0.0178283 1.70483 37 37 35
-0.165349 0.0173751 1.66149 38 37 35
-0.155636 0.0172631 1.65078 38 37 35
-0.14642 0.0171962 1.64438 38 37 34
-0.142873 0.0178283 1.70483 38 37 34
-0.135134 0.0179868 1.71999 38 37 34
-0.120581 0.0171962 1.64438 38 37 34
-0.114201 0.017539 1.67717 37 37 34
-0.102727 0.0170916 1.63439 36 37 34
-0.0957282 0.0173751 1.66149 36 37 34
-0.0878468 0.017539 1.67717 36 37 34
-0.0796683 0.0176735 1.69003 36 36 33
-0.0677382 0.0169053 1.61657 36 37 33
-0.0613693 0.0175038 1.6738 36 37 33
-0.0513635 0.0170916 1.63439 37 37 33
-0.0450447 0.0179868 1.71999 37 38 34
-0.0351955 0.0175674 1.67988 37 37 34
-0.026354 0.017539 1.67717 36 36 34
-0.0174513 0.0174212 1.6659 36 36 34
-0.00872567 0.0174212 1.6659 35 36 34
0 0.0172631 1.65078 36 36 34
0.00864646 0.0172631 1.65078 37 38 36
0.0175977 0.0175674 1.67988 37 38 36
0.0256817 0.0170916 1.63439 36 37 35
0.0345858 0.0172631 1.65078 37 37 35
0.0423737 0.0169202 1.618 37 37 35
0.0527081 0.017539 1.67717 37 37 35
0.0619642 0.0176735 1.69003 37 37 35
0.0684846 0.0170916 1.63439 37 37 34
0.0790621 0.017539 1.67717 37 36 34
0.0861295 0.0171962 1.64438 36 36 33
0.0959824 0.0174212 1.6659 36 36 33
0.103355 0.0171962 1.64438 36 36 33
0.114385 0.0175674 1.67988 37 37 34
0.122986 0.017539 1.67717 37 37 34
0.129697 0.0172631 1.65078 37 37 34
0.142873 0.0178283 1.70483 37 37 34
0.144753 0.0170004 1.62567 37 36 34
0.158124 0.017539 1.67717 36 36 33
0.168189 0.0176735 1.69003 36 36 32
0.178591 0.0178283 1.70483 37 37 33
0.186062 0.0176896 1.69157 37 37 34
0.188333 0.0170916 1.63439 38 38 34
0.203782 0.0176896 1.69157 38 38 35
0.208862 0.0173751 1.66149 38 38 34
0.219176 0.0175038 1.6738 38 38 34
0.230363 0.0176896 1.69157 38 38 34
0.23255 0.0171962 1.64438 38 38 35
0.243672 0.0173751 1.66149 37 38 34
0.258957 0.0178283 1.70483 37 38 34
0.26177 0.0174212 1.6659 36 37 34
0.281033 0.0180999 1.7308 36 37 34
0.28111 0.017539 1.67717 37 38 34
0.287947 0.0174212 1.6659 38 38 35
0.29106 0.0170916 1.63439 37 37 34
0.305398 0.0174212 1.6659 37 37 34
0.318673 0.0176735 1.69003 37 37 34
0.339405 0.0183146 1.75133 37 37 35
0.327292 0.0171962 1.64438 37 37 35
0.35416 0.0181307 1.73375 37 37 34
0.346943 0.0173172 1.65596 36 37 34
0.362515 0.0176532 1.68808 36 36 32
0.375042 0.0178283 1.70483 36 36 33
0.394444 0.0183146 1.75133 36 37 33
0.396393 0.0179868 1.71999 36 36 33
0.411603 0.0182619 1.74629 36 36 34
0.407194 0.0176735 1.69003 36 36 34
0.431137 0.0183146 1.75133 36 36 34
0.424408 0.0176532 1.68808 37 37 35
0.425005 0.0173172 1.65596 37 37 35
0.443005 0.0176896 1.69157 37 37 35
0.43659 0.0170916 1.63439 38 37 35
0.472214 0.0181307 1.73375 38 37 35
0.473267 0.0178283 1.70483 38 38 36
0.47801 0.0176735 1.69003 38 37 35
0.499457 0.0181307 1.73375 37 36 34
0.523277 0.0186562 1.784 37 36 34
0.508985 0.0178283 1.70483 37 36 34
0.535854 0.0184458 1.76388 37 36 34
0.508164 0.0171962 1.64438 35 35 33
0.550387 0.0183146 1.75133 36 36 34
0.555125 0.0181694 1.73745 37 37 34
0.553633 0.0178283 1.70483 37 37 34
0.582048 0.0184458 1.76388 37 37 34
0.56653 0.0176735 1.69003 36 37 34
0.585033 0.0179699 1.71838 36 37 34
0.628436 0.0190107 1.81789 36 36 34
0.603599 0.0179868 1.71999 36 37 34
0.61646 0.0180999 1.7308 35 36 33
0.645354 0.0186736 1.78567 35 36 34
0.650899 0.018565 1.77528 35 36 34
0.628494 0.0176735 1.69003 34 36 34
0.676996 0.018773 1.79517 35 36 34
0.674437 0.0184458 1.76388 35 37 34
0.699718 0.0188787 1.80527 35 37 34
0.692915 0.0184458 1.76388 35 36 33
0.70669 0.018565 1.77528 34 36 33
0.70633 0.0183146 1.75133 34 35 33
0.72885 0.0186562 1.784 34 36 34
0.759786 0.0192019 1.83618 34 36 34
0.728033 0.0181694 1.73745 34 36 34
0.775342 0.0191112 1.82751 34 36 34
0.766226 0.0186562 1.784 35 36 34
0.780426 0.018773 1.79517 35 36 34
0.757652 0.0180082 1.72203 35 36 33
0.804578 0.0188986 1.80718 36 36 34
0.808634 0.018773 1.79517 35 36 34
0.791736 0.0181694 1.73745 35 36 34
0.827439 0.018773 1.79517 34 35 33
0.809937 0.0181694 1.73745 34 35 34
0.851906 0.0188986 1.80718 34 35 34
0.878943 0.0192841 1.84404 34 35 34
0.831104 0.0180363 1.72472 34 35 34
0.860367 0.0184706 1.76625 34 35 34
0.877188 0.0186314 1.78162 33 35 34
0.878869 0.0184706 1.76625 34 36 35
0.867239 0.0180363 1.72472 34 36 35
0.897372 0.0184706 1.76625 34 36 35
0.935665 0.0190623 1.82283 34 36 35
0.938545 0.0189278 1.80997 33 36 35
0.905301 0.0180748 1.7284 32 35 34
1.03402 0.0204403 1.9546 29 34 32
0.977953 0.0191425 1.8305 27 32 30
0.987541 0.0191425 1.8305 25 30 29
1.02101 0.0196009 1.87433 24 30 29
1.06504 0.0202515 1.93655 24 30 30
1.07518 0.0202515 1.93655 24 31 31
1.05046 0.0196009 1.87433 26 33 33
1.03548 0.0191425 1.8305 29 35 35
1.03591 0.0189747 1.81445 32 37 37
1.07211 0.0194593 1.86079 33 38 37
1.1259 0.0202515 1.93655 34 39 39
1.08178 0.0192841 1.84404 36 41 40
1.14619 0.0202515 1.93655 38 43 42
1.14028 0.0199704 1.90967 38 43 42
1.06712 0.0185265 1.7716 38 42 40
1.21517 0.020915 2 38 40 39
1.17713 0.0200871 1.92083 37 39 39
1.12662 0.0190623 1.82283 36 39 39
1.2466 0.020915 2 35 38 38
-0.578776 0.0144444 0.920833 37 36 29
-0.601276 0.0151321 0.964669 37 37 30
-0.596223 0.0151321 0.964669 36 37 31
-0.612822 0.0156863 1 36 37 32
-0.607584 0.0156863 1 37 37 33
-0.602347 0.0156863 1 38 39 35
-0.641625 0.0168557 1.07455 39 40 35
-0.591871 0.0156863 1 37 38 34
-0.566995 0.0151612 0.966525 36 36 32
-0.561933 0.0151612 0.966525 37 37 33
-0.597709 0.016273 1.03741 38 39 34
-0.57092 0.0156863 1 38 38 34
-0.565682 0.0156863 1 37 38 33
-0.596005 0.0166816 1.06345 37 37 32
-0.607832 0.0171731 1.09479 36 36 31
-0.549969 0.0156863 1 36 36 30
-0.583105 0.0167913 1.07045 36 36 31
-0.575513 0.0167336 1.06677 36 36 31
-0.55214 0.0162114 1.03348 36 36 31
-0.566285 0.0167913 1.07045 36 36 31
-0.560678 0.0167913 1.07045 36 36 31
-0.570238 0.0172501 1.0997 37 37 33
-0.564478 0.0172501 1.0997 37 37 33
-0.508066 0.0156863 1 37 37 33
-0.545259 0.01701 1.08438 36 37 32
-0.556304 0.0175372 1.118 36 37 32
-0.574036 0.0182887 1.1659 37 38 33
-0.534453 0.0172107 1.09718 37 38 33
-0.587108 0.0191118 1.21838 37 38 33
-0.555716 0.0182887 1.1659 37 38 33
-0.574344 0.0191118 1.21838 37 38 34
-0.57513 0.0193529 1.23375 36 37 33
-0.527477 0.0179511 1.14438 36 36 32
-0.570217 0.0196287 1.25133 37 37 33
-0.566559 0.0197296 1.25776 37 38 34
-0.56777 0.0200044 1.27528 38 38 34
-0.550555 0.0196287 1.25133 37 37 34
-0.552811 0.0199467 1.2716 37 37 34
-0.524863 0.0191692 1.22203 36 37 33
-0.539491 0.0199467 1.2716 36 37 33
-0.575878 0.0215582 1.37433 36 37 33
-0.603143 0.0228646 1.45762 37 38 34
-0.540439 0.0207503 1.32283 37 38 34
-0.585254 0.0227628 1.45113 35 36 31
-0.561149 0.0221124 1.40967 34 34 29
-0.522666 0.0208706 1.3305 36 36 31
-0.564969 0.0228646 1.45762 37 37 33
-0.613739 0.0251786 1.60514 37 37 33
-0.565682 0.0235294 1.5 36 36 32
-0.557825 0.0235294 1.5 38 37 34
-0.567888 0.0242961 1.54887 38 38 34
-0.542112 0.0235294 1.5 38 37 33
-0.579014 0.0255006 1.62567 38 38 34
-0.546653 0.0244348 1.55772 39 38 34
-0.535437 0.0242961 1.54887 38 37 33
-0.559842 0.0257943 1.64438 39 38 34
-0.559648 0.0261883 1.6695 38 37 34
-0.550904 0.0261883 1.6695 38 36 33
-0.509992 0.0246345 1.57045 37 36 33
-0.544704 0.0267425 1.70483 37 37 34
-0.552408 0.0275727 1.75776 38 38 34
-0.526844 0.0267425 1.70483 37 38 34
-0.533994 0.0275727 1.75776 37 37 34
-0.516021 0.0271122 1.7284 37 37 34
-0.494399 0.02644 1.68555 36 37 33
-0.508137 0.0276688 1.76388 37 37 34
-0.47801 0.0265103 1.69003 37 37 34
-0.477027 0.0269549 1.71838 37 37 34
-0.47563 0.0273928 1.74629 37 37 34
-0.463133 0.0271961 1.73375 37 37 34
-0.450025 0.0269549 1.71838 37 37 34
-0.444214 0.0271498 1.7308 36 37 33
-0.421665 0.0263086 1.67717 36 37 34
-0.409021 0.0260627 1.66149 36 37 34
-0.417727 0.0271961 1.73375 36 37 34
-0.387583 0.0257943 1.64438 36 37 33
-0.41153 0.0280105 1.78567 37 36 33
-0.377741 0.0263086 1.67717 38 38 34
-0.371785 0.0265103 1.69003 39 38 35
-0.363264 0.0265345 1.69157 37 37 34
-0.363241 0.0271961 1.73375 36 36 32
-0.351349 0.0269802 1.71999 36 36 32
-0.327292 0.0257943 1.64438 36 36 32
-0.335998 0.0271961 1.73375 37 36 33
-0.316248 0.0263086 1.67717 37 37 34
-0.29491 0.0252344 1.60869 37 36 33
-0.301244 0.0265345 1.69157 36 36 33
-0.289894 0.0263086 1.67717 37 36 33
-0.283265 0.0265103 1.69003 37 36 33
-0.266514 0.0257472 1.64138 36 36 32
-0.26354 0.0263086 1.67717 35 34 31
-0.256709 0.0265103 1.69003 36 35 32
-0.243672 0.0260627 1.66149 37 36 33
-0.234969 0.0260627 1.66149 38 37 35
-0.223937 0.0257943 1.64438 39 38 35
-0.223239 0.0267425 1.70483 38 37 35
-0.208862 0.0260627 1.66149 38 37 34
-0.207206 0.0269802 1.71999 38 37 35
-0.198197 0.0269802 1.71999 39 38 35
-0.180872 0.0257943 1.64438 37 36 34
-0.178591 0.0267425 1.70483 35 35 32
-0.17117 0.0269802 1.71999 37 36 34
-0.157807 0.0262557 1.6738 38 37 34
-0.14904 0.0262557 1.6738 38 37 34
-0.138777 0.0259758 1.65596 37 37 34
-0.135134 0.0269802 1.71999 38 37 34
-0.126125 0.0269802 1.71999 37 36 33
-0.114201 0.0263086 1.67717 36 36 33
-0.103758 0.0258946 1.65078 36 36 33
-0.0941664 0.0256374 1.63439 36 36 33
-0.0870257 0.0260627 1.66149 36 37 33
-0.0803661 0.0267425 1.70483 36 37 34
-0.0691717 0.0258946 1.65078 37 38 35
-0.0592709 0.025358 1.61657 37 37 34
-0.0527081 0.0263086 1.67717 36 36 32
-0.0428029 0.0256374 1.63439 37 37 34
-0.0354404 0.0265345 1.69157 37 37 34
-0.0265561 0.0265103 1.69003 35 36 34
-0.0174513 0.0261318 1.6659 35 35 33
-0.00872567 0.0261318 1.6659 35 36 34
0 0.0258946 1.65078 36 36 34
0.0090005 0.0269549 1.71838 37 38 36
0.0174051 0.0260627 1.66149 39 39 37
0.0259394 0.0258946 1.65078 38 38 36
0.0348103 0.0260627 1.66149 37 37 35
0.0414934 0.0248531 1.58438 37 37 35
0.0535774 0.0267425 1.70483 37 37 35
0.0620207 0.0265345 1.69157 37 37 35
0.0684846 0.0256374 1.63439 37 37 35
0.078531 0.0261318 1.6659 36 36 34
0.0892957 0.0267425 1.70483 35 35 32
0.0951111 0.0258946 1.65078 35 35 31
0.102179 0.0255006 1.62567 36 36 32
0.113133 0.0260627 1.66149 37 37 34
0.121836 0.0260627 1.66149 37 37 34
0.125486 0.0250538 1.59718 37 37 34
0.142873 0.0267425 1.70483 36 36 33
0.14934 0.0263086 1.67717 36 36 33
0.155636 0.0258946 1.65078 36 36 33
0.169662 0.0267425 1.70483 36 36 33
0.177041 0.0265103 1.69003 37 37 34
0.177813 0.025358 1.61657 37 37 34
0.201809 0.0274719 1.75133 37 37 33
0.198098 0.0257943 1.64438 37 37 33
0.210409 0.0262557 1.6738 37 37 33
0.216162 0.0258946 1.65078 37 37 33
0.227943 0.0262557 1.6738 36 37 32
0.245188 0.0271961 1.73375 36 37 32
0.239696 0.0256374 1.63439 36 37 33
0.256709 0.0265103 1.69003 36 37 34
0.254018 0.025358 1.61657 36 37 34
0.262485 0.025358 1.61657 37 38 34
0.283523 0.0265345 1.69157 37 38 34
0.282499 0.0256374 1.63439 37 38 34
0.29106 0.0256374 1.63439 36 37 33
0.315018 0.0269549 1.71838 36 36 33
0.318964 0.0265345 1.69157 35 36 32
0.330394 0.0267425 1.70483 36 36 34
0.333147 0.0262557 1.6738 37 37 35
0.348253 0.0267425 1.70483 36 36 34
0.348103 0.0260627 1.66149 35 36 32
0.342994 0.0250538 1.59718 36 36 33
0.371785 0.0265103 1.69003 36 36 34
0.387385 0.0269802 1.71999 36 37 33
0.38575 0.0262557 1.6738 36 36 33
0.40183 0.0267425 1.70483 35 35 32
0.418619 0.0272541 1.73745 35 35 33
0.42342 0.0269802 1.71999 36 36 34
0.424898 0.0265103 1.69003 37 37 35
0.441438 0.0269802 1.71999 37 37 35
0.450983 0.0270123 1.72203 37 37 35
0.459456 0.0269802 1.71999 37 36 34
0.460306 0.0265103 1.69003 37 36 34
0.477474 0.0269802 1.71999 38 37 35
0.486483 0.0269802 1.71999 38 37 35
0.50307 0.0273928 1.74629 37 36 34
0.500056 0.0267425 1.70483 37 36 34
0.490938 0.0257943 1.64438 37 37 35
0.532041 0.0274719 1.75133 37 37 35
0.541214 0.0274719 1.75133 37 37 34
0.535774 0.0267425 1.70483 36 37 34
0.56357 0.0276688 1.76388 36 37 34
0.568733 0.0274719 1.75133 36 36 34
0.585809 0.0278475 1.77528 36 36 34
0.571492 0.0267425 1.70483 36 37 34
0.594537 0.0273928 1.74629 36 37 34
0.589351 0.0267425 1.70483 36 37 34
0.616856 0.0275727 1.75776 36 37 34
0.612608 0.0269802 1.71999 35 36 34
0.606143 0.0263086 1.67717 35 36 35
0.644476 0.0275727 1.75776 36 37 35
0.655959 0.0276688 1.76388 35 36 34
0.653834 0.0271961 1.73375 35 37 34
0.667711 0.0273928 1.74629 35 37 34
0.695801 0.0281595 1.79517 35 36 34
0.700817 0.0279843 1.784 35 36 33
0.718629 0.028318 1.80527 34 36 33
0.711392 0.0276688 1.76388 35 36 34
0.760223 0.0291889 1.86079 35 36 34
0.72987 0.0276688 1.76388 35 36 34
0.733849 0.0274719 1.75133 34 36 34
0.751621 0.0277898 1.7716 34 36 34
0.776181 0.0283479 1.80718 34 36 34
0.748632 0.0270123 1.72203 35 36 34
0.742714 0.0264797 1.68808 35 36 34
0.779715 0.0274719 1.75133 35 36 34
0.802533 0.027947 1.78162 35 35 33
0.776872 0.0267425 1.70483 34 35 33
0.827439 0.0281595 1.79517 34 35 32
0.842441 0.0283479 1.80718 34 35 33
0.859285 0.0285934 1.82283 33 35 33
0.82207 0.0270544 1.72472 34 35 33
0.86505 0.0281595 1.79517 33 35 33
0.84867 0.0273292 1.74224 32 34 33
0.857796 0.0273292 1.74224 32 34 33
0.917578 0.0289261 1.84404 32 35 34
0.938084 0.0292645 1.86561 33 35 34
0.905183 0.027947 1.78162 33 36 35
0.967836 0.0295765 1.8855 34 36 35
0.962214 0.0291077 1.85562 34 36 35
0.987587 0.0295765 1.8855 35 37 36
0.929887 0.0275727 1.75776 31 35 34
1.00734 0.0295765 1.8855 28 34 32
1.04098 0.0302675 1.92955 27 33 32
0.977883 0.0281595 1.79517 28 33 33
1.03082 0.0294013 1.87433 29 35 34
0.996688 0.0281595 1.79517 30 36 36
1.08141 0.0302675 1.92955 31 37 36
1.07189 0.0297233 1.89486 33 38 37
1.0528 0.0289261 1.84404 33 38 38
1.0343 0.0281595 1.79517 33 38 38
1.07212 0.0289261 1.84404 31 37 36
1.06442 0.028462 1.81445 31 37 36
1.10936 0.0294013 1.87433 35 40 38
1.14695 0.0301307 1.92083 37 41 40
1.09797 0.0285934 1.82283 37 41 39
1.21517 0.0313726 2 37 39 38
1.18247 0.0302675 1.92955 37 39 39
1.10952 0.0281595 1.79517 36 38 38
1.13617 0.0285934 1.82283 35 38 38
-0.565873 0.0188299 0.900304 37 36 30
-0.644163 0.0216152 1.03348 37 37 31
-0.659326 0.0223115 1.06677 36 37 32
-0.586852 0.0200287 0.957621 36 37 32
-0.607584 0.020915 1 36 37 33
-0.602347 0.020915 1 38 38 34
-0.549838 0.0192593 0.920833 38 39 35
-0.633566 0.0223884 1.07045 37 38 34
-0.586633 0.020915 1 37 37 33
-0.603142 0.0216974 1.03741 37 37 33
-0.614626 0.0223115 1.06677 37 38 33
-0.57092 0.020915 1 38 38 34
-0.603451 0.0223115 1.06677 37 38 33
-0.577421 0.0215486 1.03029 37 37 32
-0.596599 0.0224743 1.07455 36 36 31
-0.611125 0.0232408 1.1112 36 36 30
-0.633967 0.0243413 1.16382 36 36 31
-0.579714 0.0224743 1.07455 37 37 32
-0.534255 0.020915 1 36 36 31
-0.547708 0.021654 1.03533 35 36 30
-0.600836 0.023992 1.14712 36 36 31
-0.587039 0.0236778 1.1321 37 38 34
-0.551573 0.0224743 1.07455 37 38 34
-0.582811 0.023992 1.14712 38 38 34
-0.555694 0.023114 1.10514 37 38 33
-0.575194 0.0241769 1.15596 36 37 32
-0.547102 0.0232408 1.1112 37 37 33
-0.544593 0.0233829 1.118 37 38 34
-0.561823 0.0243849 1.1659 37 38 34
-0.568546 0.0249479 1.19282 36 37 33
-0.574344 0.0254824 1.21838 37 38 34
-0.543503 0.0243849 1.1659 37 37 33
-0.576771 0.0261716 1.25133 37 37 34
-0.570217 0.0261716 1.25133 38 38 34
-0.625586 0.0290468 1.3888 38 38 34
-0.527821 0.0247958 1.18555 38 38 35
-0.559472 0.0265955 1.2716 38 38 34
-0.603763 0.0290468 1.3888 37 37 34
-0.556273 0.0270885 1.29517 36 36 32
-0.561225 0.027667 1.32283 35 35 31
-0.542706 0.0270885 1.29517 36 37 33
-0.620679 0.0313726 1.5 37 38 34
-0.575916 0.0294832 1.40967 37 38 34
-0.585254 0.0303503 1.45113 37 38 34
-0.555257 0.0291736 1.39486 37 37 32
-0.553766 0.0294832 1.40967 36 36 31
-0.597821 0.0322589 1.54238 37 36 32
-0.538998 0.0294832 1.40967 38 38 34
-0.54725 0.0303503 1.45113 38 38 34
-0.596924 0.0335715 1.60514 38 38 34
-0.549969 0.0313726 1.5 37 37 32
-0.606143 0.0350781 1.67717 36 36 31
-0.551663 0.0323948 1.54887 37 37 33
-0.570499 0.0340009 1.62567 39 38 34
-0.538494 0.0325797 1.55772 39 38 34
-0.54648 0.0335715 1.60514 39 38 34
-0.559648 0.0349177 1.6695 38 37 33
-0.550904 0.0349177 1.6695 37 36 33
-0.487115 0.0313726 1.5 37 36 33
-0.553943 0.0362614 1.73375 37 37 33
-0.52467 0.0349177 1.6695 37 37 34
-0.526844 0.0356566 1.70483 37 37 34
-0.509511 0.0350781 1.67717 37 38 34
-0.514923 0.0360726 1.72472 38 38 35
-0.495143 0.0353063 1.68808 38 38 35
-0.508137 0.0368917 1.76388 38 38 35
-0.486027 0.0359399 1.71838 38 38 35
-0.483651 0.036439 1.74224 36 36 33
-0.483525 0.03713 1.77528 36 37 33
-0.462345 0.0361998 1.7308 37 37 34
-0.446478 0.0356566 1.70483 37 37 34
-0.437549 0.0356566 1.70483 37 38 34
-0.417723 0.0347502 1.66149 37 38 35
-0.41288 0.0350781 1.67717 37 38 35
-0.407565 0.0353793 1.69157 37 38 35
-0.405023 0.0359399 1.71838 37 37 34
-0.386526 0.0350781 1.67717 38 37 34
-0.37421 0.0347502 1.66149 39 39 35
-0.380755 0.0361998 1.7308 39 38 35
-0.354505 0.0345262 1.65078 38 38 34
-0.357183 0.0356566 1.70483 38 37 34
-0.342602 0.0350781 1.67717 37 37 33
-0.336377 0.035347 1.69003 36 35 32
-0.32438 0.0350076 1.6738 35 35 31
-0.324322 0.0359736 1.71999 36 36 32
-0.309821 0.035347 1.69003 36 36 32
-0.303605 0.0356566 1.70483 36 36 33
-0.294676 0.0356566 1.70483 37 36 33
-0.273939 0.0341832 1.63439 37 36 34
-0.274663 0.0353793 1.69157 37 36 34
-0.26354 0.0350781 1.67717 36 35 33
-0.250747 0.0345262 1.65078 37 36 34
-0.247857 0.035347 1.69003 38 37 35
-0.239005 0.035347 1.69003 39 38 36
-0.224808 0.0345262 1.65078 39 38 35
-0.225013 0.0359399 1.71838 38 37 35
-0.206711 0.0343924 1.64438 38 37 34
-0.20931 0.0363389 1.73745 38 37 35
-0.19645 0.0356566 1.70483 38 37 35
-0.184108 0.0350076 1.6738 37 36 34
-0.182008 0.0363389 1.73745 36 36 33
-0.167995 0.0353063 1.68808 37 36 34
-0.154269 0.0342228 1.63628 38 37 34
-0.147944 0.0347502 1.66149 39 38 35
-0.137128 0.0342228 1.63628 38 37 34
-0.136215 0.0362614 1.73375 38 37 34
-0.120581 0.0343924 1.64438 37 37 34
-0.118907 0.0365238 1.74629 36 36 33
-0.105416 0.0350781 1.67717 36 36 33
-0.0966315 0.0350781 1.67717 36 36 34
-0.0878468 0.0350781 1.67717 36 37 34
-0.0810045 0.0359399 1.71838 37 37 34
-0.0701363 0.0350076 1.6738 37 38 35
-0.0602907 0.0343924 1.64438 37 37 34
-0.0526022 0.0350076 1.6738 36 36 33
-0.0430648 0.0343924 1.64438 37 37 34
-0.0348103 0.0347502 1.66149 36 36 34
-0.0259394 0.0345262 1.65078 35 35 33
-0.0181312 0.0361998 1.7308 35 36 34
-0.00872567 0.0348425 1.6659 36 36 34
0 0.035347 1.69003 36 37 35
0.00886011 0.0353793 1.69157 37 38 36
0.0175977 0.0351347 1.67988 38 39 37
0.0267887 0.0356566 1.70483 38 39 37
0.0345858 0.0345262 1.65078 37 37 35
0.0446478 0.0356566 1.70483 37 36 34
0.0508036 0.0338107 1.61657 37 37 35
0.0596043 0.0340009 1.62567 37 37 35
0.0693886 0.0346344 1.65596 38 38 36
0.0810045 0.0359399 1.71838 38 38 36
0.0906559 0.0361998 1.7308 37 36 34
0.0990055 0.0359399 1.71838 35 35 31
0.104708 0.0348425 1.6659 36 36 33
0.111968 0.0343924 1.64438 38 38 35
0.122986 0.0350781 1.67717 38 37 34
0.129194 0.0343924 1.64438 38 38 35
0.136969 0.0341832 1.63439 37 37 34
0.148336 0.0348425 1.6659 36 36 34
0.15409 0.0341832 1.63439 36 36 33
0.160094 0.0336459 1.60869 36 36 33
0.170298 0.0340009 1.62567 37 37 33
0.187521 0.0356566 1.70483 36 36 33
0.19452 0.0353063 1.68808 36 36 32
0.203597 0.035347 1.69003 36 36 32
0.208862 0.0347502 1.66149 36 36 32
0.216162 0.0345262 1.65078 36 36 32
0.227943 0.0350076 1.6738 36 36 32
0.23255 0.0343924 1.64438 35 36 32
0.243672 0.0347502 1.66149 35 36 32
0.251534 0.0346344 1.65596 36 37 34
0.258389 0.0343924 1.64438 37 37 34
0.26978 0.0347502 1.66149 37 38 34
0.272477 0.0340009 1.62567 37 37 34
0.297295 0.0359736 1.71999 36 37 33
0.306304 0.0359736 1.71999 36 37 33
0.29962 0.0341832 1.63439 36 36 33
0.310066 0.0343924 1.64438 35 36 33
0.316742 0.0341832 1.63439 35 35 32
0.333147 0.0350076 1.6738 35 35 32
0.35102 0.0359399 1.71838 35 35 32
0.354404 0.0353793 1.69157 36 36 33
0.347158 0.0338107 1.61657 37 37 34
0.36429 0.0346344 1.65596 36 37 34
0.383971 0.0356566 1.70483 36 37 33
0.396393 0.0359736 1.71999 35 36 32
0.41279 0.0366292 1.75133 35 35 32
0.418619 0.0363389 1.73745 35 36 33
0.412051 0.0350076 1.6738 37 37 35
0.44031 0.0366292 1.75133 36 37 35
0.43375 0.035347 1.69003 36 36 34
0.442602 0.035347 1.69003 37 36 34
0.467829 0.0366292 1.75133 36 36 34
0.464337 0.0356566 1.70483 37 37 35
0.456486 0.0343924 1.64438 38 37 36
0.482197 0.0356566 1.70483 38 37 35
0.486301 0.0353063 1.68808 37 36 34
0.500056 0.0356566 1.70483 37 37 35
0.508985 0.0356566 1.70483 37 37 35
0.517915 0.0356566 1.70483 37 37 35
0.513451 0.0347502 1.66149 36 36 34
0.535774 0.0356566 1.70483 36 37 34
0.544704 0.0356566 1.70483 36 37 34
0.563024 0.0362614 1.73375 36 36 33
0.589236 0.0373473 1.78567 35 36 33
0.571492 0.0356566 1.70483 36 36 33
0.580422 0.0356566 1.70483 36 37 34
0.603684 0.0365238 1.74629 36 37 34
0.598281 0.0356566 1.70483 36 37 34
0.602487 0.0353793 1.69157 35 36 34
0.61079 0.035347 1.69003 35 36 34
0.64672 0.0368917 1.76388 35 36 34
0.623712 0.0350781 1.67717 34 36 33
0.658564 0.0365238 1.74629 35 36 34
0.669638 0.0366292 1.75133 35 37 34
0.65505 0.035347 1.69003 35 36 34
0.705204 0.037546 1.79517 35 37 34
0.70669 0.03713 1.77528 35 36 34
0.704298 0.0365238 1.74629 35 36 34
0.720631 0.0368917 1.76388 34 36 33
0.738194 0.0373124 1.784 34 35 33
0.742342 0.0370531 1.7716 34 36 34
0.751621 0.0370531 1.7716 34 35 33
0.776181 0.0377972 1.80718 34 35 33
0.780426 0.037546 1.79517 35 36 34
0.764435 0.0363389 1.73745 35 36 34
0.788738 0.0370531 1.7716 35 36 33
0.834632 0.0387531 1.85288 35 35 33
0.818037 0.037546 1.79517 34 35 32
0.827439 0.037546 1.79517 33 34 32
0.831636 0.0373124 1.784 34 35 33
0.83986 0.0372627 1.78162 34 35 34
0.855647 0.037546 1.79517 34 35 34
0.87838 0.0381245 1.82283 33 34 32
0.867856 0.0372627 1.78162 32 34 32
0.869618 0.0369412 1.76625 32 34 33
0.932651 0.0392018 1.87433 32 35 34
0.87928 0.0365735 1.74867 32 35 34
0.991301 0.0408079 1.95113 32 35 34
0.952495 0.0388103 1.85562 34 36 35
0.930869 0.037546 1.79517 34 36 35
0.940272 0.037546 1.79517 35 37 36
0.97553 0.0385682 1.84404 32 36 35
0.996714 0.0390194 1.86561 30 35 34
0.943394 0.0365735 1.74867 28 34 33
1.03652 0.0397975 1.90282 29 35 34
1.02338 0.0389185 1.86079 32 37 37
1.04684 0.0394353 1.8855 34 38 38
0.99645 0.0371862 1.77797 35 39 39
1.09547 0.040503 1.93655 35 40 39
1.06236 0.0389185 1.86079 35 39 39
1.0343 0.037546 1.79517 34 39 38
1.11676 0.0401743 1.92083 31 36 36
1.13194 0.0403567 1.92955 30 36 35
1.10936 0.0392018 1.87433 33 37 36
1.12585 0.0394353 1.8855 35 39 38
1.16647 0.040503 1.93655 36 39 39
1.0764 0.0370531 1.7716 36 39 38
1.22564 0.0418301 2 37 39 39
1.19258 0.0403567 1.92955 36 38 38
1.11892 0.037546 1.79517 34 38 37
-0.652046 0.0271217 1.03741 37 36 31
-0.576828 0.0241947 0.925446 37 37 31
-0.61806 0.0261438 1 36 37 32
-0.612822 0.0261438 1 36 37 33
-0.607584 0.0261438 1 36 37 33
-0.602347 0.0261438 1 37 38 34
-0.597109 0.0261438 1 37 38 34
-0.591871 0.0261438 1 37 38 34
-0.627959 0.0279855 1.07045 37 38 34
-0.559648 0.0251659 0.962595 37 37 33
-0.596514 0.0270675 1.03533 36 36 32
-0.592275 0.0271217 1.03741 37 37 32
-0.605532 0.0279855 1.07045 37 37 32
-0.599926 0.0279855 1.07045 36 36 31
-0.573792 0.027019 1.03348 36 36 30
-0.568379 0.027019 1.03348 36 36 30
-0.585342 0.0280929 1.07455 36 36 30
-0.577498 0.0279855 1.07045 37 37 32
-0.57655 0.0282135 1.07917 37 37 33
-0.564338 0.0278893 1.06677 36 37 31
-0.542285 0.0270675 1.03533 36 36 31
-0.557201 0.0280929 1.07455 37 37 33
-0.60678 0.0309047 1.18211 37 38 34
-0.564563 0.029051 1.1112 38 38 35
-0.542636 0.0282135 1.07917 38 39 35
-0.534688 0.0280929 1.07455 38 38 35
-0.58729 0.0311849 1.19282 37 38 34
-0.563085 0.0302211 1.15596 37 38 34
-0.567252 0.0307757 1.17717 37 38 34
-0.588054 0.0322549 1.23375 37 37 33
-0.581592 0.0322549 1.23375 37 37 33
-0.572636 0.032115 1.2284 37 37 34
-0.576771 0.0327146 1.25133 37 37 34
-0.549028 0.0314989 1.20483 37 37 33
-0.550466 0.0319486 1.22203 37 37 33
-0.566132 0.0332444 1.2716 38 38 34
-0.57984 0.0344547 1.31789 38 38 34
-0.603763 0.0363085 1.3888 38 38 34
-0.568154 0.0345838 1.32283 37 37 34
-0.583077 0.0359303 1.37433 36 37 33
-0.520527 0.0324768 1.24224 36 37 33
-0.560934 0.0354409 1.35562 36 37 33
-0.561482 0.0359303 1.37433 37 37 33
-0.522354 0.0338606 1.29517 37 38 34
-0.539633 0.0354409 1.35562 38 38 34
-0.558152 0.037146 1.42083 37 37 32
-0.559025 0.0377068 1.44228 36 36 31
-0.538998 0.036854 1.40967 37 37 33
-0.565682 0.0392157 1.5 38 38 34
-0.542065 0.0381077 1.45762 37 37 33
-0.549969 0.0392157 1.5 37 37 32
-0.61614 0.0445708 1.70483 37 37 32
-0.551663 0.0404935 1.54887 38 38 34
-0.563294 0.0419644 1.60514 39 38 34
-0.599348 0.0453268 1.73375 38 37 33
-0.568393 0.0436471 1.6695 37 37 32
-0.571492 0.0445708 1.70483 37 35 31
-0.592371 0.0469325 1.79517 37 36 32
-0.553633 0.0445708 1.70483 37 36 33
-0.544704 0.0445708 1.70483 37 37 34
-0.52467 0.0436471 1.6695 37 37 34
-0.518296 0.0438476 1.67717 37 37 34
-0.525074 0.0451869 1.7284 37 37 34
-0.514923 0.0450907 1.72472 37 38 34
-0.504501 0.044967 1.71999 37 37 34
-0.491126 0.0445708 1.70483 38 38 35
-0.486483 0.044967 1.71999 38 39 35
-0.473267 0.0445708 1.70483 37 37 34
-0.452533 0.0434377 1.66149 36 37 33
-0.455408 0.0445708 1.70483 37 37 33
-0.450025 0.0449249 1.71838 37 37 34
-0.44497 0.0453268 1.73375 37 37 34
-0.439043 0.0456547 1.74629 37 38 34
-0.416046 0.0441838 1.69003 37 38 35
-0.41076 0.0445708 1.70483 37 38 35
-0.40183 0.0445708 1.70483 37 37 34
-0.376666 0.0427291 1.63439 37 37 33
-0.393309 0.0456547 1.74629 38 37 34
-0.365508 0.0434377 1.66149 38 37 34
-0.356805 0.0434377 1.66149 38 38 34
-0.354404 0.0442241 1.69157 38 38 34
-0.35102 0.0449249 1.71838 37 37 34
-0.333818 0.0438476 1.67717 36 36 33
-0.330394 0.0445708 1.70483 36 36 33
-0.324322 0.044967 1.71999 36 36 33
-0.307464 0.0438476 1.67717 37 37 34
-0.308755 0.0453268 1.73375 37 37 34
-0.282499 0.0427291 1.63439 37 37 34
-0.292695 0.0456547 1.74629 37 36 34
-0.272325 0.0438476 1.67717 36 35 33
-0.261077 0.0434377 1.66149 35 35 33
-0.26335 0.0453268 1.73375 37 37 35
-0.245971 0.0438476 1.67717 40 39 37
-0.239223 0.0442241 1.69157 39 38 36
-0.232169 0.0445708 1.70483 38 37 35
-0.216162 0.0431577 1.65078 37 36 34
-0.212449 0.0441838 1.69003 37 35 33
-0.202048 0.0438476 1.67717 38 37 35
-0.19645 0.0445708 1.70483 38 37 35
-0.187521 0.0445708 1.70483 37 36 34
-0.178591 0.0445708 1.70483 36 35 33
-0.161783 0.0425011 1.62567 36 35 33
-0.159153 0.0441329 1.68808 37 36 33
-0.143242 0.0420573 1.60869 38 37 34
-0.139241 0.0434377 1.66149 37 37 34
-0.130538 0.0434377 1.66149 38 37 34
-0.128424 0.0457865 1.75133 37 37 34
-0.115076 0.0441838 1.69003 36 36 33
-0.102727 0.0427291 1.63439 35 36 33
-0.09314 0.0422633 1.61657 36 37 34
-0.0870257 0.0434377 1.66149 37 38 35
-0.0803661 0.0445708 1.70483 37 38 35
-0.0708809 0.0442241 1.69157 37 38 35
-0.0620207 0.0442241 1.69157 36 36 33
-0.0527081 0.0438476 1.67717 35 36 32
-0.0438352 0.0437595 1.6738 36 36 33
-0.0363241 0.0453268 1.73375 36 36 33
-0.025278 0.0420573 1.60869 36 36 34
-0.0171212 0.0427291 1.63439 36 36 34
-0.00864646 0.0431577 1.65078 36 36 34
0 0.0438476 1.67717 36 37 35
0.00867357 0.043293 1.65596 37 37 35
0.0171212 0.0427291 1.63439 38 39 37
0.0259394 0.0431577 1.65078 38 38 36
0.0344518 0.0429904 1.64438 37 37 35
0.0423364 0.0422633 1.61657 37 37 35
0.0531606 0.0442241 1.69157 37 37 35
0.0583089 0.0415774 1.59033 38 37 35
0.0714365 0.0445708 1.70483 38 38 35
0.079741 0.0442241 1.69157 38 38 35
0.0878468 0.0438476 1.67717 38 38 35
0.0954093 0.043293 1.65596 37 37 34
0.106321 0.0442241 1.69157 37 36 34
0.116918 0.0448908 1.71707 37 37 34
0.122159 0.0435531 1.6659 37 37 34
0.129697 0.0431577 1.65078 37 37 34
0.140555 0.0438476 1.67717 37 36 34
0.14699 0.0431577 1.65078 37 36 34
0.160732 0.0445708 1.70483 37 36 34
0.166909 0.0438476 1.67717 36 36 33
0.171212 0.0427291 1.63439 36 36 33
0.184478 0.0438476 1.67717 36 36 32
0.190222 0.0431577 1.65078 36 36 32
0.20538 0.0445708 1.70483 36 36 32
0.21841 0.0454236 1.73745 35 35 31
0.209143 0.0417563 1.59718 36 36 33
0.222575 0.0427291 1.63439 37 37 33
0.234186 0.043293 1.65596 36 36 32
0.245971 0.0438476 1.67717 35 36 32
0.261259 0.044967 1.71999 36 37 33
0.263011 0.0437595 1.6738 36 37 34
0.265378 0.0427291 1.63439 36 37 34
0.28111 0.0438476 1.67717 36 37 34
0.294676 0.0445708 1.70483 36 37 34
0.294901 0.043293 1.65596 36 37 33
0.310104 0.0442241 1.69157 36 37 34
0.332599 0.0461146 1.76388 36 36 33
0.327824 0.0442241 1.69157 36 36 33
0.325302 0.0427291 1.63439 35 35 33
0.3394 0.0434377 1.66149 35 35 33
0.36002 0.0449249 1.71838 36 36 33
0.353131 0.0429904 1.64438 36 36 33
0.368216 0.0437595 1.6738 36 36 33
0.380637 0.0441838 1.69003 36 36 33
0.38575 0.0437595 1.6738 35 36 32
0.40183 0.0445708 1.70483 36 36 34
0.407194 0.0441838 1.69003 37 37 35
0.42342 0.044967 1.71999 36 36 34
0.428619 0.0445708 1.70483 35 36 34
0.448189 0.0456547 1.74629 36 36 34
0.442602 0.0441838 1.69003 37 36 34
0.451454 0.0441838 1.69003 37 36 34
0.455886 0.0437595 1.6738 37 36 34
0.481295 0.0453268 1.73375 37 36 35
0.47342 0.0437595 1.6738 37 36 34
0.50307 0.0456547 1.74629 37 36 35
0.504501 0.044967 1.71999 37 37 35
0.499721 0.0437595 1.6738 36 36 34
0.522519 0.044967 1.71999 35 35 33
0.521668 0.0441329 1.68808 35 35 33
0.526022 0.0437595 1.6738 36 36 34
0.569998 0.0466405 1.784 36 36 33
0.564226 0.0454236 1.73745 35 36 33
0.572105 0.0453268 1.73375 36 36 34
0.598589 0.0466841 1.78567 36 37 34
0.600526 0.0461146 1.76388 36 37 34
0.579789 0.0438476 1.67717 35 36 33
0.608429 0.0453268 1.73375 35 36 33
0.623772 0.0457865 1.75133 35 36 33
0.632945 0.0457865 1.75133 34 35 33
0.635672 0.0453268 1.73375 34 35 33
0.639036 0.0449249 1.71838 35 36 34
0.665198 0.0461146 1.76388 36 37 35
0.669638 0.0457865 1.75133 35 37 34
0.686666 0.0463163 1.7716 34 36 33
0.681077 0.0453268 1.73375 34 35 32
0.695151 0.0456547 1.74629 34 35 32
0.719505 0.0466405 1.784 34 35 33
0.720631 0.0461146 1.76388 32 34 31
0.738194 0.0466405 1.784 34 35 33
0.720715 0.044967 1.71999 35 36 34
0.771262 0.0475266 1.81789 34 35 33
0.732224 0.0445708 1.70483 33 35 32
0.780426 0.0469325 1.79517 34 35 33
0.773371 0.0459546 1.75776 34 35 33
0.782578 0.0459546 1.75776 34 35 34
0.808634 0.0469325 1.79517 35 36 34
0.835776 0.0479502 1.8341 34 35 33
0.822292 0.0466405 1.784 32 34 31
0.859626 0.0482102 1.84404 33 35 32
0.821294 0.0455487 1.74224 34 35 33
0.883157 0.0484414 1.85288 32 34 31
0.831104 0.0450907 1.72472 30 32 30
0.821055 0.0440666 1.68555 31 33 32
0.913617 0.0485128 1.85562 31 34 33
0.932651 0.0490022 1.87433 32 34 33
0.910104 0.0473195 1.80997 32 34 34
0.912064 0.0469325 1.79517 32 35 34
0.921467 0.0469325 1.79517 33 35 35
0.94919 0.0478562 1.8305 35 37 36
0.996658 0.0497469 1.90282 36 38 38
0.97553 0.0482102 1.84404 35 38 37
1.00734 0.0492942 1.8855 33 38 37
0.976466 0.0473195 1.80997 32 36 36
0.988388 0.0474367 1.81445 32 37 36
0.977825 0.0464828 1.77797 33 37 37
1.04684 0.0492942 1.8855 34 38 38
1.04287 0.0486481 1.86079 35 40 39
1.03548 0.0478562 1.8305 37 41 41
1.10162 0.0504458 1.92955 37 42 41
1.0343 0.0469325 1.79517 37 41 41
1.07212 0.0482102 1.84404 34 38 38
1.06933 0.0476557 1.82283 31 36 36
1.11597 0.0492942 1.8855 33 37 37
1.15215 0.0504458 1.92955 35 39 38
1.15701 0.0502179 1.92083 35 38 38
1.12041 0.0482102 1.84404 34 37 37
1.17029 0.0499259 1.90967 34 37 37
1.23612 0.0522876 2 34 37 37
1.2466 0.0522876 2 34 38 38
-0.628536 0.0313726 1 37 36 30
-0.646612 0.032546 1.03741 37 37 31
-0.594941 0.0301991 0.962595 37 37 32
-0.612822 0.0313726 1 36 37 32
-0.629051 0.032481 1.03533 36 37 33
-0.624877 0.032546 1.03741 37 37 33
-0.597109 0.0313726 1 37 37 33
-0.631388 0.0334672 1.06677 37 37 33
-0.609944 0.0326192 1.03974 37 38 34
-0.603142 0.032546 1.03741 38 38 35
-0.596514 0.032481 1.03533 37 37 33
-0.591091 0.032481 1.03533 37 37 31
-0.625156 0.034671 1.10514 36 36 31
-0.599926 0.0335826 1.07045 36 36 30
-0.594319 0.0335826 1.07045 36 36 30
-0.607791 0.034671 1.10514 36 36 30
-0.544731 0.0313726 1 36 36 31
-0.579714 0.0337115 1.07455 37 37 32
-0.553131 0.032481 1.03533 37 38 33
-0.591439 0.0350744 1.118 37 37 32
-0.585584 0.0350744 1.118 36 37 32
-0.539147 0.0326192 1.03974 37 37 33
-0.551573 0.0337115 1.07455 37 37 34
-0.587303 0.0362654 1.15596 38 38 34
-0.58625 0.0365774 1.1659 38 39 35
-0.556304 0.0350744 1.118 38 39 35
-0.579583 0.0369309 1.17717 37 38 34
-0.56793 0.0365774 1.1659 37 37 33
-0.552769 0.035988 1.14712 36 37 33
-0.574271 0.0377987 1.20483 36 36 32
-0.530641 0.035315 1.12567 36 37 32
-0.592774 0.0398933 1.2716 37 37 34
-0.548516 0.0373343 1.19003 37 37 33
-0.566073 0.0389722 1.24224 37 37 32
-0.559567 0.0389722 1.24224 37 37 32
-0.611871 0.0431164 1.37433 38 37 34
-0.611037 0.0435702 1.3888 38 37 33
-0.544 0.0392575 1.25133 38 37 34
-0.556273 0.0406327 1.29517 37 37 33
-0.583077 0.0431164 1.37433 37 37 33
-0.554297 0.0415005 1.32283 36 37 33
-0.56868 0.0431164 1.37433 36 36 32
-0.592854 0.0455255 1.45113 36 37 33
-0.554283 0.0431164 1.37433 37 37 33
-0.597109 0.0470588 1.5 37 37 33
-0.558152 0.0445752 1.42083 37 37 33
-0.581395 0.0470588 1.5 37 37 32
-0.628745 0.0515885 1.64438 37 37 33
-0.599749 0.0498928 1.59033 37 37 33
-0.518727 0.0437604 1.39486 37 37 32
-0.549969 0.0470588 1.5 36 36 31
-0.587529 0.0510013 1.62567 37 37 32
-0.534255 0.0470588 1.5 38 38 33
-0.563294 0.0503572 1.60514 38 38 34
-0.612432 0.0555796 1.7716 38 38 34
-0.571004 0.0526171 1.67717 38 37 33
-0.559648 0.0523765 1.6695 37 36 32
-0.562563 0.0534849 1.70483 37 36 32
-0.534003 0.0515885 1.64438 37 37 33
-0.561615 0.0551455 1.75776 37 37 34
-0.579523 0.0578523 1.84404 36 37 33
-0.55476 0.056319 1.79517 36 36 32
-0.517915 0.0534849 1.70483 36 37 34
-0.498437 0.0523765 1.6695 37 37 34
-0.495143 0.0529595 1.68808 37 37 34
-0.499457 0.0543922 1.73375 37 38 34
-0.475139 0.0527021 1.67988 38 38 35
-0.453711 0.0512749 1.63439 38 38 35
-0.468465 0.0539604 1.71999 38 38 35
-0.447119 0.0525115 1.6738 36 36 33
-0.470136 0.056319 1.79517 36 36 32
-0.434145 0.0530689 1.69157 35 36 32
-0.425285 0.0530689 1.69157 35 36 32
-0.426808 0.0543922 1.73375 36 37 34
-0.404095 0.0526171 1.67717 37 38 34
-0.391615 0.0521253 1.66149 37 38 34
-0.389489 0.0530206 1.69003 37 37 34
-0.397271 0.0553375 1.76388 37 37 33
-0.381403 0.0543922 1.73375 37 37 33
-0.369021 0.0539098 1.71838 37 37 34
-0.357183 0.0534849 1.70483 37 37 34
-0.342602 0.0526171 1.67717 36 37 34
-0.336684 0.0530689 1.69157 37 37 34
-0.327525 0.0530206 1.69003 37 38 35
-0.321464 0.0534849 1.70483 37 38 35
-0.302626 0.0517893 1.65078 38 38 35
-0.298679 0.0526171 1.67717 37 37 34
-0.282499 0.0512749 1.63439 37 37 34
-0.28111 0.0526171 1.67717 36 36 34
-0.274663 0.0530689 1.69157 35 35 33
-0.263011 0.0525115 1.6738 36 35 33
-0.258957 0.0534849 1.70483 36 36 34
-0.252014 0.0539098 1.71838 37 37 35
-0.239223 0.0530689 1.69157 38 37 35
-0.236107 0.0543922 1.73375 38 36 34
-0.209143 0.0501076 1.59718 37 35 33
-0.212449 0.0530206 1.69003 37 36 33
-0.207012 0.0539098 1.71838 38 37 35
-0.191456 0.0521253 1.66149 38 37 35
-0.182754 0.0521253 1.66149 37 37 34
-0.167314 0.0501076 1.59718 36 36 33
-0.169662 0.0534849 1.70483 36 35 32
-0.157807 0.0525115 1.6738 36 36 33
-0.151803 0.0534849 1.70483 37 37 34
-0.147309 0.0551455 1.75776 37 37 34
-0.136215 0.0543922 1.73375 37 36 34
-0.119848 0.0512749 1.63439 37 36 33
-0.113434 0.0522637 1.6659 37 37 34
-0.109506 0.0546584 1.74224 37 37 34
-0.0973724 0.0530206 1.69003 37 37 34
-0.0856058 0.0512749 1.63439 37 38 35
-0.0770452 0.0512749 1.63439 37 38 35
-0.0725247 0.0542997 1.7308 37 37 34
-0.062507 0.0534849 1.70483 35 36 32
-0.0535774 0.0534849 1.70483 35 36 33
-0.0430648 0.0515885 1.64438 36 36 33
-0.0340596 0.0510013 1.62567 36 36 33
-0.0267887 0.0534849 1.70483 35 36 33
-0.0171944 0.0514943 1.64138 35 36 34
-0.00851491 0.0510013 1.62567 35 36 34
0 0.0539098 1.71838 36 36 34
0.00864646 0.0517893 1.65078 36 37 35
0.0174513 0.0522637 1.6659 37 38 36
0.0265803 0.0530689 1.69157 38 38 36
0.0340596 0.0510013 1.62567 37 37 35
0.0432323 0.0517893 1.65078 37 37 35
0.0527081 0.0526171 1.67717 37 37 35
0.0610797 0.0522637 1.6659 37 37 35
0.0708163 0.0530206 1.69003 37 37 35
0.078531 0.0522637 1.6659 36 36 33
0.0878468 0.0526171 1.67717 36 36 34
0.0959824 0.0522637 1.6659 37 37 34
0.106321 0.0530689 1.69157 37 37 34
0.118053 0.0543922 1.73375 36 36 33
0.122986 0.0526171 1.67717 36 36 32
0.135008 0.0539098 1.71838 36 35 32
0.13373 0.0500621 1.59573 37 36 33
0.146153 0.0514943 1.64138 36 36 33
0.158124 0.0526171 1.67717 36 36 33
0.160878 0.050716 1.61657 36 36 33
0.180179 0.0539604 1.71999 36 36 33
0.178813 0.0510013 1.62567 36 36 33
0.193263 0.0526171 1.67717 36 36 33
0.198869 0.0517893 1.65078 37 37 33
0.208862 0.0521253 1.66149 37 37 34
0.219617 0.0526171 1.67717 37 37 34
0.224808 0.0517893 1.65078 37 37 33
0.231136 0.0512749 1.63439 36 36 33
0.248083 0.0530689 1.69157 36 36 33
0.258957 0.0534849 1.70483 36 37 34
0.263011 0.0525115 1.6738 36 37 33
0.261206 0.0504688 1.60869 36 36 33
0.280545 0.0525115 1.6738 35 36 33
0.289894 0.0526171 1.67717 36 37 34
0.303605 0.0534849 1.70483 37 37 34
0.301453 0.0515885 1.64438 37 37 34
0.326917 0.0543922 1.73375 36 37 34
0.318679 0.0515885 1.64438 37 37 34
0.336684 0.0530689 1.69157 36 36 34
0.3394 0.0521253 1.66149 36 36 33
0.340596 0.0510013 1.62567 36 36 33
0.363264 0.0530689 1.69157 36 36 33
0.381403 0.0543922 1.73375 36 36 33
0.380199 0.0529595 1.68808 37 37 34
0.396393 0.0539604 1.71999 36 37 33
0.398342 0.0530206 1.69003 37 37 34
0.407194 0.0530206 1.69003 36 37 34
0.393188 0.0501076 1.59718 35 35 32
0.428619 0.0534849 1.70483 35 36 33
0.426426 0.0521253 1.66149 36 36 33
0.461943 0.0553375 1.76388 36 36 33
0.43926 0.0515885 1.64438 36 36 33
0.447873 0.0515885 1.64438 36 36 34
0.469158 0.0530206 1.69003 36 36 34
0.474373 0.0526171 1.67717 37 36 34
0.51142 0.055695 1.77528 37 36 35
0.520719 0.055695 1.77528 37 36 34
0.508985 0.0534849 1.70483 36 36 34
0.508488 0.0525115 1.6738 36 35 33
0.535781 0.0543922 1.73375 35 35 33
0.544862 0.0543922 1.73375 35 36 34
0.544704 0.0534849 1.70483 36 36 34
0.572809 0.0553375 1.76388 36 37 34
0.582048 0.0553375 1.76388 36 37 34
0.576032 0.0539098 1.71838 36 37 34
0.596253 0.0549437 1.75133 36 37 34
0.589351 0.0534849 1.70483 35 36 33
0.616856 0.0551455 1.75776 35 35 32
0.628243 0.0553375 1.76388 34 35 32
0.637481 0.0553375 1.76388 34 35 32
0.650899 0.055695 1.77528 34 35 32
0.644753 0.0543922 1.73375 35 36 34
0.673413 0.0560209 1.78567 36 37 34
0.674437 0.0553375 1.76388 35 37 34
0.673431 0.0545083 1.73745 34 35 32
0.687984 0.0549437 1.75133 33 35 32
0.70669 0.055695 1.77528 34 35 33
0.724009 0.056319 1.79517 34 36 34
0.70832 0.0543922 1.73375 33 35 32
0.711706 0.0539604 1.71999 33 35 32
0.733849 0.0549437 1.75133 34 35 33
0.751621 0.0555796 1.7716 34 35 33
0.771023 0.056319 1.79517 34 34 32
0.780426 0.056319 1.79517 34 35 33
0.789828 0.056319 1.79517 34 34 32
0.782578 0.0551455 1.75776 34 35 33
0.784792 0.0546584 1.74224 34 36 34
0.807297 0.0555796 1.7716 35 36 34
0.814111 0.0554118 1.76625 34 35 33
0.819405 0.0551455 1.75776 33 35 32
0.83986 0.0558941 1.78162 33 35 32
0.849192 0.0558941 1.78162 31 33 30
0.870838 0.0566958 1.80718 31 32 30
0.880303 0.0566958 1.80718 31 32 32
0.913617 0.0582154 1.85562 31 32 31
0.907022 0.0571868 1.82283 31 33 32
0.922235 0.0575402 1.8341 30 33 33
0.912064 0.056319 1.79517 31 34 34
0.885306 0.0541089 1.72472 32 35 35
0.962214 0.0582154 1.85562 34 37 36
0.931262 0.0557793 1.77797 37 39 38
0.991555 0.0588026 1.87433 36 39 38
0.991372 0.0582154 1.85562 34 39 38
0.978885 0.056924 1.81445 33 37 37
1.02101 0.0588026 1.87433 34 38 37
1.00672 0.0574274 1.8305 33 38 37
1.03312 0.0583778 1.86079 33 38 37
1.05046 0.0588026 1.87433 34 38 37
1.09547 0.0607545 1.93655 36 40 39
1.0249 0.056319 1.79517 37 42 41
1.15232 0.0627451 2 37 41 41
1.06424 0.0574274 1.8305 35 39 39
1.13194 0.060535 1.92955 33 38 37
1.18374 0.0627451 2 34 38 38
1.10109 0.0578523 1.84404 35 39 38
1.11075 0.0578523 1.84404 34 38 37
1.21517 0.0627451 2 34 37 37
1.17713 0.0602614 1.92083 33 37 36
1.23612 0.0627451 2 34 37 37
1.06262 0.0534849 1.70483 34 38 38
-0.605025 0.0352322 0.962595 36 35 29
-0.623298 0.0366013 1 37 36 31
-0.61806 0.0366013 1 37 37 32
-0.589899 0.0352322 0.962595 37 37 32
-0.607584 0.0366013 1 36 37 32
-0.602347 0.0366013 1 36 37 32
-0.618205 0.0378945 1.03533 36 37 32
-0.591871 0.0366013 1 36 36 31
-0.586633 0.0366013 1 36 36 32
-0.599886 0.0377654 1.0318 37 37 34
-0.596514 0.0378945 1.03533 37 37 33
-0.57092 0.0366013 1 37 37 32
-0.610465 0.0394989 1.07917 36 36 31
-0.599926 0.0391797 1.07045 36 36 30
-0.592276 0.0390451 1.06677 36 36 30
-0.590971 0.0393301 1.07455 36 36 30
-0.585342 0.0393301 1.07455 36 36 30
-0.599485 0.0406714 1.1112 37 37 31
-0.590425 0.0404495 1.10514 37 37 32
-0.606845 0.041986 1.14712 37 37 32
-0.565246 0.0394989 1.07917 36 36 31
-0.576204 0.0406714 1.1112 36 36 32
-0.533701 0.0380557 1.03974 36 36 32
-0.592357 0.0426736 1.1659 35 36 31
-0.548251 0.0399077 1.09033 35 36 31
-0.588205 0.0432666 1.18211 36 37 32
-0.547102 0.0406714 1.1112 37 37 33
-0.563085 0.0423096 1.15596 37 38 34
-0.542433 0.0412008 1.12567 37 37 33
-0.563438 0.0432666 1.18211 36 37 32
-0.520963 0.0404495 1.10514 36 36 32
-0.554749 0.0435567 1.19003 37 37 33
-0.576771 0.0458004 1.25133 37 37 33
-0.549028 0.0440984 1.20483 37 37 33
-0.542717 0.0440984 1.20483 37 36 32
-0.566132 0.0465422 1.2716 37 37 33
-0.598714 0.0498067 1.36079 37 36 32
-0.584305 0.0491937 1.34404 37 37 32
-0.590275 0.0503024 1.37433 36 36 32
-0.577331 0.0498067 1.36079 37 37 33
-0.608056 0.0531131 1.45113 36 37 33
-0.535922 0.0474048 1.29517 36 37 33
-0.592854 0.0531131 1.45113 37 37 33
-0.568533 0.0515956 1.40967 36 36 32
-0.577653 0.0531131 1.45113 36 36 31
-0.6059 0.0564531 1.54238 36 36 32
-0.562452 0.0531131 1.45113 37 37 32
-0.573539 0.054902 1.5 37 37 33
-0.565682 0.054902 1.5 38 38 33
-0.611519 0.0601866 1.64438 37 37 31
-0.602907 0.0601866 1.64438 36 36 31
-0.603371 0.0611059 1.6695 38 38 33
-0.607211 0.0623991 1.70483 39 38 34
-0.54355 0.0566908 1.54887 39 38 34
-0.561984 0.0595015 1.62567 39 38 34
-0.590267 0.0634575 1.73375 37 37 33
-0.571492 0.0623991 1.70483 36 36 32
-0.553435 0.0613867 1.67717 38 37 33
-0.582969 0.0657055 1.79517 38 38 35
-0.535865 0.0613867 1.67717 37 37 34
-0.527081 0.0613867 1.67717 36 36 32
-0.526844 0.0623991 1.70483 36 36 32
-0.517915 0.0623991 1.70483 36 36 34
-0.508985 0.0623991 1.70483 36 36 34
-0.504501 0.0629538 1.71999 36 37 34
-0.51036 0.0648428 1.7716 36 37 33
-0.469939 0.0608128 1.66149 37 37 34
-0.48966 0.0645604 1.76388 38 38 35
-0.460726 0.0619137 1.69157 38 38 35
-0.451865 0.0619137 1.69157 37 37 33
-0.438352 0.0612634 1.6738 36 36 32
-0.441438 0.0629538 1.71999 35 35 32
-0.428619 0.0623991 1.70483 35 35 32
-0.434226 0.0645604 1.76388 36 37 34
-0.396196 0.0601866 1.64438 36 37 33
-0.387583 0.0601866 1.64438 37 37 34
-0.382913 0.0608128 1.66149 37 37 33
-0.38982 0.0633496 1.7308 36 36 32
-0.375042 0.0623991 1.70483 36 36 32
-0.369021 0.0628948 1.71838 36 36 34
-0.351387 0.0613867 1.67717 37 37 34
-0.342602 0.0613867 1.67717 37 37 34
-0.342019 0.0628948 1.71838 37 37 34
-0.325033 0.0613867 1.67717 37 38 35
-0.324322 0.0629538 1.71999 38 38 35
-0.307464 0.0613867 1.67717 38 38 35
-0.303605 0.0623991 1.70483 38 37 35
-0.287185 0.0608128 1.66149 37 37 34
-0.285746 0.0623991 1.70483 37 37 34
-0.272325 0.0613867 1.67717 36 36 34
-0.259394 0.0604208 1.65078 36 36 34
-0.250747 0.0604208 1.65078 36 36 34
-0.245971 0.0613867 1.67717 37 36 34
-0.241098 0.0623991 1.70483 37 36 34
-0.230153 0.0618573 1.69003 37 36 34
-0.217564 0.0608128 1.66149 37 36 34
-0.205454 0.0598207 1.63439 37 36 34
-0.198098 0.0601866 1.64438 38 37 34
-0.189485 0.0601866 1.64438 37 36 34
-0.189188 0.0629538 1.71999 38 37 35
-0.172929 0.0604208 1.65078 38 37 35
-0.169662 0.0623991 1.70483 37 36 34
-0.15409 0.0598207 1.63439 37 36 34
-0.143944 0.0591686 1.61657 38 37 34
-0.142873 0.0623991 1.70483 38 37 35
-0.133943 0.0623991 1.70483 37 36 34
-0.121836 0.0608128 1.66149 36 35 33
-0.111968 0.0601866 1.64438 38 37 35
-0.102727 0.0598207 1.63439 39 39 36
-0.0974612 0.0619137 1.69157 38 38 35
-0.0878468 0.0613867 1.67717 37 37 34
-0.0815903 0.0633496 1.7308 37 37 34
-0.0714365 0.0623991 1.70483 37 38 35
-0.0620207 0.0619137 1.69157 37 37 34
-0.0513635 0.0598207 1.63439 37 37 34
-0.0438352 0.0612634 1.6738 37 37 34
