ply
format ascii 1.0
element vertex 1323
property float x
property float y
property float z
property uchar red
property uchar green
property uchar blue
end_header
-0.487459 -0.210556 0.894863 37 38 34
-0.498475 -0.217405 0.923969 36 37 33
-0.49196 -0.216667 0.920833 37 38 34
-0.502132 -0.223336 0.949179 37 38 35
-0.49716 -0.223336 0.949179 36 38 34
-0.492189 -0.223336 0.949179 37 38 34
-0.477143 -0.218718 0.929553 37 38 35
-0.495135 -0.229306 0.974549 37 39 35
-0.478253 -0.223794 0.951125 37 39 35
-0.484926 -0.229306 0.974549 36 37 33
-0.479822 -0.229306 0.974549 36 38 33
-0.461332 -0.22284 0.947071 36 38 34
-0.469102 -0.229056 0.973489 37 38 34
-0.464974 -0.229536 0.975527 36 38 33
-0.471402 -0.235294 1 35 37 32
-0.453806 -0.229056 0.973489 36 37 33
-0.460926 -0.235294 1 36 38 34
-0.455688 -0.235294 1 36 38 34
-0.476449 -0.248874 1.05772 36 37 33
-0.470909 -0.248874 1.05772 37 38 33
-0.46657 -0.249517 1.06045 37 38 34
-0.461016 -0.249517 1.06045 37 38 33
-0.468298 -0.256549 1.09033 36 37 32
-0.451181 -0.250224 1.06345 36 37 33
-0.460799 -0.258752 1.0997 36 37 34
-0.462611 -0.263058 1.118 37 39 35
-0.482947 -0.278143 1.18211 38 39 35
-0.453993 -0.264863 1.12567 37 38 34
-0.42465 -0.251004 1.06677 36 38 34
-0.468582 -0.280664 1.19282 37 37 34
-0.444619 -0.26991 1.14712 36 37 33
-0.451989 -0.278143 1.18211 37 38 34
-0.463256 -0.289035 1.2284 38 38 35
-0.433581 -0.27433 1.1659 37 38 34
-0.433414 -0.278143 1.18211 37 38 34
-0.417773 -0.27199 1.15596 37 37 33
-0.444738 -0.293804 1.24867 36 36 32
-0.422815 -0.28349 1.20483 36 36 32
-0.432579 -0.294431 1.25133 36 37 34
-0.448686 -0.310093 1.31789 37 38 34
-0.426264 -0.2992 1.2716 37 38 34
-0.43488 -0.310093 1.31789 38 38 35
-0.436469 -0.316245 1.34404 38 38 35
-0.422651 -0.311254 1.32283 36 37 33
-0.422389 -0.316245 1.34404 36 37 33
-0.429181 -0.326777 1.3888 37 37 34
-0.393462 -0.304745 1.29517 37 38 35
-0.414632 -0.326777 1.3888 37 38 35
-0.439975 -0.352941 1.5 37 38 34
-0.390524 -0.318968 1.35562 37 38 34
-0.412275 -0.34297 1.45762 37 37 33
-0.445591 -0.377679 1.60514 36 37 33
-0.408548 -0.352941 1.5 37 37 34
-0.385274 -0.339361 1.44228 37 37 34
-0.405634 -0.364441 1.54887 37 37 34
-0.408163 -0.374196 1.59033 36 37 34
-0.389409 -0.364441 1.54887 36 37 33
-0.404809 -0.386914 1.64438 36 36 32
-0.402247 -0.392824 1.6695 35 35 31
-0.383171 -0.38251 1.62567 36 36 32
-0.356958 -0.364441 1.54887 37 37 33
-0.347383 -0.362913 1.54238 37 37 34
-0.357626 -0.38251 1.62567 36 37 34
-0.385511 -0.422392 1.79517 36 37 34
-0.36212 -0.406682 1.7284 37 38 34
-0.342602 -0.394628 1.67717 37 37 33
-0.328172 -0.387954 1.64881 37 37 33
-0.321995 -0.39094 1.66149 37 37 34
-0.313292 -0.39094 1.66149 37 37 34
-0.307464 -0.394628 1.67717 37 37 34
-0.308755 -0.407941 1.73375 37 37 34
-0.297017 -0.404324 1.71838 37 37 34
-0.288286 -0.404703 1.71999 37 37 34
-0.286405 -0.415031 1.76388 38 38 35
-0.271968 -0.407248 1.7308 39 39 36
-0.256943 -0.398017 1.69157 39 39 36
-0.247857 -0.397654 1.69003 39 39 36
-0.241098 -0.401137 1.70483 37 37 34
-0.226867 -0.391978 1.6659 37 36 33
-0.228668 -0.410892 1.74629 38 38 35
-0.219521 -0.410892 1.74629 38 39 36
-0.207012 -0.404324 1.71838 38 39 36
-0.193263 -0.394628 1.67717 38 39 36
-0.193343 -0.413591 1.75776 38 39 36
-0.18001 -0.404324 1.71838 38 38 35
-0.168189 -0.397654 1.69003 37 37 34
-0.162009 -0.404324 1.71838 36 37 34
-0.154115 -0.407248 1.7308 36 37 34
-0.140782 -0.395266 1.67988 36 37 34
-0.133 -0.398311 1.69282 37 37 35
-0.122986 -0.394628 1.67717 37 38 35
-0.116084 -0.401137 1.70483 37 38 35
-0.104431 -0.39094 1.66149 37 38 35
-0.0966315 -0.394628 1.67717 37 38 35
-0.0892957 -0.401137 1.70483 37 38 35
-0.0790621 -0.394628 1.67717 36 37 34
-0.0708809 -0.398017 1.69157 36 37 34
-0.0630626 -0.404703 1.71999 38 38 35
-0.0535774 -0.401137 1.70483 38 39 36
-0.0428029 -0.384561 1.63439 37 37 34
-0.0348103 -0.39094 1.66149 36 37 34
-0.0267887 -0.401137 1.70483 37 37 35
-0.0178591 -0.401137 1.70483 37 38 35
-0.00861295 -0.386914 1.64438 37 38 35
0 -0.404703 1.71999 37 38 35
0.00914672 -0.410892 1.74629 37 38 35
0.0175341 -0.393836 1.6738 36 37 34
0.0270268 -0.404703 1.71999 36 37 34
0.0348103 -0.39094 1.66149 36 37 33
0.0435128 -0.39094 1.66149 37 37 34
0.0544862 -0.407941 1.73375 37 37 35
0.062507 -0.401137 1.70483 36 37 34
0.0720715 -0.404703 1.71999 36 36 34
0.0803661 -0.401137 1.70483 36 37 34
0.0886011 -0.398017 1.69157 37 37 34
0.0973724 -0.397654 1.69003 37 37 34
0.107155 -0.401137 1.70483 37 38 35
0.116084 -0.401137 1.70483 38 38 35
0.122986 -0.394628 1.67717 37 37 34
0.129697 -0.388419 1.65078 36 36 34
0.144008 -0.404324 1.71838 36 36 34
0.14934 -0.394628 1.67717 37 38 35
0.166299 -0.415031 1.76388 38 38 36
0.165349 -0.39094 1.66149 37 38 35
0.177041 -0.397654 1.69003 36 37 35
0.184478 -0.394628 1.67717 36 37 34
0.191456 -0.39094 1.66149 36 37 35
0.207012 -0.404324 1.71838 36 38 35
0.21431 -0.401137 1.70483 36 38 35
0.212873 -0.38251 1.62567 37 38 35
0.224808 -0.388419 1.65078 37 38 36
0.235593 -0.391978 1.6659 37 38 36
0.25225 -0.404703 1.71999 37 38 35
0.256413 -0.397196 1.68808 37 38 35
0.265255 -0.397196 1.68808 37 38 35
0.284367 -0.412078 1.75133 37 38 35
0.295644 -0.415031 1.76388 37 38 35
0.289312 -0.393836 1.6738 38 39 36
0.308755 -0.407941 1.73375 38 40 37
0.312535 -0.401137 1.70483 38 39 36
0.326361 -0.407248 1.7308 37 39 35
0.327525 -0.397654 1.69003 37 39 36
0.345079 -0.407941 1.73375 37 39 36
0.35416 -0.407941 1.73375 36 38 35
0.369554 -0.415031 1.76388 37 38 35
0.372322 -0.407941 1.73375 36 38 35
0.368957 -0.394628 1.67717 35 37 34
0.37421 -0.39094 1.66149 37 39 36
0.41372 -0.422392 1.79517 38 39 36
0.408646 -0.407941 1.73375 37 39 36
0.41076 -0.401137 1.70483 38 40 36
0.41288 -0.394628 1.67717 37 39 35
0.428619 -0.401137 1.70483 37 39 35
0.44497 -0.407941 1.73375 35 37 33
0.46034 -0.413591 1.75776 34 36 32
0.471182 -0.415031 1.76388 35 37 33
0.464337 -0.401137 1.70483 36 38 34
0.492823 -0.417713 1.77528 36 38 33
0.490376 -0.407941 1.73375 36 38 34
0.508137 -0.415031 1.76388 37 39 34
0.512217 -0.410892 1.74629 37 39 34
0.508985 -0.401137 1.70483 37 39 35
0.522029 -0.404324 1.71838 36 38 34
0.526844 -0.401137 1.70483 35 37 33
0.548803 -0.410892 1.74629 35 37 33
0.553943 -0.407941 1.73375 36 38 35
0.563024 -0.407941 1.73375 37 39 36
0.571132 -0.407248 1.7308 37 40 37
0.571492 -0.401137 1.70483 37 39 36
0.594537 -0.410892 1.74629 36 38 35
0.598329 -0.407248 1.7308 36 39 35
0.619004 -0.415031 1.76388 36 39 35
0.626062 -0.413591 1.75776 36 39 35
0.631124 -0.410892 1.74629 36 39 35
0.642118 -0.412078 1.75133 36 39 35
0.633999 -0.401137 1.70483 36 39 34
0.652723 -0.407248 1.7308 36 38 34
0.662915 -0.407941 1.73375 36 38 34
0.676858 -0.410892 1.74629 36 38 34
0.663903 -0.397654 1.69003 36 38 34
0.70669 -0.417713 1.77528 36 38 34
0.711392 -0.415031 1.76388 37 39 35
0.725287 -0.417713 1.77528 37 39 35
0.724676 -0.412078 1.75133 37 39 35
0.728033 -0.408812 1.73745 37 39 35
0.729724 -0.404703 1.71999 37 39 35
0.752196 -0.412078 1.75133 37 39 35
0.780426 -0.422392 1.79517 37 39 35
0.795113 -0.425218 1.80718 37 39 35
0.804578 -0.425218 1.80718 37 39 35
0.814044 -0.425218 1.80718 37 39 35
0.811865 -0.419206 1.78162 36 38 34
0.821197 -0.419206 1.78162 35 37 34
0.869682 -0.438968 1.86561 35 37 33
0.859285 -0.428901 1.82283 35 37 33
0.841864 -0.415588 1.76625 36 38 35
0.858524 -0.419206 1.78162 36 39 35
0.887927 -0.428901 1.82283 36 38 35
0.897475 -0.428901 1.82283 36 38 35
0.900624 -0.425875 1.80997 36 38 35
0.888121 -0.415588 1.76625 36 38 35
0.936895 -0.433892 1.84404 37 39 36
0.972641 -0.44585 1.89486 37 39 36
0.990241 -0.449333 1.90967 36 37 34
1.04756 -0.470588 2 34 36 32
0.997463 -0.443647 1.8855 35 37 34
0.991372 -0.436615 1.85562 36 39 35
1.01721 -0.443647 1.8855 36 39 35
0.988388 -0.42693 1.81445 35 38 34
1.06504 -0.455659 1.93655 35 38 33
0.975921 -0.413591 1.75776 35 38 34
1.12089 -0.470588 2 35 38 34
1.01549 -0.422392 1.79517 35 38 34
1.0249 -0.422392 1.79517 36 39 35
1.1067 -0.451961 1.92083 36 39 35
0.991182 -0.401137 1.70483 36 39 36
1.22626 -0.491843 2.09033 36 39 36
1.13689 -0.451961 1.92083 34 37 34
1.04957 -0.413591 1.75776 34 36 33
1.15028 -0.449333 1.90967 36 38 35
1.09072 -0.422392 1.79517 37 39 36
1.17029 -0.449333 1.90967 37 39 36
1.15845 -0.44102 1.87433 35 38 35
1.11892 -0.422392 1.79517 34 37 34
-0.534285 -0.195566 0.850047 38 37 33
-0.514967 -0.190079 0.826197 37 37 33
-0.510639 -0.190079 0.826197 36 37 32
-0.517247 -0.194185 0.844042 36 36 32
-0.559484 -0.211852 0.920833 36 37 32
-0.484219 -0.184947 0.803887 36 37 33
-0.522073 -0.201154 0.874334 37 38 34
-0.503118 -0.195566 0.850047 38 39 34
-0.529624 -0.207708 0.90282 37 38 33
-0.505373 -0.199982 0.869241 37 38 33
-0.489761 -0.195566 0.850047 37 38 33
-0.513255 -0.206828 0.898997 38 38 34
-0.480856 -0.195566 0.850047 38 38 34
-0.501521 -0.205877 0.894863 38 39 35
-0.496834 -0.205877 0.894863 38 38 34
-0.504557 -0.211069 0.917429 37 38 34
-0.487459 -0.205877 0.894863 36 37 33
-0.494946 -0.211069 0.917429 36 37 33
-0.495184 -0.21324 0.926867 37 38 34
-0.481229 -0.209283 0.909666 37 38 35
-0.49818 -0.218821 0.951125 36 38 34
-0.466167 -0.206828 0.898997 37 38 34
-0.501207 -0.224643 0.976432 37 39 35
-0.47091 -0.21324 0.926867 38 39 36
-0.502828 -0.230065 1 37 39 35
-0.472302 -0.218373 0.949179 35 37 32
-0.492353 -0.230065 1 36 38 33
-0.487115 -0.230065 1 36 38 34
-0.456372 -0.217888 0.947071 37 38 34
-0.476639 -0.230065 1 37 39 34
-0.471402 -0.230065 1 36 38 34
-0.478028 -0.235921 1.02545 35 37 32
-0.460926 -0.230065 1 35 37 33
-0.468866 -0.236718 1.02892 35 36 32
-0.45045 -0.230065 1 35 37 32
-0.481974 -0.249062 1.08257 36 37 32
-0.46657 -0.243972 1.06045 37 38 34
-0.461016 -0.243972 1.06045 37 38 34
-0.47021 -0.251872 1.09479 36 37 33
-0.452588 -0.245426 1.06677 36 37 33
-0.433828 -0.238194 1.03533 37 38 35
-0.455039 -0.253002 1.0997 37 39 35
-0.445454 -0.250848 1.09033 38 39 35
-0.448158 -0.255649 1.1112 37 39 35
-0.456636 -0.263912 1.14712 38 39 35
-0.457188 -0.267754 1.16382 37 38 34
-0.436305 -0.258977 1.12567 37 37 34
-0.422559 -0.254254 1.10514 37 38 34
-0.435937 -0.265946 1.15596 37 38 34
-0.429882 -0.265946 1.15596 37 38 34
-0.446712 -0.280306 1.21838 37 38 34
-0.440331 -0.280306 1.21838 37 38 34
-0.445687 -0.287888 1.25133 36 37 33
-0.447537 -0.293398 1.27528 36 37 33
-0.422451 -0.281148 1.22203 36 37 34
-0.440948 -0.297973 1.29517 37 38 35
-0.434165 -0.297973 1.29517 37 39 35
-0.419604 -0.292551 1.2716 38 39 35
-0.406362 -0.287888 1.25133 38 38 34
-0.439107 -0.316187 1.37433 37 38 33
-0.407029 -0.297973 1.29517 36 37 33
-0.415349 -0.309217 1.34404 37 37 34
-0.393462 -0.297973 1.29517 36 38 34
-0.404725 -0.31188 1.35562 36 38 34
-0.413478 -0.324315 1.40967 37 38 34
-0.41991 -0.335348 1.45762 38 39 35
-0.410438 -0.333854 1.45113 37 38 34
-0.416405 -0.345098 1.5 37 38 34
-0.433152 -0.365881 1.59033 37 38 34
-0.412012 -0.354848 1.54238 37 38 35
-0.40795 -0.358376 1.55772 37 37 34
-0.411962 -0.369286 1.60514 36 37 34
-0.362611 -0.33182 1.44228 36 37 33
-0.410992 -0.384094 1.6695 36 36 32
-0.417727 -0.398876 1.73375 36 36 32
-0.378332 -0.369286 1.60514 36 36 33
-0.399565 -0.398876 1.73375 37 37 34
-0.383971 -0.392223 1.70483 37 38 34
-0.361744 -0.378316 1.64438 37 38 34
-0.372322 -0.398876 1.73375 36 37 33
-0.351387 -0.385859 1.67717 37 37 34
-0.338269 -0.380979 1.65596 36 37 33
-0.335485 -0.387786 1.68555 36 37 33
-0.341838 -0.405808 1.76388 36 37 33
-0.326361 -0.398198 1.7308 36 37 33
-0.327353 -0.41082 1.78567 35 36 32
-0.306017 -0.395339 1.71838 36 37 33
-0.287185 -0.382252 1.66149 36 37 33
-0.275614 -0.378316 1.64438 36 37 34
-0.270496 -0.383267 1.6659 38 38 35
-0.267887 -0.392223 1.70483 39 39 36
-0.258957 -0.392223 1.70483 39 39 36
-0.250028 -0.392223 1.70483 39 39 36
-0.243014 -0.395339 1.71838 38 38 35
-0.234013 -0.395339 1.71838 38 38 35
-0.219617 -0.385859 1.67717 38 38 36
-0.207515 -0.379788 1.65078 38 39 36
-0.203597 -0.388817 1.69003 38 39 36
-0.19645 -0.392223 1.70483 38 38 35
-0.183239 -0.383267 1.6659 37 38 35
-0.175694 -0.385859 1.67717 37 38 35
-0.17254 -0.398876 1.73375 36 37 34
-0.163459 -0.398876 1.73375 36 36 34
-0.147944 -0.382252 1.66149 36 37 34
-0.138343 -0.379788 1.65078 36 37 34
-0.133943 -0.392223 1.70483 36 37 34
-0.125014 -0.392223 1.70483 37 38 35
-0.115076 -0.388817 1.69003 37 38 35
-0.108006 -0.395339 1.71838 38 38 35
-0.0990984 -0.39571 1.71999 38 39 36
-0.0892957 -0.392223 1.70483 37 38 35
-0.0791898 -0.386482 1.67988 36 37 34
-0.0731738 -0.401761 1.74629 36 37 34
-0.0620207 -0.389172 1.69157 37 38 35
-0.0531606 -0.389172 1.69157 37 37 35
-0.0442602 -0.388817 1.69003 36 37 34
-0.0344518 -0.378316 1.64438 36 37 34
-0.0261077 -0.382252 1.66149 37 37 35
-0.0178591 -0.392223 1.70483 36 37 34
-0.00851491 -0.374009 1.62567 36 36 34
0 -0.380979 1.65596 36 37 34
0.00846727 -0.371917 1.61657 37 37 35
0.0181621 -0.398876 1.73375 37 38 35
0.0267887 -0.392223 1.70483 37 38 35
0.0351387 -0.385859 1.67717 37 38 35
0.0446478 -0.392223 1.70483 37 37 34
0.0522154 -0.382252 1.66149 36 37 34
0.062507 -0.392223 1.70483 36 37 34
0.0708809 -0.389172 1.69157 36 37 34
0.0791898 -0.386482 1.67988 37 37 35
0.0879887 -0.386482 1.67988 37 37 35
0.0951111 -0.379788 1.65078 37 38 34
0.108107 -0.39571 1.71999 37 37 34
0.112404 -0.379788 1.65078 37 38 35
0.126007 -0.395339 1.71838 37 37 34
0.132902 -0.389172 1.69157 35 36 33
0.142873 -0.392223 1.70483 36 37 34
0.153009 -0.395339 1.71838 38 38 35
0.156646 -0.382252 1.66149 38 38 36
0.168189 -0.388817 1.69003 37 38 35
0.175694 -0.385859 1.67717 36 37 35
0.185893 -0.388817 1.69003 36 37 34
0.199443 -0.398198 1.7308 36 37 35
0.202374 -0.386482 1.67988 37 38 36
0.210409 -0.385084 1.6738 36 38 36
0.217564 -0.382252 1.66149 36 37 35
0.226267 -0.382252 1.66149 36 38 35
0.241098 -0.392223 1.70483 37 38 36
0.258688 -0.405808 1.76388 37 38 35
0.261259 -0.39571 1.71999 37 39 36
0.267887 -0.392223 1.70483 37 39 36
0.274413 -0.388817 1.69003 37 39 36
0.285746 -0.392223 1.70483 38 39 36
0.294676 -0.392223 1.70483 38 40 37
0.306304 -0.39571 1.71999 39 40 37
0.312535 -0.392223 1.70483 38 40 37
0.313292 -0.382252 1.66149 37 39 36
0.32438 -0.385084 1.6738 38 39 36
0.339324 -0.392223 1.70483 37 39 35
0.351349 -0.39571 1.71999 36 38 35
0.363241 -0.398876 1.73375 36 38 35
0.372322 -0.398876 1.73375 37 39 36
0.371785 -0.388817 1.69003 37 38 35
0.377741 -0.385859 1.67717 37 39 36
0.409136 -0.40843 1.77528 38 39 36
0.415749 -0.405808 1.76388 37 39 35
0.414023 -0.395339 1.71838 37 39 35
0.423024 -0.395339 1.71838 37 39 35
0.432429 -0.39571 1.71999 36 38 35
0.437549 -0.392223 1.70483 36 38 34
0.446478 -0.392223 1.70483 35 38 34
0.459026 -0.395339 1.71838 35 37 34
0.47563 -0.401761 1.74629 36 38 34
0.481295 -0.398876 1.73375 36 38 34
0.493923 -0.401761 1.74629 36 38 34
0.50307 -0.401761 1.74629 36 38 34
0.513695 -0.402921 1.75133 36 38 34
0.517619 -0.398876 1.73375 37 39 35
0.53051 -0.401761 1.74629 37 39 35
0.53103 -0.395339 1.71838 37 39 36
0.548803 -0.401761 1.74629 37 39 36
0.567212 -0.40843 1.77528 37 39 36
0.57651 -0.40843 1.77528 38 40 36
0.576244 -0.401761 1.74629 38 40 37
0.58539 -0.401761 1.74629 37 39 36
0.575382 -0.388817 1.69003 35 38 34
0.607649 -0.4044 1.75776 35 38 34
0.612831 -0.401761 1.74629 35 38 34
0.621977 -0.401761 1.74629 36 39 35
0.6416 -0.40843 1.77528 36 39 35
0.665261 -0.417443 1.81445 36 39 35
0.66406 -0.41082 1.78567 36 39 35
0.665198 -0.405808 1.76388 36 39 34
0.690262 -0.41533 1.80527 36 38 34
0.671996 -0.398876 1.73375 36 38 34
0.686004 -0.401761 1.74629 36 38 34
0.710825 -0.41082 1.78567 36 38 34
0.70633 -0.402921 1.75133 36 38 34
0.741291 -0.417443 1.81445 36 38 34
0.724676 -0.402921 1.75133 37 39 35
0.756451 -0.41533 1.80527 37 39 35
0.743023 -0.402921 1.75133 36 38 34
0.760901 -0.407584 1.7716 36 39 35
0.775571 -0.410436 1.784 36 38 34
0.764435 -0.399727 1.73745 37 39 35
0.811546 -0.41937 1.82283 37 40 36
0.86021 -0.439348 1.90967 37 39 35
0.811865 -0.40989 1.78162 36 38 35
0.845382 -0.421962 1.8341 36 38 34
0.825856 -0.407584 1.7716 36 38 34
0.851906 -0.415769 1.80718 36 38 34
0.861372 -0.415769 1.80718 36 38 35
0.872183 -0.416411 1.80997 36 39 35
0.860367 -0.406353 1.76625 35 38 35
0.897475 -0.41937 1.82283 36 38 35
0.893258 -0.413006 1.79517 36 38 35
0.894011 -0.409048 1.77797 36 38 35
0.962716 -0.435942 1.89486 36 38 35
0.946554 -0.42425 1.84404 36 38 34
0.956213 -0.42425 1.84404 36 37 34
0.905301 -0.397645 1.7284 35 37 33
0.968366 -0.421134 1.8305 36 39 35
0.969381 -0.417443 1.81445 36 39 35
1.01721 -0.433789 1.8855 36 39 35
1.02101 -0.431219 1.87433 35 38 34
1.03697 -0.433789 1.8855 34 37 33
1.04684 -0.433789 1.8855 35 38 34
1.05046 -0.431219 1.87433 36 39 35
1.0264 -0.417443 1.81445 35 38 34
1.08181 -0.435942 1.89486 35 38 34
1.07211 -0.428104 1.86079 36 38 35
1.08186 -0.428104 1.86079 36 38 35
1.02205 -0.400829 1.74224 35 37 34
1.14205 -0.443923 1.92955 34 36 33
1.13144 -0.435942 1.89486 34 37 34
1.15701 -0.441917 1.92083 36 38 35
1.09072 -0.413006 1.79517 36 39 36
1.16121 -0.435942 1.89486 36 38 36
1.13973 -0.42425 1.84404 35 37 34
1.2466 -0.460131 2 34 36 33
-0.53051 -0.189771 0.844042 38 36 32
-0.51894 -0.187193 0.832572 37 37 33
-0.52538 -0.191122 0.850047 37 37 33
-0.517247 -0.189771 0.844042 37 38 34
-0.512827 -0.189771 0.844042 37 38 34
-0.489055 -0.182549 0.811916 37 38 33
-0.55171 -0.207742 0.923969 37 38 33
-0.499564 -0.189771 0.844042 38 39 34
-0.524956 -0.201198 0.894863 38 39 34
-0.520269 -0.201198 0.894863 38 39 34
-0.532352 -0.207742 0.923969 37 38 32
-0.515438 -0.202987 0.90282 36 37 31
-0.536933 -0.21341 0.949179 36 37 32
-0.503838 -0.202127 0.898997 36 37 32
-0.494345 -0.20019 0.89038 37 37 33
-0.478055 -0.195437 0.869241 37 38 34
-0.489711 -0.202127 0.898997 37 38 34
-0.482772 -0.201198 0.894863 36 38 34
-0.495184 -0.208394 0.926867 37 38 34
-0.503162 -0.213848 0.951125 36 37 33
-0.500002 -0.21463 0.954604 35 36 32
-0.493198 -0.213848 0.951125 36 37 33
-0.474277 -0.207742 0.923969 37 38 34
-0.496092 -0.219538 0.976432 38 39 36
-0.502828 -0.224837 1 37 39 35
-0.484926 -0.219114 0.974549 36 38 34
-0.4793 -0.218876 0.973489 37 38 34
-0.474201 -0.218876 0.973489 37 39 34
-0.456372 -0.212936 0.947071 37 39 34
-0.499935 -0.235825 1.04887 37 39 34
-0.471402 -0.224837 1 37 39 35
-0.454299 -0.219114 0.974549 36 38 34
-0.487529 -0.237813 1.05772 36 37 33
-0.469492 -0.231647 1.03029 36 37 33
-0.475324 -0.237252 1.05522 36 38 34
-0.457528 -0.231056 1.02766 36 38 34
-0.465368 -0.237813 1.05772 37 38 34
-0.434737 -0.224837 1 36 37 33
-0.477259 -0.249838 1.1112 35 37 32
-0.483322 -0.256136 1.13921 37 38 34
-0.445611 -0.239103 1.06345 38 39 36
-0.459799 -0.249838 1.1112 37 38 35
-0.437329 -0.240676 1.07045 36 37 34
-0.462644 -0.257914 1.14712 37 38 35
-0.42775 -0.241599 1.07455 38 39 35
-0.447521 -0.256136 1.13921 37 38 35
-0.448046 -0.259902 1.15596 37 38 34
-0.427476 -0.251366 1.118 37 38 34
-0.448786 -0.267562 1.19003 37 38 34
-0.418617 -0.253091 1.12567 37 38 34
-0.415918 -0.255052 1.13439 37 38 34
-0.440331 -0.273935 1.21838 37 37 34
-0.445687 -0.281345 1.25133 36 37 33
-0.432963 -0.277392 1.23375 36 37 34
-0.432579 -0.281345 1.25133 36 37 34
-0.410193 -0.27089 1.20483 37 38 34
-0.434165 -0.291201 1.29517 37 39 35
-0.436509 -0.29742 1.32283 37 38 34
-0.420597 -0.291201 1.29517 37 37 34
-0.443729 -0.312253 1.3888 36 37 33
-0.414172 -0.296311 1.31789 36 36 32
-0.42471 -0.309001 1.37433 36 37 34
-0.411825 -0.304792 1.35562 37 37 34
-0.416442 -0.313616 1.39486 37 38 35
-0.427544 -0.327727 1.45762 37 38 34
-0.432118 -0.337255 1.5 37 38 34
-0.410438 -0.326266 1.45113 37 38 34
-0.416405 -0.337255 1.5 36 37 33
-0.437184 -0.360894 1.60514 37 37 33
-0.400691 -0.337255 1.5 37 37 34
-0.380035 -0.326266 1.45113 37 37 35
-0.399791 -0.350232 1.55772 36 37 34
-0.397025 -0.355054 1.57917 37 37 34
-0.404809 -0.369718 1.64438 36 37 33
-0.417727 -0.38981 1.73375 36 36 33
-0.365071 -0.348244 1.54887 37 37 34
-0.37897 -0.369718 1.64438 38 38 35
-0.383971 -0.383309 1.70483 38 38 35
-0.375042 -0.383309 1.70483 37 38 34
-0.372322 -0.38981 1.73375 37 37 34
-0.343434 -0.368554 1.63921 37 38 34
-0.343611 -0.378199 1.68211 37 37 33
-0.339324 -0.383309 1.70483 36 36 33
-0.330394 -0.383309 1.70483 36 37 34
-0.331445 -0.395209 1.75776 37 37 34
-0.307464 -0.377089 1.67717 36 37 34
-0.306017 -0.386354 1.71838 36 37 34
-0.285333 -0.371156 1.65078 36 37 34
-0.276687 -0.371156 1.65078 36 37 34
-0.270496 -0.374556 1.6659 37 38 34
-0.261077 -0.373565 1.66149 37 37 34
-0.258957 -0.383309 1.70483 38 37 34
-0.252014 -0.386354 1.71838 37 37 34
-0.237186 -0.377089 1.67717 37 37 34
-0.230363 -0.380327 1.69157 37 37 34
-0.22664 -0.389148 1.7308 38 38 35
-0.216012 -0.386354 1.71838 38 38 35
-0.200159 -0.373565 1.66149 37 38 35
-0.198011 -0.386354 1.71838 36 37 34
-0.194016 -0.396585 1.76388 37 38 35
-0.178591 -0.383309 1.70483 37 38 35
-0.166909 -0.377089 1.67717 36 37 34
-0.160732 -0.383309 1.70483 36 37 34
-0.147451 -0.37232 1.65596 37 38 35
-0.141762 -0.380327 1.69157 37 39 35
-0.133943 -0.383309 1.70483 37 38 35
-0.128895 -0.395209 1.75776 36 38 34
-0.115181 -0.380327 1.69157 36 37 34
-0.103758 -0.371156 1.65078 36 37 34
-0.0982252 -0.383309 1.70483 37 38 35
-0.090005 -0.386354 1.71838 37 38 35
-0.079741 -0.380327 1.69157 37 37 35
-0.072004 -0.386354 1.71838 37 37 34
-0.062507 -0.383309 1.70483 37 37 34
-0.0527081 -0.377089 1.67717 36 37 34
-0.0435128 -0.373565 1.66149 36 37 34
-0.0348103 -0.373565 1.66149 36 37 34
-0.0272431 -0.38981 1.73375 36 37 35
-0.0178591 -0.383309 1.70483 36 37 34
-0.00885203 -0.379981 1.69003 36 37 34
0 -0.386716 1.71999 37 38 35
0.00870257 -0.373565 1.66149 37 37 35
0.0172259 -0.369718 1.64438 37 37 35
0.0261077 -0.373565 1.66149 37 37 34
0.0354081 -0.379981 1.69003 37 38 35
0.0428029 -0.36747 1.63439 37 38 35
0.0520414 -0.37232 1.65596 36 37 34
0.060918 -0.373565 1.66149 36 37 34
0.0714365 -0.383309 1.70483 36 37 34
0.0790621 -0.377089 1.67717 37 37 35
0.0876704 -0.376332 1.6738 37 38 35
0.0966315 -0.377089 1.67717 37 37 34
0.109761 -0.392631 1.74629 37 37 34
0.114201 -0.377089 1.67717 37 38 35
0.129344 -0.396585 1.76388 37 38 35
0.133943 -0.383309 1.70483 37 37 34
0.140555 -0.377089 1.67717 37 37 35
0.151803 -0.383309 1.70483 37 38 35
0.160732 -0.383309 1.70483 37 38 35
0.168342 -0.380327 1.69157 37 38 35
0.177041 -0.379981 1.69003 36 37 35
0.187521 -0.383309 1.70483 36 37 35
0.194745 -0.379981 1.69003 36 38 35
0.201642 -0.376332 1.6738 37 38 36
0.212449 -0.379981 1.69003 37 39 36
0.223239 -0.383309 1.70483 37 38 36
0.226267 -0.373565 1.66149 37 39 36
0.243014 -0.386354 1.71838 37 38 36
0.245971 -0.377089 1.67717 36 38 35
0.251534 -0.37232 1.65596 37 38 35
0.276204 -0.395209 1.75776 37 38 35
0.271778 -0.376332 1.6738 37 38 35
0.285746 -0.383309 1.70483 37 38 35
0.289312 -0.376332 1.6738 38 39 36
0.29284 -0.369718 1.64438 38 39 36
0.325449 -0.399148 1.77528 37 39 35
0.321464 -0.383309 1.70483 36 38 35
0.318679 -0.369718 1.64438 37 39 35
0.330698 -0.373565 1.66149 37 39 36
0.345544 -0.380327 1.69157 37 39 36
0.348103 -0.373565 1.66149 37 39 36
0.376098 -0.393763 1.75133 37 39 36
0.378021 -0.386354 1.71838 37 39 35
0.377741 -0.377089 1.67717 37 39 36
0.399565 -0.38981 1.73375 38 39 36
0.415749 -0.396585 1.76388 38 40 36
0.400318 -0.373565 1.66149 37 39 35
0.406384 -0.371156 1.65078 37 39 35
0.424898 -0.379981 1.69003 36 38 35
0.452704 -0.396585 1.76388 37 39 35
0.430648 -0.369718 1.64438 37 39 35
0.455408 -0.383309 1.70483 36 38 35
0.468026 -0.386354 1.71838 36 38 34
0.486175 -0.393763 1.75133 36 38 34
0.498898 -0.396585 1.76388 36 38 34
0.491126 -0.383309 1.70483 36 38 34
0.529516 -0.405891 1.80527 35 37 33
0.535955 -0.403619 1.79517 36 38 35
0.535854 -0.396585 1.76388 37 39 35
0.543201 -0.395209 1.75776 38 39 36
0.552408 -0.395209 1.75776 38 39 36
0.55795 -0.392631 1.74629 37 39 36
0.558554 -0.386716 1.71999 37 39 36
0.598735 -0.407955 1.81445 37 39 36
0.580198 -0.389148 1.7308 37 39 36
0.617743 -0.407955 1.81445 36 38 35
0.617295 -0.401483 1.78567 35 38 35
0.611408 -0.391719 1.74224 36 39 35
0.642984 -0.405891 1.80527 36 40 36
0.660477 -0.410891 1.82751 36 39 35
0.650899 -0.399148 1.77528 35 38 34
0.655959 -0.396585 1.76388 35 39 34
0.676996 -0.403619 1.79517 36 39 34
0.667711 -0.392631 1.74629 36 38 34
0.678811 -0.393763 1.75133 36 38 34
0.692915 -0.396585 1.76388 36 38 34
0.690158 -0.38981 1.73375 36 38 34
0.714504 -0.39832 1.7716 35 37 33
0.720631 -0.396585 1.76388 35 37 32
0.742815 -0.403619 1.79517 36 38 34
0.720715 -0.386716 1.71999 37 39 35
0.757589 -0.401483 1.78567 37 39 35
0.776181 -0.40632 1.80718 37 39 35
0.785647 -0.40632 1.80718 36 39 35
0.789828 -0.403619 1.79517 36 39 34
0.804578 -0.40632 1.80718 36 38 34
0.808634 -0.403619 1.79517 35 38 33
0.835776 -0.412372 1.8341 36 38 34
0.810198 -0.395209 1.75776 36 39 35
0.836842 -0.403619 1.79517 36 39 35
0.864596 -0.412372 1.8341 36 39 35
0.82207 -0.38778 1.72472 36 39 35
0.86505 -0.403619 1.79517 37 39 36
0.903898 -0.41721 1.85562 36 39 36
0.897475 -0.409839 1.82283 36 39 36
0.893258 -0.403619 1.79517 36 39 35
0.902661 -0.403619 1.79517 36 38 35
0.919584 -0.406947 1.80997 36 37 34
0.946554 -0.414608 1.84404 35 37 33
0.956213 -0.414608 1.84404 35 37 33
0.965871 -0.414608 1.84404 35 36 32
0.968366 -0.411563 1.8305 35 38 34
1.00137 -0.421419 1.87433 35 38 35
1.01721 -0.42393 1.8855 35 38 34
0.977883 -0.403619 1.79517 35 38 34
1.09994 -0.449673 2 35 38 33
1.07518 -0.435407 1.93655 34 37 33
0.985127 -0.395209 1.75776 35 38 33
1.06028 -0.421419 1.87433 35 37 33
1.01144 -0.39832 1.7716 35 38 34
1.11173 -0.433834 1.92955 35 37 34
1.08973 -0.421419 1.87433 35 37 34
1.17327 -0.449673 2 34 37 34
1.18374 -0.449673 2 35 37 34
1.19422 -0.449673 2 35 38 34
1.15028 -0.429363 1.90967 35 38 35
1.10752 -0.409839 1.82283 35 38 34
1.13007 -0.414608 1.84404 34 37 34
1.18029 -0.429363 1.90967 34 37 34
1.16827 -0.421419 1.87433 34 37 34
-0.514979 -0.179932 0.819331 38 36 32
-0.52204 -0.183932 0.837546 37 36 32
-0.533834 -0.189681 0.863725 37 37 33
-0.517247 -0.185358 0.844042 38 38 34
-0.550694 -0.199045 0.906367 38 38 34
-0.520262 -0.189681 0.863725 38 39 34
-0.5412 -0.199045 0.906367 38 39 34
-0.517493 -0.192011 0.874334 38 39 34
-0.501932 -0.1879 0.855615 38 39 34
-0.520269 -0.196519 0.894863 38 39 35
-0.52221 -0.199045 0.906367 37 38 33
-0.515438 -0.198266 0.90282 36 36 31
-0.508546 -0.197427 0.898997 35 36 31
-0.497396 -0.194903 0.887504 34 35 30
-0.496834 -0.196519 0.894863 35 36 32
-0.492147 -0.196519 0.894863 37 38 34
-0.473502 -0.190892 0.869241 37 38 34
-0.496783 -0.202222 0.920833 36 38 34
-0.52118 -0.214233 0.975527 37 38 34
-0.501017 -0.207984 0.947071 36 37 33
-0.482314 -0.202222 0.920833 35 37 32
-0.504795 -0.213786 0.973489 35 37 32
-0.488217 -0.208875 0.951125 37 38 34
-0.508066 -0.219608 1 37 39 36
-0.478253 -0.208875 0.951125 37 39 35
-0.472302 -0.208447 0.949179 36 38 33
-0.492353 -0.219608 1 36 38 34
-0.474201 -0.213786 0.973489 37 39 34
-0.481877 -0.219608 1 37 39 34
-0.452416 -0.208447 0.949179 37 39 34
-0.483899 -0.22543 1.02651 37 39 34
-0.466164 -0.219608 1 37 38 34
-0.473676 -0.225683 1.02766 37 38 34
-0.455688 -0.219608 1 37 38 34
-0.463476 -0.225958 1.02892 37 38 34
-0.458699 -0.22626 1.03029 37 38 34
-0.46657 -0.232883 1.06045 37 38 34
-0.474009 -0.239446 1.09033 36 37 33
-0.429499 -0.219608 1 36 37 33
-0.466559 -0.241502 1.0997 36 37 34
-0.460799 -0.241502 1.0997 36 38 34
-0.441413 -0.23427 1.06677 36 37 34
-0.451502 -0.242697 1.10514 37 38 34
-0.448158 -0.244028 1.1112 37 39 35
-0.426115 -0.235078 1.07045 37 39 35
-0.450627 -0.251916 1.14712 37 38 35
-0.430698 -0.244028 1.1112 37 38 35
-0.451989 -0.2596 1.18211 37 38 34
-0.42962 -0.250179 1.13921 37 37 34
-0.448057 -0.264591 1.20483 36 37 33
-0.446712 -0.267565 1.21838 37 37 34
-0.430086 -0.26134 1.19003 37 38 34
-0.439425 -0.270941 1.23375 37 37 34
-0.446245 -0.279253 1.2716 37 38 34
-0.432579 -0.274802 1.25133 36 38 34
-0.405154 -0.26134 1.19003 36 38 34
-0.434165 -0.284429 1.29517 37 38 34
-0.427381 -0.284429 1.29517 37 37 34
-0.473353 -0.320105 1.45762 36 37 33
-0.439107 -0.301815 1.37433 36 37 33
-0.446522 -0.312026 1.42083 36 36 33
-0.429181 -0.304991 1.3888 36 37 33
-0.428245 -0.309574 1.40967 37 38 34
-0.420862 -0.309574 1.40967 37 38 35
-0.409136 -0.306323 1.39486 37 38 34
-0.406095 -0.309574 1.40967 37 38 34
-0.424261 -0.329412 1.5 37 37 34
-0.402837 -0.318678 1.45113 36 37 32
-0.433152 -0.34925 1.59033 37 37 33
-0.416109 -0.342087 1.55772 36 37 34
-0.416492 -0.34925 1.59033 36 37 34
-0.372434 -0.318678 1.45113 36 37 34
-0.364834 -0.318678 1.45113 37 37 34
-0.381296 -0.340145 1.54887 37 38 34
-0.404095 -0.36832 1.67717 37 37 34
-0.395311 -0.36832 1.67717 37 38 34
-0.384758 -0.366636 1.6695 38 38 35
-0.370357 -0.36112 1.64438 38 38 35
-0.375042 -0.374395 1.70483 37 38 34
-0.349111 -0.357009 1.62567 37 37 34
-0.376109 -0.394233 1.79517 37 37 34
-0.36394 -0.391259 1.78162 37 38 34
-0.34234 -0.377723 1.71999 37 37 34
-0.320922 -0.363661 1.65596 37 38 34
-0.318673 -0.371144 1.69003 37 37 34
-0.312535 -0.374395 1.70483 37 38 34
-0.303605 -0.374395 1.70483 37 38 34
-0.299165 -0.380098 1.7308 37 38 34
-0.285746 -0.374395 1.70483 37 38 34
-0.26978 -0.364877 1.66149 37 38 34
-0.265561 -0.371144 1.69003 37 37 34
-0.258957 -0.374395 1.70483 38 37 34
-0.248083 -0.371482 1.69157 37 37 34
-0.241098 -0.374395 1.70483 37 37 34
-0.230363 -0.371482 1.69157 38 37 34
-0.216162 -0.362525 1.65078 37 38 35
-0.210832 -0.36832 1.67717 37 38 35
-0.207012 -0.377369 1.71838 36 37 34
-0.201228 -0.3835 1.74629 37 37 35
-0.184478 -0.36832 1.67717 37 38 35
-0.176837 -0.370716 1.68808 37 37 35
-0.168342 -0.371482 1.69157 36 37 34
-0.160732 -0.374395 1.70483 36 37 34
-0.154115 -0.380098 1.7308 37 38 35
-0.142873 -0.374395 1.70483 37 38 35
-0.133943 -0.374395 1.70483 37 38 35
-0.124133 -0.371757 1.69282 36 38 34
-0.114201 -0.36832 1.67717 36 37 34
-0.105416 -0.36832 1.67717 37 37 34
-0.0945694 -0.36046 1.64138 37 38 35
-0.0872567 -0.365846 1.6659 37 38 35
-0.0815903 -0.380098 1.7308 37 38 35
-0.0714365 -0.374395 1.70483 37 37 35
-0.062507 -0.374395 1.70483 37 38 35
-0.053051 -0.370716 1.68808 37 37 35
-0.0454051 -0.380745 1.73375 37 37 34
-0.0340596 -0.357009 1.62567 36 38 35
-0.0261077 -0.364877 1.66149 37 38 35
-0.0174051 -0.364877 1.66149 36 37 35
-0.00908103 -0.380745 1.73375 35 37 34
0 -0.384606 1.75133 36 37 35
0.00885203 -0.371144 1.69003 36 37 35
0.0178591 -0.374395 1.70483 36 37 34
0.0265561 -0.371144 1.69003 36 37 33
0.0344518 -0.36112 1.64438 37 38 35
0.0446478 -0.374395 1.70483 38 39 35
0.0531606 -0.371482 1.69157 37 38 35
0.0619642 -0.371144 1.69003 36 37 34
0.0708163 -0.371144 1.69003 36 37 35
0.0783231 -0.364877 1.66149 37 38 35
0.0872567 -0.365846 1.6659 37 38 35
0.0947425 -0.36112 1.64438 37 38 35
0.101607 -0.355012 1.61657 37 37 35
0.112756 -0.363661 1.65596 37 38 35
0.12105 -0.362525 1.65078 37 38 35
0.13177 -0.36832 1.67717 38 38 35
0.147822 -0.387363 1.76388 37 38 36
0.154377 -0.380745 1.73375 37 38 35
0.159337 -0.371144 1.69003 37 38 35
0.166574 -0.36758 1.6738 36 38 35
0.182934 -0.3835 1.74629 36 37 35
0.185893 -0.371144 1.69003 36 37 35
0.19645 -0.374395 1.70483 36 38 35
0.200159 -0.364877 1.66149 36 38 35
0.21431 -0.374395 1.70483 36 38 35
0.223239 -0.374395 1.70483 36 38 35
0.227943 -0.36758 1.6738 37 38 36
0.234969 -0.364877 1.66149 37 39 36
0.247857 -0.371144 1.69003 36 38 35
0.246932 -0.357009 1.62567 36 37 34
0.273012 -0.381558 1.73745 37 38 35
0.274097 -0.370716 1.68808 36 38 35
0.278482 -0.364877 1.66149 37 38 35
0.292117 -0.371144 1.69003 38 39 36
0.306304 -0.377723 1.71999 38 39 36
0.321059 -0.384606 1.75133 37 39 36
0.324322 -0.377723 1.71999 37 38 35
0.327824 -0.371482 1.69157 37 39 36
0.336377 -0.371144 1.69003 37 39 36
0.345229 -0.371144 1.69003 37 39 36
0.369554 -0.387363 1.76388 36 38 35
0.353131 -0.36112 1.64438 36 38 35
0.372125 -0.371482 1.69157 36 38 35
0.37421 -0.364877 1.66149 37 39 36
0.396022 -0.377369 1.71838 38 40 36
0.409519 -0.381558 1.73745 38 40 37
0.407565 -0.371482 1.69157 38 40 36
0.437032 -0.389865 1.77528 37 39 35
0.425285 -0.371482 1.69157 37 39 35
0.448189 -0.3835 1.74629 37 39 35
0.457336 -0.3835 1.74629 37 39 35
0.459026 -0.377369 1.71838 37 39 35
0.468026 -0.377369 1.71838 36 38 34
0.469933 -0.371757 1.69282 36 38 34
0.482197 -0.374395 1.70483 36 38 34
0.499457 -0.380745 1.73375 36 38 34
0.512217 -0.3835 1.74629 36 38 34
0.530017 -0.389865 1.77528 36 38 34
0.53051 -0.3835 1.74629 37 39 35
0.53103 -0.377369 1.71838 38 40 36
0.548803 -0.3835 1.74629 38 39 36
0.561615 -0.386018 1.75776 37 39 35
0.568733 -0.384606 1.75133 36 38 35
0.598735 -0.398468 1.81445 36 38 34
0.58539 -0.3835 1.74629 36 38 34
0.604406 -0.389865 1.77528 36 38 35
0.630142 -0.400307 1.82283 36 39 36
0.619004 -0.387363 1.76388 36 40 36
0.602487 -0.371482 1.69157 35 39 35
0.6416 -0.389865 1.77528 35 38 34
0.630035 -0.377369 1.71838 35 38 34
0.653683 -0.386018 1.75776 35 38 34
0.669496 -0.389865 1.77528 36 39 34
0.693772 -0.398468 1.81445 36 39 34
0.695801 -0.394233 1.79517 36 39 34
0.705204 -0.394233 1.79517 36 39 35
0.722284 -0.398468 1.81445 36 38 34
0.70633 -0.384606 1.75133 35 37 33
0.738319 -0.39687 1.80718 35 37 32
0.738194 -0.39178 1.784 35 38 33
0.75725 -0.39687 1.80718 36 38 34
0.755874 -0.391259 1.78162 36 38 34
0.752196 -0.384606 1.75133 36 38 34
0.761369 -0.384606 1.75133 36 39 34
0.795113 -0.39687 1.80718 36 39 34
0.788738 -0.389057 1.7716 36 38 34
0.808634 -0.394233 1.79517 35 38 34
0.793917 -0.382609 1.74224 35 38 34
0.832975 -0.39687 1.80718 36 38 34
0.843742 -0.397484 1.80997 36 39 35
0.83986 -0.391259 1.78162 36 39 35
0.862703 -0.397484 1.80997 36 39 35
0.87838 -0.400307 1.82283 36 39 35
0.887927 -0.400307 1.82283 37 39 36
0.891144 -0.397484 1.80997 37 39 35
0.900624 -0.397484 1.80997 37 39 35
0.910104 -0.397484 1.80997 36 38 35
0.926118 -0.400307 1.82283 36 38 34
0.939602 -0.401992 1.8305 36 38 34
0.906758 -0.384021 1.74867 36 38 35
1.01984 -0.427592 1.94707 36 38 34
0.949675 -0.394233 1.79517 35 37 34
0.977953 -0.401992 1.8305 35 38 34
1.00388 -0.408644 1.86079 35 38 34
0.997129 -0.401992 1.8305 35 38 34
0.997892 -0.398468 1.81445 35 38 34
0.996688 -0.394233 1.79517 34 37 33
1.04287 -0.408644 1.86079 34 37 32
1.05262 -0.408644 1.86079 35 37 34
1.10561 -0.425281 1.93655 35 38 35
1.06246 -0.404966 1.84404 35 38 35
1.08186 -0.408644 1.86079 35 38 35
1.17327 -0.439216 2 35 38 35
1.07888 -0.400307 1.82283 35 38 35
1.08843 -0.400307 1.82283 35 38 35
1.15028 -0.419378 1.90967 35 38 35
1.16028 -0.419378 1.90967 34 37 34
1.04476 -0.374395 1.70483 34 36 33
1.23612 -0.439216 2 34 37 34
1.13617 -0.400307 1.82283 34 37 34
-0.514979 -0.175647 0.819331 38 37 33
-0.541796 -0.186347 0.869241 37 37 33
-0.501813 -0.174058 0.811916 37 37 33
-0.541384 -0.189388 0.883428 37 38 34
-0.531232 -0.187439 0.874334 38 38 34
-0.529493 -0.18845 0.87905 38 38 34
-0.555044 -0.199277 0.929553 37 38 34
-0.520284 -0.18845 0.87905 37 38 34
-0.529624 -0.193546 0.90282 38 39 34
-0.514827 -0.189833 0.885502 37 38 33
-0.515582 -0.19184 0.894863 37 38 32
-0.475332 -0.178486 0.832572 36 37 32
-0.524312 -0.198701 0.926867 37 38 33
-0.50598 -0.193546 0.90282 35 36 31
-0.505052 -0.195013 0.909666 35 36 31
-0.480856 -0.187439 0.874334 36 37 33
-0.518107 -0.203901 0.951125 36 37 33
-0.512075 -0.203484 0.949179 36 38 34
-0.482336 -0.193546 0.90282 37 39 35
-0.473398 -0.19184 0.894863 36 38 34
-0.496056 -0.203032 0.947071 36 37 33
-0.494133 -0.204288 0.952929 37 39 35
-0.472667 -0.197407 0.920833 38 40 36
-0.495632 -0.209133 0.975527 38 39 36
-0.463021 -0.197407 0.920833 37 39 35
-0.483826 -0.208449 0.972338 36 38 33
-0.518413 -0.225726 1.05293 36 38 34
-0.512898 -0.225726 1.05293 37 39 34
-0.481877 -0.214379 1 37 39 34
-0.48877 -0.219835 1.02545 37 39 34
-0.496353 -0.225726 1.05293 37 39 34
-0.493069 -0.226752 1.05772 37 38 34
-0.474889 -0.220873 1.03029 37 38 34
-0.468866 -0.220578 1.02892 37 38 34
-0.45045 -0.214379 1 37 38 34
-0.473462 -0.227982 1.06345 37 38 34
-0.452698 -0.220578 1.02892 37 39 35
-0.458743 -0.226217 1.05522 37 38 34
-0.486234 -0.242698 1.1321 36 38 34
-0.462587 -0.233745 1.09033 37 38 34
-0.460799 -0.235752 1.0997 36 37 34
-0.455039 -0.235752 1.0997 36 37 34
-0.462516 -0.242698 1.1321 37 38 35
-0.443519 -0.235752 1.0997 37 38 35
-0.439925 -0.236918 1.10514 37 39 35
-0.458008 -0.249946 1.1659 38 39 35
-0.458181 -0.253419 1.18211 38 39 36
-0.451989 -0.253419 1.18211 37 38 34
-0.431572 -0.245332 1.14438 37 37 33
-0.448057 -0.258291 1.20483 36 37 33
-0.446712 -0.261194 1.21838 36 37 33
-0.460896 -0.273393 1.27528 36 37 33
-0.419273 -0.252361 1.17717 36 37 33
-0.405663 -0.247813 1.15596 36 38 34
-0.416504 -0.258291 1.20483 37 38 34
-0.440948 -0.277657 1.29517 37 38 35
-0.409649 -0.261979 1.22203 37 38 34
-0.427381 -0.277657 1.29517 36 37 34
-0.420597 -0.277657 1.29517 36 37 33
-0.450396 -0.302203 1.40967 36 37 33
-0.458083 -0.312484 1.45762 36 37 33
-0.415349 -0.288134 1.34404 37 38 34
-0.411825 -0.290616 1.35562 37 38 35
-0.471467 -0.33854 1.57917 37 37 34
-0.416754 -0.304597 1.42083 36 37 33
-0.444327 -0.330654 1.54238 37 38 33
-0.424261 -0.321569 1.5 37 38 34
-0.429972 -0.332046 1.54887 37 38 33
-0.408548 -0.321569 1.5 37 38 34
-0.400691 -0.321569 1.5 36 37 34
-0.430648 -0.352522 1.64438 36 36 33
-0.411962 -0.344108 1.60514 36 37 34
-0.421665 -0.35955 1.67717 37 38 34
-0.410992 -0.357906 1.6695 38 38 34
-0.419772 -0.373499 1.74224 37 38 34
-0.393503 -0.357906 1.6695 37 38 34
-0.392901 -0.365481 1.70483 37 37 34
-0.377741 -0.35955 1.67717 37 37 34
-0.386686 -0.376827 1.75776 37 37 34
-0.372322 -0.37168 1.73375 36 37 34
-0.357183 -0.365481 1.70483 36 38 34
-0.351767 -0.369168 1.72203 36 37 34
-0.34234 -0.368729 1.71999 36 37 34
-0.339405 -0.375449 1.75133 36 37 34
-0.316248 -0.35955 1.67717 36 37 34
-0.309821 -0.362307 1.69003 36 37 34
-0.303605 -0.365481 1.70483 37 38 34
-0.294676 -0.365481 1.70483 37 38 34
-0.285746 -0.365481 1.70483 37 38 34
-0.272325 -0.35955 1.67717 37 37 34
-0.265561 -0.362307 1.69003 37 37 34
-0.265255 -0.374369 1.74629 38 38 34
-0.252014 -0.368384 1.71838 38 37 34
-0.235593 -0.357135 1.6659 39 38 36
-0.237815 -0.374369 1.74629 39 39 37
-0.227026 -0.37168 1.73375 39 39 36
-0.212643 -0.362638 1.69157 38 38 35
-0.202048 -0.35955 1.67717 36 37 34
-0.199443 -0.371048 1.7308 37 37 35
-0.186062 -0.362638 1.69157 37 37 35
-0.182934 -0.374369 1.74629 36 37 35
-0.165349 -0.35619 1.66149 36 37 34
-0.158124 -0.35955 1.67717 36 37 34
-0.153009 -0.368384 1.71838 37 38 35
-0.144008 -0.368384 1.71838 37 38 35
-0.133943 -0.365481 1.70483 37 38 34
-0.127134 -0.37168 1.73375 37 38 35
-0.118053 -0.37168 1.73375 36 38 34
-0.105586 -0.360131 1.67988 37 37 34
-0.0959824 -0.357135 1.6659 37 37 34
-0.0870257 -0.35619 1.66149 36 37 34
-0.079741 -0.362638 1.69157 36 37 34
-0.0696205 -0.35619 1.66149 36 36 33
-0.0619642 -0.362307 1.69003 37 38 35
-0.0508036 -0.346559 1.61657 37 38 35
-0.0438352 -0.358828 1.6738 37 38 35
-0.0348103 -0.35619 1.66149 37 38 35
-0.0274402 -0.374369 1.74629 37 38 35
-0.0174051 -0.35619 1.66149 37 38 35
-0.00885203 -0.362307 1.69003 36 37 35
0 -0.375449 1.75133 36 37 35
0.00892957 -0.365481 1.70483 36 37 35
0.0178591 -0.365481 1.70483 36 37 34
0.0270268 -0.368729 1.71999 36 38 34
0.0344518 -0.352522 1.64438 37 38 35
0.0446478 -0.365481 1.70483 37 38 35
0.0535774 -0.365481 1.70483 36 37 34
0.060918 -0.35619 1.66149 37 38 35
0.0681193 -0.348509 1.62567 37 38 35
0.0758341 -0.34487 1.60869 37 37 35
0.0885203 -0.362307 1.69003 37 38 35
0.0957282 -0.35619 1.66149 36 37 35
0.105416 -0.35955 1.67717 36 37 35
0.116084 -0.365481 1.70483 37 38 35
0.122986 -0.35955 1.67717 38 38 36
0.136215 -0.37168 1.73375 38 39 36
0.142873 -0.365481 1.70483 38 39 36
0.151803 -0.365481 1.70483 37 38 35
0.162161 -0.368729 1.71999 36 38 35
0.17254 -0.37168 1.73375 36 38 35
0.174051 -0.35619 1.66149 36 38 35
0.179772 -0.350378 1.63439 37 39 36
0.194745 -0.362307 1.69003 37 39 36
0.203597 -0.362307 1.69003 36 38 36
0.21431 -0.365481 1.70483 36 38 35
0.218142 -0.357135 1.6659 36 38 35
0.230153 -0.362307 1.69003 37 38 36
0.239005 -0.362307 1.69003 36 37 35
0.245477 -0.358828 1.6738 35 37 34
0.252374 -0.35619 1.66149 37 38 35
0.270268 -0.368729 1.71999 37 38 35
0.281512 -0.37168 1.73375 37 39 35
0.280545 -0.358828 1.6738 37 39 35
0.284227 -0.352522 1.64438 37 39 35
0.303605 -0.365481 1.70483 37 38 35
0.315018 -0.368384 1.71838 36 38 35
0.324018 -0.368384 1.71838 37 38 35
0.330394 -0.365481 1.70483 37 39 36
0.339324 -0.365481 1.70483 37 39 36
0.344832 -0.36189 1.68808 37 39 36
0.351387 -0.35955 1.67717 36 38 35
0.347158 -0.346559 1.61657 36 38 35
0.365508 -0.35619 1.66149 36 38 35
0.383971 -0.365481 1.70483 36 38 34
0.396022 -0.368384 1.71838 36 38 34
0.408646 -0.37168 1.73375 36 38 34
0.400318 -0.35619 1.66149 36 38 34
0.426083 -0.371048 1.7308 37 39 35
0.432024 -0.368384 1.71838 37 39 35
0.434145 -0.362638 1.69157 37 39 35
0.461943 -0.37814 1.76388 37 39 35
0.463133 -0.37168 1.73375 36 38 35
0.472214 -0.37168 1.73375 36 38 34
0.48966 -0.37814 1.76388 36 38 34
0.482197 -0.365481 1.70483 36 38 34
0.486862 -0.362307 1.69003 36 38 34
0.509623 -0.372473 1.73745 36 38 35
0.541713 -0.388981 1.81445 37 39 35
0.513886 -0.362638 1.69157 37 39 35
0.526844 -0.365481 1.70483 38 40 36
0.527081 -0.35955 1.67717 38 40 36
0.539974 -0.362307 1.69003 37 39 35
0.553633 -0.365481 1.70483 37 39 35
0.567563 -0.368729 1.71999 36 38 34
0.576032 -0.368384 1.71838 35 37 34
0.607942 -0.382809 1.78567 37 39 36
0.603684 -0.374369 1.74629 38 41 37
0.603034 -0.368384 1.71838 36 39 35
0.607211 -0.365481 1.70483 35 38 34
0.648788 -0.384846 1.79517 35 38 34
0.635672 -0.37168 1.73375 35 38 34
0.667593 -0.384846 1.79517 35 38 34
0.642929 -0.365481 1.70483 36 39 35
0.667711 -0.374369 1.74629 36 39 35
0.671996 -0.37168 1.73375 36 39 35
0.686004 -0.374369 1.74629 36 38 34
0.691632 -0.372473 1.73745 35 38 34
0.711392 -0.37814 1.76388 35 37 33
0.725287 -0.380583 1.77528 34 37 32
0.738194 -0.382452 1.784 35 37 32
0.76577 -0.39178 1.82751 35 37 33
0.756882 -0.382452 1.784 35 38 33
0.746234 -0.372473 1.73745 35 38 33
0.790306 -0.389719 1.81789 36 38 34
0.789828 -0.384846 1.79517 36 38 34
0.759013 -0.365481 1.70483 36 39 34
0.818871 -0.389719 1.81789 36 39 34
0.82351 -0.387421 1.80718 36 39 35
0.827439 -0.384846 1.79517 36 38 34
0.830529 -0.381943 1.78162 36 39 35
0.859285 -0.390776 1.82283 36 39 35
0.878943 -0.395324 1.84404 36 39 35
0.888602 -0.395324 1.84404 35 38 34
0.860367 -0.378647 1.76625 35 38 34
0.897475 -0.390776 1.82283 36 38 34
0.893258 -0.384846 1.79517 37 39 35
0.902661 -0.384846 1.79517 37 39 36
0.912064 -0.384846 1.79517 37 39 35
0.912637 -0.381159 1.77797 36 38 35
0.930869 -0.384846 1.79517 36 38 35
0.950373 -0.388981 1.81445 36 38 35
0.940575 -0.381159 1.77797 35 38 34
0.994137 -0.398915 1.86079 35 38 34
0.9592 -0.381159 1.77797 35 38 34
0.988388 -0.388981 1.81445 35 39 35
1.03082 -0.401818 1.87433 35 38 34
0.975921 -0.376827 1.75776 35 37 33
0.992883 -0.379794 1.7716 34 37 33
1.06028 -0.401818 1.87433 35 37 34
0.973323 -0.365481 1.70483 34 37 34
1.15232 -0.428758 2 35 37 34
1.0437 -0.384846 1.79517 35 37 35
1.02205 -0.373499 1.74224 35 38 35
1.13689 -0.411786 1.92083 35 38 35
1.14695 -0.411786 1.92083 35 38 34
1.15701 -0.411786 1.92083 35 38 34
1.10752 -0.390776 1.82283 35 37 34
1.11707 -0.390776 1.82283 34 37 34
1.23612 -0.428758 2 35 38 35
1.16827 -0.401818 1.87433 34 38 35
-0.514979 -0.171363 0.819331 39 37 34
-0.506066 -0.169813 0.811916 38 37 34
-0.553079 -0.187161 0.894863 37 37 33
-0.548392 -0.187161 0.894863 37 37 33
-0.516475 -0.177788 0.850047 37 38 33
-0.543811 -0.188825 0.90282 38 39 34
-0.519031 -0.181802 0.869241 38 39 34
-0.499564 -0.176532 0.844042 36 38 32
-0.509926 -0.181802 0.869241 36 37 32
-0.522673 -0.188026 0.898997 35 37 31
-0.530545 -0.192593 0.920833 36 37 31
-0.529167 -0.193855 0.926867 36 37 32
-0.506208 -0.187161 0.894863 36 37 33
-0.516076 -0.192593 0.920833 36 37 32
-0.482608 -0.181802 0.869241 36 37 32
-0.49442 -0.188026 0.898997 36 37 33
-0.476277 -0.182867 0.874334 36 37 33
-0.500038 -0.193855 0.926867 35 37 33
-0.493635 -0.193248 0.923969 37 38 34
-0.502132 -0.198521 0.949179 37 39 35
-0.494857 -0.197601 0.944781 38 39 35
-0.482012 -0.194416 0.929553 39 40 36
-0.501207 -0.204221 0.976432 39 40 36
-0.47091 -0.193855 0.926867 38 39 36
-0.476214 -0.19808 0.947071 37 38 35
-0.497591 -0.20915 1 36 38 33
-0.518413 -0.220221 1.05293 37 38 34
-0.487115 -0.20915 1 37 39 34
-0.494652 -0.214695 1.02651 37 39 35
-0.476639 -0.20915 1 37 39 35
-0.471402 -0.20915 1 37 39 34
-0.479644 -0.215198 1.02892 37 38 34
-0.488788 -0.221793 1.06045 37 38 34
-0.455688 -0.20915 1 37 38 34
-0.464096 -0.215486 1.03029 37 38 34
-0.459372 -0.215802 1.0318 37 38 34
-0.454703 -0.216152 1.03348 37 38 34
-0.459828 -0.221222 1.05772 37 38 34
-0.458175 -0.223115 1.06677 37 38 35
-0.452588 -0.223115 1.06677 37 39 35
-0.448542 -0.223884 1.07045 36 38 34
-0.471389 -0.238266 1.13921 36 37 34
-0.475475 -0.243413 1.16382 37 38 34
-0.476755 -0.247238 1.18211 37 38 35
-0.429587 -0.225708 1.07917 37 38 35
-0.423934 -0.225708 1.07917 38 39 35
-0.466989 -0.251991 1.20483 37 39 35
-0.445794 -0.243849 1.1659 37 38 34
-0.443936 -0.246206 1.17717 36 37 33
-0.43777 -0.246206 1.17717 36 37 33
-0.431605 -0.246206 1.17717 36 36 32
-0.430086 -0.248895 1.19003 35 36 32
-0.429125 -0.251991 1.20483 35 37 33
-0.477546 -0.28461 1.36079 36 37 34
-0.426501 -0.258039 1.23375 36 38 35
-0.457588 -0.281107 1.34404 37 39 35
-0.434165 -0.270885 1.29517 37 39 35
-0.436509 -0.27667 1.32283 36 37 34
-0.45778 -0.294832 1.40967 35 37 33
-0.443729 -0.290468 1.3888 36 37 33
-0.443012 -0.294832 1.40967 36 38 34
-0.408794 -0.27667 1.32283 37 38 35
-0.431638 -0.297168 1.42083 37 38 34
-0.420862 -0.294832 1.40967 36 37 33
-0.409136 -0.291736 1.39486 36 37 32
-0.418038 -0.303503 1.45113 37 38 34
-0.424261 -0.313726 1.5 37 38 34
-0.429972 -0.323948 1.54887 38 39 35
-0.437184 -0.335715 1.60514 38 39 35
-0.400691 -0.313726 1.5 36 37 34
-0.416492 -0.332619 1.59033 36 37 33
-0.437549 -0.356566 1.70483 36 37 34
-0.428619 -0.356566 1.70483 37 38 34
-0.404809 -0.343924 1.64438 38 39 35
-0.396196 -0.343924 1.64438 38 38 35
-0.395311 -0.350781 1.67717 38 38 35
-0.392901 -0.356566 1.70483 37 38 34
-0.366141 -0.340009 1.62567 36 36 33
-0.35311 -0.335715 1.60514 35 36 33
-0.355616 -0.346344 1.65596 35 36 33
-0.361349 -0.360726 1.72472 35 37 34
-0.334249 -0.342228 1.63628 36 37 34
-0.327292 -0.343924 1.64438 35 37 34
-0.337643 -0.36439 1.74224 35 37 33
-0.321464 -0.356566 1.70483 36 37 34
-0.312535 -0.356566 1.70483 36 37 33
-0.295887 -0.347502 1.66149 36 37 33
-0.297295 -0.359736 1.71999 37 38 34
-0.285746 -0.356566 1.70483 37 38 34
-0.283548 -0.365238 1.74629 38 38 34
-0.265803 -0.353793 1.69157 38 37 34
-0.261015 -0.359399 1.71838 38 38 35
-0.246368 -0.351347 1.67988 38 38 35
-0.241098 -0.356566 1.70483 39 39 36
-0.230363 -0.353793 1.69157 39 39 37
-0.223239 -0.356566 1.70483 39 39 36
-0.210832 -0.350781 1.67717 37 37 35
-0.213867 -0.3713 1.77528 35 36 33
-0.191965 -0.348424 1.6659 36 37 34
-0.181576 -0.345262 1.65078 37 37 35
-0.172929 -0.345262 1.65078 36 37 35
-0.162651 -0.341832 1.63439 36 36 34
-0.158124 -0.350781 1.67717 36 37 35
-0.14699 -0.345262 1.65078 37 38 36
-0.136969 -0.341832 1.63439 37 38 35
-0.130538 -0.347502 1.66149 36 38 34
-0.125014 -0.356566 1.70483 37 38 34
-0.116084 -0.356566 1.70483 36 38 34
-0.106321 -0.353793 1.69157 36 37 34
-0.100614 -0.365238 1.74629 36 37 34
-0.0864646 -0.345262 1.65078 36 37 34
-0.0803661 -0.356566 1.70483 35 36 33
-0.0691717 -0.345262 1.65078 36 37 34
-0.0620207 -0.353793 1.69157 37 38 35
-0.0527081 -0.350781 1.67717 37 39 35
-0.0430648 -0.343924 1.64438 37 38 35
-0.0354404 -0.353793 1.69157 37 38 35
-0.0267887 -0.356566 1.70483 37 39 35
-0.0173471 -0.346344 1.65596 37 38 35
-0.00892957 -0.356566 1.70483 36 37 34
0 -0.359736 1.71999 36 37 35
0.00900894 -0.359736 1.71999 36 37 35
0.0172259 -0.343924 1.64438 37 38 35
0.026354 -0.350781 1.67717 37 38 35
0.0351387 -0.350781 1.67717 37 38 35
0.0432323 -0.345262 1.65078 36 37 34
0.0531122 -0.35347 1.69003 37 38 35
0.060918 -0.347502 1.66149 37 38 35
0.0691717 -0.345262 1.65078 37 38 35
0.078531 -0.348424 1.6659 36 37 35
0.0870257 -0.347502 1.66149 36 37 35
0.0957282 -0.347502 1.66149 36 36 34
0.105204 -0.350076 1.6738 36 37 35
0.114201 -0.350781 1.67717 37 38 36
0.119848 -0.341832 1.63439 38 39 36
0.128409 -0.341832 1.63439 38 39 36
0.139241 -0.347502 1.66149 38 39 36
0.14934 -0.350781 1.67717 37 38 35
0.159337 -0.35347 1.69003 36 38 35
