ply
format ascii 1.0
element vertex 1363
property float x
property float y
property float z
property uchar red
property uchar green
property uchar blue
end_header
0.377741 0.306933 1.67717 36 36 34
0.396393 0.314769 1.71999 35 35 33
0.395311 0.306933 1.67717 35 35 32
0.424988 0.322802 1.76388 34 35 32
0.416046 0.309287 1.69003 35 35 33
0.421665 0.306933 1.67717 36 36 34
0.437549 0.311996 1.70483 36 37 34
0.450447 0.314769 1.71999 36 37 34
0.455408 0.311996 1.70483 35 36 34
0.468465 0.314769 1.71999 35 36 33
0.469586 0.309569 1.69157 35 36 33
0.47342 0.306317 1.6738 35 36 33
0.51142 0.324888 1.77528 36 36 33
0.496166 0.309569 1.69157 36 36 33
0.517619 0.317288 1.73375 35 35 32
0.5267 0.317288 1.73375 34 35 31
0.526844 0.311996 1.70483 34 35 33
0.527081 0.306933 1.67717 34 36 34
0.553943 0.317288 1.73375 33 34 33
0.562067 0.316748 1.7308 32 34 32
0.562563 0.311996 1.70483 32 34 32
0.571492 0.311996 1.70483 33 35 33
0.607942 0.326789 1.78567 33 35 33
0.617295 0.326789 1.78567 33 35 33
0.612831 0.319583 1.74629 32 34 32
0.621977 0.319583 1.74629 31 34 31
0.648788 0.328527 1.79517 30 33 30
0.642118 0.320505 1.75133 29 32 30
0.649417 0.319583 1.74629 28 31 30
0.660465 0.320505 1.75133 29 32 31
0.662915 0.317288 1.73375 28 32 31
0.671996 0.317288 1.73375 28 32 31
0.676475 0.315144 1.72203 34 37 36
0.697157 0.320505 1.75133 36 39 38
0.693689 0.314769 1.71999 36 39 38
0.741291 0.332057 1.81445 35 37 37
0.711706 0.314769 1.71999 33 36 35
0.726482 0.317288 1.73375 32 35 35
0.753183 0.324888 1.77528 33 36 36
0.771023 0.328527 1.79517 34 36 36
0.77018 0.324214 1.7716 33 36 36
0.784915 0.326484 1.784 33 36 36
0.779715 0.320505 1.75133 34 37 37
0.834632 0.33909 1.85288 35 37 37
0.811865 0.326049 1.78162 37 39 39
0.803043 0.318841 1.74224 38 40 40
0.812168 0.318841 1.74224 38 40 40
0.846245 0.328527 1.79517 38 39 39
0.862703 0.331236 1.80997 35 37 37
0.858524 0.326049 1.78162 34 36 36
0.881663 0.331236 1.80997 34 37 37
0.91854 0.341419 1.86561 34 37 37
0.923337 0.33959 1.85562 36 39 38
0.933056 0.33959 1.85562 36 39 38
0.903324 0.325379 1.77797 36 39 38
0.939602 0.334993 1.8305 35 38 37
0.938545 0.331236 1.80997 34 38 38
1.01733 0.355451 1.94228 36 39 39
0.968366 0.334993 1.8305 36 40 40
0.969381 0.332057 1.81445 36 40 40
0.987541 0.334993 1.8305 37 40 40
1.02101 0.343015 1.87433 37 40 40
1.01416 0.337472 1.84404 36 39 39
1.07518 0.354401 1.93655 35 37 37
1.08533 0.354401 1.93655 35 37 37
1.03548 0.334993 1.8305 35 37 37
1.06236 0.340537 1.86079 35 38 38
1.0343 0.328527 1.79517 35 38 38
1.07212 0.337472 1.84404 38 41 40
1.0531 0.328527 1.79517 38 42 41
1.09143 0.337472 1.84404 37 41 40
1.08843 0.33359 1.82283 36 40 39
1.25238 0.380501 2.07917 36 39 39
1.21517 0.366013 2 36 40 39
1.06768 0.318841 1.74224 35 39 38
1.18029 0.349481 1.90967 35 39 39
1.16827 0.343015 1.87433 34 38 39
-0.628536 0.188235 1 38 38 33
-0.653761 0.197435 1.04887 39 37 33
-0.673892 0.205239 1.09033 38 37 32
-0.721396 0.221585 1.17717 39 37 33
-0.658855 0.204119 1.08438 39 37 32
-0.660882 0.206528 1.09718 39 37 32
-0.655136 0.206528 1.09718 38 36 31
-0.645337 0.205239 1.09033 38 36 31
-0.639626 0.205239 1.09033 37 35 31
-0.647964 0.209788 1.1145 37 35 31
-0.636733 0.208026 1.10514 36 35 30
-0.626401 0.206528 1.09718 36 35 30
-0.613417 0.204119 1.08438 36 35 31
-0.641364 0.215414 1.14438 37 36 32
-0.609161 0.206528 1.09718 37 36 32
-0.59965 0.205239 1.09033 37 37 33
-0.681639 0.235545 1.25133 38 38 34
-0.623631 0.217592 1.15596 38 38 33
-0.679359 0.23936 1.2716 38 37 32
-0.646477 0.23003 1.22203 37 37 32
-0.631067 0.226792 1.20483 37 37 32
-0.683383 0.248074 1.31789 37 37 32
-0.664814 0.243796 1.29517 37 37 32
-0.646057 0.23936 1.2716 37 36 32
-0.665156 0.249003 1.32283 38 37 33
-0.674541 0.255175 1.35562 39 38 35
-0.637679 0.243796 1.29517 38 37 33
-0.710029 0.274376 1.45762 37 36 31
-0.66226 0.258698 1.37433 38 37 32
-0.752693 0.297255 1.57917 40 39 34
-0.730142 0.291553 1.54887 39 38 34
-0.579086 0.233833 1.24224 38 38 33
-0.668862 0.273153 1.45113 38 37 32
-0.683532 0.282353 1.5 38 38 33
-0.697691 0.291553 1.54887 38 37 33
-0.732101 0.309531 1.64438 38 38 33
-0.685356 0.293217 1.55772 37 37 32
-0.652106 0.282353 1.5 36 35 30
-0.644249 0.282353 1.5 36 35 30
-0.723295 0.32091 1.70483 36 35 31
-0.702774 0.315703 1.67717 36 36 32
-0.690816 0.314259 1.6695 38 38 34
-0.682072 0.314259 1.6695 37 37 34
-0.687577 0.32091 1.70483 37 37 34
-0.616564 0.291553 1.54887 36 37 34
-0.655838 0.314259 1.6695 35 36 32
-0.671996 0.326353 1.73375 35 36 32
-0.651858 0.32091 1.70483 35 36 32
-0.605331 0.302143 1.60514 36 36 32
-0.667593 0.337914 1.79517 36 37 33
-0.616737 0.316632 1.68211 36 36 32
-0.643893 0.335365 1.78162 36 36 32
-0.623772 0.329662 1.75133 36 36 32
-0.611408 0.327951 1.74224 35 36 31
-0.597499 0.325346 1.7284 35 36 32
-0.594537 0.328714 1.74629 35 35 32
-0.571492 0.32091 1.70483 36 36 34
-0.571132 0.325798 1.7308 37 37 34
-0.549327 0.318413 1.69157 37 37 34
-0.564977 0.332853 1.76828 36 36 33
-0.547529 0.327951 1.74224 36 36 33
-0.549445 0.334676 1.77797 35 36 32
-0.533994 0.330873 1.75776 36 37 33
-0.508985 0.32091 1.70483 37 37 33
-0.504028 0.323459 1.71838 37 37 33
-0.495028 0.323459 1.71838 37 37 34
-0.500143 0.332853 1.76828 37 37 34
-0.490881 0.332853 1.76828 37 37 34
-0.47563 0.328714 1.74629 36 36 32
-0.448019 0.315703 1.67717 36 36 33
-0.457336 0.328714 1.74629 36 36 33
-0.434145 0.318413 1.69157 36 36 33
-0.412667 0.308966 1.64138 37 36 34
-0.406384 0.310736 1.65078 38 37 35
-0.423513 0.330873 1.75776 38 37 35
-0.414306 0.330873 1.75776 38 38 35
-0.402456 0.328714 1.74629 38 37 34
-0.389279 0.325346 1.7284 38 37 35
-0.366478 0.313582 1.6659 37 36 34
-0.366112 0.32091 1.70483 37 36 34
-0.365019 0.327951 1.74224 37 36 34
-0.353558 0.325798 1.7308 36 36 34
-0.346768 0.327951 1.74224 35 35 34
-0.327824 0.318413 1.69157 35 35 33
-0.318964 0.318413 1.69157 36 36 34
-0.30796 0.316213 1.67988 36 36 34
-0.295887 0.312752 1.66149 36 36 34
-0.294676 0.32091 1.70483 37 36 35
-0.296381 0.332853 1.76828 37 36 34
-0.276817 0.32091 1.70483 38 37 35
-0.263966 0.316213 1.67988 38 37 35
-0.255167 0.316213 1.67988 38 37 35
-0.252014 0.323459 1.71838 37 36 34
-0.239005 0.318123 1.69003 35 34 31
-0.228402 0.315703 1.67717 35 35 31
-0.227026 0.326353 1.73375 35 35 31
-0.208862 0.312752 1.66149 36 35 31
-0.210375 0.328714 1.74629 36 36 32
-0.191965 0.313582 1.6659 36 36 32
-0.186062 0.318413 1.69157 37 37 33
-0.177202 0.318413 1.69157 38 38 35
-0.169662 0.32091 1.70483 38 38 34
-0.156124 0.31171 1.65596 36 36 32
-0.148336 0.313582 1.6659 35 35 31
-0.139611 0.313582 1.6659 36 35 32
-0.127724 0.306008 1.62567 37 36 33
-0.128054 0.328714 1.74629 36 36 32
-0.115076 0.318123 1.69003 36 36 33
-0.108006 0.323459 1.71838 36 35 32
-0.0973724 0.318123 1.69003 35 35 31
-0.0856058 0.307649 1.63439 36 35 32
-0.078531 0.313582 1.6659 36 35 33
-0.0702774 0.315703 1.67717 36 35 32
-0.0619642 0.318123 1.69003 37 36 34
-0.0527081 0.315703 1.67717 37 36 34
-0.0425745 0.306008 1.62567 37 37 35
-0.0363241 0.326353 1.73375 37 37 34
-0.0259394 0.310736 1.65078 36 36 33
-0.0177202 0.318413 1.69157 35 36 34
-0.00872567 0.313582 1.6659 35 36 33
0 0.318123 1.69003 35 36 34
0.00856058 0.307649 1.63439 35 36 33
0.0177202 0.318413 1.69157 35 36 33
0.0263011 0.315069 1.6738 36 36 33
0.0345858 0.310736 1.65078 36 35 32
0.0439234 0.315703 1.67717 37 36 34
0.052354 0.313582 1.6659 38 37 34
0.0599241 0.307649 1.63439 37 37 34
0.0698053 0.313582 1.6659 37 36 33
0.0759522 0.303285 1.6112 36 35 32
0.0874451 0.314259 1.6695 36 35 32
0.0982252 0.32091 1.70483 36 35 30
0.104708 0.313582 1.6659 35 34 30
0.116084 0.32091 1.70483 35 34 29
0.126007 0.323459 1.71838 35 35 31
0.13177 0.315703 1.67717 36 36 32
0.138343 0.310736 1.65078 37 37 34
0.147451 0.31171 1.65596 37 37 34
0.159482 0.318413 1.69157 36 37 33
0.169662 0.32091 1.70483 37 37 34
0.170298 0.306008 1.62567 36 37 33
0.189188 0.323762 1.71999 36 36 32
0.193263 0.315703 1.67717 36 36 32
0.203782 0.318413 1.69157 36 36 31
0.204358 0.306008 1.62567 36 36 31
0.221503 0.318413 1.69157 37 37 32
0.232169 0.32091 1.70483 37 37 32
0.243241 0.323762 1.71999 38 38 33
0.242101 0.310736 1.65078 36 37 32
0.250747 0.310736 1.65078 35 35 31
0.261077 0.312752 1.66149 35 36 31
0.279016 0.323459 1.71838 36 36 33
0.28111 0.315703 1.67717 36 36 33
0.287947 0.313582 1.6659 36 36 33
0.303605 0.32091 1.70483 35 36 32
0.310104 0.318413 1.69157 35 35 32
0.316248 0.315703 1.67717 35 36 33
0.333331 0.323762 1.71999 35 36 34
0.336377 0.318123 1.69003 35 36 34
0.340301 0.313582 1.6659 36 36 34
0.365869 0.328714 1.74629 36 36 34
0.377479 0.330873 1.75776 36 37 34
0.385271 0.329662 1.75133 36 36 34
0.402177 0.336125 1.78567 36 36 34
0.405099 0.330873 1.75776 35 35 32
0.398342 0.318123 1.69003 34 34 31
0.407565 0.318413 1.69157 34 34 31
0.423024 0.323459 1.71838 35 35 33
0.424898 0.318123 1.69003 35 36 34
0.422035 0.309531 1.64438 36 37 34
0.463095 0.332853 1.76828 36 37 34
0.466483 0.328714 1.74629 35 36 33
0.472214 0.326353 1.73375 35 36 33
0.46246 0.313582 1.6659 35 37 34
0.486027 0.323459 1.71838 36 37 34
0.495028 0.323459 1.71838 36 37 34
0.504501 0.323762 1.71999 36 36 34
0.517619 0.326353 1.73375 35 36 33
0.517915 0.32091 1.70483 35 36 33
0.53487 0.325798 1.7308 34 35 33
0.544862 0.326353 1.73375 33 34 32
0.553001 0.325798 1.7308 31 33 31
0.558554 0.323762 1.71999 32 34 32
0.582048 0.332025 1.76388 32 34 32
0.576572 0.323762 1.71999 33 35 33
0.575907 0.318413 1.69157 34 36 34
0.609765 0.332025 1.76388 33 35 34
0.603034 0.323459 1.71838 32 35 33
0.61751 0.326353 1.73375 31 34 32
0.626591 0.326353 1.73375 30 33 32
0.640271 0.328714 1.74629 30 34 32
0.667593 0.337914 1.79517 29 33 32
0.653834 0.326353 1.73375 29 33 32
0.662915 0.326353 1.73375 29 33 32
0.666662 0.323762 1.71999 30 34 33
0.681077 0.326353 1.73375 34 37 36
0.695151 0.328714 1.74629 36 37 37
0.70633 0.329662 1.75133 35 37 37
0.763128 0.351605 1.8679 34 36 36
0.71104 0.323459 1.71838 33 35 35
0.733849 0.329662 1.75133 33 35 35
0.748348 0.332025 1.76388 34 36 36
0.762481 0.33417 1.77528 34 36 37
0.790306 0.342192 1.81789 34 36 36
0.770542 0.329662 1.75133 34 37 37
0.794259 0.335812 1.784 36 38 38
0.830649 0.347114 1.84404 35 38 38
0.857607 0.35426 1.882 37 40 40
0.793731 0.324148 1.72203 38 41 41
0.859626 0.347114 1.84404 39 41 42
0.83986 0.335365 1.78162 38 39 40
0.884459 0.349292 1.85562 35 37 37
0.810569 0.316632 1.68211 35 36 37
0.874453 0.337914 1.79517 34 37 37
0.897475 0.343121 1.82283 34 37 37
0.900624 0.3407 1.80997 35 38 37
0.910104 0.3407 1.80997 36 39 38
0.878142 0.325346 1.7284 37 40 39
0.939602 0.344564 1.8305 36 39 39
0.982566 0.35668 1.89486 35 38 39
0.940272 0.337914 1.79517 36 39 39
0.991555 0.352816 1.87433 35 39 39
0.926265 0.326353 1.73375 36 39 39
0.994848 0.347114 1.84404 36 39 39
1.02709 0.354918 1.8855 37 40 39
0.997892 0.341544 1.81445 36 39 39
1.0163 0.344564 1.8305 35 37 37
1.00609 0.337914 1.79517 35 37 37
1.09151 0.36321 1.92955 34 37 37
1.10162 0.36321 1.92955 34 36 37
1.11173 0.36321 1.92955 34 37 37
1.0437 0.337914 1.79517 37 39 40
1.0916 0.350267 1.86079 39 42 42
1.07888 0.343121 1.82283 38 41 41
1.14695 0.361569 1.92083 36 40 40
1.20469 0.376471 2 36 40 39
1.03583 0.32091 1.70483 35 39 39
1.16121 0.35668 1.89486 35 39 38
1.23612 0.376471 2 35 39 39
1.01327 0.306008 1.62567 35 38 39
-0.694618 0.213804 1.10514 36 36 30
-0.688829 0.213804 1.10514 37 36 31
-0.657276 0.20574 1.06345 38 36 32
-0.651706 0.20574 1.06345 38 37 32
-0.69531 0.221397 1.14438 38 36 32
-0.725727 0.233092 1.20483 38 36 32
-0.736683 0.238686 1.23375 38 36 31
-0.645337 0.210941 1.09033 38 36 32
-0.611494 0.201663 1.04238 38 36 32
-0.637895 0.212265 1.09718 37 35 31
-0.659346 0.221397 1.14438 36 35 30
-0.679412 0.230228 1.19003 36 35 30
-0.665904 0.22774 1.17717 36 35 30
-0.701302 0.242088 1.25133 37 36 32
-0.649315 0.226256 1.1695 36 36 31
-0.69934 0.246009 1.2716 37 36 33
-0.648246 0.230228 1.19003 38 37 33
-0.635076 0.22774 1.17717 38 37 33
-0.679359 0.246009 1.2716 37 36 32
-0.637377 0.233092 1.20483 37 36 31
-0.678382 0.250568 1.29517 36 36 31
-0.648868 0.242088 1.25133 36 36 31
-0.608546 0.229361 1.18555 36 36 30
-0.658031 0.250568 1.29517 36 36 31
-0.636706 0.244974 1.26625 37 36 32
-0.644463 0.250568 1.29517 38 36 33
-0.676657 0.265884 1.37433 37 36 31
-0.710029 0.281997 1.45762 37 36 31
-0.65324 0.262263 1.35562 38 37 33
-0.64614 0.262263 1.35562 38 38 33
-0.657541 0.269856 1.39486 38 38 33
-0.672341 0.27903 1.44228 38 38 33
-0.668862 0.280741 1.45113 38 37 32
-0.661261 0.280741 1.45113 38 37 32
-0.711336 0.305512 1.57917 38 37 32
-0.693515 0.301362 1.55772 38 37 32
-0.585386 0.257404 1.3305 37 37 32
-0.691377 0.307673 1.59033 37 37 32
-0.66524 0.299652 1.54887 37 37 33
-0.680998 0.310536 1.60514 36 35 31
-0.699561 0.322988 1.6695 35 35 31
-0.664183 0.310536 1.60514 36 36 32
-0.70832 0.335418 1.73375 36 36 32
-0.687577 0.329824 1.70483 36 37 33
-0.690158 0.335418 1.73375 37 38 34
-0.684411 0.33706 1.74224 37 38 35
-0.695801 0.3473 1.79517 38 38 35
-0.696975 0.352652 1.82283 36 37 33
-0.676996 0.3473 1.79517 35 35 31
-0.674765 0.351031 1.81445 35 35 31
-0.668332 0.352652 1.82283 34 35 30
-0.635269 0.340064 1.75776 35 35 31
-0.621977 0.337845 1.74629 35 36 31
-0.603034 0.332444 1.71838 35 36 32
-0.603684 0.337845 1.74629 35 36 32
-0.593157 0.33706 1.74224 36 36 33
-0.584031 0.33706 1.74224 36 36 34
-0.562563 0.329824 1.70483 36 36 33
-0.56578 0.33706 1.74224 35 35 32
-0.540467 0.327258 1.69157 36 36 33
-0.54003 0.332444 1.71838 37 37 34
-0.543201 0.340064 1.75776 36 37 34
-0.533994 0.340064 1.75776 37 37 34
-0.513029 0.332444 1.71838 36 37 34
-0.507673 0.334848 1.7308 36 37 33
-0.506374 0.340064 1.75776 36 37 33
-0.500143 0.342099 1.76828 37 37 34
-0.490881 0.342099 1.76828 35 35 32
-0.480421 0.341248 1.76388 35 35 31
-0.466483 0.337845 1.74629 36 36 33
-0.454051 0.335418 1.73375 37 37 34
-0.451133 0.340064 1.75776 36 36 33
-0.439043 0.337845 1.74629 35 35 31
-0.426083 0.334848 1.7308 37 36 33
-0.420749 0.337845 1.74629 37 37 34
-0.420883 0.345462 1.78567 37 37 34
-0.409136 0.343453 1.77528 36 36 33
-0.380985 0.327258 1.69157 37 36 34
-0.372125 0.327258 1.69157 37 36 34
-0.371689 0.334848 1.7308 37 36 34
-0.351955 0.324996 1.67988 37 35 34
-0.342602 0.324472 1.67717 36 36 34
-0.347576 0.337845 1.74629 36 37 35
-0.32285 0.322293 1.6659 36 37 35
-0.326917 0.335418 1.73375 36 36 35
-0.305398 0.322293 1.6659 36 36 35
-0.306017 0.332444 1.71838 36 37 35
-0.289312 0.323821 1.6738 36 36 34
-0.279221 0.322293 1.6659 36 36 34
-0.272325 0.324472 1.67717 37 37 35
-0.26177 0.322293 1.6659 38 37 35
-0.261015 0.332444 1.71838 38 37 35
-0.250028 0.329824 1.70483 38 37 35
-0.243014 0.332444 1.71838 37 36 34
-0.228402 0.324472 1.67717 36 35 32
-0.215324 0.318129 1.64438 35 35 31
-0.216012 0.332444 1.71838 36 35 31
-0.208509 0.334848 1.7308 36 36 32
-0.193263 0.324472 1.67717 35 35 31
-0.186062 0.327258 1.69157 37 37 33
-0.172929 0.319367 1.65078 38 38 34
-0.173384 0.33706 1.74224 37 37 33
-0.160732 0.329824 1.70483 36 36 32
-0.151803 0.329824 1.70483 36 35 31
-0.141762 0.327258 1.69157 36 36 32
-0.129697 0.319367 1.65078 36 36 32
-0.125014 0.329824 1.70483 36 35 31
-0.118053 0.335418 1.73375 36 36 32
-0.105586 0.324996 1.67988 36 36 33
-0.0974612 0.327258 1.69157 36 35 32
-0.0879887 0.324996 1.67988 35 34 32
-0.0810805 0.332756 1.71999 36 35 32
-0.0702774 0.324472 1.67717 36 35 32
-0.062507 0.329824 1.70483 37 36 34
-0.0531606 0.327258 1.69157 37 37 34
-0.0439234 0.324472 1.67717 37 37 34
-0.0345858 0.319367 1.65078 37 37 34
-0.0270015 0.332444 1.71838 36 36 34
-0.0175694 0.324472 1.67717 36 36 34
-0.00878468 0.324472 1.67717 36 36 34
0 0.332756 1.71999 36 37 34
0.00886011 0.327258 1.69157 36 36 34
0.0172929 0.319367 1.65078 36 36 34
0.0265561 0.32696 1.69003 36 35 32
0.0354081 0.32696 1.69003 36 35 32
0.0425745 0.314508 1.62567 37 36 33
0.0522154 0.321439 1.66149 37 36 34
0.0619642 0.32696 1.69003 37 36 33
0.0708809 0.327258 1.69157 36 36 32
0.0815903 0.334848 1.7308 37 36 32
0.0872567 0.322293 1.6659 37 36 32
0.0916283 0.307673 1.59033 36 35 31
0.104708 0.322293 1.6659 35 35 30
0.115267 0.3275 1.69282 35 35 30
0.124041 0.327258 1.69157 35 35 31
0.129697 0.319367 1.65078 36 36 32
0.138343 0.319367 1.65078 36 37 33
0.150622 0.327258 1.69157 36 36 32
0.159482 0.327258 1.69157 36 36 32
0.163347 0.317548 1.64138 36 36 32
0.174513 0.322293 1.6659 36 36 32
0.190377 0.334848 1.7308 35 36 31
0.194922 0.327258 1.69157 35 35 30
0.207012 0.332444 1.71838 35 35 31
0.207515 0.319367 1.65078 36 36 31
0.217564 0.321439 1.66149 36 37 31
0.228771 0.324996 1.67988 36 36 32
0.237186 0.324472 1.67717 36 37 31
0.242101 0.319367 1.65078 36 36 31
0.256943 0.327258 1.69157 35 36 31
0.271968 0.334848 1.7308 35 36 31
0.272765 0.324996 1.67988 36 37 33
0.278482 0.321439 1.66149 36 37 33
0.299165 0.334848 1.7308 35 35 31
0.306017 0.332444 1.71838 33 34 30
0.301453 0.318129 1.64438 34 35 32
0.324018 0.332444 1.71838 35 36 33
0.327824 0.327258 1.69157 35 36 34
0.326694 0.317548 1.64138 35 36 34
0.337212 0.319367 1.65078 36 36 34
0.362624 0.334848 1.7308 36 37 34
0.369367 0.332756 1.71999 36 37 34
0.375042 0.329824 1.70483 36 36 34
0.37421 0.321439 1.66149 35 36 33
0.402456 0.337845 1.74629 35 35 32
0.385226 0.316195 1.63439 34 34 31
0.414023 0.332444 1.71838 34 34 31
0.404809 0.318129 1.64438 34 35 32
0.432024 0.332444 1.71838 34 35 32
0.448189 0.337845 1.74629 35 36 33
0.439234 0.324472 1.67717 34 36 32
0.463133 0.335418 1.73375 34 36 32
0.477002 0.33882 1.75133 35 36 33
0.48796 0.340064 1.75776 35 36 32
0.493923 0.337845 1.74629 34 35 32
0.500523 0.336134 1.73745 33 34 31
0.508538 0.335418 1.73375 32 33 29
0.516739 0.334848 1.7308 34 35 31
0.535854 0.341248 1.76388 35 36 34
0.522746 0.327258 1.69157 33 35 32
0.54003 0.332444 1.71838 32 34 31
0.553943 0.335418 1.73375 32 34 33
0.567097 0.337845 1.74629 33 35 33
0.567563 0.332756 1.71999 32 35 33
0.595107 0.343453 1.77528 32 35 33
0.607942 0.345462 1.78567 32 35 34
0.599348 0.335418 1.73375 32 34 33
0.612831 0.337845 1.74629 31 34 33
0.621977 0.337845 1.74629 32 34 33
0.6416 0.343453 1.77528 31 34 34
0.650899 0.343453 1.77528 31 35 34
0.644753 0.335418 1.73375 30 34 34
0.665198 0.341248 1.76388 30 34 34
0.686399 0.3473 1.79517 31 34 34
0.671996 0.335418 1.73375 32 35 35
0.675671 0.332756 1.71999 34 36 36
0.70669 0.343453 1.77528 35 38 37
0.728853 0.349624 1.80718 34 37 36
0.720631 0.341248 1.76388 33 35 35
0.742815 0.3473 1.79517 32 34 35
0.752218 0.3473 1.79517 32 35 35
0.737134 0.336134 1.73745 34 36 36
0.738733 0.332756 1.71999 35 37 37
0.780426 0.3473 1.79517 34 37 37
0.801999 0.352652 1.82283 34 36 36
0.788738 0.342741 1.7716 34 37 36
0.802533 0.34468 1.78162 34 36 36
0.82351 0.349624 1.80718 36 39 38
0.863929 0.362616 1.87433 37 40 40
0.849737 0.352652 1.82283 38 40 40
0.821294 0.33706 1.74224 37 38 39
0.841864 0.341706 1.76625 35 37 37
0.858524 0.34468 1.78162 34 37 37
0.881663 0.350164 1.80997 34 37 37
0.891144 0.350164 1.80997 34 37 37
0.907022 0.352652 1.82283 35 38 37
0.910104 0.350164 1.80997 36 39 38
0.893059 0.340064 1.75776 37 40 39
0.897598 0.338304 1.74867 37 40 40
0.930869 0.3473 1.79517 35 39 39
0.950373 0.351031 1.81445 35 38 38
0.968366 0.354136 1.8305 35 39 39
0.991372 0.358995 1.85562 36 39 39
0.978885 0.351031 1.81445 37 40 40
0.997129 0.354136 1.8305 38 41 40
1.03082 0.362616 1.87433 36 39 39
1.03312 0.359996 1.86079 35 37 37
1.05046 0.362616 1.87433 34 36 36
1.06028 0.362616 1.87433 34 36 37
1.07009 0.362616 1.87433 34 36 37
1.11173 0.373299 1.92955 33 36 36
1.16279 0.386928 2 36 39 40
1.13194 0.373299 1.92955 39 42 42
1.09143 0.356756 1.84404 38 41 41
1.14028 0.369452 1.90967 36 40 40
1.15028 0.369452 1.90967 36 40 39
0.987729 0.314508 1.62567 36 40 39
1.10012 0.3473 1.79517 36 40 39
1.18029 0.369452 1.90967 36 39 40
1.2466 0.386928 2 36 40 41
-0.661803 0.209209 1.05293 35 35 30
-0.688829 0.219583 1.10514 35 35 30
-0.61806 0.198693 1 36 36 31
-0.672376 0.218002 1.09718 38 37 33
-0.63728 0.208404 1.04887 38 37 33
-0.634228 0.209209 1.05293 38 37 32
-0.683322 0.227381 1.14438 38 36 32
-0.649389 0.218002 1.09718 38 36 33
-0.643642 0.218002 1.09718 38 36 32
-0.642521 0.219583 1.10514 37 35 31
-0.632148 0.218002 1.09718 36 35 31
-0.630944 0.219583 1.10514 37 36 31
-0.653905 0.229681 1.15596 37 36 31
-0.641364 0.227381 1.14438 37 36 32
-0.641795 0.229681 1.15596 37 36 32
-0.66262 0.239392 1.20483 37 36 32
-0.648246 0.23645 1.19003 37 36 32
-0.642013 0.23645 1.19003 37 36 33
-0.586174 0.218002 1.09718 37 36 32
-0.637377 0.239392 1.20483 36 36 31
-0.631067 0.239392 1.20483 36 36 32
-0.685942 0.262837 1.32283 37 36 32
-0.67648 0.261856 1.31789 36 36 31
-0.658031 0.25734 1.29517 36 35 30
-0.651247 0.25734 1.29517 37 36 32
-0.630074 0.251595 1.26625 38 37 33
-0.651299 0.262837 1.32283 37 36 32
-0.660341 0.269351 1.35562 37 36 31
-0.699264 0.288328 1.45113 38 37 33
-0.714959 0.298039 1.5 38 37 32
-0.707102 0.298039 1.5 38 37 32
-0.726151 0.309507 1.55772 39 38 34
-0.671856 0.289619 1.45762 38 37 32
-0.709833 0.309507 1.55772 37 36 30
-0.701674 0.309507 1.55772 37 37 31
-0.689579 0.30775 1.54887 38 37 32
-0.681466 0.30775 1.54887 37 37 32
-0.741154 0.338738 1.70483 38 37 33
-0.623257 0.288328 1.45113 37 36 32
-0.657128 0.30775 1.54887 36 35 31
-0.666388 0.315988 1.59033 35 35 31
-0.680423 0.326727 1.64438 36 36 32
-0.696506 0.338738 1.70483 36 36 32
-0.724009 0.356687 1.79517 36 37 33
-0.714607 0.356687 1.79517 37 38 34
-0.630553 0.318929 1.60514 38 39 35
-0.686666 0.352004 1.7716 37 38 35
-0.662915 0.344484 1.73375 36 37 34
-0.642929 0.338738 1.70483 35 36 32
-0.650301 0.347448 1.74867 35 36 32
-0.632361 0.34269 1.72472 35 36 31
-0.622357 0.342156 1.72203 35 36 31
-0.612034 0.341429 1.71838 35 36 32
-0.623946 0.353269 1.77797 35 36 31
-0.603684 0.346976 1.74629 35 36 32
-0.589263 0.343898 1.7308 37 37 34
-0.589235 0.349255 1.75776 36 36 34
-0.541625 0.326131 1.64138 35 36 33
-0.553633 0.338738 1.70483 36 36 33
-0.55795 0.346976 1.74629 36 36 34
-0.548803 0.346976 1.74629 36 37 34
-0.541214 0.347977 1.75133 37 38 35
-0.550446 0.360015 1.81192 37 38 35
-0.513029 0.341429 1.71838 36 37 33
-0.508538 0.344484 1.73375 36 36 33
-0.512194 0.353269 1.77797 35 36 32
-0.492776 0.34617 1.74224 36 36 32
-0.473267 0.338738 1.70483 34 35 30
-0.464337 0.338738 1.70483 35 35 31
-0.462345 0.343898 1.7308 36 36 33
-0.472782 0.358694 1.80527 37 37 34
-0.434145 0.336103 1.69157 37 37 34
-0.425285 0.336103 1.69157 36 36 33
-0.41969 0.338738 1.70483 36 35 32
-0.414023 0.341429 1.71838 36 36 33
-0.404716 0.34117 1.71707 37 36 34
-0.399565 0.344484 1.73375 37 36 33
-0.395892 0.349255 1.75776 37 35 33
-0.378021 0.341429 1.71838 37 35 33
-0.366112 0.338738 1.70483 37 36 34
-0.349027 0.331003 1.6659 36 35 34
-0.3394 0.330127 1.66149 35 35 34
-0.344492 0.343898 1.7308 36 37 35
-0.327824 0.336103 1.69157 37 38 36
-0.318964 0.336103 1.69157 36 37 36
-0.315018 0.341429 1.71838 36 37 35
-0.310989 0.346976 1.74629 36 37 35
-0.301842 0.346976 1.74629 36 36 34
-0.292695 0.346976 1.74629 36 36 34
-0.270496 0.331003 1.6659 37 36 34
-0.270015 0.341429 1.71838 37 36 34
-0.256943 0.336103 1.69157 37 37 34
-0.244319 0.331003 1.6659 38 37 35
-0.2394 0.336352 1.69282 38 38 36
-0.232169 0.338738 1.70483 37 37 34
-0.219617 0.333242 1.67717 36 36 33
-0.212643 0.336103 1.69157 36 36 32
-0.203782 0.336103 1.69157 36 36 32
-0.190222 0.327999 1.65078 36 36 32
-0.179772 0.324741 1.63439 37 36 33
-0.178591 0.338738 1.70483 36 36 33
-0.167178 0.33378 1.67988 35 35 32
-0.163181 0.343898 1.7308 35 35 32
-0.148336 0.331003 1.6659 35 35 32
-0.136969 0.324741 1.63439 36 36 33
-0.132902 0.336103 1.69157 36 36 33
-0.123184 0.33378 1.67988 36 36 33
-0.116084 0.338738 1.70483 37 36 33
-0.105416 0.333242 1.67717 36 35 33
-0.0957282 0.330127 1.66149 35 34 31
-0.0906559 0.343898 1.7308 36 35 33
-0.0823205 0.346976 1.74629 37 36 34
-0.0691717 0.327999 1.65078 36 35 33
-0.0614928 0.333242 1.67717 37 36 34
-0.0535774 0.338738 1.70483 37 36 34
-0.0435128 0.330127 1.66149 37 36 34
-0.0354404 0.336103 1.69157 37 37 34
-0.0256817 0.324741 1.63439 37 37 34
-0.0174051 0.330127 1.66149 36 36 34
-0.00879887 0.33378 1.67988 36 36 34
0 0.327999 1.65078 36 36 34
0.00859722 0.326131 1.64138 36 36 34
0.0174513 0.331003 1.6659 36 36 33
0.0261077 0.330127 1.66149 35 35 32
0.0357183 0.338738 1.70483 36 35 32
0.0443005 0.336103 1.69157 36 35 33
0.0522154 0.330127 1.66149 37 36 33
0.0601806 0.326131 1.64138 37 36 33
0.0691717 0.327999 1.65078 37 36 32
0.0791898 0.33378 1.67988 37 36 33
0.0872567 0.331003 1.6659 37 36 33
0.0966315 0.333242 1.67717 37 36 32
0.107155 0.338738 1.70483 36 35 31
0.113434 0.331003 1.6659 35 35 30
0.123184 0.33378 1.67988 35 35 31
0.132902 0.336103 1.69157 35 36 31
0.138777 0.329027 1.65596 35 35 31
0.151803 0.338738 1.70483 34 34 29
0.152545 0.321484 1.618 34 35 30
0.166909 0.333242 1.67717 35 35 30
0.175977 0.33378 1.67988 35 35 31
0.1862 0.336352 1.69282 35 35 30
0.191965 0.331003 1.6659 34 35 30
0.195843 0.323008 1.62567 35 35 31
0.205454 0.324741 1.63439 36 36 32
0.223239 0.338738 1.70483 37 37 33
0.234013 0.341429 1.71838 36 37 32
0.243014 0.341429 1.71838 36 36 31
0.240722 0.326131 1.64138 35 36 31
0.261015 0.341429 1.71838 35 35 31
0.271968 0.343898 1.7308 36 36 32
0.274663 0.336103 1.69157 37 37 34
0.290593 0.344484 1.73375 36 36 33
0.294676 0.338738 1.70483 34 35 31
0.306017 0.341429 1.71838 34 35 31
0.302626 0.327999 1.65078 35 36 33
0.326917 0.344484 1.73375 35 36 34
0.320922 0.329027 1.65596 35 36 34
0.342019 0.341429 1.71838 35 36 34
0.343156 0.33378 1.67988 35 36 34
0.354404 0.336103 1.69157 35 36 34
0.363264 0.336103 1.69157 36 36 34
0.371785 0.335797 1.69003 36 36 34
0.376983 0.332573 1.6738 35 36 33
0.389845 0.336103 1.69157 35 35 32
0.398342 0.335797 1.69003 34 35 32
0.407194 0.335797 1.69003 34 35 32
0.410992 0.331718 1.6695 33 35 32
0.435148 0.343898 1.7308 33 35 32
0.441025 0.341429 1.71838 34 35 32
0.442602 0.335797 1.69003 34 35 32
0.44097 0.327999 1.65078 34 36 33
0.464337 0.338738 1.70483 35 36 33
0.477474 0.341749 1.71999 34 35 32
0.47342 0.332573 1.6738 33 34 31
0.504522 0.347977 1.75133 33 34 30
0.479393 0.324741 1.63439 32 33 30
0.524787 0.349255 1.75776 31 33 29
0.521634 0.34117 1.71707 32 33 30
0.526844 0.338738 1.70483 32 34 31
0.535774 0.338738 1.70483 32 34 32
0.549031 0.341429 1.71838 34 35 34
0.539559 0.330127 1.66149 33 35 34
0.562563 0.338738 1.70483 32 34 33
0.584031 0.34617 1.74224 32 35 33
0.589263 0.343898 1.7308 32 34 33
0.589351 0.338738 1.70483 31 34 32
0.608429 0.344484 1.73375 30 34 32
0.607211 0.338738 1.70483 31 34 33
0.632945 0.347977 1.75133 31 35 34
0.642118 0.347977 1.75133 31 35 34
0.62246 0.332573 1.6738 31 35 35
0.680806 0.358694 1.80527 32 36 36
0.686399 0.356687 1.79517 34 37 37
0.688093 0.352735 1.77528 34 37 36
0.695946 0.352004 1.7716 32 36 36
0.70669 0.352735 1.77528 34 37 37
0.715988 0.352735 1.77528 34 36 36
0.685205 0.333242 1.67717 33 35 35
0.738883 0.354799 1.78567 32 35 35
0.720715 0.341749 1.71999 33 35 35
0.730593 0.342156 1.72203 34 36 37
0.776181 0.359073 1.80718 35 37 37
0.775571 0.354468 1.784 35 38 37
0.773371 0.349255 1.75776 34 37 36
0.816562 0.364422 1.8341 33 36 35
0.798018 0.352004 1.7716 34 36 36
0.844337 0.368155 1.85288 35 37 37
0.827439 0.356687 1.79517 35 37 37
0.812168 0.34617 1.74224 36 38 38
0.83986 0.353996 1.78162 35 37 38
0.868832 0.362183 1.82283 35 38 38
0.847025 0.349255 1.75776 35 38 38
0.893415 0.364422 1.8341 34 37 37
0.883856 0.356687 1.79517 34 37 37
0.910839 0.363707 1.8305 35 39 38
0.910104 0.359628 1.80997 36 39 38
0.905183 0.353996 1.78162 36 39 39
0.897598 0.347448 1.74867 36 39 39
0.962214 0.368697 1.85562 35 39 39
0.965871 0.366398 1.84404 35 38 39
0.959877 0.360519 1.81445 35 39 39
1.00137 0.372417 1.87433 36 39 40
0.93246 0.343421 1.7284 37 40 40
1.02101 0.372417 1.87433 37 40 40
1.01416 0.366398 1.84404 36 39 39
1.04684 0.374636 1.8855 35 38 38
1.04287 0.369726 1.86079 34 36 37
1.01549 0.356687 1.79517 34 36 37
1.06236 0.369726 1.86079 34 37 38
1.06246 0.366398 1.84404 34 37 37
1.11676 0.381656 1.92083 36 39 40
1.06933 0.362183 1.82283 37 40 41
1.13689 0.381656 1.92083 36 40 40
1.19422 0.397386 2 35 39 39
1.15028 0.379437 1.90967 35 39 39
1.09072 0.356687 1.79517 36 39 39
1.10012 0.356687 1.79517 36 40 40
1.23612 0.397386 2 37 40 41
1.31213 0.418276 2.10514 37 40 41
-0.628536 0.203922 1 35 35 30
-0.688829 0.225361 1.10514 35 35 30
-0.646117 0.213179 1.0454 36 35 30
-0.677252 0.225361 1.10514 37 36 32
-0.671464 0.225361 1.10514 38 37 33
-0.709065 0.240051 1.17717 38 37 33
-0.702899 0.240051 1.17717 38 36 32
-0.684178 0.235725 1.15596 37 36 32
-0.653802 0.22727 1.1145 37 36 33
-0.637895 0.223739 1.09718 36 35 31
-0.666014 0.235725 1.15596 35 34 30
-0.626401 0.223739 1.09718 36 35 30
-0.681552 0.245691 1.20483 36 35 31
-0.641364 0.233365 1.14438 37 36 32
-0.613579 0.225361 1.10514 37 36 32
-0.712301 0.264113 1.29517 37 36 32
-0.629686 0.235725 1.15596 37 36 32
-0.670179 0.253319 1.24224 37 36 32
-0.706728 0.269753 1.32283 37 36 32
-0.637377 0.245691 1.20483 37 36 32
-0.678382 0.264113 1.29517 37 37 33
-0.696942 0.274079 1.34404 37 37 33
-0.679013 0.269753 1.32283 37 37 33
-0.705602 0.283206 1.3888 36 36 31
-0.651247 0.264113 1.29517 37 35 31
-0.674541 0.276439 1.35562 37 36 32
-0.676657 0.280256 1.37433 37 36 32
-0.64437 0.269753 1.32283 39 38 35
-0.679286 0.287461 1.40967 41 41 37
-0.671902 0.287461 1.40967 39 39 34
-0.679895 0.294113 1.44228 37 37 31
-0.676462 0.295916 1.45113 38 37 32
-0.749312 0.331508 1.62567 38 37 32
-0.709833 0.317652 1.55772 37 37 31
-0.723035 0.327322 1.60514 38 38 33
-0.714627 0.327322 1.60514 38 37 33
-0.72858 0.337686 1.65596 37 37 33
-0.673353 0.315849 1.54887 38 37 32
-0.689405 0.327322 1.60514 37 36 32
-0.697649 0.335325 1.64438 36 35 31
-0.658054 0.320248 1.57045 35 35 31
-0.638214 0.314524 1.54238 36 36 32
-0.696506 0.347652 1.70483 37 37 33
-0.673327 0.340447 1.6695 37 38 34
-0.678647 0.347652 1.70483 37 37 34
-0.658851 0.342011 1.67717 37 38 34
-0.622146 0.327322 1.60514 37 37 34
-0.651858 0.347652 1.70483 36 36 33
-0.670509 0.362566 1.77797 36 36 32
-0.633999 0.347652 1.70483 36 36 33
-0.644476 0.358446 1.75776 37 37 34
-0.631124 0.356107 1.74629 36 37 33
-0.639385 0.366073 1.79517 36 37 33
-0.623946 0.362566 1.77797 35 36 31
-0.602282 0.35528 1.74224 35 36 31
-0.589263 0.352948 1.7308 36 37 33
-0.551229 0.335325 1.64438 36 36 33
-0.576244 0.356107 1.74629 37 37 34
-0.570822 0.358446 1.75776 37 37 34
-0.535865 0.342011 1.67717 36 37 34
-0.572856 0.371714 1.82283 35 36 33
-0.53103 0.350414 1.71838 36 37 34
-0.522029 0.350414 1.71838 36 37 34
-0.524787 0.358446 1.75776 36 37 33
-0.515581 0.358446 1.75776 35 36 32
-0.494653 0.350148 1.71707 36 36 32
-0.486027 0.350414 1.71838 36 37 33
-0.473267 0.347652 1.70483 35 36 32
-0.471411 0.352948 1.7308 35 36 32
-0.459026 0.350414 1.71838 35 36 32
-0.450025 0.350414 1.71838 36 36 32
-0.453834 0.360591 1.76828 36 36 33
-0.425285 0.344948 1.69157 36 36 33
-0.429896 0.356107 1.74629 36 36 33
-0.398984 0.337686 1.65596 36 36 33
-0.410647 0.35528 1.74224 37 36 34
-0.392901 0.347652 1.70483 37 36 34
-0.387022 0.350414 1.71838 37 36 33
-0.380755 0.352948 1.7308 36 35 33
-0.366112 0.347652 1.70483 37 35 34
-0.36002 0.350414 1.71838 36 35 34
-0.348253 0.347652 1.70483 36 36 34
-0.342019 0.350414 1.71838 36 37 35
-0.330394 0.347652 1.70483 36 36 35
-0.328517 0.35528 1.74224 36 36 35
-0.317296 0.352948 1.7308 36 37 35
-0.299162 0.342564 1.67988 37 37 36
-0.289894 0.342011 1.67717 37 37 35
-0.285746 0.347652 1.70483 36 36 34
-0.283548 0.356107 1.74629 37 36 34
-0.259394 0.33663 1.65078 37 37 34
-0.261015 0.350414 1.71838 37 37 35
-0.254269 0.353549 1.73375 37 37 35
-0.233454 0.33663 1.65078 37 37 35
-0.224808 0.33663 1.65078 37 37 34
-0.225013 0.350414 1.71838 37 37 34
-0.212643 0.344948 1.69157 37 36 33
-0.198869 0.33663 1.65078 37 36 33
-0.193263 0.342011 1.67717 36 36 32
-0.190377 0.352948 1.7308 36 35 31
-0.175977 0.342564 1.67988 36 35 32
-0.164798 0.337686 1.65596 35 35 32
-0.161886 0.350148 1.71707 35 35 32
-0.14934 0.342011 1.67717 36 36 34
-0.140782 0.342564 1.67988 36 37 34
-0.127724 0.331508 1.62567 36 36 34
-0.122159 0.339714 1.6659 36 36 34
-0.114385 0.342564 1.67988 36 36 34
-0.103758 0.33663 1.65078 36 36 34
-0.09314 0.329654 1.61657 36 35 33
-0.0886011 0.344948 1.69157 36 36 33
-0.078531 0.339714 1.6659 36 35 32
-0.0696205 0.338814 1.66149 35 35 32
-0.0635672 0.353549 1.73375 36 35 33
-0.054003 0.350414 1.71838 36 36 33
-0.0443005 0.344948 1.69157 37 36 34
-0.0342423 0.333287 1.63439 37 36 34
-0.0267887 0.347652 1.70483 36 36 34
-0.0179874 0.350148 1.71707 35 36 33
-0.0090005 0.350414 1.71838 36 36 34
0 0.353549 1.73375 36 36 34
0.00864646 0.33663 1.65078 36 36 34
0.0174513 0.339714 1.6659 36 36 34
0.0259394 0.33663 1.65078 36 36 33
0.0354404 0.344948 1.69157 36 35 32
0.0435128 0.338814 1.66149 37 36 33
0.0531606 0.344948 1.69157 37 36 33
0.0615921 0.342564 1.67988 36 35 32
0.072004 0.350414 1.71838 36 35 32
0.0778182 0.33663 1.65078 37 36 33
0.0859722 0.334713 1.64138 37 37 34
0.0990055 0.350414 1.71838 37 36 33
0.110482 0.358446 1.75776 36 36 32
0.114201 0.342011 1.67717 35 35 31
0.122986 0.342011 1.67717 35 35 31
0.128958 0.334713 1.64138 35 36 31
0.137556 0.334713 1.64138 35 36 31
0.14699 0.33663 1.65078 35 35 31
0.15838 0.342564 1.67988 35 35 31
0.172246 0.352948 1.7308 35 35 31
0.174051 0.338814 1.66149 35 35 31
0.189011 0.350414 1.71838 35 35 30
0.189139 0.334713 1.64138 34 35 30
0.203597 0.344634 1.69003 35 36 31
0.21431 0.347652 1.70483 37 37 33
0.217564 0.338814 1.66149 37 37 33
0.224808 0.33663 1.65078 36 37 33
0.241098 0.347652 1.70483 35 36 32
0.242101 0.33663 1.65078 35 35 31
0.252374 0.338814 1.66149 35 35 31
0.261077 0.338814 1.66149 35 35 32
0.272325 0.342011 1.67717 36 36 34
0.279221 0.339714 1.6659 36 37 34
0.287947 0.339714 1.6659 35 35 32
0.306017 0.350414 1.71838 34 35 31
0.307464 0.342011 1.67717 35 36 33
0.318964 0.344948 1.69157 35 36 34
0.320922 0.337686 1.65596 36 37 34
0.344492 0.352948 1.7308 36 37 35
0.3458 0.345203 1.69282 35 36 34
0.357183 0.347652 1.70483 35 36 34
0.363264 0.344948 1.69157 35 35 33
0.371785 0.344634 1.69003 34 35 32
0.380637 0.344634 1.69003 34 34 31
0.399565 0.353549 1.73375 34 34 31
0.405402 0.350743 1.71999 34 35 32
0.41076 0.347652 1.70483 34 35 32
0.41288 0.342011 1.67717 33 34 31
0.435148 0.352948 1.7308 32 34 30
0.44497 0.353549 1.73375 33 35 32
0.443005 0.344948 1.69157 34 35 33
0.447119 0.341324 1.6738 35 37 34
0.460306 0.344634 1.69003 35 36 34
0.481295 0.353549 1.73375 33 35 31
0.490376 0.353549 1.73375 32 34 30
0.495492 0.350743 1.71999 33 34 31
0.508538 0.353549 1.73375 34 35 32
0.517619 0.353549 1.73375 33 35 31
0.522519 0.350743 1.71999 32 34 30
0.521668 0.344237 1.68808 32 34 31
0.535774 0.347652 1.70483 32 34 32
0.553943 0.353549 1.73375 32 35 33
0.563024 0.353549 1.73375 32 34 33
0.567032 0.350414 1.71838 32 34 32
0.598589 0.364136 1.78567 32 35 33
0.607942 0.364136 1.78567 33 35 34
0.599348 0.353549 1.73375 33 35 34
0.619004 0.359694 1.76388 33 36 34
0.602487 0.344948 1.69157 33 36 35
0.648788 0.366073 1.79517 33 36 35
0.635672 0.353549 1.73375 34 37 36
0.660197 0.362018 1.77528 34 37 37
0.642929 0.347652 1.70483 34 37 37
0.672096 0.358446 1.75776 35 38 38
0.660788 0.347652 1.70483 37 40 40
0.705204 0.366073 1.79517 36 39 39
0.730934 0.374437 1.83618 35 38 38
0.715988 0.362018 1.77528 34 36 36
0.713444 0.356107 1.74629 33 35 35
0.711706 0.350743 1.71999 34 36 36
0.76577 0.372669 1.82751 35 37 37
0.743023 0.357134 1.75133 36 38 38
0.766226 0.363796 1.784 35 37 37
0.821131 0.385167 1.8888 35 37 37
0.789828 0.366073 1.79517 34 37 36
0.782578 0.358446 1.75776 34 36 36
0.808634 0.366073 1.79517 34 36 36
0.804859 0.360176 1.76625 34 36 36
0.845382 0.374012 1.8341 33 36 36
0.830529 0.363312 1.78162 34 36 36
0.83986 0.363312 1.78162 34 37 37
0.874202 0.374012 1.8341 35 38 39
0.851116 0.360176 1.76625 36 39 39
0.903898 0.3784 1.85562 34 38 38
0.913617 0.3784 1.85562 34 38 37
0.917578 0.37604 1.84404 35 39 38
0.910104 0.369092 1.80997 35 39 38
0.930015 0.373278 1.8305 36 39 38
0.952495 0.3784 1.85562 36 39 39
0.94919 0.373278 1.8305 35 38 38
0.987587 0.384494 1.8855 34 38 38
0.984391 0.379455 1.86079 35 38 39
1.03768 0.396074 1.94228 36 39 40
0.978885 0.370006 1.81445 36 39 40
1.05802 0.396074 1.94228 36 39 39
1.03082 0.382217 1.87433 36 39 39
1.06646 0.391699 1.92083 36 38 39
1.08141 0.393478 1.92955 35 38 38
1.13136 0.407843 2 35 37 39
1.14184 0.407843 2 35 37 38
1.07211 0.379455 1.86079 34 37 38
1.05978 0.371714 1.82283 35 38 39
1.08178 0.37604 1.84404 36 39 40
1.10135 0.379455 1.86079 36 39 39
1.10109 0.37604 1.84404 35 39 38
1.09797 0.371714 1.82283 35 39 39
1.15129 0.386403 1.89486 35 39 39
1.17029 0.389422 1.90967 36 40 40
1.17114 0.386403 1.89486 37 40 41
1.2466 0.407843 2 37 40 41
-0.726561 0.241769 1.15596 36 35 31
-0.656288 0.220221 1.05293 36 36 32
-0.650773 0.220221 1.05293 36 36 32
-0.645258 0.220221 1.05293 36 35 31
-0.732037 0.251991 1.20483 37 36 33
-0.660882 0.229475 1.09718 38 37 34
-0.655136 0.229475 1.09718 37 36 33
-0.684178 0.241769 1.15596 36 35 32
-0.643642 0.229475 1.09718 37 36 32
-0.727518 0.261716 1.25133 36 35 30
-0.673817 0.244602 1.1695 35 34 30
-0.667691 0.244602 1.1695 35 34 29
-0.653905 0.241769 1.15596 36 35 31
-0.641364 0.239348 1.14438 37 36 33
-0.660712 0.248895 1.19003 37 36 33
-0.66262 0.251991 1.20483 37 36 33
-0.607102 0.233098 1.1145 37 36 32
-0.56586 0.219372 1.04887 37 36 32
-0.663672 0.259814 1.24224 37 36 32
-0.646477 0.255589 1.22203 37 37 33
-0.703982 0.281107 1.34404 38 37 34
-0.685942 0.27667 1.32283 38 37 34
-0.679013 0.27667 1.32283 37 37 33
-0.672085 0.27667 1.32283 37 36 32
-0.698328 0.290468 1.3888 37 36 33
-0.630074 0.264837 1.26625 37 36 33
-0.686765 0.291736 1.39486 37 36 33
-0.706865 0.303503 1.45113 39 38 35
-0.65324 0.283527 1.35562 40 39 35
-0.671902 0.294832 1.40967 40 40 35
-0.684063 0.303503 1.45113 39 38 34
-0.722029 0.323948 1.54887 37 36 31
-0.668862 0.303503 1.45113 36 36 30
-0.683532 0.313726 1.5 36 35 30
-0.697691 0.323948 1.54887 37 36 32
-0.667819 0.313726 1.5 38 37 33
-0.699707 0.332619 1.59033 37 37 32
-0.725794 0.349177 1.6695 37 36 32
-0.623257 0.303503 1.45113 36 36 32
-0.708305 0.349177 1.6695 36 35 31
-0.67259 0.335715 1.60514 36 35 31
-0.705436 0.356566 1.70483 36 36 32
-0.71813 0.367637 1.75776 37 37 33
-0.663197 0.343924 1.64438 38 38 34
-0.664583 0.349177 1.6695 38 38 34
-0.695946 0.370531 1.7716 38 37 34
-0.647094 0.349177 1.6695 37 36 33
-0.662915 0.362614 1.73375 36 36 33
-0.676996 0.37546 1.79517 36 36 33
-0.642764 0.361496 1.7284 37 37 34
-0.654096 0.373124 1.784 36 37 33
-0.637481 0.368917 1.76388 36 37 33
-0.649237 0.381245 1.82283 37 37 34
-0.612831 0.365238 1.74629 36 36 32
-0.607649 0.367637 1.75776 35 36 32
-0.585033 0.359399 1.71838 36 37 34
-0.58539 0.365238 1.74629 36 37 34
-0.585809 0.3713 1.77528 36 37 34
-0.569206 0.366596 1.75279 36 37 34
-0.56357 0.368917 1.76388 35 36 33
-0.535774 0.356566 1.70483 35 36 33
-0.535781 0.362614 1.73375 35 36 33
-0.522029 0.359399 1.71838 35 36 33
-0.508985 0.356566 1.70483 35 36 32
-0.517376 0.368917 1.76388 35 36 32
-0.51142 0.3713 1.77528 36 36 32
-0.478446 0.353793 1.69157 36 37 33
-0.465588 0.350781 1.67717 36 37 33
-0.478754 0.367637 1.75776 35 36 32
-0.459026 0.359399 1.71838 34 35 31
-0.457336 0.365238 1.74629 35 35 31
-0.43375 0.35347 1.69003 35 35 32
-0.447006 0.371862 1.77797 36 36 33
-0.429896 0.365238 1.74629 37 37 34
-0.423513 0.367637 1.75776 37 37 34
-0.407952 0.361998 1.7308 37 37 34
-0.392901 0.356566 1.70483 37 37 34
-0.383971 0.356566 1.70483 37 36 34
-0.381403 0.362614 1.73375 37 36 34
-0.366112 0.356566 1.70483 37 36 34
-0.36002 0.359399 1.71838 37 36 35
-0.348253 0.356566 1.70483 37 37 35
-0.346768 0.36439 1.74224 36 37 35
-0.330394 0.356566 1.70483 35 36 34
-0.311273 0.345262 1.65078 35 36 35
-0.310104 0.353793 1.69157 35 36 34
-0.303605 0.356566 1.70483 36 37 35
-0.308648 0.373473 1.78567 37 37 35
-0.290593 0.362614 1.73375 37 36 35
-0.281033 0.361998 1.7308 37 36 34
-0.265803 0.353793 1.69157 37 37 35
-0.26335 0.362614 1.73375 37 37 35
-0.238417 0.340009 1.62567 37 37 34
-0.234969 0.347502 1.66149 36 36 34
-0.227357 0.349177 1.6695 36 36 33
-0.223239 0.356566 1.70483 37 37 34
-0.212643 0.353793 1.69157 37 37 34
-0.197736 0.343296 1.64138 38 37 34
-0.193263 0.350781 1.67717 36 36 33
-0.187521 0.356566 1.70483 35 35 31
-0.169495 0.338404 1.618 35 35 32
-0.17088 0.359127 1.71707 35 36 34
-0.159482 0.353793 1.69157 35 36 34
-0.14934 0.350781 1.67717 36 36 34
-0.136239 0.340009 1.62567 36 36 34
-0.137201 0.365238 1.74629 36 36 34
-0.123184 0.351347 1.67988 36 36 34
-0.113434 0.348424 1.6659 36 37 34
-0.108787 0.361998 1.7308 36 36 33
-0.0966315 0.350781 1.67717 35 35 33
-0.0892957 0.356566 1.70483 35 35 32
-0.0803661 0.356566 1.70483 35 35 32
-0.0725247 0.361998 1.7308 35 35 32
-0.060918 0.347502 1.66149 36 35 33
-0.0513635 0.341832 1.63439 36 36 33
-0.0432323 0.345262 1.65078 37 37 34
-0.0354404 0.353793 1.69157 37 37 34
-0.0267887 0.356566 1.70483 36 36 34
-0.0174513 0.348424 1.6659 36 36 33
-0.00886011 0.353793 1.69157 36 35 33
0 0.356566 1.70483 36 36 34
0.00892957 0.356566 1.70483 37 37 34
0.0175694 0.350781 1.67717 37 36 34
0.0263966 0.351347 1.67988 37 36 34
0.0348103 0.347502 1.66149 37 36 34
0.0436283 0.348424 1.6659 37 37 34
0.054003 0.359399 1.71838 37 37 34
0.0620207 0.353793 1.69157 36 35 33
0.072004 0.359399 1.71838 36 35 32
0.0790621 0.350781 1.67717 36 35 32
0.0842601 0.336459 1.60869 37 36 33
0.0941664 0.341832 1.63439 36 36 33
0.108006 0.359399 1.71838 36 36 32
0.116084 0.356566 1.70483 35 35 31
0.124041 0.353793 1.69157 35 36 31
0.13278 0.35347 1.69003 35 36 32
0.135596 0.338404 1.618 36 37 33
0.153009 0.359399 1.71838 36 37 33
0.155033 0.343924 1.64438 36 36 32
0.167178 0.351347 1.67988 35 36 31
0.175977 0.351347 1.67988 35 36 31
0.186062 0.353793 1.69157 35 35 31
0.193263 0.350781 1.67717 35 35 31
0.202048 0.350781 1.67717 35 36 32
0.206711 0.343924 1.64438 36 36 32
0.216162 0.345262 1.65078 36 36 33
0.230363 0.353793 1.69157 36 36 33
0.243014 0.359399 1.71838 35 36 32
0.242101 0.345262 1.65078 35 36 32
0.256943 0.353793 1.69157 35 35 31
0.26177 0.348424 1.6659 35 36 32
0.262485 0.338107 1.61657 35 36 32
0.278482 0.347502 1.66149 35 36 33
0.294676 0.356566 1.70483 35 36 33
0.30823 0.361998 1.7308 35 36 33
0.310104 0.353793 1.69157 35 36 33
0.324018 0.359399 1.71838 35 36 34
0.325033 0.350781 1.67717 36 37 35
0.336684 0.353793 1.69157 36 37 35
0.35102 0.359399 1.71838 36 37 35
0.351387 0.350781 1.67717 35 36 34
0.366112 0.356566 1.70483 34 35 33
0.378021 0.359399 1.71838 34 35 32
0.368105 0.341832 1.63439 34 34 32
0.402456 0.365238 1.74629 34 34 32
0.398342 0.35347 1.69003 34 35 32
0.404095 0.350781 1.67717 34 35 32
0.42342 0.359736 1.71999 33 34 32
0.428619 0.356566 1.70483 33 34 31
0.434145 0.353793 1.69157 33 35 32
0.446478 0.356566 1.70483 35 36 34
0.451865 0.353793 1.69157 36 38 36
0.447873 0.343924 1.64438 35 36 34
0.498344 0.37546 1.79517 32 34 31
0.504588 0.373124 1.784 32 34 30
0.495028 0.359399 1.71838 33 35 31
0.504501 0.359736 1.71999 34 35 32
0.535955 0.37546 1.79517 34 36 33
0.513886 0.353793 1.69157 34 35 33
0.541214 0.366292 1.75133 32 34 32
0.564163 0.37546 1.79517 32 34 32
0.549546 0.359736 1.71999 32 34 33
0.563024 0.362614 1.73375 32 34 32
0.576244 0.365238 1.74629 31 34 32
0.58708 0.366292 1.75133 32 34 33
0.586278 0.360164 1.72203 34 36 35
0.613704 0.3713 1.77528 36 37 37
0.614599 0.366292 1.75133 36 38 37
0.612034 0.359399 1.71838 35 38 37
0.645354 0.373473 1.78567 35 37 37
0.650899 0.3713 1.77528 35 38 37
0.655959 0.368917 1.76388 35 38 38
0.648644 0.359736 1.71999 35 38 37
0.662915 0.362614 1.73375 34 37 37
0.671996 0.362614 1.73375 36 39 39
0.669717 0.356566 1.70483 37 40 39
0.697157 0.366292 1.75133 36 39 39
0.737053 0.382224 1.82751 34 36 36
0.702698 0.359736 1.71999 34 36 36
0.711706 0.359736 1.71999 34 37 37
0.752218 0.37546 1.79517 36 38 38
0.766716 0.377972 1.80718 36 38 38
0.760901 0.370531 1.7716 35 37 37
0.775571 0.373124 1.784 33 36 36
0.815222 0.387531 1.85288 34 37 36
0.805821 0.378556 1.80997 35 38 37
0.814044 0.377972 1.80718 34 37 37
0.82351 0.377972 1.80718 34 37 37
0.840189 0.381245 1.82283 34 36 37
0.830529 0.372627 1.78162 34 37 37
0.853223 0.378556 1.80997 35 38 38
0.855647 0.37546 1.79517 35 39 39
0.894179 0.388103 1.85562 35 39 39
0.840137 0.360726 1.72472 34 38 38
0.877188 0.372627 1.78162 35 39 38
0.900624 0.378556 1.80997 36 40 39
0.960234 0.399407 1.90967 36 39 39
0.888439 0.365735 1.74867 35 38 38
0.939602 0.382849 1.8305 34 38 37
0.962214 0.388103 1.85562 34 37 37
0.981738 0.392018 1.87433 34 37 38
0.981653 0.388103 1.85562 35 38 38
0.977953 0.382849 1.8305 35 38 39
1.01721 0.394353 1.8855 36 39 39
0.977883 0.37546 1.79517 35 38 39
0.997892 0.379493 1.81445 36 38 39
1.04064 0.392018 1.87433 36 38 39
1.05046 0.392018 1.87433 35 38 39
1.03114 0.381245 1.82283 35 38 39
1.06236 0.389185 1.86079 35 38 39
1.05024 0.381245 1.82283 34 37 38
1.07212 0.385682 1.84404 33 36 38
1.0531 0.37546 1.79517 35 38 39
1.07888 0.381245 1.82283 35 38 39
1.14028 0.399407 1.90967 35 39 39
1.20469 0.418301 2 35 39 39
1.09072 0.37546 1.79517 36 39 39
1.06768 0.36439 1.74224 35 39 39
1.23612 0.418301 2 35 39 39
1.18106 0.396311 1.89486 36 39 40
-0.799245 0.272604 1.2716 36 35 31
-0.713292 0.245332 1.14438 37 36 32
-0.653732 0.226752 1.05772 37 36 33
-0.677252 0.236918 1.10514 36 36 32
-0.677152 0.238925 1.1145 36 35 31
-0.689316 0.245332 1.14438 36 35 32
-0.597109 0.214379 1 36 35 32
-0.649389 0.235212 1.09718 37 36 32
-0.586633 0.214379 1 37 36 33
-0.672069 0.247813 1.15596 36 35 31
-0.732642 0.272604 1.2716 35 35 30
-0.636289 0.238925 1.1145 36 35 31
-0.653905 0.247813 1.15596 37 36 33
-0.675241 0.258291 1.20483 37 37 33
-0.668931 0.258291 1.20483 37 37 33
-0.643189 0.250717 1.1695 37 36 33
-0.66568 0.261979 1.22203 37 36 33
-0.688004 0.273393 1.27528 37 36 33
-0.676501 0.271457 1.26625 37 36 32
-0.672698 0.272604 1.2716 37 37 33
-0.678382 0.277657 1.29517 37 37 34
-0.659377 0.272604 1.2716 37 36 32
-0.664814 0.277657 1.29517 36 36 32
-0.688742 0.290616 1.35562 37 37 33
-0.732933 0.312484 1.45762 38 37 34
-0.658227 0.283587 1.32283 38 37 34
-0.738529 0.321569 1.5 37 36 32
-0.730673 0.321569 1.5 37 36 32
-0.66226 0.294628 1.37433 37 36 32
-0.691664 0.311091 1.45113 39 38 34
-0.679895 0.309196 1.44228 40 39 35
-0.726151 0.333942 1.55772 37 36 31
-0.713917 0.332046 1.54887 35 34 29
-0.719608 0.33854 1.57917 36 35 31
-0.701674 0.333942 1.55772 37 36 32
-0.667819 0.321569 1.5 37 36 32
-0.685356 0.333942 1.55772 36 35 30
-0.725794 0.357906 1.6695 36 36 31
-0.732224 0.365481 1.70483 36 36 32
-0.674718 0.340934 1.59033 36 35 32
-0.714365 0.365481 1.70483 36 36 32
-0.720913 0.373499 1.74224 36 35 31
-0.664163 0.348509 1.62567 36 36 31
-0.663197 0.352522 1.64438 38 37 33
-0.678647 0.365481 1.70483 38 38 34
-0.669717 0.365481 1.70483 37 37 33
-0.637358 0.352522 1.64438 37 36 33
-0.679821 0.381159 1.77797 37 36 33
-0.695427 0.395324 1.84404 37 36 34
-0.653683 0.376827 1.75776 37 37 34
-0.640271 0.374369 1.74629 37 37 34
-0.6416 0.380583 1.77528 37 38 34
-0.626062 0.376827 1.75776 38 38 35
-0.619004 0.37814 1.76388 36 37 33
-0.607649 0.376827 1.75776 35 36 31
-0.590267 0.37168 1.73375 36 36 33
-0.571492 0.365481 1.70483 35 35 32
-0.576244 0.374369 1.74629 35 35 32
-0.589231 0.388981 1.81445 35 36 33
-0.55795 0.374369 1.74629 35 36 33
-0.555715 0.379083 1.76828 36 37 34
-0.535781 0.37168 1.73375 36 37 34
-0.5267 0.37168 1.73375 35 37 34
-0.535955 0.384846 1.79517 36 37 34
-0.515581 0.376827 1.75776 37 37 34
-0.495028 0.368384 1.71838 37 37 33
-0.502122 0.380583 1.77528 36 37 33
-0.498344 0.384846 1.79517 36 36 32
-0.440298 0.346559 1.61657 35 36 32
-0.459026 0.368384 1.71838 35 35 32
-0.459037 0.375761 1.75279 35 35 31
-0.430449 0.35955 1.67717 35 35 31
-0.425285 0.362638 1.69157 35 35 32
-0.41969 0.365481 1.70483 36 36 33
-0.414023 0.368384 1.71838 37 36 34
-0.398705 0.362638 1.69157 37 37 34
-0.405099 0.376827 1.75776 37 37 35
-0.386728 0.368105 1.71707 37 36 34
-0.381403 0.37168 1.73375 36 36 34
-0.375016 0.374369 1.74629 36 36 34
-0.354081 0.362307 1.69003 37 36 35
-0.353558 0.371048 1.7308 37 37 36
-0.342019 0.368384 1.71838 36 37 36
-0.330394 0.365481 1.70483 36 36 35
-0.321464 0.365481 1.70483 36 37 35
-0.307464 0.35955 1.67717 35 36 34
