ply
format ascii 1.0
element vertex 1326
property float x
property float y
property float z
property uchar red
property uchar green
property uchar blue
end_header
-0.45675 -0.272637 0.898997 38 38 36
-0.477274 -0.287855 0.949179 38 38 36
-0.483826 -0.294879 0.972338 37 37 35
-0.492353 -0.303268 1 37 37 34
-0.462359 -0.287855 0.949179 37 36 33
-0.481877 -0.303268 1 37 37 34
-0.476639 -0.303268 1 37 37 34
-0.471402 -0.303268 1 37 36 34
-0.466164 -0.303268 1 37 37 34
-0.473145 -0.311308 1.02651 38 37 35
-0.455688 -0.303268 1 37 37 34
-0.438986 -0.295549 0.974549 38 37 35
-0.432338 -0.294498 0.971083 39 39 36
-0.452698 -0.312038 1.02892 39 39 36
-0.447906 -0.312455 1.03029 38 37 34
-0.454288 -0.320771 1.05772 37 37 33
-0.437755 -0.312913 1.0318 37 36 32
-0.444353 -0.3216 1.06045 38 37 33
-0.451165 -0.330664 1.09033 39 38 35
-0.434471 -0.322511 1.06345 38 38 34
-0.42769 -0.3216 1.06045 37 36 32
-0.42465 -0.323516 1.06677 37 36 32
-0.406714 -0.313983 1.03533 36 36 31
-0.430698 -0.336991 1.1112 37 37 33
-0.427476 -0.339052 1.118 37 38 33
-0.435937 -0.350565 1.15596 38 38 34
-0.433581 -0.353582 1.1659 39 39 34
-0.423827 -0.350565 1.15596 38 38 34
-0.401596 -0.336991 1.1112 38 38 34
-0.421031 -0.358495 1.18211 38 37 34
-0.380546 -0.328859 1.08438 38 38 34
-0.406942 -0.356998 1.17717 38 38 34
-0.386209 -0.344023 1.13439 38 38 34
-0.390833 -0.353582 1.1659 39 39 35
-0.397572 -0.365387 1.20483 40 40 36
-0.420597 -0.392783 1.29517 39 39 35
-0.399807 -0.379489 1.25133 38 38 34
-0.393253 -0.379489 1.25133 38 38 34
-0.415349 -0.407605 1.34404 38 37 34
-0.408309 -0.407605 1.34404 37 36 34
-0.43324 -0.44008 1.45113 37 36 34
-0.439975 -0.454902 1.5 39 38 35
-0.400084 -0.421179 1.3888 39 39 36
-0.37415 -0.401172 1.32283 38 38 35
-0.426789 -0.466246 1.53741 36 36 33
-0.374321 -0.416791 1.37433 36 37 34
-0.424822 -0.482297 1.59033 36 37 34
-0.3653 -0.423017 1.39486 37 39 35
-0.370165 -0.437399 1.44228 38 39 35
-0.377121 -0.454902 1.5 38 39 35
-0.379697 -0.467754 1.54238 38 39 35
-0.386739 -0.486787 1.60514 38 38 34
-0.378332 -0.486787 1.60514 38 38 34
-0.356958 -0.469724 1.54887 37 37 33
-0.392396 -0.528365 1.74224 37 36 32
-0.368957 -0.508632 1.67717 37 37 33
-0.366112 -0.517021 1.70483 38 38 34
-0.357183 -0.517021 1.70483 38 38 35
-0.348253 -0.517021 1.70483 38 38 35
-0.332291 -0.506306 1.6695 39 38 35
-0.311073 -0.486787 1.60514 39 39 35
-0.312249 -0.502199 1.65596 38 38 34
-0.322238 -0.533073 1.75776 38 38 34
-0.307802 -0.524168 1.7284 38 38 34
-0.294676 -0.517021 1.70483 38 39 35
-0.285746 -0.517021 1.70483 38 38 34
-0.283548 -0.529595 1.74629 37 38 33
-0.274402 -0.529595 1.74629 37 37 33
-0.265255 -0.529595 1.74629 37 38 34
-0.256108 -0.529595 1.74629 37 37 33
-0.255302 -0.547481 1.80527 38 38 34
-0.235705 -0.524897 1.7308 38 38 34
-0.228668 -0.529595 1.74629 38 38 34
-0.216012 -0.521128 1.71838 37 37 33
-0.208864 -0.525791 1.73375 37 36 32
-0.201809 -0.531123 1.75133 37 36 32
-0.190702 -0.525791 1.73375 38 37 34
-0.177041 -0.512532 1.69003 38 37 33
-0.17117 -0.521617 1.71999 37 37 34
-0.160732 -0.517021 1.70483 36 37 33
-0.14642 -0.498689 1.64438 37 37 34
-0.148777 -0.538385 1.77528 38 38 35
-0.131506 -0.507611 1.6738 38 38 35
-0.132379 -0.547481 1.80527 37 38 35
-0.120105 -0.534929 1.76388 37 38 34
-0.108972 -0.525791 1.73375 37 38 34
-0.101627 -0.534929 1.76388 37 38 34
-0.0923886 -0.534929 1.76388 37 38 34
-0.0817293 -0.525791 1.73375 38 38 34
-0.0736544 -0.533073 1.75776 38 38 34
-0.0635672 -0.525791 1.73375 37 37 34
-0.0540537 -0.521617 1.71999 37 37 34
-0.0470136 -0.544417 1.79517 36 36 33
-0.0357183 -0.517021 1.70483 37 37 34
-0.0275194 -0.531123 1.75133 37 38 35
-0.0180179 -0.521617 1.71999 37 38 35
-0.00900894 -0.521617 1.71999 37 38 34
0 -0.512532 1.69003 37 38 34
0.00929855 -0.538385 1.77528 37 37 34
0.0175341 -0.507611 1.6738 37 37 34
0.0265561 -0.512532 1.69003 37 37 34
0.0354081 -0.512532 1.69003 38 39 35
0.0464928 -0.538385 1.77528 39 39 36
0.0554332 -0.534929 1.76388 38 39 35
0.0613693 -0.507611 1.6738 38 39 35
0.0708163 -0.512532 1.69003 37 39 35
0.0823205 -0.529595 1.74629 37 38 34
0.0923886 -0.534929 1.76388 37 38 35
0.0982252 -0.517021 1.70483 37 38 34
0.108972 -0.525791 1.73375 37 38 34
0.118053 -0.525791 1.73375 37 38 35
0.127134 -0.525791 1.73375 38 39 35
0.138583 -0.534929 1.76388 39 40 36
0.144315 -0.522238 1.72203 39 40 36
0.150485 -0.512532 1.69003 37 39 34
0.163459 -0.525791 1.73375 37 39 34
0.168342 -0.513 1.69157 37 39 34
0.185971 -0.538385 1.77528 38 39 35
0.184108 -0.507611 1.6738 38 40 35
0.198197 -0.521617 1.71999 38 39 35
0.210982 -0.531123 1.75133 37 38 34
0.21841 -0.526913 1.73745 38 39 34
0.223239 -0.517021 1.70483 38 40 35
0.238501 -0.531123 1.75133 38 39 34
0.246962 -0.529595 1.74629 37 39 34
0.252014 -0.521128 1.71838 37 38 34
0.26602 -0.531123 1.75133 37 38 34
0.277166 -0.534929 1.76388 37 39 34
0.276817 -0.517021 1.70483 37 38 34
0.29354 -0.531123 1.75133 37 39 34
0.313623 -0.550265 1.81445 38 39 35
0.311886 -0.531123 1.75133 37 39 34
0.325449 -0.538385 1.77528 37 38 33
0.321464 -0.517021 1.70483 37 38 33
0.344046 -0.538385 1.77528 37 39 33
0.351077 -0.534929 1.76388 37 39 33
0.362643 -0.538385 1.77528 38 39 34
0.360358 -0.521617 1.71999 38 39 34
0.378793 -0.534929 1.76388 37 39 34
0.381403 -0.525791 1.73375 37 39 34
0.394444 -0.531123 1.75133 37 39 34
0.405099 -0.533073 1.75776 37 39 34
0.408646 -0.525791 1.73375 37 39 34
0.424988 -0.534929 1.76388 37 38 34
0.441928 -0.544417 1.79517 36 38 34
0.453871 -0.547481 1.80527 37 39 35
0.441025 -0.521128 1.71838 37 38 34
0.478606 -0.554225 1.82751 36 37 33
0.482238 -0.547481 1.80527 37 37 33
0.468465 -0.521617 1.71999 37 38 34
0.482322 -0.526913 1.73745 38 39 35
0.493923 -0.529595 1.74629 38 39 35
0.52006 -0.547481 1.80527 38 39 34
0.520719 -0.538385 1.77528 37 39 35
0.5482 -0.556855 1.83618 37 39 35
0.535854 -0.534929 1.76388 37 39 35
0.531528 -0.521617 1.71999 37 39 35
0.556757 -0.537269 1.7716 37 39 35
0.576794 -0.547481 1.80527 36 38 34
0.590349 -0.551309 1.81789 37 39 35
0.592371 -0.544417 1.79517 37 39 35
0.612616 -0.554225 1.82751 37 39 35
0.574719 -0.511942 1.68808 37 39 36
0.609765 -0.534929 1.76388 38 39 36
0.626063 -0.54103 1.784 38 40 36
0.650904 -0.554225 1.82751 38 39 36
0.660477 -0.554225 1.82751 37 38 35
0.644476 -0.533073 1.75776 37 38 35
0.67206 -0.548059 1.80718 36 37 34
0.668108 -0.537269 1.7716 37 38 35
0.695088 -0.551309 1.81789 38 40 36
0.71089 -0.556222 1.8341 38 40 37
0.684411 -0.528365 1.74224 38 40 36
0.723654 -0.551309 1.81789 37 39 36
0.708924 -0.533073 1.75776 37 39 35
0.749316 -0.556222 1.8341 38 39 35
0.758923 -0.556222 1.8341 37 38 35
0.742342 -0.537269 1.7716 37 37 34
0.778136 -0.556222 1.8341 36 37 33
0.74829 -0.528365 1.74224 36 36 33
0.780426 -0.544417 1.79517 36 37 33
0.78387 -0.54031 1.78162 36 37 34
0.811546 -0.552806 1.82283 36 37 34
0.815302 -0.548906 1.80997 36 38 34
0.830642 -0.552806 1.82283 37 38 35
0.834262 -0.548906 1.80997 36 38 35
0.843742 -0.548906 1.80997 36 37 34
0.917852 -0.590484 1.94707 36 37 34
0.823824 -0.524168 1.7284 36 38 34
0.872183 -0.548906 1.80997 36 37 34
0.866074 -0.5392 1.77797 36 37 34
0.901251 -0.555132 1.8305 36 38 34
0.932651 -0.568426 1.87433 36 38 35
0.912358 -0.550265 1.81445 36 38 35
0.952286 -0.568426 1.87433 37 39 36
0.962103 -0.568426 1.87433 37 38 35
0.977711 -0.571812 1.8855 36 38 35
0.965871 -0.559239 1.84404 36 37 34
1.02447 -0.587293 1.93655 36 37 35
1.00137 -0.568426 1.87433 36 38 35
1.04098 -0.585172 1.92955 36 37 34
1.02101 -0.568426 1.87433 35 37 34
1.06119 -0.585172 1.92955 35 36 34
1.02382 -0.559239 1.84404 36 37 35
1.04287 -0.564318 1.86079 36 38 35
1.04314 -0.559239 1.84404 36 38 35
1.0528 -0.559239 1.84404 37 39 35
1.1067 -0.582527 1.92083 37 39 36
1.11027 -0.57914 1.90967 36 37 34
1.17327 -0.606536 2 35 36 33
1.13028 -0.57914 1.90967 36 37 34
1.13144 -0.574651 1.89486 36 37 35
0.979214 -0.493012 1.62567 36 38 36
1.15129 -0.574651 1.89486 36 38 36
1.22564 -0.606536 2 36 38 36
1.13973 -0.559239 1.84404 36 38 36
1.2466 -0.606536 2 34 37 35
-0.52557 -0.249215 0.836183 39 35 33
-0.526089 -0.251558 0.844042 38 36 33
-0.503381 -0.242739 0.814453 37 36 33
-0.49264 -0.23959 0.803887 37 36 33
-0.483131 -0.236991 0.795167 37 37 34
-0.520262 -0.257424 0.863725 38 37 33
-0.495898 -0.247521 0.830499 37 37 33
-0.52699 -0.265368 0.89038 38 37 33
-0.519465 -0.263914 0.885502 38 37 34
-0.502165 -0.257424 0.863725 37 37 34
-0.50082 -0.259068 0.869241 37 37 33
-0.523778 -0.27343 0.917429 38 37 34
-0.506208 -0.266704 0.894863 38 37 34
-0.501521 -0.266704 0.894863 38 38 34
-0.509362 -0.27343 0.917429 37 37 34
-0.511225 -0.277043 0.929553 38 38 35
-0.495523 -0.271116 0.909666 38 38 35
-0.494946 -0.27343 0.917429 38 38 35
-0.49196 -0.274444 0.920833 38 38 35
-0.456925 -0.257424 0.863725 37 37 34
-0.49716 -0.282892 0.949179 37 37 34
-0.479117 -0.275379 0.923969 38 38 35
-0.486135 -0.282264 0.947071 38 38 36
-0.494012 -0.289795 0.972338 38 38 36
-0.476214 -0.282264 0.947071 37 37 35
-0.484399 -0.290138 0.973489 37 37 34
-0.467331 -0.282892 0.949179 38 38 35
-0.474717 -0.290454 0.974549 37 37 34
-0.481877 -0.298039 1 37 37 34
-0.464003 -0.290138 0.973489 37 37 34
-0.447444 -0.282892 0.949179 38 37 35
-0.454299 -0.290454 0.974549 38 37 35
-0.460926 -0.298039 1 37 37 35
-0.468293 -0.306283 1.02766 36 36 34
-0.45045 -0.298039 1 36 36 33
-0.457528 -0.306283 1.02766 37 37 34
-0.452698 -0.306658 1.02892 39 38 35
-0.447309 -0.306658 1.02892 39 38 35
-0.44251 -0.307067 1.03029 39 38 35
-0.451181 -0.31695 1.06345 37 37 32
-0.445611 -0.31695 1.06345 37 36 32
-0.440041 -0.31695 1.06345 38 38 34
-0.435825 -0.317938 1.06677 38 38 34
-0.431722 -0.319035 1.07045 38 38 33
-0.426115 -0.319035 1.07045 37 37 33
-0.439188 -0.333207 1.118 37 38 33
-0.462334 -0.355508 1.19282 37 38 34
-0.435587 -0.339529 1.13921 37 38 33
-0.419057 -0.331181 1.1112 37 37 32
-0.443591 -0.355508 1.19282 37 37 33
-0.437343 -0.355508 1.19282 38 37 33
-0.421367 -0.347485 1.1659 37 37 33
-0.404034 -0.338092 1.13439 37 37 33
-0.41762 -0.354676 1.19003 38 38 34
-0.416504 -0.359087 1.20483 38 38 34
-0.386209 -0.338092 1.13439 38 38 34
-0.380268 -0.338092 1.13439 39 38 35
-0.403248 -0.364214 1.22203 39 39 35
-0.436469 -0.400577 1.34404 38 38 34
-0.373662 -0.348557 1.1695 37 37 34
-0.422389 -0.400577 1.34404 37 37 34
-0.41292 -0.398235 1.33618 37 36 34
-0.434287 -0.426063 1.42955 37 36 33
-0.40127 -0.400577 1.34404 37 37 34
-0.390257 -0.396541 1.3305 39 38 36
-0.395916 -0.409605 1.37433 38 38 36
-0.38015 -0.400577 1.34404 38 37 35
-0.381519 -0.409605 1.37433 37 37 34
-0.408548 -0.447059 1.5 37 38 35
-0.400691 -0.447059 1.5 37 38 35
-0.392835 -0.447059 1.5 38 39 35
-0.384978 -0.447059 1.5 38 39 35
-0.399833 -0.473982 1.59033 38 39 35
-0.383473 -0.46426 1.55772 38 38 34
-0.375314 -0.46426 1.55772 37 38 34
-0.378332 -0.478394 1.60514 37 37 33
-0.37897 -0.490091 1.64438 36 36 32
-0.366141 -0.484512 1.62567 37 37 33
-0.368957 -0.499863 1.67717 38 38 35
-0.33262 -0.461625 1.54887 38 38 35
-0.371171 -0.528006 1.7716 38 38 35
-0.332081 -0.484512 1.62567 38 38 34
-0.357303 -0.53503 1.79517 38 38 34
-0.325033 -0.499863 1.67717 38 38 34
-0.321464 -0.508107 1.70483 38 38 34
-0.316855 -0.515131 1.7284 37 37 33
-0.311412 -0.521172 1.74867 38 38 34
-0.294676 -0.508107 1.70483 37 37 33
-0.290593 -0.516725 1.73375 36 37 32
-0.265378 -0.487111 1.63439 36 37 33
-0.276204 -0.523882 1.75776 37 38 34
-0.261259 -0.512624 1.71999 37 38 34
-0.243672 -0.49519 1.66149 37 37 34
-0.243531 -0.513234 1.72203 37 38 34
-0.244471 -0.53503 1.79517 37 38 34
-0.227026 -0.516725 1.73375 37 38 34
-0.210832 -0.499863 1.67717 37 38 34
-0.212494 -0.525706 1.76388 38 37 34
-0.198197 -0.512624 1.71999 38 37 34
-0.187521 -0.508107 1.70483 38 37 34
-0.181312 -0.515847 1.7308 38 37 34
-0.167178 -0.50067 1.67988 37 36 33
-0.163459 -0.516725 1.73375 36 36 32
-0.154377 -0.516725 1.73375 37 37 34
-0.142873 -0.508107 1.70483 38 38 35
-0.13177 -0.499863 1.67717 38 38 35
-0.128054 -0.520464 1.74629 37 38 35
-0.117116 -0.512624 1.71999 37 38 34
-0.106224 -0.503695 1.69003 37 38 34
-0.0982252 -0.508107 1.70483 37 38 34
-0.0910042 -0.517829 1.73745 37 37 34
-0.0803661 -0.508107 1.70483 37 38 34
-0.0739109 -0.525706 1.76388 37 38 34
-0.0635672 -0.516725 1.73375 38 38 35
-0.0544862 -0.516725 1.73375 38 38 35
-0.0446478 -0.508107 1.70483 37 37 34
-0.0362624 -0.515847 1.7308 36 36 33
-0.0277166 -0.525706 1.76388 36 37 34
-0.0177041 -0.503695 1.69003 36 37 34
-0.00885203 -0.503695 1.69003 37 38 35
0 -0.525706 1.76388 37 38 35
0.00886011 -0.504155 1.69157 37 38 34
0.0181621 -0.516725 1.73375 37 38 34
0.0265803 -0.504155 1.69157 36 37 33
0.0354081 -0.503695 1.69003 36 37 33
0.0458656 -0.521966 1.75133 37 38 34
0.0546025 -0.517829 1.73745 37 38 34
0.062507 -0.508107 1.70483 38 39 35
0.0726482 -0.516725 1.73375 39 40 36
0.0825581 -0.521966 1.75133 38 39 35
0.0900894 -0.512624 1.71999 38 39 35
0.100105 -0.517829 1.73745 37 38 34
0.110077 -0.521966 1.75133 37 38 34
0.113971 -0.498859 1.6738 38 38 35
0.125014 -0.508107 1.70483 38 39 35
0.127724 -0.484512 1.62567 39 40 36
0.144008 -0.512143 1.71838 39 40 36
0.153152 -0.512624 1.71999 39 40 35
0.159337 -0.503695 1.69003 38 39 35
0.168189 -0.503695 1.69003 38 39 35
0.177202 -0.504155 1.69157 38 39 35
0.187521 -0.508107 1.70483 38 39 35
0.203255 -0.525706 1.76388 38 39 35
0.208864 -0.516725 1.73375 37 38 34
0.221733 -0.525706 1.76388 37 38 34
0.223239 -0.508107 1.70483 38 39 34
0.237815 -0.520464 1.74629 38 38 34
0.243241 -0.512624 1.71999 38 39 34
0.25225 -0.512624 1.71999 38 39 34
0.26335 -0.516725 1.73375 39 40 36
0.283669 -0.538042 1.80527 39 40 36
0.274413 -0.503695 1.69003 37 38 34
0.302581 -0.538042 1.80527 36 38 33
0.302713 -0.521966 1.75133 37 39 34
0.295887 -0.49519 1.66149 37 39 34
0.307464 -0.499863 1.67717 38 39 35
0.315613 -0.498859 1.6738 38 40 35
0.341838 -0.525706 1.76388 38 40 34
0.347576 -0.520464 1.74629 38 39 34
0.345229 -0.503695 1.69003 38 39 34
0.360358 -0.512624 1.71999 38 39 34
0.378793 -0.525706 1.76388 38 39 34
0.392824 -0.532198 1.78567 38 39 34
0.397271 -0.525706 1.76388 37 39 34
0.403617 -0.521966 1.75133 37 39 34
0.40183 -0.508107 1.70483 37 39 35
0.41076 -0.508107 1.70483 38 39 35
0.426808 -0.516725 1.73375 37 39 35
0.448523 -0.531702 1.784 38 39 35
0.453834 -0.527018 1.76828 37 38 34
0.464928 -0.529103 1.77528 36 37 32
0.471182 -0.525706 1.76388 36 37 32
0.477002 -0.521966 1.75133 37 37 33
0.495707 -0.532198 1.78567 38 39 35
0.493923 -0.520464 1.74629 38 39 35
0.504522 -0.521966 1.75133 38 39 35
0.526552 -0.53503 1.79517 37 38 34
0.522868 -0.521966 1.75133 37 38 34
0.555183 -0.54467 1.82751 37 38 34
0.551309 -0.531702 1.784 38 39 35
0.554332 -0.525706 1.76388 38 40 36
0.566036 -0.528006 1.7716 37 39 35
0.572809 -0.525706 1.76388 38 39 35
0.585809 -0.529103 1.77528 37 39 35
0.58708 -0.521966 1.75133 37 39 35
0.611177 -0.53503 1.79517 38 39 36
0.605426 -0.521966 1.75133 38 39 36
0.637958 -0.541804 1.81789 38 39 35
0.630991 -0.528006 1.7716 37 38 35
0.64027 -0.528006 1.7716 37 38 35
0.649549 -0.528006 1.7716 38 39 36
0.658829 -0.528006 1.7716 37 39 36
0.668108 -0.528006 1.7716 37 39 35
0.669638 -0.521966 1.75133 38 39 36
0.718172 -0.552232 1.85288 38 39 35
0.724404 -0.549597 1.84404 37 38 35
0.719388 -0.53861 1.80718 36 38 34
0.728853 -0.53861 1.80718 37 38 34
0.756992 -0.552232 1.85288 38 39 35
0.727337 -0.523882 1.75776 37 38 35
0.772697 -0.549597 1.84404 36 37 34
0.778136 -0.546632 1.8341 36 37 34
0.771023 -0.53503 1.79517 36 37 34
0.792451 -0.543274 1.82283 36 37 34
0.816424 -0.553046 1.85562 36 37 34
0.816562 -0.546632 1.8341 36 37 34
0.795608 -0.526412 1.76625 35 37 33
0.811865 -0.530994 1.78162 35 37 33
0.87706 -0.567115 1.90282 35 37 33
0.849737 -0.543274 1.82283 36 37 34
0.893242 -0.564744 1.89486 35 37 34
0.878943 -0.549597 1.84404 36 38 34
0.874344 -0.540778 1.81445 36 37 34
0.891663 -0.54556 1.8305 36 38 34
0.893351 -0.540778 1.81445 36 37 34
0.970862 -0.581512 1.95113 36 38 34
0.912358 -0.540778 1.81445 36 37 34
0.952286 -0.558625 1.87433 36 38 35
0.967836 -0.561953 1.8855 36 38 35
1.00418 -0.577168 1.93655 36 38 34
0.981738 -0.558625 1.87433 35 37 34
0.949675 -0.53503 1.79517 36 37 35
1.03461 -0.577168 1.93655 36 38 35
1.04475 -0.577168 1.93655 36 38 35
0.977883 -0.53503 1.79517 36 37 35
1.00672 -0.54556 1.8305 35 37 35
1.02382 -0.549597 1.84404 36 38 35
1.02159 -0.543274 1.82283 36 38 35
1.08026 -0.569155 1.90967 36 38 35
1.10162 -0.575083 1.92955 37 39 36
1.06246 -0.549597 1.84404 38 40 37
1.16279 -0.596078 2 36 38 34
1.06933 -0.543274 1.82283 34 36 32
1.12151 -0.564744 1.89486 35 37 33
1.19422 -0.596078 2 36 37 35
1.25911 -0.623002 2.09033 36 38 36
1.21517 -0.596078 2 36 38 36
1.16121 -0.564744 1.89486 36 38 37
1.00476 -0.484512 1.62567 36 39 37
1.2466 -0.596078 2 35 38 36
-0.499791 -0.232833 0.795167 39 36 33
-0.517648 -0.243179 0.830499 38 36 33
-0.513298 -0.243179 0.830499 37 36 33
-0.517247 -0.247144 0.844042 37 36 32
-0.521143 -0.251152 0.85773 37 37 33
-0.500248 -0.243179 0.830499 38 38 34
-0.528741 -0.259284 0.885502 38 38 34
-0.529643 -0.262025 0.894863 38 38 33
-0.538194 -0.268633 0.917429 37 37 34
-0.49868 -0.251152 0.85773 38 37 34
-0.489761 -0.248903 0.850047 38 38 35
-0.478171 -0.245242 0.837546 39 38 35
-0.484006 -0.250533 0.855615 38 37 34
-0.503838 -0.263236 0.898997 37 37 34
-0.485436 -0.256014 0.874334 37 38 34
-0.464196 -0.247144 0.844042 38 38 35
-0.473502 -0.254523 0.869241 38 38 35
-0.482772 -0.262025 0.894863 37 38 35
-0.485994 -0.26636 0.909666 37 37 35
-0.487137 -0.26963 0.920833 37 37 34
-0.483956 -0.270548 0.923969 37 37 35
-0.466167 -0.263236 0.898997 38 38 35
-0.486135 -0.277312 0.947071 39 38 36
-0.482246 -0.277929 0.949179 39 39 36
-0.490523 -0.285644 0.975527 38 38 35
-0.471253 -0.277312 0.947071 37 37 34
-0.468289 -0.278499 0.951125 37 37 34
-0.475194 -0.285644 0.975527 37 37 34
-0.456372 -0.277312 0.947071 37 37 34
-0.464003 -0.285048 0.973489 37 37 34
-0.471402 -0.29281 1 38 38 35
-0.478028 -0.300263 1.02545 38 38 35
-0.460926 -0.29281 1 38 38 35
-0.468293 -0.30091 1.02766 36 36 33
-0.45045 -0.29281 1 36 35 33
-0.459372 -0.302123 1.0318 35 35 32
-0.465368 -0.30971 1.05772 38 37 34
-0.447906 -0.30168 1.03029 39 39 35
-0.466556 -0.318074 1.08628 39 38 34
-0.448748 -0.30971 1.05772 37 37 33
-0.458741 -0.320565 1.09479 38 37 33
-0.441413 -0.31236 1.06677 39 38 35
-0.465422 -0.333572 1.13921 39 38 35
-0.433379 -0.314641 1.07455 39 39 35
-0.42775 -0.314641 1.07455 38 39 35
-0.434136 -0.323596 1.10514 39 39 35
-0.428348 -0.323596 1.10514 38 39 34
-0.445794 -0.341389 1.1659 38 38 34
-0.435937 -0.338477 1.15596 37 38 33
-0.415764 -0.327361 1.118 37 37 32
-0.427474 -0.341389 1.1659 36 36 31
-0.406825 -0.329607 1.12567 36 35 31
-0.424848 -0.349271 1.19282 37 37 33
-0.395033 -0.329607 1.12567 38 38 35
-0.406942 -0.344688 1.17717 38 38 34
-0.420039 -0.361255 1.23375 38 38 34
-0.403883 -0.352788 1.20483 38 38 34
-0.392688 -0.348453 1.19003 38 38 35
-0.400652 -0.361255 1.23375 38 37 34
-0.413813 -0.379238 1.29517 36 36 32
-0.427653 -0.398454 1.36079 36 36 33
-0.415349 -0.393549 1.34404 36 36 33
-0.393462 -0.379238 1.29517 37 36 33
-0.424196 -0.416035 1.42083 37 37 34
-0.397624 -0.396938 1.35562 37 37 34
-0.395916 -0.402419 1.37433 37 37 35
-0.410438 -0.424905 1.45113 37 36 34
-0.376323 -0.396938 1.35562 37 37 35
-0.397006 -0.426807 1.45762 37 38 35
-0.400691 -0.439216 1.5 38 39 36
-0.392835 -0.439216 1.5 38 39 35
-0.384978 -0.439216 1.5 38 39 35
-0.399833 -0.465667 1.59033 38 39 35
-0.395147 -0.470001 1.60514 38 38 35
-0.383173 -0.465667 1.59033 38 38 34
-0.387583 -0.481493 1.64438 37 37 33
-0.356958 -0.453527 1.54887 37 37 33
-0.358183 -0.465667 1.59033 38 38 34
-0.357626 -0.476012 1.62567 38 38 35
-0.358525 -0.488847 1.6695 39 39 35
-0.34978 -0.488847 1.6695 38 38 35
-0.322583 -0.462397 1.57917 38 38 34
-0.352612 -0.518743 1.7716 38 38 34
-0.344567 -0.520607 1.77797 38 37 34
-0.335254 -0.520607 1.77797 37 37 32
-0.312535 -0.499193 1.70483 36 36 31
-0.310267 -0.510145 1.74224 36 36 32
-0.297295 -0.50363 1.71999 36 36 32
-0.295644 -0.516483 1.76388 36 37 32
-0.283548 -0.511333 1.74629 36 37 33
-0.272431 -0.50766 1.73375 37 38 34
-0.26335 -0.50766 1.73375 38 38 34
-0.250028 -0.499193 1.70483 38 38 34
-0.253873 -0.525644 1.79517 37 38 34
-0.232169 -0.499193 1.70483 37 38 34
-0.225224 -0.50363 1.71999 37 38 34
-0.217945 -0.50766 1.73375 37 38 34
-0.207206 -0.50363 1.71999 38 37 34
-0.204568 -0.51982 1.77528 38 37 34
-0.181576 -0.483366 1.65078 38 37 34
-0.178591 -0.499193 1.70483 37 37 33
-0.174929 -0.514691 1.75776 36 36 33
-0.167374 -0.51982 1.77528 36 37 33
-0.150485 -0.494859 1.69003 36 37 34
-0.146348 -0.511333 1.74629 37 38 34
-0.136215 -0.50766 1.73375 37 38 35
-0.126007 -0.503158 1.71838 37 38 35
-0.113971 -0.490107 1.6738 37 38 34
-0.108107 -0.50363 1.71999 37 38 34
-0.0982252 -0.499193 1.70483 37 38 34
-0.0934423 -0.522374 1.784 37 37 34
-0.0810805 -0.50363 1.71999 37 37 34
-0.0733849 -0.512808 1.75133 37 38 34
-0.0635672 -0.50766 1.73375 38 39 35
-0.0552408 -0.514691 1.75776 38 38 35
-0.0454051 -0.50766 1.73375 36 37 34
-0.0363241 -0.50766 1.73375 36 37 33
-0.0267887 -0.499193 1.70483 36 37 34
-0.0178591 -0.499193 1.70483 37 38 35
-0.00851491 -0.476012 1.62567 38 39 36
0 -0.476012 1.62567 37 39 35
0.00872567 -0.487794 1.6659 37 38 35
0.0174051 -0.486503 1.66149 37 38 34
0.0274402 -0.511333 1.74629 35 37 33
0.0351387 -0.491093 1.67717 35 36 32
0.0450025 -0.503158 1.71838 36 37 33
0.0526022 -0.490107 1.6738 37 38 34
0.0614928 -0.491093 1.67717 39 40 36
0.0714365 -0.499193 1.70483 39 40 36
0.0810805 -0.50363 1.71999 39 40 36
0.0885203 -0.494859 1.69003 38 38 35
0.101627 -0.516483 1.76388 37 38 34
0.106224 -0.494859 1.69003 38 38 35
0.115076 -0.494859 1.69003 38 39 35
0.126275 -0.50423 1.72203 38 38 34
0.140163 -0.522374 1.784 38 39 35
0.145296 -0.50766 1.73375 39 40 36
0.153009 -0.503158 1.71838 39 39 35
0.160732 -0.499193 1.70483 39 39 35
0.173788 -0.511333 1.74629 39 40 35
0.184777 -0.516483 1.76388 38 39 35
0.194865 -0.518743 1.7716 38 38 35
0.199783 -0.50766 1.73375 37 38 34
0.203597 -0.494859 1.69003 37 38 34
0.219521 -0.511333 1.74629 37 39 35
0.229328 -0.512808 1.75133 38 39 35
0.230153 -0.494859 1.69003 37 38 34
0.245188 -0.50766 1.73375 38 39 34
0.25225 -0.50363 1.71999 39 40 35
0.26335 -0.50766 1.73375 40 41 36
0.272431 -0.50766 1.73375 39 40 36
0.286405 -0.516483 1.76388 37 38 34
0.300887 -0.525644 1.79517 37 38 34
0.292117 -0.494859 1.69003 37 39 34
0.289507 -0.476012 1.62567 37 39 34
0.320135 -0.511333 1.74629 38 40 35
0.326917 -0.50766 1.73375 38 40 35
0.335998 -0.50766 1.73375 39 40 35
0.347576 -0.511333 1.74629 38 39 34
0.360316 -0.516483 1.76388 37 38 33
0.362624 -0.506797 1.7308 37 39 33
0.369021 -0.503158 1.71838 38 39 34
0.390539 -0.51982 1.77528 38 39 34
0.390484 -0.50766 1.73375 37 39 35
0.405099 -0.514691 1.75776 37 39 34
0.414306 -0.514691 1.75776 37 39 34
0.414411 -0.50363 1.71999 38 39 35
0.429896 -0.511333 1.74629 38 39 35
0.44633 -0.51982 1.77528 38 40 35
0.44497 -0.50766 1.73375 37 38 34
0.476088 -0.532298 1.81789 36 37 33
0.482238 -0.528602 1.80527 36 37 32
0.481619 -0.517772 1.76828 36 37 33
0.473267 -0.499193 1.70483 37 38 34
0.486483 -0.50363 1.71999 38 39 35
0.499457 -0.50766 1.73375 37 38 34
0.508538 -0.50766 1.73375 37 38 34
0.508985 -0.499193 1.70483 37 38 35
0.53051 -0.511333 1.74629 37 38 35
0.541214 -0.512808 1.75133 38 40 36
0.557913 -0.51982 1.77528 38 40 36
0.555125 -0.508744 1.73745 38 40 36
0.572809 -0.516483 1.76388 38 40 36
0.557678 -0.494859 1.69003 38 40 36
0.601774 -0.525644 1.79517 38 40 36
0.622188 -0.535114 1.82751 39 40 36
0.620579 -0.525644 1.79517 38 39 36
0.603599 -0.50363 1.71999 37 38 35
0.674894 -0.554836 1.89486 36 37 34
0.648788 -0.525644 1.79517 36 37 34
0.65819 -0.525644 1.79517 37 38 35
0.676045 -0.532298 1.81789 38 39 36
0.65523 -0.508744 1.73745 38 39 36
0.695088 -0.532298 1.81789 38 39 36
0.695801 -0.525644 1.79517 37 39 35
0.739316 -0.55107 1.882 36 38 34
0.719388 -0.52916 1.80718 36 37 33
0.733175 -0.532298 1.81789 35 36 33
0.744713 -0.533743 1.82283 36 37 34
0.727337 -0.514691 1.75776 37 38 35
0.752218 -0.525644 1.79517 37 38 35
0.751621 -0.518743 1.7716 36 38 34
0.787743 -0.537042 1.8341 36 38 34
0.797349 -0.537042 1.8341 36 37 34
0.82466 -0.548825 1.87433 36 37 34
0.816562 -0.537042 1.8341 35 37 33
0.802533 -0.521678 1.78162 35 37 33
0.818037 -0.525644 1.79517 35 37 33
0.855301 -0.543344 1.85562 36 37 34
0.865021 -0.543344 1.85562 36 38 35
0.87474 -0.543344 1.85562 36 38 35
0.855647 -0.525644 1.79517 36 38 35
0.86505 -0.525644 1.79517 36 38 35
0.874453 -0.525644 1.79517 36 38 35
0.913617 -0.543344 1.85562 36 38 35
0.910839 -0.535989 1.8305 36 38 35
0.948084 -0.552095 1.8855 36 37 34
0.95796 -0.552095 1.8855 36 37 34
0.921467 -0.525644 1.79517 36 38 35
1.03708 -0.585621 2 36 38 34
1.01432 -0.567042 1.93655 35 37 34
0.959877 -0.531291 1.81445 36 37 34
1.03461 -0.567042 1.93655 36 37 35
0.994848 -0.539955 1.84404 36 37 34
1.05109 -0.564993 1.92955 36 37 35
1.0564 -0.56244 1.92083 35 37 35
1.11041 -0.585621 2 36 38 35
1.16526 -0.608802 2.07917 36 38 35
1.05262 -0.544859 1.86079 35 38 34
1.0528 -0.539955 1.84404 36 38 35
1.1929 -0.606248 2.07045 37 39 36
1.11676 -0.56244 1.92083 36 38 34
1.08178 -0.539955 1.84404 35 37 34
1.18374 -0.585621 2 36 38 34
1.08843 -0.533743 1.82283 36 37 35
1.20469 -0.585621 2 35 37 35
1.21517 -0.585621 2 35 37 35
1.22564 -0.585621 2 35 37 36
1.23612 -0.585621 2 35 38 36
1.31213 -0.616406 2.10514 35 37 35
-0.506142 -0.231581 0.805271 40 36 33
-0.554972 -0.256057 0.89038 39 36 33
-0.516811 -0.240471 0.836183 38 37 34
-0.476754 -0.223729 0.777965 38 37 34
-0.540981 -0.256057 0.89038 39 38 34
-0.504493 -0.240863 0.837546 38 38 34
-0.484802 -0.233492 0.811916 38 38 34
-0.499564 -0.242731 0.844042 37 37 32
-0.524956 -0.257346 0.894863 36 36 32
-0.514827 -0.254654 0.885502 37 37 34
-0.503754 -0.251442 0.874334 39 38 35
-0.499175 -0.251442 0.874334 38 38 35
-0.470971 -0.239433 0.832572 37 37 34
-0.492658 -0.252799 0.87905 37 37 34
-0.524548 -0.271702 0.944781 37 37 34
-0.506429 -0.264815 0.920833 37 37 34
-0.456237 -0.240863 0.837546 36 37 34
-0.471697 -0.251442 0.874334 37 37 34
-0.504754 -0.271702 0.944781 37 37 35
-0.488796 -0.265717 0.923969 37 37 35
-0.493549 -0.270984 0.942284 38 38 35
-0.475725 -0.263836 0.917429 38 38 35
-0.487217 -0.272966 0.949179 38 38 36
-0.480011 -0.271702 0.944781 38 38 35
-0.477274 -0.272966 0.949179 37 37 34
-0.474168 -0.274045 0.952929 37 37 34
-0.470002 -0.274527 0.954604 36 36 33
-0.474717 -0.280262 0.974549 37 37 34
-0.481877 -0.287582 1 37 37 34
-0.464508 -0.280262 0.974549 38 38 35
-0.483899 -0.295206 1.02651 39 39 36
-0.453806 -0.279958 0.973489 39 39 37
-0.473145 -0.295206 1.02651 39 39 37
-0.468866 -0.295898 1.02892 38 37 35
-0.462392 -0.295206 1.02651 37 37 34
-0.432338 -0.279266 0.971083 37 36 34
-0.452698 -0.295898 1.02892 38 37 34
-0.462322 -0.305829 1.06345 38 38 33
-0.466556 -0.312394 1.08628 38 37 33
-0.452588 -0.306783 1.06677 38 37 33
-0.443208 -0.30418 1.05772 38 37 33
-0.441413 -0.306783 1.06677 38 38 34
-0.435825 -0.306783 1.06677 38 38 34
-0.443519 -0.316252 1.0997 38 37 33
-0.439925 -0.317817 1.10514 37 37 33
-0.419063 -0.306783 1.06677 38 38 33
-0.433332 -0.321515 1.118 38 38 34
-0.438611 -0.32989 1.14712 38 38 34
-0.432602 -0.32989 1.14712 39 39 35
-0.439606 -0.339952 1.18211 38 39 34
-0.423827 -0.332432 1.15596 38 38 34
-0.421367 -0.335293 1.1659 38 37 34
-0.400929 -0.323721 1.12567 38 37 34
-0.441389 -0.361709 1.25776 38 38 34
-0.406942 -0.338533 1.17717 38 38 35
-0.414804 -0.350383 1.21838 38 38 34
-0.427498 -0.366747 1.27528 38 37 34
-0.415038 -0.361709 1.25776 38 38 34
-0.427977 -0.379002 1.31789 38 37 34
-0.421074 -0.379002 1.31789 37 37 33
-0.414172 -0.379002 1.31789 37 37 34
-0.42471 -0.395233 1.37433 37 37 34
-0.417512 -0.395233 1.37433 38 37 34
-0.394936 -0.380421 1.32283 38 37 35
-0.419312 -0.411113 1.42955 37 37 35
-0.409312 -0.408606 1.42083 37 37 35
-0.388718 -0.395233 1.37433 37 36 34
-0.429972 -0.445428 1.54887 38 38 35
-0.369223 -0.38985 1.35562 38 39 36
-0.379544 -0.408606 1.42083 38 39 36
-0.392835 -0.431373 1.5 38 39 36
-0.361794 -0.405394 1.40967 38 39 35
-0.377121 -0.431373 1.5 38 39 35
-0.381296 -0.445428 1.54887 38 38 35
-0.361408 -0.431373 1.5 38 38 34
-0.36354 -0.44356 1.54238 37 37 34
-0.356958 -0.445428 1.54887 37 37 34
-0.370357 -0.472895 1.64438 37 38 34
-0.394914 -0.516257 1.79517 38 38 35
-0.360172 -0.482324 1.67717 39 39 35
-0.34978 -0.480118 1.6695 39 38 35
-0.306411 -0.431373 1.5 38 38 34
-0.357303 -0.516257 1.79517 37 37 33
-0.330394 -0.490279 1.70483 37 37 33
-0.321464 -0.490279 1.70483 37 37 32
-0.308999 -0.484732 1.68555 37 37 33
-0.32374 -0.522793 1.81789 37 38 34
-0.292117 -0.486022 1.69003 37 38 34
-0.273939 -0.47002 1.63439 38 39 34
-0.281512 -0.498595 1.73375 38 38 34
-0.274402 -0.502202 1.74629 38 38 35
-0.26335 -0.498595 1.73375 38 39 35
-0.245971 -0.482324 1.67717 39 39 35
-0.243014 -0.494173 1.71838 38 38 34
-0.223937 -0.472895 1.64438 37 38 34
-0.232464 -0.510538 1.77528 37 37 34
-0.223165 -0.510538 1.77528 37 37 34
-0.212494 -0.507261 1.76388 38 37 34
-0.194922 -0.486465 1.69157 38 37 34
-0.190702 -0.498595 1.73375 37 37 34
-0.183462 -0.503651 1.75133 37 36 32
-0.166909 -0.482324 1.67717 37 36 33
-0.167374 -0.510538 1.77528 37 38 35
-0.155494 -0.502202 1.74629 37 38 35
-0.147309 -0.5055 1.75776 37 37 34
-0.136215 -0.498595 1.73375 37 38 35
-0.129344 -0.507261 1.76388 38 38 35
-0.120881 -0.510538 1.77528 37 38 35
-0.109761 -0.502202 1.74629 37 37 34
-0.0982252 -0.490279 1.70483 37 38 34
-0.0885203 -0.486022 1.69003 37 38 34
-0.0841766 -0.513525 1.78567 37 37 34
-0.0708163 -0.486022 1.69003 37 37 34
-0.062507 -0.490279 1.70483 37 38 34
-0.0535774 -0.490279 1.70483 37 37 34
-0.0450025 -0.494173 1.71838 37 37 34
-0.0366925 -0.503651 1.75133 37 37 34
-0.0276204 -0.5055 1.75776 37 37 34
-0.0181621 -0.498595 1.73375 37 38 34
-0.00914672 -0.502202 1.74629 36 37 34
0 -0.486022 1.69003 36 37 34
0.00892957 -0.490279 1.70483 37 38 34
0.0177041 -0.486022 1.69003 37 38 35
0.0265255 -0.485462 1.68808 35 36 33
0.0357183 -0.490279 1.70483 35 36 31
0.0446478 -0.490279 1.70483 36 37 33
0.0546025 -0.499659 1.73745 37 38 34
0.0635672 -0.498595 1.73375 37 38 34
0.0714365 -0.490279 1.70483 37 38 34
0.0851008 -0.519163 1.80527 37 38 34
0.0900894 -0.494637 1.71999 37 37 33
0.0964374 -0.481355 1.6738 38 38 34
0.108972 -0.498595 1.73375 39 39 35
0.117256 -0.495226 1.72203 38 38 34
0.123928 -0.486022 1.69003 37 38 34
0.130538 -0.477815 1.66149 39 39 35
0.144008 -0.494173 1.71838 39 40 36
0.154377 -0.498595 1.73375 38 39 35
0.167374 -0.510538 1.77528 38 38 34
0.169662 -0.490279 1.70483 38 38 34
0.184777 -0.507261 1.76388 37 38 34
0.198569 -0.519163 1.80527 38 38 35
0.19645 -0.490279 1.70483 37 38 35
0.208864 -0.498595 1.73375 37 38 35
0.216012 -0.494173 1.71838 38 39 36
0.221503 -0.486465 1.69157 38 39 35
0.234233 -0.494637 1.71999 37 37 33
0.253873 -0.516257 1.79517 37 38 34
0.254269 -0.498595 1.73375 38 39 35
0.261259 -0.494637 1.71999 38 39 35
0.272431 -0.498595 1.73375 38 39 34
0.289671 -0.513046 1.784 37 38 34
0.290099 -0.497747 1.7308 37 38 34
0.297017 -0.494173 1.71838 37 39 34
0.310989 -0.502202 1.74629 37 39 34
0.315018 -0.494173 1.71838 37 39 34
0.326917 -0.498595 1.73375 37 39 34
0.339405 -0.503651 1.75133 37 39 34
0.339324 -0.490279 1.70483 37 39 34
0.35102 -0.494173 1.71838 37 38 33
0.362624 -0.497747 1.7308 37 38 33
0.372322 -0.498595 1.73375 37 39 34
0.378021 -0.494173 1.71838 37 39 35
0.402177 -0.513525 1.78567 36 38 34
0.409136 -0.510538 1.77528 36 38 34
0.405023 -0.494173 1.71838 37 39 35
0.421963 -0.503651 1.75133 38 40 36
0.426808 -0.498595 1.73375 38 40 36
0.44633 -0.510538 1.77528 38 40 36
0.465683 -0.521803 1.81445 37 39 35
0.461943 -0.507261 1.76388 37 38 34
0.469547 -0.5055 1.75776 37 38 34
0.488941 -0.516257 1.79517 37 38 34
0.477027 -0.494173 1.71838 38 38 35
0.502122 -0.510538 1.77528 38 39 35
0.504522 -0.503651 1.75133 38 38 35
0.508538 -0.498595 1.73375 37 39 35
0.535955 -0.516257 1.79517 37 39 35
0.539316 -0.510538 1.77528 37 38 34
0.55476 -0.516257 1.79517 38 40 36
0.557913 -0.510538 1.77528 39 41 37
0.56357 -0.507261 1.76388 39 40 36
0.558554 -0.494637 1.71999 39 40 36
0.577906 -0.503651 1.75133 38 39 36
0.58708 -0.503651 1.75133 38 39 35
0.600526 -0.507261 1.76388 37 39 35
0.609765 -0.507261 1.76388 38 39 35
0.626063 -0.513046 1.784 36 38 34
0.64748 -0.522793 1.81789 35 37 33
0.64027 -0.50948 1.7716 35 37 34
0.670049 -0.525558 1.82751 36 37 34
0.682846 -0.528053 1.83618 36 38 35
0.672784 -0.513046 1.784 37 39 35
0.674437 -0.507261 1.76388 37 38 35
0.673431 -0.499659 1.73745 36 38 34
0.727877 -0.532855 1.85288 36 38 34
0.734062 -0.530313 1.84404 37 38 34
0.714504 -0.50948 1.7716 36 38 34
0.746626 -0.525558 1.82751 37 38 34
0.733063 -0.50948 1.7716 37 38 35
0.752218 -0.516257 1.79517 37 37 35
0.76162 -0.516257 1.79517 36 38 34
0.771023 -0.516257 1.79517 36 38 35
0.764164 -0.5055 1.75776 37 38 35
0.820823 -0.536516 1.86561 37 38 35
0.811546 -0.524212 1.82283 36 38 34
0.853542 -0.544928 1.89486 36 38 34
0.867093 -0.547216 1.90282 36 38 34
0.85991 -0.536516 1.86561 36 38 35
0.865021 -0.533641 1.85562 36 38 35
0.883564 -0.539024 1.87433 36 38 36
0.841864 -0.507941 1.76625 36 38 35
0.894179 -0.533641 1.85562 36 38 35
0.948447 -0.559942 1.94707 36 38 35
0.907919 -0.530313 1.84404 36 38 35
0.917578 -0.530313 1.84404 36 38 35
0.956792 -0.547216 1.90282 36 38 35
0.930015 -0.526418 1.8305 36 38 35
0.962103 -0.539024 1.87433 36 38 35
0.899022 -0.498595 1.73375 35 37 34
0.958778 -0.526418 1.8305 35 36 33
0.940575 -0.51131 1.77797 35 36 33
1.00137 -0.539024 1.87433 35 37 34
1.04098 -0.554904 1.92955 36 37 34
1.01363 -0.535129 1.86079 35 37 34
0.937604 -0.490279 1.70483 36 38 35
1.04064 -0.539024 1.87433 36 38 35
1.07652 -0.552396 1.92083 36 38 35
1.13136 -0.575163 2 35 37 34
1.06236 -0.535129 1.86079 36 38 35
1.15232 -0.575163 2 36 38 35
1.16279 -0.575163 2 36 38 34
1.23494 -0.605399 2.10514 35 37 34
1.00904 -0.490279 1.70483 35 37 34
1.19422 -0.575163 2 36 38 35
1.11075 -0.530313 1.84404 36 38 35
1.13882 -0.539024 1.87433 35 38 35
1.16121 -0.544928 1.89486 35 37 35
1.31379 -0.611303 2.12567 35 38 36
1.18106 -0.544928 1.89486 35 37 35
-0.526427 -0.236484 0.837546 39 36 31
-0.534621 -0.242183 0.85773 38 36 32
-0.526089 -0.240337 0.851194 38 37 33
-0.53269 -0.245433 0.869241 38 37 33
-0.497813 -0.231341 0.819331 38 37 33
-0.500248 -0.234494 0.830499 38 38 34
-0.497136 -0.235079 0.832572 38 38 34
-0.53209 -0.253834 0.898997 37 37 32
-0.480647 -0.231341 0.819331 36 36 32
-0.522673 -0.253834 0.898997 36 36 32
-0.512999 -0.251401 0.89038 37 37 34
-0.513255 -0.253834 0.898997 38 38 34
-0.494595 -0.246871 0.874334 38 37 34
-0.519457 -0.261704 0.926867 38 38 35
-0.511252 -0.26 0.920833 37 38 35
-0.48345 -0.248202 0.87905 36 37 34
-0.501606 -0.26 0.920833 36 37 34
-0.510938 -0.267408 0.947071 36 37 34
-0.49196 -0.26 0.920833 37 37 34
-0.487137 -0.26 0.920833 37 37 35
-0.49716 -0.268003 0.949179 38 38 35
-0.479117 -0.260885 0.923969 38 38 36
-0.499696 -0.274868 0.973489 38 38 35
-0.481175 -0.267408 0.947071 37 37 35
-0.490031 -0.275167 0.974549 37 37 34
-0.485413 -0.275443 0.975527 37 37 34
-0.492353 -0.282353 1 37 36 33
-0.474717 -0.275167 0.974549 38 37 35
-0.457388 -0.268003 0.949179 38 37 34
-0.476639 -0.282353 1 37 37 34
-0.458905 -0.274868 0.973489 38 38 35
-0.479059 -0.290163 1.02766 39 39 36
-0.460926 -0.282353 1 39 39 36
-0.467769 -0.289838 1.02651 38 38 36
-0.45045 -0.282353 1 39 38 36
-0.481974 -0.305667 1.08257 39 38 36
-0.46657 -0.299421 1.06045 39 38 34
-0.459828 -0.298649 1.05772 38 37 33
-0.454288 -0.298649 1.05772 38 37 33
-0.424261 -0.282353 1 38 37 33
-0.469233 -0.316186 1.11983 37 37 33
-0.442936 -0.302244 1.07045 37 37 33
-0.434471 -0.300269 1.06345 37 37 33
-0.428901 -0.300269 1.06345 36 36 31
-0.42465 -0.301205 1.06677 36 36 31
-0.447521 -0.321659 1.13921 36 36 31
-0.448046 -0.326388 1.15596 37 37 32
-0.435587 -0.321659 1.13921 38 38 34
-0.442171 -0.331056 1.17249 39 39 35
-0.418617 -0.317835 1.12567 39 39 35
-0.446712 -0.344012 1.21838 39 39 35
-0.406825 -0.317835 1.12567 39 39 36
-0.433949 -0.344012 1.21838 38 38 35
-0.405663 -0.326388 1.15596 37 37 33
-0.434801 -0.355133 1.25776 38 38 34
-0.410193 -0.340188 1.20483 38 38 34
-0.413576 -0.348353 1.23375 38 38 34
-0.388444 -0.332378 1.17717 38 38 34
-0.400652 -0.348353 1.23375 38 37 34
-0.39419 -0.348353 1.23375 37 37 34
-0.387728 -0.348353 1.23375 37 37 34
-0.43908 -0.401176 1.42083 37 37 34
-0.401865 -0.373505 1.32283 38 38 35
-0.40127 -0.379494 1.34404 39 38 35
-0.416754 -0.401176 1.42083 38 38 35
-0.395916 -0.388047 1.37433 38 38 36
-0.37415 -0.373505 1.32283 38 38 36
-0.40464 -0.411564 1.45762 38 37 35
-0.408548 -0.423529 1.5 37 38 35
-0.400691 -0.423529 1.5 38 38 35
-0.392835 -0.423529 1.5 38 39 35
-0.397522 -0.437329 1.54887 38 38 35
-0.389409 -0.437329 1.54887 38 38 35
-0.404809 -0.464297 1.64438 38 38 35
-0.396196 -0.464297 1.64438 38 38 35
-0.387583 -0.464297 1.64438 37 37 34
-0.369925 -0.453215 1.60514 37 38 34
-0.358183 -0.449036 1.59033 37 37 34
-0.36429 -0.467565 1.65596 38 38 34
-0.353131 -0.464297 1.64438 39 39 36
-0.34978 -0.471389 1.6695 39 39 35
-0.348253 -0.481365 1.70483 38 37 34
-0.345079 -0.489529 1.73375 38 37 34
-0.298911 -0.435495 1.54238 38 38 34
-0.306537 -0.459012 1.62567 38 38 35
-0.316181 -0.48698 1.72472 39 40 36
-0.313031 -0.496309 1.75776 38 39 35
-0.299674 -0.489529 1.73375 38 38 34
-0.290099 -0.488697 1.7308 38 38 34
-0.281033 -0.488697 1.7308 38 38 35
-0.270015 -0.485188 1.71838 38 38 35
-0.266997 -0.496309 1.75776 38 38 35
-0.25779 -0.496309 1.75776 38 38 35
-0.246962 -0.493071 1.74629 37 38 34
-0.234233 -0.485644 1.71999 37 37 34
-0.22664 -0.488697 1.7308 36 36 33
-0.221733 -0.498038 1.76388 37 37 34
-0.210375 -0.493071 1.74629 38 37 35
-0.19645 -0.481365 1.70483 38 37 34
-0.186062 -0.47762 1.69157 38 37 34
-0.178591 -0.481365 1.70483 38 37 34
-0.166909 -0.473554 1.67717 37 37 34
-0.157062 -0.470373 1.6659 39 39 36
-0.155494 -0.493071 1.74629 40 40 37
-0.144008 -0.485188 1.71838 38 39 36
-0.138583 -0.498038 1.76388 37 37 34
-0.127134 -0.489529 1.73375 37 38 35
-0.120105 -0.498038 1.76388 37 38 35
-0.107155 -0.481365 1.70483 37 38 34
-0.100614 -0.493071 1.74629 37 38 34
-0.0892957 -0.481365 1.70483 37 38 34
-0.0823205 -0.493071 1.74629 37 38 34
-0.0739109 -0.498038 1.76388 37 37 33
-0.0630626 -0.485644 1.71999 37 37 34
-0.0548803 -0.493071 1.74629 37 37 34
-0.0439234 -0.473554 1.67717 37 38 34
-0.0354404 -0.47762 1.69157 37 37 34
-0.0267887 -0.481365 1.70483 36 37 34
-0.0171212 -0.461474 1.63439 36 37 34
-0.00908103 -0.489529 1.73375 35 36 32
0 -0.461474 1.63439 35 36 33
0.00908103 -0.489529 1.73375 35 37 33
0.0182934 -0.493071 1.74629 36 37 34
0.0256817 -0.461474 1.63439 35 36 32
0.036002 -0.485188 1.71838 36 37 34
0.0457336 -0.493071 1.74629 37 39 35
0.0544862 -0.489529 1.73375 37 38 34
0.060918 -0.469128 1.66149 36 37 33
0.0714365 -0.481365 1.70483 36 37 33
0.0789033 -0.472603 1.6738 37 38 34
0.0910042 -0.490575 1.73745 37 38 34
0.102786 -0.503717 1.784 38 38 35
0.104431 -0.469128 1.66149 38 38 34
0.117116 -0.485644 1.71999 37 38 34
0.123928 -0.477185 1.69003 38 38 34
0.135984 -0.488697 1.7308 40 40 36
0.145296 -0.489529 1.73375 39 40 36
0.14904 -0.472603 1.6738 38 39 35
0.160732 -0.481365 1.70483 37 38 34
0.169662 -0.481365 1.70483 37 38 34
0.185971 -0.501255 1.77528 38 39 35
0.188867 -0.484821 1.71707 38 39 35
0.190222 -0.466103 1.65078 37 38 35
0.210982 -0.494494 1.75133 37 38 34
0.226935 -0.509724 1.80527 38 39 35
0.225224 -0.485644 1.71999 38 39 35
0.234013 -0.485188 1.71838 37 38 34
0.246962 -0.493071 1.74629 36 37 32
0.247857 -0.477185 1.69003 36 37 33
0.256709 -0.477185 1.69003 37 38 33
0.26354 -0.473554 1.67717 38 38 34
0.276817 -0.481365 1.70483 37 38 34
0.283523 -0.47762 1.69157 37 38 34
0.299674 -0.489529 1.73375 37 38 33
0.308755 -0.489529 1.73375 37 38 34
0.322238 -0.496309 1.75776 37 38 34
0.321464 -0.481365 1.70483 37 38 33
0.344046 -0.501255 1.77528 37 38 33
0.345079 -0.489529 1.73375 37 38 34
0.348253 -0.481365 1.70483 37 39 33
0.369554 -0.498038 1.76388 37 38 33
0.379738 -0.49928 1.76828 37 39 34
0.381403 -0.489529 1.73375 36 39 35
0.395892 -0.496309 1.75776 36 38 34
0.392901 -0.481365 1.70483 36 38 34
0.40183 -0.481365 1.70483 37 39 35
0.424988 -0.498038 1.76388 38 40 36
0.41288 -0.473554 1.67717 38 40 36
0.44031 -0.494494 1.75133 38 39 35
0.444214 -0.488697 1.7308 37 38 34
0.450447 -0.485644 1.71999 37 38 34
0.459026 -0.485188 1.71838 37 38 34
0.467671 -0.484821 1.71707 37 38 34
0.492823 -0.501255 1.77528 38 39 35
0.502122 -0.501255 1.77528 38 39 35
0.491126 -0.481365 1.70483 38 38 35
0.504501 -0.485644 1.71999 38 39 35
0.54274 -0.513288 1.81789 38 40 36
0.538198 -0.500216 1.7716 38 39 36
0.55476 -0.506871 1.79517 39 40 36
0.557913 -0.501255 1.77528 39 40 36
0.579728 -0.512316 1.81445 38 39 36
0.579342 -0.503717 1.784 37 39 35
0.572105 -0.489529 1.73375 36 38 34
0.595107 -0.501255 1.77528 37 38 34
0.596253 -0.494494 1.75133 36 37 34
0.599348 -0.489529 1.73375 37 38 35
0.612831 -0.493071 1.74629 36 38 34
0.628243 -0.498038 1.76388 36 37 34
0.648788 -0.506871 1.79517 35 36 33
0.662594 -0.510262 1.80718 35 37 34
0.639635 -0.485644 1.71999 35 36 33
0.668108 -0.500216 1.7716 36 38 34
0.708467 -0.523167 1.85288 37 38 35
0.686666 -0.500216 1.7716 36 38 34
0.709922 -0.510262 1.80718 37 38 35
0.710161 -0.503717 1.784 37 38 34
0.724009 -0.506871 1.79517 37 38 35
0.771666 -0.533308 1.8888 36 37 34
0.742815 -0.506871 1.79517 36 37 34
0.752218 -0.506871 1.79517 37 38 34
0.745751 -0.496309 1.75776 36 37 34
0.780784 -0.513288 1.81789 36 38 35
0.775571 -0.503717 1.784 37 38 35
0.831025 -0.533308 1.8888 37 38 35
0.786357 -0.498706 1.76625 36 38 34
0.821094 -0.514681 1.82283 36 38 34
0.835776 -0.517862 1.8341 36 38 34
0.834262 -0.51105 1.80997 36 38 35
0.865021 -0.523938 1.85562 36 37 35
0.879453 -0.526762 1.86561 36 38 35
0.884459 -0.523938 1.85562 35 37 34
0.916926 -0.537267 1.90282 36 38 35
0.926892 -0.537267 1.90282 36 38 35
0.907919 -0.520671 1.84404 36 38 35
0.963609 -0.54679 1.93655 36 38 35
0.927237 -0.520671 1.84404 36 38 35
0.936895 -0.520671 1.84404 37 38 35
0.946554 -0.520671 1.84404 36 38 35
0.94919 -0.516847 1.8305 35 37 34
0.950373 -0.512316 1.81445 35 36 33
0.968366 -0.516847 1.8305 35 36 33
0.969381 -0.512316 1.81445 35 36 33
1.01721 -0.532377 1.8855 36 37 34
0.988388 -0.512316 1.81445 35 37 34
1.06119 -0.544815 1.92955 36 38 35
1.02382 -0.520671 1.84404 36 38 35
1.07652 -0.542353 1.92083 36 38 35
1.08658 -0.542353 1.92083 36 38 35
1.09027 -0.5392 1.90967 36 38 35
1.11576 -0.54679 1.93655 36 38 35
1.16279 -0.564706 2 36 38 35
1.17327 -0.564706 2 36 38 34
1.06251 -0.506871 1.79517 35 37 34
1.257 -0.594392 2.10514 36 38 35
1.129 -0.529224 1.87433 36 38 36
1.13882 -0.529224 1.87433 36 38 36
1.22564 -0.564706 2 35 38 36
1.23612 -0.564706 2 35 38 35
1.2466 -0.564706 2 34 37 34
-0.511913 -0.225705 0.814453 41 38 34
-0.534621 -0.237698 0.85773 40 38 34
-0.491461 -0.22036 0.795167 39 39 34
-0.508948 -0.230151 0.830499 38 37 32
-0.521143 -0.237698 0.85773 37 36 31
-0.520262 -0.239359 0.863725 37 37 33
-0.524888 -0.243606 0.87905 38 38 34
-0.514479 -0.240888 0.869241 37 38 33
-0.512913 -0.242299 0.874334 37 37 33
-0.522673 -0.249134 0.898997 37 36 33
-0.503754 -0.242299 0.874334 37 36 33
-0.496267 -0.240888 0.869241 36 36 33
-0.477459 -0.233904 0.844042 36 36 32
-0.503838 -0.249134 0.898997 37 37 34
-0.485436 -0.242299 0.874334 38 38 35
-0.480856 -0.242299 0.874334 37 38 35
-0.476277 -0.242299 0.874334 37 37 34
-0.496783 -0.255185 0.920833 36 36 33
-0.495184 -0.256857 0.926867 35 36 33
-0.502132 -0.26304 0.949179 37 37 35
-0.496056 -0.262456 0.947071 38 38 36
-0.479117 -0.256054 0.923969 38 38 35
-0.48496 -0.261822 0.944781 38 38 35
-0.494597 -0.269777 0.973489 37 37 35
-0.478253 -0.26358 0.951125 38 38 35
-0.485413 -0.270342 0.975527 37 36 34
-0.4793 -0.269777 0.973489 36 35 31
-0.460217 -0.261822 0.944781 37 37 34
-0.458326 -0.26358 0.951125 38 37 34
-0.476639 -0.277124 1 38 37 34
-0.471402 -0.277124 1 37 37 34
-0.453269 -0.269458 0.972338 39 39 36
-0.436529 -0.262456 0.947071 39 39 36
-0.468293 -0.28479 1.02766 39 39 36
-0.45045 -0.277124 1 40 39 36
-0.445213 -0.277124 1 39 38 35
-0.439975 -0.277124 1 39 38 35
-0.434737 -0.277124 1 38 38 34
-0.466556 -0.301034 1.08628 38 37 33
-0.464476 -0.303392 1.09479 38 37 33
-0.444353 -0.293876 1.06045 38 38 34
-0.438798 -0.293876 1.06045 37 37 34
-0.421542 -0.285938 1.0318 38 37 34
-0.445713 -0.30626 1.10514 36 36 33
-0.450656 -0.313731 1.1321 37 36 32
-0.447521 -0.315702 1.13921 37 37 32
-0.458181 -0.32759 1.18211 37 37 33
-0.410865 -0.297785 1.07455 38 38 34
-0.432602 -0.317894 1.14712 39 39 35
-0.429882 -0.320344 1.15596 38 38 34
-0.415918 -0.314366 1.13439 38 38 34
-0.435436 -0.333888 1.20483 38 38 35
-0.424848 -0.33056 1.19282 38 38 35
-0.395033 -0.311949 1.12567 38 38 34
-0.416504 -0.333888 1.20483 38 38 34
-0.428214 -0.348556 1.25776 38 38 34
-0.421626 -0.348556 1.25776 38 38 34
-0.412916 -0.346774 1.25133 38 38 34
-0.420597 -0.358922 1.29517 38 37 34
-0.406283 -0.352391 1.2716 38 37 34
-0.407029 -0.358922 1.29517 38 37 34
-0.400245 -0.358922 1.29517 38 37 34
-0.386302 -0.352391 1.2716 38 38 35
-0.40127 -0.372466 1.34404 38 38 35
-0.416754 -0.393747 1.42083 38 37 35
-0.406095 -0.390652 1.40967 38 38 36
-0.398711 -0.390652 1.40967 38 38 36
-0.394428 -0.393747 1.42083 37 37 35
-0.397006 -0.403942 1.45762 36 36 34
-0.379544 -0.393747 1.42083 37 37 34
-0.420369 -0.444822 1.60514 39 39 36
-0.422035 -0.455699 1.64438 38 39 36
-0.35441 -0.390652 1.40967 38 38 35
-0.369265 -0.415686 1.5 38 38 35
-0.373184 -0.429231 1.54887 37 38 35
-0.387583 -0.455699 1.64438 37 38 35
-0.358996 -0.431681 1.55772 38 38 35
-0.383971 -0.47245 1.70483 37 37 34
-0.329981 -0.415686 1.5 37 37 33
-0.360172 -0.464785 1.67717 38 38 34
-0.336295 -0.444822 1.60514 38 38 34
-0.359065 -0.487118 1.75776 38 38 34
-0.332291 -0.462659 1.6695 38 37 34
-0.344567 -0.492717 1.77797 38 37 34
-0.325214 -0.477962 1.72472 38 37 34
-0.329095 -0.497484 1.79517 38 38 34
-0.298079 -0.463851 1.6738 38 38 34
-0.297017 -0.476204 1.71838 37 38 34
-0.285746 -0.47245 1.70483 37 38 34
-0.276817 -0.47245 1.70483 37 38 34
-0.265803 -0.468775 1.69157 37 37 34
-0.261015 -0.476204 1.71838 37 38 34
-0.254269 -0.480464 1.73375 38 38 35
-0.234969 -0.46044 1.66149 37 38 34
-0.24021 -0.488815 1.76388 37 37 34
-0.223239 -0.47245 1.70483 37 37 34
-0.222286 -0.490034 1.76828 37 37 34
-0.212494 -0.488815 1.76388 38 38 35
-0.201228 -0.48394 1.74629 38 37 35
-0.192081 -0.48394 1.74629 39 38 35
-0.177041 -0.468348 1.69003 39 38 35
-0.168342 -0.468775 1.69157 39 38 35
-0.164641 -0.48394 1.74629 39 39 36
-0.155494 -0.48394 1.74629 39 39 37
-0.139241 -0.46044 1.66149 38 39 36
-0.135008 -0.476204 1.71838 37 38 35
-0.125014 -0.47245 1.70483 37 37 34
-0.115076 -0.468348 1.69003 37 37 34
-0.107155 -0.47245 1.70483 37 37 34
-0.0990055 -0.476204 1.71838 37 37 33
-0.0892957 -0.47245 1.70483 36 37 33
-0.0823205 -0.48394 1.74629 36 37 32
-0.0731738 -0.48394 1.74629 36 37 32
-0.0619642 -0.468348 1.69003 37 37 34
-0.0548803 -0.48394 1.74629 38 38 35
-0.0442602 -0.468348 1.69003 38 38 35
-0.0345858 -0.457472 1.65078 37 38 34
-0.0270015 -0.476204 1.71838 37 38 35
-0.018001 -0.476204 1.71838 37 38 35
-0.00914672 -0.48394 1.74629 37 38 35
0 -0.476204 1.71838 37 38 35
0.00908103 -0.480464 1.73375 36 38 35
0.0178591 -0.47245 1.70483 37 38 35
0.0270268 -0.47665 1.71999 37 38 35
0.0363241 -0.480464 1.73375 38 39 36
0.0446478 -0.47245 1.70483 37 39 35
0.0540537 -0.47665 1.71999 37 38 35
0.0630626 -0.47665 1.71999 37 38 34
0.0731738 -0.48394 1.74629 37 38 34
0.0783231 -0.46044 1.66149 37 38 34
0.0876704 -0.463851 1.6738 38 38 35
0.0954093 -0.458906 1.65596 38 38 34
0.106224 -0.468348 1.69003 37 37 33
0.114944 -0.467809 1.68808 38 38 34
0.121836 -0.46044 1.66149 38 38 34
0.13177 -0.464785 1.67717 39 39 35
0.142873 -0.47245 1.70483 39 40 36
0.150485 -0.468348 1.69003 38 39 35
0.159482 -0.468775 1.69157 37 38 34
0.17088 -0.475843 1.71707 38 38 35
0.177041 -0.468348 1.69003 39 39 36
0.189011 -0.476204 1.71838 38 39 36
0.194922 -0.468775 1.69157 38 39 35
0.203597 -0.468348 1.69003 37 38 34
0.216215 -0.47665 1.71999 38 39 35
0.225013 -0.476204 1.71838 38 39 35
0.234233 -0.47665 1.71999 38 39 35
0.245188 -0.480464 1.73375 38 38 34
0.250028 -0.47245 1.70483 37 38 34
