ply
format ascii 1.0
element vertex 1328
property float x
property float y
property float z
property uchar red
property uchar green
property uchar blue
end_header
0.617295 -0.41082 1.78567 37 39 36
0.626648 -0.41082 1.78567 37 39 36
0.612034 -0.395339 1.71838 36 38 35
0.663611 -0.422442 1.83618 36 38 35
0.678733 -0.425896 1.85119 36 38 35
0.660197 -0.40843 1.77528 36 39 36
0.653834 -0.398876 1.73375 36 38 35
0.674437 -0.405808 1.76388 35 37 34
0.692119 -0.41082 1.78567 35 37 34
0.71278 -0.417443 1.81445 38 39 36
0.684038 -0.395339 1.71838 38 39 36
0.733175 -0.418234 1.81789 37 39 36
0.733412 -0.413006 1.79517 36 37 34
0.72987 -0.405808 1.76388 36 37 33
0.761741 -0.418234 1.81789 36 37 34
0.76162 -0.413006 1.79517 36 37 34
0.771023 -0.413006 1.79517 35 38 34
0.77018 -0.407584 1.7716 36 38 35
0.795113 -0.415769 1.80718 36 38 35
0.793202 -0.40989 1.78162 36 38 35
0.808634 -0.413006 1.79517 36 38 35
0.830642 -0.41937 1.82283 36 38 35
0.827439 -0.413006 1.79517 35 37 34
0.869682 -0.429213 1.86561 35 37 34
0.864596 -0.421962 1.8341 35 37 34
0.868832 -0.41937 1.82283 35 37 34
0.903199 -0.431219 1.87433 36 37 35
0.887927 -0.41937 1.82283 36 38 36
0.849171 -0.396798 1.72472 36 38 35
0.893258 -0.413006 1.79517 36 38 35
0.888121 -0.406353 1.76625 36 38 35
0.926118 -0.41937 1.82283 36 38 35
0.952495 -0.426913 1.85562 36 38 35
0.982566 -0.435942 1.89486 36 38 35
0.987587 -0.433789 1.8855 36 38 35
0.997463 -0.433789 1.8855 36 38 35
0.969381 -0.417443 1.81445 35 38 35
1.01721 -0.433789 1.8855 36 38 35
1.02709 -0.433789 1.8855 35 37 35
1.03082 -0.431219 1.87433 34 36 33
1.04064 -0.431219 1.87433 34 37 34
1.04287 -0.428104 1.86079 34 37 34
1.04314 -0.42425 1.84404 35 37 34
1.09664 -0.441917 1.92083 35 37 35
1.07211 -0.428104 1.86079 35 37 35
1.12183 -0.443923 1.92955 36 38 36
1.0916 -0.428104 1.86079 36 38 36
1.06251 -0.413006 1.79517 35 37 35
1.14028 -0.439348 1.90967 35 38 35
1.20469 -0.460131 2 37 40 37
1.12041 -0.42425 1.84404 37 40 37
1.22564 -0.460131 2 36 38 36
1.23612 -0.460131 2 34 37 34
1.2466 -0.460131 2 34 37 35
-0.521998 -0.186727 0.830499 38 37 35
-0.526089 -0.189771 0.844042 38 37 36
-0.550308 -0.20019 0.89038 38 37 35
-0.548392 -0.201198 0.894863 38 38 35
-0.546216 -0.202127 0.898997 38 38 35
-0.543811 -0.202987 0.90282 37 37 34
-0.522073 -0.196582 0.874334 37 37 34
-0.514479 -0.195437 0.869241 37 37 34
-0.498666 -0.191122 0.850047 37 37 34
-0.537191 -0.207742 0.923969 37 37 34
-0.530545 -0.207037 0.920833 37 37 33
-0.529167 -0.208394 0.926867 37 38 33
-0.520899 -0.207037 0.920833 37 38 33
-0.516076 -0.207037 0.920833 37 37 33
-0.524548 -0.212421 0.944781 37 38 34
-0.506429 -0.207037 0.920833 38 38 34
-0.53029 -0.218876 0.973489 38 38 34
-0.539493 -0.224837 1 39 38 34
-0.493635 -0.207742 0.923969 38 37 35
-0.501017 -0.212936 0.947071 37 36 34
-0.52378 -0.224837 1 36 35 33
-0.505851 -0.219334 0.975527 37 36 34
-0.489142 -0.214253 0.952929 37 37 35
-0.472275 -0.208998 0.929553 39 38 36
-0.490031 -0.219114 0.974549 38 37 35
-0.497591 -0.224837 1 38 37 34
-0.505405 -0.230797 1.02651 37 37 33
-0.474201 -0.218876 0.973489 38 37 34
-0.508486 -0.237252 1.05522 39 39 35
-0.476639 -0.224837 1 39 39 35
-0.498609 -0.237813 1.05772 39 38 34
-0.490838 -0.236737 1.05293 38 38 34
-0.500695 -0.244235 1.08628 38 38 35
-0.484602 -0.239103 1.06345 37 38 34
-0.477679 -0.238428 1.06045 36 37 34
-0.459372 -0.231987 1.0318 37 37 34
-0.47972 -0.245147 1.09033 37 38 34
-0.461016 -0.238428 1.06045 37 37 35
-0.47021 -0.246148 1.09479 36 37 34
-0.480305 -0.254537 1.1321 37 38 35
-0.460799 -0.247252 1.0997 38 38 35
-0.45729 -0.248475 1.10514 37 38 35
-0.465422 -0.256136 1.13921 37 37 34
-0.46621 -0.259902 1.15596 37 38 34
-0.426115 -0.240676 1.07045 37 38 34
-0.447521 -0.256136 1.13921 37 38 34
-0.430698 -0.249838 1.1112 38 38 35
-0.450102 -0.264671 1.17717 37 38 34
-0.45858 -0.273401 1.216 37 37 34
-0.433581 -0.262138 1.1659 37 37 34
-0.427474 -0.262138 1.1659 37 37 34
-0.445887 -0.277392 1.23375 38 38 35
-0.447977 -0.282791 1.25776 37 37 35
-0.439133 -0.281345 1.25133 37 37 35
-0.464628 -0.30219 1.34404 38 38 35
-0.467901 -0.309001 1.37433 37 37 35
-0.434165 -0.291201 1.29517 36 36 34
-0.436509 -0.29742 1.32283 37 37 34
-0.474968 -0.328845 1.46259 37 37 35
-0.439107 -0.309001 1.37433 38 38 36
-0.436455 -0.312253 1.3888 39 38 36
-0.451986 -0.328845 1.46259 37 36 35
-0.431638 -0.319455 1.42083 37 36 33
-0.420862 -0.316944 1.40967 37 37 34
-0.397624 -0.304792 1.35562 37 36 34
-0.432118 -0.337255 1.5 38 38 35
-0.465099 -0.369718 1.64438 38 39 36
-0.416405 -0.337255 1.5 37 38 35
-0.420091 -0.346783 1.54238 37 37 35
-0.400691 -0.337255 1.5 36 36 34
-0.416492 -0.357565 1.59033 36 36 34
-0.399791 -0.350232 1.55772 37 37 35
-0.413422 -0.369718 1.64438 38 38 36
-0.369265 -0.337255 1.5 38 38 35
-0.41076 -0.383309 1.70483 37 38 35
-0.393503 -0.375365 1.6695 37 37 34
-0.399565 -0.38981 1.73375 37 38 35
-0.377741 -0.377089 1.67717 38 38 35
-0.361744 -0.369718 1.64438 38 38 35
-0.377479 -0.395209 1.75776 37 38 35
-0.340596 -0.365509 1.62567 37 37 34
-0.366706 -0.403619 1.79517 37 37 34
-0.345816 -0.390643 1.73745 37 37 34
-0.345736 -0.401108 1.784 37 37 34
-0.318964 -0.380327 1.69157 37 37 34
-0.324167 -0.397575 1.76828 37 38 34
-0.314121 -0.396585 1.76388 37 37 35
-0.294676 -0.383309 1.70483 36 36 34
-0.283265 -0.379981 1.69003 36 36 34
-0.281512 -0.38981 1.73375 36 37 34
-0.276204 -0.395209 1.75776 37 37 35
-0.258957 -0.383309 1.70483 37 38 35
-0.250028 -0.383309 1.70483 37 38 35
-0.234969 -0.373565 1.66149 38 39 35
-0.228771 -0.377698 1.67988 38 39 36
-0.219617 -0.377089 1.67717 38 38 35
-0.219521 -0.392631 1.74629 38 38 35
-0.206855 -0.386061 1.71707 38 38 35
-0.193575 -0.377698 1.67988 38 38 35
-0.185893 -0.379981 1.69003 37 38 35
-0.175694 -0.377089 1.67717 37 38 35
-0.17101 -0.386354 1.71838 36 36 34
-0.163459 -0.38981 1.73375 36 36 34
-0.153009 -0.386354 1.71838 37 38 35
-0.145296 -0.38981 1.73375 38 39 37
-0.133943 -0.383309 1.70483 38 38 36
-0.125014 -0.383309 1.70483 37 38 35
-0.115076 -0.379981 1.69003 38 38 36
-0.108006 -0.386354 1.71838 39 39 37
-0.10038 -0.391719 1.74224 38 38 36
-0.0906559 -0.389148 1.7308 37 37 35
-0.0778182 -0.371156 1.65078 36 37 34
-0.072004 -0.386354 1.71838 37 37 34
-0.0620207 -0.380327 1.69157 36 36 34
-0.0548803 -0.392631 1.74629 36 37 33
-0.0446478 -0.383309 1.70483 36 38 34
-0.036002 -0.386354 1.71838 37 38 34
-0.0256817 -0.36747 1.63439 38 39 35
-0.0178591 -0.383309 1.70483 38 39 35
-0.0090005 -0.386354 1.71838 37 37 33
0 -0.379981 1.69003 35 36 32
0.00900894 -0.386716 1.71999 36 36 32
0.0184136 -0.395209 1.75776 35 36 31
0.0270015 -0.386354 1.71838 36 37 33
0.0369554 -0.396585 1.76388 36 37 34
0.0455021 -0.390643 1.73745 37 38 34
0.0540537 -0.386716 1.71999 36 37 33
0.062507 -0.383309 1.70483 36 38 32
0.0731738 -0.392631 1.74629 36 37 33
0.083687 -0.399148 1.77528 37 38 33
0.0872567 -0.374556 1.6659 37 38 34
0.0990055 -0.386354 1.71838 36 38 34
0.105416 -0.377089 1.67717 36 38 34
0.118053 -0.38981 1.73375 36 37 34
0.126007 -0.386354 1.71838 35 37 34
0.13177 -0.377089 1.67717 36 37 34
0.142873 -0.383309 1.70483 36 38 35
0.153152 -0.386716 1.71999 37 38 35
0.160732 -0.383309 1.70483 37 38 35
0.173788 -0.392631 1.74629 36 38 35
0.189113 -0.405891 1.80527 36 38 35
0.192081 -0.392631 1.74629 36 37 34
0.201228 -0.392631 1.74629 36 38 34
0.20538 -0.383309 1.70483 37 38 35
0.210409 -0.376332 1.6738 37 39 36
0.223239 -0.383309 1.70483 37 39 36
0.228402 -0.377089 1.67717 37 39 36
0.235593 -0.374556 1.6659 37 39 36
0.254269 -0.38981 1.73375 37 39 36
0.267927 -0.396585 1.76388 37 39 36
0.265561 -0.379981 1.69003 37 39 36
0.274413 -0.379981 1.69003 38 39 36
0.288286 -0.386716 1.71999 38 39 36
0.297295 -0.386716 1.71999 37 39 35
0.300969 -0.379981 1.69003 36 37 34
0.30459 -0.373565 1.66149 37 39 35
0.318673 -0.379981 1.69003 38 40 36
0.330394 -0.383309 1.70483 38 39 36
0.345079 -0.38981 1.73375 38 39 36
0.360316 -0.396585 1.76388 37 39 35
0.345858 -0.371156 1.65078 37 39 35
0.376098 -0.393763 1.75133 36 38 34
0.381403 -0.38981 1.73375 35 38 34
0.38982 -0.389148 1.7308 35 38 34
0.389041 -0.379543 1.68808 36 39 35
0.41279 -0.393763 1.75133 37 39 35
0.414023 -0.386354 1.71838 37 39 35
0.416425 -0.380327 1.69157 37 39 35
0.44031 -0.393763 1.75133 38 40 36
0.460733 -0.403619 1.79517 37 39 35
0.464928 -0.399148 1.77528 37 38 35
0.455408 -0.383309 1.70483 37 39 35
0.471411 -0.389148 1.7308 37 39 36
0.480476 -0.389148 1.7308 36 38 35
0.490376 -0.38981 1.73375 35 37 34
0.50307 -0.392631 1.74629 36 38 35
0.529516 -0.405891 1.80527 37 38 35
0.521363 -0.392631 1.74629 37 38 35
0.551217 -0.407955 1.81445 37 38 36
0.567435 -0.412841 1.83618 36 38 35
0.548803 -0.392631 1.74629 35 37 35
0.553943 -0.38981 1.73375 35 37 35
0.582969 -0.403619 1.79517 35 37 34
0.592371 -0.403619 1.79517 35 37 34
0.598589 -0.401483 1.78567 36 38 35
0.598442 -0.395209 1.75776 36 38 35
0.599348 -0.38981 1.73375 36 38 35
0.612831 -0.392631 1.74629 36 38 35
0.61751 -0.38981 1.73375 36 38 35
0.652439 -0.405891 1.80527 36 38 35
0.642118 -0.393763 1.75133 36 38 35
0.674765 -0.407955 1.81445 36 38 35
0.660465 -0.393763 1.75133 35 37 34
0.686399 -0.403619 1.79517 36 38 35
0.671996 -0.38981 1.73375 36 38 35
0.71278 -0.407955 1.81445 37 39 36
0.710161 -0.401108 1.784 37 39 36
0.681607 -0.379981 1.69003 37 38 35
0.73754 -0.405891 1.80527 36 37 34
0.711706 -0.386716 1.71999 36 37 34
0.739109 -0.396585 1.76388 36 37 34
0.76162 -0.403619 1.79517 35 37 34
0.787743 -0.412372 1.8341 35 37 34
0.748632 -0.387176 1.72203 35 37 35
0.789828 -0.403619 1.79517 35 37 35
0.773535 -0.390643 1.73745 36 38 36
0.791785 -0.395209 1.75776 36 39 36
0.785935 -0.38778 1.72472 36 38 35
0.845382 -0.412372 1.8341 35 37 34
0.869682 -0.419458 1.86561 35 37 34
0.851906 -0.40632 1.80718 36 37 35
0.874202 -0.412372 1.8341 36 37 35
0.872183 -0.406947 1.80997 36 38 35
0.903898 -0.41721 1.85562 36 38 35
0.869618 -0.397118 1.76625 35 37 35
0.923337 -0.41721 1.85562 35 36 34
0.976636 -0.436697 1.94228 34 36 34
0.942775 -0.41721 1.85562 34 36 34
0.935665 -0.409839 1.82283 35 37 34
0.94919 -0.411563 1.8305 36 38 35
0.987587 -0.42393 1.8855 36 38 35
0.97553 -0.414608 1.84404 36 38 35
1.00137 -0.421419 1.87433 35 37 34
0.987541 -0.411563 1.8305 35 37 34
0.997129 -0.411563 1.8305 35 37 34
1.01416 -0.414608 1.84404 34 37 34
0.996688 -0.403619 1.79517 34 37 34
1.00609 -0.403619 1.79517 33 36 32
1.04314 -0.414608 1.84404 33 35 32
1.10561 -0.435407 1.93655 33 35 32
1.15232 -0.449673 2 33 35 33
1.16279 -0.449673 2 34 36 34
1.12027 -0.429363 1.90967 35 37 35
1.14205 -0.433834 1.92955 35 38 35
1.14028 -0.429363 1.90967 36 38 36
1.11075 -0.414608 1.84404 36 38 36
1.10752 -0.409839 1.82283 35 38 35
1.16121 -0.426035 1.89486 34 37 34
1.17114 -0.426035 1.89486 33 36 33
1.09561 -0.395209 1.75776 34 37 34
-0.534285 -0.186677 0.850047 37 37 35
-0.514967 -0.181439 0.826197 38 37 35
-0.540391 -0.192011 0.874334 37 37 35
-0.535811 -0.192011 0.874334 38 38 35
-0.536757 -0.194008 0.883428 38 38 35
-0.529493 -0.193046 0.87905 38 38 35
-0.534331 -0.196519 0.894863 38 38 35
-0.536452 -0.199045 0.906367 38 39 36
-0.542031 -0.202911 0.923969 37 38 35
-0.538876 -0.203547 0.926867 37 37 34
-0.517964 -0.197427 0.898997 37 37 33
-0.513255 -0.197427 0.898997 36 36 31
-0.508546 -0.197427 0.898997 36 36 31
-0.490015 -0.192011 0.874334 37 37 32
-0.516094 -0.204137 0.929553 37 38 33
-0.508154 -0.202911 0.923969 38 38 34
-0.531893 -0.214432 0.976432 38 38 34
-0.512075 -0.208447 0.949179 39 38 35
-0.509107 -0.209271 0.952929 38 37 34
-0.487137 -0.202222 0.920833 37 36 33
-0.510449 -0.214019 0.974549 37 35 33
-0.491096 -0.207984 0.947071 38 37 34
-0.500742 -0.214233 0.975527 38 37 35
-0.508066 -0.219608 1 39 38 36
-0.502828 -0.219608 1 39 39 36
-0.471253 -0.207984 0.947071 39 38 35
-0.492353 -0.219608 1 38 37 34
-0.487115 -0.219608 1 38 38 34
-0.495207 -0.225683 1.02766 39 38 35
-0.464508 -0.214019 0.974549 40 39 35
-0.483899 -0.22543 1.02651 39 38 34
-0.478522 -0.22543 1.02651 38 37 34
-0.474255 -0.225958 1.02892 38 38 34
-0.495005 -0.238556 1.08628 37 37 34
-0.491142 -0.239446 1.09033 37 37 34
-0.483625 -0.238556 1.08628 38 38 35
-0.465368 -0.232283 1.05772 37 38 35
-0.462322 -0.233542 1.06345 37 37 35
-0.492686 -0.251916 1.14712 37 38 35
-0.454149 -0.235078 1.07045 37 38 35
-0.469233 -0.245922 1.11983 37 38 35
-0.468445 -0.248617 1.1321 37 38 35
-0.453979 -0.244028 1.1112 37 38 34
-0.443519 -0.241502 1.0997 37 38 34
-0.439925 -0.242697 1.10514 37 38 34
-0.464372 -0.2596 1.18211 37 38 34
-0.462334 -0.261953 1.19282 37 38 34
-0.445794 -0.256042 1.1659 37 37 34
-0.454368 -0.264591 1.20483 37 37 34
-0.453094 -0.267565 1.21838 37 38 34
-0.452349 -0.270941 1.23375 37 37 34
-0.430086 -0.26134 1.19003 38 38 35
-0.429125 -0.264591 1.20483 37 37 35
-0.439133 -0.274802 1.25133 37 37 35
-0.426501 -0.270941 1.23375 38 38 35
-0.472826 -0.304991 1.3888 38 38 36
-0.434165 -0.284429 1.29517 38 38 36
-0.471726 -0.313941 1.42955 38 38 36
-0.406362 -0.274802 1.25133 38 38 35
-0.406283 -0.279253 1.2716 38 38 36
-0.449263 -0.313941 1.42955 37 37 35
-0.463545 -0.329412 1.5 36 35 32
-0.417512 -0.301815 1.37433 37 36 33
-0.447832 -0.329412 1.5 37 37 34
-0.439975 -0.329412 1.5 37 36 34
-0.444327 -0.338718 1.54238 37 36 34
-0.398711 -0.309574 1.40967 37 37 35
-0.429972 -0.340145 1.54887 38 38 36
-0.42186 -0.340145 1.54887 38 38 36
-0.43926 -0.36112 1.64438 37 38 36
-0.392835 -0.329412 1.5 37 37 35
-0.422035 -0.36112 1.64438 37 37 35
-0.413422 -0.36112 1.64438 37 37 35
-0.395147 -0.352501 1.60514 37 38 35
-0.419772 -0.382609 1.74224 37 38 35
-0.378332 -0.352501 1.60514 37 38 35
-0.401521 -0.382609 1.74224 38 38 35
-0.376014 -0.366636 1.6695 37 38 35
-0.381403 -0.380745 1.73375 37 37 34
-0.341524 -0.34925 1.59033 36 37 34
-0.361349 -0.378762 1.72472 36 37 34
-0.360799 -0.387882 1.76625 36 37 34
-0.333818 -0.36832 1.67717 37 38 34
-0.327525 -0.371144 1.69003 38 38 35
-0.321464 -0.374395 1.70483 38 38 35
-0.310104 -0.371482 1.69157 38 39 35
-0.303605 -0.374395 1.70483 37 37 35
-0.301842 -0.3835 1.74629 36 36 34
-0.285746 -0.374395 1.70483 36 37 34
-0.272325 -0.36832 1.67717 35 36 34
-0.265803 -0.371482 1.69157 36 37 34
-0.256943 -0.371482 1.69157 37 38 35
-0.252014 -0.377369 1.71838 38 38 36
-0.245188 -0.380745 1.73375 38 39 36
-0.235705 -0.380098 1.7308 38 38 35
-0.223239 -0.374395 1.70483 37 37 34
-0.221733 -0.387363 1.76388 37 37 34
-0.210375 -0.3835 1.74629 37 37 35
-0.198011 -0.377369 1.71838 37 37 35
-0.186062 -0.371482 1.69157 37 37 35
-0.182934 -0.3835 1.74629 37 37 35
-0.168189 -0.371144 1.69003 35 36 34
-0.162009 -0.377369 1.71838 36 36 34
-0.155494 -0.3835 1.74629 37 38 36
-0.140782 -0.368915 1.67988 38 38 36
-0.136215 -0.380745 1.73375 37 38 36
-0.122986 -0.36832 1.67717 37 37 35
-0.110694 -0.357009 1.62567 38 38 35
-0.108006 -0.377369 1.71838 38 39 36
-0.0997215 -0.380098 1.7308 38 38 36
-0.0892957 -0.374395 1.70483 37 38 35
-0.0803661 -0.374395 1.70483 36 37 34
-0.0714365 -0.374395 1.70483 37 37 34
-0.0614928 -0.36832 1.67717 37 38 35
-0.0522154 -0.364877 1.66149 37 38 35
-0.0450447 -0.377723 1.71999 36 38 34
-0.0365869 -0.3835 1.74629 37 38 35
-0.0270268 -0.377723 1.71999 38 39 35
-0.0177041 -0.371144 1.69003 38 39 35
-0.00870257 -0.364877 1.66149 37 37 34
0 -0.377723 1.71999 36 37 33
0.0090005 -0.377369 1.71838 36 37 33
0.0175694 -0.36832 1.67717 36 37 33
0.0270268 -0.377723 1.71999 36 37 33
0.0366925 -0.384606 1.75133 37 38 34
0.0470136 -0.394233 1.79517 37 38 34
0.0540537 -0.377723 1.71999 37 38 34
0.0635672 -0.380745 1.73375 37 38 34
0.0714365 -0.374395 1.70483 37 38 34
0.0817293 -0.380745 1.73375 37 38 33
0.0885203 -0.371144 1.69003 37 38 34
0.0990984 -0.377723 1.71999 36 38 34
0.108972 -0.380745 1.73375 36 38 34
0.118053 -0.380745 1.73375 36 38 35
0.123928 -0.371144 1.69003 37 39 35
0.130885 -0.365846 1.6659 37 39 36
0.140555 -0.36832 1.67717 37 39 35
0.155494 -0.3835 1.74629 37 38 35
0.160732 -0.374395 1.70483 37 38 35
0.165349 -0.364877 1.66149 36 37 34
0.173471 -0.363661 1.65596 36 38 35
0.186062 -0.371482 1.69157 35 37 34
0.201809 -0.384606 1.75133 36 38 34
0.20538 -0.374395 1.70483 36 38 34
0.212449 -0.371144 1.69003 36 38 35
0.228668 -0.3835 1.74629 36 38 35
0.24021 -0.387363 1.76388 37 39 35
0.239005 -0.371144 1.69003 37 39 36
0.263276 -0.394233 1.79517 36 38 36
0.261259 -0.377723 1.71999 36 38 35
0.270268 -0.377723 1.71999 37 39 36
0.271778 -0.36758 1.6738 38 40 36
0.278482 -0.364877 1.66149 38 40 36
0.294676 -0.374395 1.70483 37 39 35
0.311886 -0.384606 1.75133 36 38 34
0.315313 -0.377723 1.71999 37 38 35
0.321464 -0.374395 1.70483 38 40 36
0.335998 -0.380745 1.73375 38 40 36
0.348578 -0.384606 1.75133 38 39 35
0.345229 -0.371144 1.69003 36 38 34
0.349027 -0.365846 1.6659 36 38 34
0.372322 -0.380745 1.73375 36 38 34
0.381403 -0.380745 1.73375 36 38 34
0.390484 -0.380745 1.73375 37 39 35
0.392901 -0.374395 1.70483 37 40 36
0.415749 -0.387363 1.76388 38 40 36
0.41076 -0.374395 1.70483 37 39 35
0.434226 -0.387363 1.76388 37 39 35
0.432024 -0.377369 1.71838 37 39 35
0.441438 -0.377723 1.71999 37 39 35
0.446478 -0.374395 1.70483 37 39 35
0.463133 -0.380745 1.73375 37 38 35
0.468465 -0.377723 1.71999 37 39 35
0.492823 -0.389865 1.77528 37 39 35
0.486483 -0.377723 1.71999 36 37 34
0.508137 -0.387363 1.76388 35 37 33
0.520719 -0.389865 1.77528 36 37 34
0.522868 -0.384606 1.75133 37 38 35
0.517915 -0.374395 1.70483 37 38 36
0.539657 -0.3835 1.74629 37 39 36
0.543936 -0.380098 1.7308 36 38 36
0.549546 -0.377723 1.71999 37 39 36
0.593472 -0.401335 1.82751 36 38 35
0.557678 -0.371144 1.69003 35 38 34
0.581186 -0.380745 1.73375 36 38 35
0.611177 -0.394233 1.79517 36 38 35
0.630142 -0.400307 1.82283 35 38 35
0.609728 -0.381558 1.73745 36 38 35
0.639385 -0.394233 1.79517 36 38 35
0.6416 -0.389865 1.77528 36 38 35
0.654096 -0.39178 1.784 36 38 35
0.644753 -0.380745 1.73375 35 38 35
0.680806 -0.396452 1.80527 36 38 35
0.674437 -0.387363 1.76388 37 39 36
0.699718 -0.396452 1.80527 36 39 36
0.71278 -0.398468 1.81445 37 39 36
0.710161 -0.39178 1.784 37 38 35
0.70633 -0.384606 1.75133 36 37 34
0.75338 -0.404966 1.84404 36 37 34
0.752219 -0.399224 1.81789 36 37 34
0.76577 -0.401335 1.82751 36 37 34
0.786107 -0.406908 1.85288 36 37 34
0.752196 -0.384606 1.75133 35 37 34
0.785647 -0.39687 1.80718 35 37 34
0.779459 -0.389057 1.7716 35 37 35
0.794259 -0.39178 1.784 35 38 35
0.808634 -0.394233 1.79517 36 38 35
0.840308 -0.404966 1.84404 36 39 35
0.870597 -0.414795 1.8888 36 38 35
0.812168 -0.382609 1.74224 36 39 35
0.864596 -0.402782 1.8341 36 38 35
0.889225 -0.409703 1.86561 35 37 35
0.87838 -0.400307 1.82283 36 37 35
0.908768 -0.409703 1.86561 36 38 36
0.877188 -0.391259 1.78162 35 37 35
0.928312 -0.409703 1.86561 34 36 34
0.927237 -0.404966 1.84404 34 36 34
0.936895 -0.404966 1.84404 34 36 33
0.952495 -0.407508 1.85562 35 37 34
0.94919 -0.401992 1.8305 35 37 35
0.958778 -0.401992 1.8305 36 38 35
0.97553 -0.404966 1.84404 36 38 35
0.977953 -0.401992 1.8305 35 37 34
0.987541 -0.401992 1.8305 35 37 34
0.997129 -0.401992 1.8305 35 38 35
0.987286 -0.394233 1.79517 35 37 34
1.04064 -0.411618 1.87433 34 37 33
1.04287 -0.408644 1.86079 34 36 32
1.03548 -0.401992 1.8305 33 35 32
1.0249 -0.394233 1.79517 33 35 32
1.06246 -0.404966 1.84404 34 35 33
1.07212 -0.404966 1.84404 34 36 34
1.17327 -0.439216 2 35 37 35
1.14205 -0.423745 1.92955 35 38 35
1.11109 -0.408644 1.86079 35 38 35
1.14136 -0.416127 1.89486 35 38 35
1.10752 -0.400307 1.82283 35 37 35
1.22564 -0.439216 2 33 36 33
1.17114 -0.416127 1.89486 33 36 33
1.16827 -0.411618 1.87433 34 37 34
-0.578776 -0.197407 0.920833 37 36 34
-0.551931 -0.189833 0.885502 37 36 34
-0.553079 -0.19184 0.894863 37 36 34
-0.510219 -0.178486 0.832572 37 37 34
-0.548539 -0.193546 0.90282 37 38 35
-0.526652 -0.187439 0.874334 38 38 35
-0.539082 -0.193546 0.90282 38 39 36
-0.503118 -0.182232 0.850047 38 39 36
-0.529624 -0.193546 0.90282 37 38 35
-0.537191 -0.19808 0.923969 37 37 34
-0.530545 -0.197407 0.920833 37 37 34
-0.499175 -0.187439 0.874334 36 36 31
-0.525832 -0.199277 0.929553 36 36 31
-0.531962 -0.203484 0.949179 37 37 32
-0.52699 -0.203484 0.949179 38 38 34
-0.523089 -0.203901 0.951125 37 37 34
-0.506356 -0.199277 0.929553 37 37 33
-0.500038 -0.198701 0.926867 37 37 33
-0.520658 -0.208923 0.974549 36 35 32
-0.473398 -0.19184 0.894863 36 35 33
-0.510449 -0.208923 0.974549 37 35 33
-0.505344 -0.208923 0.974549 37 36 34
-0.486135 -0.203032 0.947071 37 37 34
-0.483235 -0.203901 0.951125 39 38 36
-0.490523 -0.209133 0.975527 41 40 37
-0.497591 -0.214379 1 39 38 35
-0.505972 -0.220309 1.02766 37 36 33
-0.473641 -0.208449 0.972338 37 36 33
-0.481877 -0.214379 1 38 37 33
-0.476639 -0.214379 1 39 38 35
-0.458362 -0.208449 0.972338 39 38 34
-0.494343 -0.227338 1.06045 39 38 35
-0.502564 -0.233745 1.09033 39 38 35
-0.468866 -0.220578 1.02892 38 37 34
-0.479032 -0.227982 1.06345 36 37 33
-0.474938 -0.228692 1.06677 37 37 34
-0.481678 -0.234699 1.09479 37 38 35
-0.463763 -0.228692 1.06677 37 38 35
-0.47021 -0.234699 1.09479 37 38 35
-0.438464 -0.221556 1.03348 37 38 35
-0.463079 -0.236918 1.10514 38 39 36
-0.468445 -0.242698 1.1321 37 38 35
-0.465422 -0.244223 1.13921 36 37 34
-0.456586 -0.242698 1.1321 36 37 34
-0.442338 -0.238218 1.1112 36 38 34
-0.482558 -0.263343 1.2284 37 38 34
-0.466989 -0.258291 1.20483 37 38 35
-0.433743 -0.243189 1.13439 37 38 35
-0.439687 -0.249946 1.1659 37 38 35
-0.448057 -0.258291 1.20483 37 37 34
-0.43632 -0.255118 1.19003 36 36 34
-0.460896 -0.273393 1.27528 37 37 34
-0.439425 -0.26449 1.23375 37 38 35
-0.475729 -0.290616 1.35562 37 37 35
-0.439585 -0.272604 1.2716 37 37 35
-0.440948 -0.277657 1.29517 38 38 36
-0.447914 -0.28645 1.33618 39 39 37
-0.427381 -0.277657 1.29517 38 38 36
-0.427977 -0.282529 1.31789 37 37 35
-0.453964 -0.304597 1.42083 38 38 36
-0.458083 -0.312484 1.45762 38 38 36
-0.448441 -0.311091 1.45113 38 37 35
-0.455688 -0.321569 1.5 37 37 34
-0.447832 -0.321569 1.5 38 37 35
-0.423046 -0.309196 1.44228 37 37 34
-0.418038 -0.311091 1.45113 37 36 34
-0.424261 -0.321569 1.5 36 37 34
-0.465588 -0.35955 1.67717 38 38 36
-0.379912 -0.299029 1.39486 39 39 37
-0.428776 -0.344108 1.60514 38 38 36
-0.420369 -0.344108 1.60514 37 37 35
-0.411962 -0.344108 1.60514 37 37 35
-0.413422 -0.352522 1.64438 37 37 35
-0.41288 -0.35955 1.67717 37 37 35
-0.361408 -0.321569 1.5 38 38 35
-0.40183 -0.365481 1.70483 38 38 35
-0.366513 -0.340934 1.59033 38 39 36
-0.372964 -0.355003 1.65596 38 39 35
-0.354444 -0.345407 1.6112 37 37 34
-0.366112 -0.365481 1.70483 37 37 34
-0.357183 -0.365481 1.70483 36 37 34
-0.332081 -0.348509 1.62567 37 38 34
-0.339324 -0.365481 1.70483 37 38 34
-0.339405 -0.375449 1.75133 36 37 34
-0.326917 -0.37168 1.73375 36 37 33
-0.312535 -0.365481 1.70483 36 37 34
-0.310989 -0.374369 1.74629 36 36 34
-0.297017 -0.368384 1.71838 36 37 35
-0.281564 -0.360131 1.67988 37 38 36
-0.281512 -0.37168 1.73375 37 37 35
-0.265561 -0.362307 1.69003 36 37 34
-0.252374 -0.35619 1.66149 37 38 36
-0.245971 -0.35955 1.67717 38 39 36
-0.243014 -0.368384 1.71838 38 39 36
-0.24021 -0.37814 1.76388 37 38 35
-0.225013 -0.368384 1.71838 37 37 34
-0.216012 -0.368384 1.71838 36 37 34
-0.203597 -0.362307 1.69003 37 37 35
-0.199443 -0.371048 1.7308 37 38 35
-0.192081 -0.374369 1.74629 37 38 35
-0.177202 -0.362638 1.69157 37 38 36
-0.17117 -0.368729 1.71999 37 37 35
-0.164259 -0.373499 1.74224 36 37 35
-0.14934 -0.35955 1.67717 37 37 35
-0.146348 -0.374369 1.74629 37 37 35
-0.135984 -0.371048 1.7308 37 37 35
-0.130941 -0.382809 1.78567 36 36 34
-0.111968 -0.352522 1.64438 37 37 35
-0.107155 -0.365481 1.70483 38 38 36
-0.0982252 -0.365481 1.70483 38 38 36
-0.0886011 -0.362638 1.69157 37 38 35
-0.0810805 -0.368729 1.71999 36 37 34
-0.0691717 -0.353893 1.65078 37 37 34
-0.062507 -0.365481 1.70483 38 39 36
-0.052354 -0.357135 1.6659 38 39 36
-0.0439234 -0.35955 1.67717 38 39 36
-0.0338691 -0.346559 1.61657 37 38 35
-0.0272431 -0.37168 1.73375 38 39 35
-0.0177041 -0.362307 1.69003 38 39 35
-0.00892957 -0.365481 1.70483 37 38 34
0 -0.375449 1.75133 36 37 33
0.00908103 -0.37168 1.73375 37 37 34
0.0175694 -0.35955 1.67717 37 38 34
0.026354 -0.35955 1.67717 37 38 34
0.0360358 -0.368729 1.71999 37 38 35
0.0439234 -0.35955 1.67717 38 39 35
0.0531606 -0.362638 1.69157 37 38 34
0.062507 -0.365481 1.70483 37 39 34
0.0733849 -0.375449 1.75133 37 38 34
0.0790621 -0.35955 1.67717 37 38 33
0.0908103 -0.37168 1.73375 37 38 34
0.0982252 -0.365481 1.70483 36 38 34
0.106321 -0.362638 1.69157 36 38 35
0.115076 -0.362307 1.69003 37 39 36
0.127134 -0.37168 1.73375 38 40 36
0.135008 -0.368384 1.71838 37 39 35
0.144008 -0.368384 1.71838 37 39 35
0.14934 -0.35955 1.67717 38 39 35
0.163459 -0.37168 1.73375 38 39 35
0.168189 -0.362307 1.69003 37 39 36
0.181621 -0.37168 1.73375 37 39 36
0.190377 -0.371048 1.7308 36 38 35
0.19645 -0.365481 1.70483 36 38 35
0.203597 -0.362307 1.69003 36 38 35
0.21431 -0.365481 1.70483 36 38 35
0.219176 -0.358828 1.6738 36 38 35
0.24021 -0.37814 1.76388 37 38 35
0.241098 -0.365481 1.70483 36 38 36
0.245971 -0.35955 1.67717 36 38 36
0.261015 -0.368384 1.71838 36 38 36
0.277166 -0.37814 1.76388 36 38 35
0.281512 -0.37168 1.73375 37 39 35
0.28111 -0.35955 1.67717 37 39 35
0.299674 -0.37168 1.73375 36 38 35
0.303605 -0.365481 1.70483 36 38 35
0.30459 -0.35619 1.66149 37 39 35
0.324322 -0.368729 1.71999 38 40 36
0.341838 -0.37814 1.76388 37 39 35
0.339324 -0.365481 1.70483 37 38 35
0.356722 -0.374369 1.74629 36 38 34
0.378226 -0.387012 1.80527 36 38 34
0.372322 -0.37168 1.73375 37 39 35
0.381403 -0.37168 1.73375 37 39 35
0.387385 -0.368729 1.71999 38 40 36
0.399565 -0.37168 1.73375 38 40 36
0.415749 -0.37814 1.76388 38 39 36
0.420749 -0.374369 1.74629 37 39 35
0.434226 -0.37814 1.76388 36 38 34
0.439043 -0.374369 1.74629 36 38 34
0.455629 -0.380583 1.77528 37 39 35
0.446478 -0.365481 1.70483 38 40 36
0.455408 -0.365481 1.70483 37 39 35
0.472214 -0.37168 1.73375 37 39 35
0.469158 -0.362307 1.69003 36 38 35
0.493923 -0.374369 1.74629 37 38 35
0.483157 -0.35955 1.67717 36 38 34
0.508538 -0.37168 1.73375 36 37 34
0.504566 -0.362307 1.69003 36 38 35
0.522519 -0.368729 1.71999 37 38 36
0.539657 -0.374369 1.74629 36 38 36
0.548803 -0.374369 1.74629 36 38 35
0.544704 -0.365481 1.70483 36 39 36
0.572809 -0.37814 1.76388 36 39 36
0.571132 -0.371048 1.7308 36 38 35
0.58539 -0.374369 1.74629 36 38 35
0.590267 -0.37168 1.73375 36 38 35
0.613704 -0.380583 1.77528 35 38 34
0.603599 -0.368729 1.71999 36 38 35
0.61751 -0.37168 1.73375 36 38 35
0.652439 -0.387012 1.80527 36 38 35
0.620208 -0.362638 1.69157 36 38 35
0.653683 -0.376827 1.75776 36 38 35
0.689193 -0.39178 1.82751 36 38 35
0.678794 -0.380583 1.77528 36 38 35
0.708337 -0.39178 1.82751 36 38 36
0.721316 -0.393639 1.83618 36 38 35
0.697157 -0.375449 1.75133 36 37 35
0.733175 -0.389719 1.81789 36 37 35
0.73754 -0.387012 1.80527 36 37 34
0.72987 -0.37814 1.76388 37 38 35
0.752218 -0.384846 1.79517 37 38 35
0.771262 -0.389719 1.81789 36 38 35
0.776181 -0.387421 1.80718 35 37 34
0.801673 -0.395324 1.84404 35 37 35
0.799828 -0.389719 1.81789 35 37 35
0.782578 -0.376827 1.75776 35 38 35
0.847749 -0.403462 1.882 36 38 35
0.835776 -0.393192 1.8341 36 39 35
0.827439 -0.384846 1.79517 36 38 35
0.869682 -0.399949 1.86561 37 39 36
0.864596 -0.393192 1.8341 37 39 36
0.910222 -0.409392 1.90967 36 37 35
0.87838 -0.390776 1.82283 34 36 34
0.887927 -0.390776 1.82283 35 37 35
0.897475 -0.390776 1.82283 35 37 35
0.917578 -0.395324 1.84404 36 38 35
0.933056 -0.397805 1.85562 36 38 35
0.936895 -0.395324 1.84404 36 38 35
0.921467 -0.384846 1.79517 36 38 35
0.962214 -0.397805 1.85562 36 38 35
0.981738 -0.401818 1.87433 36 38 35
0.940575 -0.381159 1.77797 35 38 35
0.969381 -0.388981 1.81445 35 37 34
0.987541 -0.392421 1.8305 36 38 35
1.02101 -0.401818 1.87433 36 39 35
1.03697 -0.404212 1.8855 35 38 34
0.987138 -0.381159 1.77797 35 37 34
1.00609 -0.384846 1.79517 35 37 34
1.09547 -0.415156 1.93655 35 37 34
1.09664 -0.411786 1.92083 35 37 35
1.11173 -0.413656 1.92955 36 37 35
1.08186 -0.398915 1.86079 36 38 36
1.03928 -0.379794 1.7716 36 38 36
1.13689 -0.411786 1.92083 35 38 35
1.14695 -0.411786 1.92083 35 38 35
1.14136 -0.406219 1.89486 35 38 35
1.05856 -0.373499 1.74224 35 38 35
1.17713 -0.411786 1.92083 35 38 35
1.12662 -0.390776 1.82283 35 38 35
1.2466 -0.428758 2 34 37 35
-0.542882 -0.180648 0.863725 37 36 34
-0.517648 -0.173699 0.830499 38 36 34
-0.517654 -0.175173 0.837546 37 36 34
-0.52434 -0.178952 0.855615 37 36 34
-0.564782 -0.194416 0.929553 37 37 34
-0.523584 -0.181802 0.869241 38 38 35
-0.534331 -0.187161 0.894863 38 38 35
-0.53209 -0.188026 0.898997 38 38 35
-0.542031 -0.193248 0.923969 37 37 35
-0.526958 -0.189567 0.906367 37 37 34
-0.528584 -0.191881 0.917429 37 37 34
-0.541905 -0.198521 0.949179 37 37 33
-0.536933 -0.198521 0.949179 36 36 32
-0.507968 -0.189567 0.906367 37 37 33
-0.52699 -0.198521 0.949179 38 38 34
-0.535971 -0.203827 0.974549 37 37 33
-0.532777 -0.204561 0.978056 37 37 33
-0.525762 -0.203827 0.974549 37 37 34
-0.507104 -0.198521 0.949179 37 37 34
-0.514993 -0.203606 0.973489 37 36 34
-0.511435 -0.204221 0.976432 37 36 34
-0.495002 -0.199656 0.954604 37 36 34
-0.487217 -0.198521 0.949179 38 37 34
-0.482246 -0.198521 0.949179 39 38 35
-0.489498 -0.203606 0.973489 40 39 36
-0.497591 -0.20915 1 38 37 34
-0.518413 -0.220221 1.05293 37 36 32
-0.500029 -0.214695 1.02651 36 36 31
-0.481877 -0.20915 1 38 37 33
-0.489275 -0.214695 1.02651 40 39 35
-0.496353 -0.220221 1.05293 40 39 36
-0.480285 -0.215486 1.03029 40 40 36
-0.502564 -0.228044 1.09033 39 39 35
-0.486113 -0.223115 1.06677 38 38 34
-0.436124 -0.202498 0.968195 36 37 33
-0.489598 -0.230002 1.0997 36 37 34
-0.467892 -0.222421 1.06345 37 37 34
-0.475944 -0.228975 1.09479 37 38 35
-0.483473 -0.235433 1.12567 37 38 35
-0.424261 -0.20915 1 37 38 35
-0.460799 -0.230002 1.0997 37 38 35
-0.455039 -0.230002 1.0997 36 37 34
-0.451502 -0.23114 1.10514 36 37 34
-0.462644 -0.23992 1.14712 36 37 34
-0.484056 -0.254327 1.216 36 38 34
-0.454101 -0.241769 1.15596 36 38 34
-0.458181 -0.247238 1.18211 37 38 35
-0.430409 -0.235433 1.12567 38 39 36
-0.463256 -0.25692 1.2284 38 39 36
-0.458811 -0.258039 1.23375 38 39 36
-0.458795 -0.261716 1.25133 37 38 35
-0.460896 -0.266725 1.27528 36 37 34
-0.475908 -0.279463 1.33618 36 37 34
-0.446245 -0.265955 1.2716 37 37 35
-0.40429 -0.244602 1.1695 37 37 35
-0.457588 -0.281107 1.34404 37 37 35
-0.441783 -0.275638 1.31789 38 38 35
-0.443508 -0.281107 1.34404 37 37 35
-0.451004 -0.290468 1.3888 37 37 34
-0.413813 -0.270885 1.29517 37 37 35
-0.471402 -0.313726 1.5 38 38 36
-0.435629 -0.294832 1.40967 38 38 36
-0.440841 -0.303503 1.45113 38 37 35
-0.43324 -0.303503 1.45113 38 37 35
-0.388008 -0.27667 1.32283 38 37 35
-0.458142 -0.332619 1.59033 37 38 35
-0.424261 -0.313726 1.5 37 38 35
-0.429972 -0.323948 1.54887 38 38 36
-0.397006 -0.304862 1.45762 38 39 36
-0.416109 -0.325797 1.55772 38 38 36
-0.437225 -0.349177 1.6695 37 37 35
-0.411962 -0.335715 1.60514 37 37 35
-0.403554 -0.335715 1.60514 37 37 34
-0.383473 -0.325797 1.55772 37 38 35
-0.396196 -0.343924 1.64438 37 38 34
-0.40183 -0.356566 1.70483 38 38 35
-0.408288 -0.370531 1.7716 39 39 36
-0.399009 -0.370531 1.7716 39 40 37
-0.386686 -0.367637 1.75776 38 39 35
-0.349111 -0.340009 1.62567 38 38 35
-0.340596 -0.340009 1.62567 37 38 34
-0.354916 -0.363389 1.73745 37 38 35
-0.34234 -0.359736 1.71999 37 38 34
-0.327824 -0.353793 1.69157 36 37 34
-0.330232 -0.366292 1.75133 36 37 33
-0.315313 -0.359736 1.71999 36 36 33
-0.303605 -0.356566 1.70483 36 37 34
-0.294676 -0.356566 1.70483 37 37 35
-0.285746 -0.356566 1.70483 37 38 35
-0.281512 -0.362614 1.73375 37 38 35
-0.270015 -0.359399 1.71838 37 38 35
-0.258957 -0.356566 1.70483 38 39 36
-0.252014 -0.359399 1.71838 38 39 36
-0.243014 -0.359399 1.71838 38 38 35
-0.24021 -0.368917 1.76388 37 38 35
-0.230972 -0.368917 1.76388 37 38 35
-0.216215 -0.359736 1.71999 37 37 35
-0.203597 -0.35347 1.69003 37 37 35
-0.193263 -0.350781 1.67717 37 37 35
-0.184478 -0.350781 1.67717 37 38 36
-0.182934 -0.365238 1.74629 38 38 36
-0.168189 -0.35347 1.69003 37 38 36
-0.163459 -0.362614 1.73375 37 37 35
-0.155494 -0.365238 1.74629 37 37 35
-0.142873 -0.356566 1.70483 37 37 35
-0.13177 -0.350781 1.67717 37 38 36
-0.123928 -0.35347 1.69003 36 36 34
-0.115181 -0.353793 1.69157 37 37 35
-0.105416 -0.350781 1.67717 38 38 36
-0.0982252 -0.356566 1.70483 38 38 36
-0.0892957 -0.356566 1.70483 36 37 34
-0.0817293 -0.362614 1.73375 35 36 33
-0.072004 -0.359399 1.71838 36 37 34
-0.0614928 -0.350781 1.67717 38 39 35
-0.0527081 -0.350781 1.67717 39 40 37
-0.0446478 -0.356566 1.70483 38 39 36
-0.0354081 -0.35347 1.69003 37 38 34
-0.0260207 -0.346344 1.65596 37 38 34
-0.0184777 -0.368917 1.76388 37 38 34
-0.00876704 -0.350076 1.6738 38 39 35
0 -0.341832 1.63439 37 38 34
0.00892957 -0.356566 1.70483 37 38 34
0.0182008 -0.363389 1.73745 37 38 34
0.0267887 -0.356566 1.70483 37 38 34
0.0365869 -0.365238 1.74629 37 38 34
0.0443005 -0.353793 1.69157 38 39 35
0.0526022 -0.350076 1.6738 37 39 34
0.0605252 -0.345262 1.65078 37 39 34
0.0708163 -0.35347 1.69003 37 39 34
0.0770452 -0.341832 1.63439 37 38 34
0.0892957 -0.356566 1.70483 36 37 33
0.0973724 -0.35347 1.69003 35 37 33
0.108107 -0.359736 1.71999 35 38 34
0.114201 -0.350781 1.67717 37 39 35
0.125014 -0.356566 1.70483 37 39 35
0.129697 -0.345262 1.65078 37 39 35
0.145049 -0.361998 1.7308 37 38 35
0.150622 -0.353793 1.69157 38 39 35
0.160732 -0.356566 1.70483 38 39 35
0.163646 -0.343924 1.64438 37 39 36
0.177041 -0.35347 1.69003 37 39 35
0.184478 -0.350781 1.67717 36 38 35
0.194745 -0.35347 1.69003 37 39 35
0.20538 -0.356566 1.70483 37 39 36
0.212643 -0.353793 1.69157 37 39 36
0.227026 -0.362614 1.73375 37 38 35
0.234013 -0.359399 1.71838 36 38 35
0.243241 -0.359736 1.71999 36 38 36
0.243672 -0.347502 1.66149 36 38 36
0.263912 -0.363389 1.73745 37 38 36
0.272431 -0.362614 1.73375 36 39 36
0.279277 -0.359736 1.71999 36 39 35
0.295644 -0.368917 1.76388 37 39 35
0.301842 -0.365238 1.74629 36 38 34
0.30823 -0.361998 1.7308 36 38 35
0.321059 -0.366292 1.75133 37 39 36
0.318673 -0.35347 1.69003 38 39 36
0.327525 -0.35347 1.69003 36 37 34
0.347576 -0.365238 1.74629 36 37 33
0.337212 -0.345262 1.65078 36 38 33
0.365869 -0.365238 1.74629 37 38 34
0.378793 -0.368917 1.76388 38 40 36
0.371785 -0.35347 1.69003 38 40 35
0.390484 -0.362614 1.73375 38 40 36
0.399565 -0.362614 1.73375 38 40 36
0.415749 -0.368917 1.76388 37 39 35
0.420749 -0.365238 1.74629 36 38 34
0.41969 -0.356566 1.70483 36 37 33
0.448523 -0.373124 1.784 36 38 34
0.455629 -0.3713 1.77528 37 39 35
0.461943 -0.368917 1.76388 37 39 35
0.455408 -0.356566 1.70483 37 39 35
0.464337 -0.356566 1.70483 37 39 35
0.477474 -0.359736 1.71999 36 38 34
0.490376 -0.362614 1.73375 36 38 35
0.495492 -0.359736 1.71999 36 38 35
0.512217 -0.365238 1.74629 36 38 35
0.504566 -0.35347 1.69003 36 37 35
0.532041 -0.366292 1.75133 36 38 35
0.545093 -0.368917 1.76388 36 38 35
0.557913 -0.3713 1.77528 36 38 35
0.55795 -0.365238 1.74629 36 38 35
0.567097 -0.365238 1.74629 36 38 35
0.582048 -0.368917 1.76388 36 38 35
0.601774 -0.37546 1.79517 36 39 35
0.614617 -0.377573 1.80527 36 39 35
0.603684 -0.365238 1.74629 36 38 35
0.619004 -0.368917 1.76388 36 38 35
0.646254 -0.379493 1.81445 36 38 35
0.627929 -0.363389 1.73745 36 38 35
0.642118 -0.366292 1.75133 36 38 35
0.655959 -0.368917 1.76388 36 38 35
0.669496 -0.3713 1.77528 36 38 35
0.690262 -0.377573 1.80527 35 37 34
0.691473 -0.373124 1.784 36 38 35
0.709173 -0.377573 1.80527 36 37 35
0.690158 -0.362614 1.73375 36 37 35
0.733175 -0.380213 1.81789 37 38 35
0.742697 -0.380213 1.81789 37 38 35
0.752219 -0.380213 1.81789 38 39 36
0.726482 -0.362614 1.73375 38 39 36
0.756882 -0.373124 1.784 37 38 35
0.780784 -0.380213 1.81789 36 37 34
0.794486 -0.382224 1.82751 35 37 35
0.815222 -0.387531 1.85288 35 37 35
0.804578 -0.377972 1.80718 35 37 34
0.814044 -0.377972 1.80718 36 38 35
0.776872 -0.356566 1.70483 36 39 35
0.845382 -0.383602 1.8341 36 38 36
0.836842 -0.37546 1.79517 37 39 35
0.869284 -0.385682 1.84404 37 38 36
0.874202 -0.383602 1.8341 35 37 35
0.858524 -0.372627 1.78162 34 36 34
0.867856 -0.372627 1.78162 34 36 34
0.913617 -0.388103 1.85562 35 37 34
0.893258 -0.37546 1.79517 36 38 35
0.927237 -0.385682 1.84404 36 38 35
0.962716 -0.396311 1.89486 37 39 36
0.929065 -0.378556 1.80997 36 38 35
0.896248 -0.361496 1.7284 36 38 35
0.940272 -0.37546 1.79517 35 38 35
1.0275 -0.406229 1.94228 35 37 34
1.01234 -0.396311 1.89486 35 37 35
1.01119 -0.392018 1.87433 36 38 35
0.957507 -0.367637 1.75776 36 38 35
1.09994 -0.418301 2 35 37 34
0.996688 -0.37546 1.79517 35 38 35
1.03348 -0.385682 1.84404 36 38 35
1.09151 -0.403567 1.92955 36 38 35
1.0528 -0.385682 1.84404 36 37 35
1.02072 -0.370531 1.7716 36 38 35
1.11027 -0.399407 1.90967 37 39 36
1.17327 -0.418301 2 36 38 36
1.13028 -0.399407 1.90967 36 38 35
1.08843 -0.381245 1.82283 35 38 35
1.20469 -0.418301 2 35 38 35
1.16028 -0.399407 1.90967 35 38 35
1.17713 -0.401743 1.92083 34 38 35
1.15845 -0.392018 1.87433 34 38 35
1.16827 -0.392018 1.87433 34 38 35
-0.542882 -0.176132 0.863725 37 35 33
-0.52204 -0.170794 0.837546 38 36 35
-0.547293 -0.180573 0.885502 39 37 35
-0.521631 -0.173577 0.851194 37 37 35
-0.543705 -0.182482 0.894863 36 37 34
-0.543811 -0.184105 0.90282 37 37 35
-0.534331 -0.182482 0.894863 38 38 35
-0.545014 -0.187778 0.920833 38 38 35
-0.542031 -0.188417 0.923969 37 37 35
-0.490722 -0.172118 0.844042 37 37 34
-0.532352 -0.188417 0.923969 37 37 34
-0.508335 -0.181568 0.89038 36 36 32
-0.508546 -0.183325 0.898997 36 36 31
-0.507968 -0.184828 0.906367 37 37 33
-0.514603 -0.189008 0.926867 38 38 34
-0.523089 -0.193955 0.951125 38 37 34
-0.51909 -0.194323 0.952929 38 37 34
-0.500038 -0.189008 0.926867 38 37 34
-0.508144 -0.193955 0.951125 38 37 35
-0.503162 -0.193955 0.951125 38 37 34
-0.52378 -0.203922 1 38 37 34
-0.493198 -0.193955 0.951125 38 37 35
-0.488217 -0.193955 0.951125 38 37 35
-0.508066 -0.203922 1 40 39 36
-0.515134 -0.208912 1.02447 40 39 36
-0.497591 -0.203922 1 38 37 35
-0.51954 -0.215182 1.05522 37 36 32
-0.499513 -0.209112 1.02545 37 36 32
-0.481877 -0.203922 1 38 37 33
-0.489824 -0.209562 1.02766 39 39 35
-0.458362 -0.198281 0.972338 40 39 36
-0.522022 -0.228357 1.11983 40 39 36
-0.487529 -0.215691 1.05772 38 38 34
-0.469492 -0.210099 1.03029 37 37 33
-0.493147 -0.223251 1.09479 36 36 33
-0.49856 -0.228357 1.11983 36 37 34
-0.453968 -0.210407 1.0318 36 37 34
-0.465363 -0.218287 1.07045 37 38 35
-0.474655 -0.225361 1.10514 37 38 35
-0.477577 -0.229548 1.12567 37 38 35
-0.474375 -0.230859 1.1321 37 38 35
-0.468445 -0.230859 1.1321 36 38 35
-0.465422 -0.232309 1.13921 36 38 34
-0.456586 -0.230859 1.1321 37 38 34
-0.456636 -0.233922 1.14712 38 39 35
-0.4733 -0.245691 1.20483 36 38 34
-0.466989 -0.245691 1.20483 36 37 33
-0.441991 -0.235725 1.15596 36 38 35
-0.443936 -0.240051 1.17717 37 38 35
-0.474255 -0.260057 1.27528 37 38 36
-0.498928 -0.277495 1.36079 38 39 36
-0.459566 -0.259307 1.2716 37 38 35
-0.452906 -0.259307 1.2716 36 37 35
-0.428851 -0.249199 1.22203 37 37 35
-0.464628 -0.274079 1.34404 37 38 35
-0.448686 -0.268747 1.31789 37 37 35
-0.465552 -0.283206 1.3888 37 37 35
-0.419604 -0.259307 1.2716 37 36 34
-0.45778 -0.287461 1.40967 36 36 34
-0.413813 -0.264113 1.29517 37 37 35
-0.471402 -0.305882 1.5 38 38 36
-0.431054 -0.284443 1.39486 38 38 36
-0.428245 -0.287461 1.40967 37 37 35
-0.447832 -0.305882 1.5 37 37 35
-0.439975 -0.305882 1.5 38 38 35
-0.446198 -0.315849 1.54887 37 38 35
-0.436248 -0.314524 1.54238 37 38 35
-0.416405 -0.305882 1.5 38 38 36
-0.408548 -0.305882 1.5 38 39 36
-0.43426 -0.331508 1.62567 37 38 36
-0.405634 -0.315849 1.54887 36 36 35
-0.422035 -0.335325 1.64438 36 36 34
-0.387776 -0.314524 1.54238 36 36 34
-0.381296 -0.315849 1.54887 36 37 33
-0.426847 -0.361267 1.7716 36 37 33
-0.393503 -0.340447 1.6695 36 37 33
-0.36394 -0.322026 1.57917 37 37 34
-0.370357 -0.335325 1.64438 38 39 35
-0.354444 -0.328558 1.6112 37 38 35
-0.375526 -0.356591 1.74867 37 37 34
-0.36212 -0.352458 1.7284 36 37 33
-0.334249 -0.333672 1.63628 37 38 34
-0.359314 -0.368134 1.80527 37 38 35
-0.327525 -0.344634 1.69003 37 37 34
-0.330232 -0.357134 1.75133 36 37 34
-0.312535 -0.347652 1.70483 37 38 34
-0.308755 -0.353549 1.73375 37 38 35
-0.294676 -0.347652 1.70483 37 38 35
-0.285746 -0.347652 1.70483 37 38 35
-0.274413 -0.344634 1.69003 37 37 34
-0.271968 -0.352948 1.7308 36 37 34
-0.266997 -0.358446 1.75776 37 38 35
-0.245971 -0.342011 1.67717 38 39 36
-0.239223 -0.344948 1.69157 37 38 35
-0.232169 -0.347652 1.70483 36 37 34
-0.225224 -0.350743 1.71999 37 38 35
-0.219521 -0.356107 1.74629 37 38 36
-0.207012 -0.350414 1.71838 37 37 35
-0.194745 -0.344634 1.69003 36 37 35
-0.192081 -0.356107 1.74629 37 38 36
-0.181621 -0.353549 1.73375 38 39 37
-0.169662 -0.347652 1.70483 38 38 36
-0.159337 -0.344634 1.69003 36 37 35
-0.151803 -0.347652 1.70483 36 37 35
-0.142873 -0.347652 1.70483 37 37 35
-0.133943 -0.347652 1.70483 36 36 34
-0.125014 -0.347652 1.70483 35 35 33
-0.120881 -0.362018 1.77528 37 38 36
-0.104431 -0.338814 1.66149 38 39 37
-0.0982252 -0.347652 1.70483 38 38 36
-0.0886011 -0.344948 1.69157 36 37 34
-0.0810045 -0.350414 1.71838 36 36 33
-0.0691717 -0.33663 1.65078 36 36 33
-0.0630035 -0.350414 1.71838 38 39 35
-0.0540537 -0.350743 1.71999 39 40 37
-0.0454051 -0.353549 1.73375 38 39 35
-0.0363241 -0.353549 1.73375 36 37 33
-0.0267887 -0.347652 1.70483 36 37 34
-0.0174051 -0.338814 1.66149 37 38 34
-0.00900894 -0.350743 1.71999 37 38 34
0 -0.342011 1.67717 37 38 34
0.00917312 -0.357134 1.75133 37 38 34
0.0177041 -0.344634 1.69003 37 38 34
0.0270015 -0.350414 1.71838 36 37 33
0.0366925 -0.357134 1.75133 35 36 32
0.0438352 -0.341324 1.6738 36 38 33
0.0544862 -0.353549 1.73375 37 38 33
0.062507 -0.347652 1.70483 37 38 33
0.0701363 -0.341324 1.6738 37 39 34
0.0790621 -0.342011 1.67717 37 38 33
0.0892957 -0.347652 1.70483 36 38 33
0.0973724 -0.344634 1.69003 35 37 34
0.106224 -0.344634 1.69003 35 37 34
0.118053 -0.353549 1.73375 36 38 35
0.125014 -0.347652 1.70483 37 39 35
0.135008 -0.350414 1.71838 37 38 34
0.145607 -0.354304 1.73745 36 38 34
0.14934 -0.342011 1.67717 37 38 34
0.162161 -0.350743 1.71999 37 39 35
0.168342 -0.344948 1.69157 37 39 36
0.175694 -0.342011 1.67717 37 39 35
0.187521 -0.347652 1.70483 37 39 36
0.199783 -0.353549 1.73375 37 39 36
0.207012 -0.350414 1.71838 38 40 37
0.205454 -0.333287 1.63439 38 40 37
0.219617 -0.342011 1.67717 37 39 36
0.227943 -0.341324 1.6738 36 38 35
0.246962 -0.356107 1.74629 36 38 36
0.252014 -0.350414 1.71838 37 38 36
0.26602 -0.357134 1.75133 37 38 36
0.265255 -0.344237 1.68808 37 39 36
0.27961 -0.35116 1.72203 37 39 35
0.280545 -0.341324 1.6738 37 39 36
0.285333 -0.33663 1.65078 37 39 35
0.316151 -0.362018 1.77528 37 39 35
0.312535 -0.347652 1.70483 37 39 36
0.332599 -0.359694 1.76388 38 40 37
0.330394 -0.347652 1.70483 37 39 35
0.342747 -0.35116 1.72203 36 37 33
0.356722 -0.356107 1.74629 35 37 31
0.354081 -0.344634 1.69003 35 37 31
0.371689 -0.352948 1.7308 37 39 34
0.375042 -0.347652 1.70483 38 40 35
0.387385 -0.350743 1.71999 38 40 36
0.399565 -0.353549 1.73375 37 39 35
0.415749 -0.359694 1.76388 37 38 34
0.43496 -0.368134 1.80527 36 38 34
0.41288 -0.342011 1.67717 36 38 33
0.44031 -0.357134 1.75133 36 37 33
0.452704 -0.359694 1.76388 37 38 34
0.467211 -0.363796 1.784 37 39 35
0.451454 -0.344634 1.69003 37 39 35
0.47563 -0.356107 1.74629 37 38 35
0.495707 -0.364136 1.78567 37 39 35
0.507747 -0.366073 1.79517 37 39 35
0.498608 -0.352948 1.7308 37 38 35
0.513695 -0.357134 1.75133 36 38 35
0.524787 -0.358446 1.75776 36 38 35
0.53051 -0.356107 1.74629 37 38 35
0.548615 -0.362018 1.77528 35 37 34
0.544862 -0.353549 1.73375 35 37 34
0.55795 -0.356107 1.74629 36 38 35
0.593472 -0.372669 1.82751 36 39 36
0.562563 -0.347652 1.70483 36 38 35
0.571492 -0.347652 1.70483 36 38 35
0.596253 -0.357134 1.75133 36 38 35
0.613704 -0.362018 1.77528 36 38 35
0.614599 -0.357134 1.75133 36 38 35
0.642984 -0.368134 1.80527 36 38 35
0.637481 -0.359694 1.76388 36 37 34
0.649549 -0.361267 1.7716 35 37 34
0.655959 -0.359694 1.76388 36 37 35
0.673413 -0.364136 1.78567 36 38 35
0.702081 -0.374437 1.83618 36 38 35
0.688093 -0.362018 1.77528 36 38 35
0.692915 -0.359694 1.76388 36 38 35
0.70669 -0.362018 1.77528 36 37 34
0.70633 -0.357134 1.75133 36 37 35
0.720631 -0.359694 1.76388 36 38 35
0.718933 -0.354304 1.73745 37 38 34
0.776402 -0.377843 1.85288 37 38 35
0.737134 -0.354304 1.73745 36 38 34
0.784914 -0.372669 1.82751 35 37 34
0.818177 -0.383781 1.882 35 37 34
0.789828 -0.366073 1.79517 35 37 34
0.782578 -0.358446 1.75776 36 37 35
0.802533 -0.363312 1.78162 36 38 35
0.807297 -0.361267 1.7716 36 38 35
0.827439 -0.366073 1.79517 36 38 35
0.854989 -0.374012 1.8341 36 38 35
0.864596 -0.374012 1.8341 37 38 36
0.910222 -0.389422 1.90967 36 37 35
0.87838 -0.371714 1.82283 35 37 34
0.851803 -0.356591 1.74867 34 36 34
0.891144 -0.369092 1.80997 35 37 34
0.932651 -0.382217 1.87433 35 37 34
0.942468 -0.382217 1.87433 35 38 35
0.903324 -0.362566 1.77797 36 38 35
0.952495 -0.3784 1.85562 36 38 35
0.930869 -0.366073 1.79517 35 38 35
0.940272 -0.366073 1.79517 35 37 34
1.00242 -0.386403 1.89486 36 38 35
1.00734 -0.384494 1.8855 36 38 35
1.01721 -0.384494 1.8855 37 39 36
0.988388 -0.370006 1.81445 37 39 36
1.00672 -0.373278 1.8305 36 38 35
1.04684 -0.384494 1.8855 36 38 35
1.08141 -0.393478 1.92955 36 38 35
1.13136 -0.407843 2 36 38 36
1.10162 -0.393478 1.92955 36 38 35
1.1067 -0.391699 1.92083 36 37 34
1.08973 -0.382217 1.87433 36 38 35
1.17327 -0.407843 2 36 38 35
1.03118 -0.35528 1.74224 36 38 35
1.08843 -0.371714 1.82283 35 38 35
1.14136 -0.386403 1.89486 34 37 34
1.21517 -0.407843 2 34 37 34
1.22564 -0.407843 2 34 37 34
1.17114 -0.386403 1.89486 35 38 35
1.18106 -0.386403 1.89486 35 38 35
-0.53051 -0.167705 0.844042 38 36 34
-0.575908 -0.183586 0.923969 38 37 35
-0.550308 -0.176912 0.89038 39 38 35
-0.548392 -0.177803 0.894863 38 38 35
-0.540981 -0.176912 0.89038 37 38 35
-0.545947 -0.180089 0.906367 37 38 35
-0.503985 -0.167705 0.844042 38 38 35
-0.546871 -0.183586 0.923969 38 38 35
-0.540191 -0.182963 0.920833 37 37 34
-0.514827 -0.175943 0.885502 37 37 34
-0.517964 -0.178624 0.898997 37 37 33
-0.508335 -0.176912 0.89038 37 37 32
-0.520899 -0.182963 0.920833 37 37 32
-0.546728 -0.19383 0.975527 38 38 34
-0.528071 -0.188982 0.951125 38 38 34
-0.549969 -0.198693 1 38 37 34
-0.489711 -0.178624 0.898997 37 37 34
-0.490758 -0.180744 0.909666 38 37 34
-0.507104 -0.188595 0.949179 37 37 34
-0.49175 -0.184696 0.929553 37 36 34
-0.499125 -0.18934 0.952929 38 37 35
-0.518542 -0.198693 1 39 38 36
-0.526368 -0.20375 1.02545 39 38 36
-0.508066 -0.198693 1 40 39 36
-0.464598 -0.183586 0.923969 39 38 36
-0.509768 -0.203555 1.02447 38 37 35
-0.4793 -0.193425 0.973489 38 37 34
-0.487115 -0.198693 1 37 36 33
-0.481877 -0.198693 1 38 37 34
-0.489824 -0.204189 1.02766 39 38 35
-0.485681 -0.204712 1.03029 39 38 35
-0.466164 -0.198693 1 38 38 34
-0.491701 -0.211959 1.06677 37 36 33
-0.455688 -0.198693 1 36 36 32
-0.482183 -0.21269 1.07045 36 37 33
-0.487413 -0.217526 1.09479 37 38 35
-0.46657 -0.210703 1.06045 36 38 34
-0.462322 -0.2113 1.06345 36 37 34
-0.443159 -0.205012 1.0318 36 38 35
-0.464476 -0.217526 1.09479 37 38 35
-0.458741 -0.217526 1.09479 37 38 35
-0.478319 -0.229681 1.15596 37 38 35
-0.475475 -0.231242 1.16382 37 38 35
-0.459455 -0.226353 1.13921 37 38 34
-0.442338 -0.220787 1.1112 37 38 35
-0.462434 -0.233895 1.17717 37 38 34
-0.466989 -0.239392 1.20483 36 37 34
-0.445794 -0.231657 1.1659 36 37 34
-0.443936 -0.233895 1.17717 36 37 34
-0.461968 -0.246824 1.24224 36 37 34
-0.467576 -0.253389 1.27528 36 37 35
-0.435436 -0.239392 1.20483 37 38 35
-0.445687 -0.248631 1.25133 37 38 36
-0.410416 -0.232371 1.1695 37 38 36
-0.429435 -0.246824 1.24224 37 38 36
-0.450366 -0.262837 1.32283 37 37 35
-0.460703 -0.27307 1.37433 37 36 35
-0.453504 -0.27307 1.37433 36 36 34
-0.461406 -0.282309 1.42083 37 36 34
-0.450396 -0.28009 1.40967 38 38 36
-0.431909 -0.27307 1.37433 38 38 36
-0.400245 -0.25734 1.29517 38 38 36
-0.428245 -0.28009 1.40967 38 38 36
-0.43324 -0.288328 1.45113 37 37 35
-0.427544 -0.289619 1.45762 37 37 35
-0.432118 -0.298039 1.5 36 37 34
-0.438085 -0.30775 1.54887 36 38 35
-0.428169 -0.30646 1.54238 37 38 36
-0.42186 -0.30775 1.54887 37 38 36
-0.400691 -0.298039 1.5 36 37 35
-0.463964 -0.352004 1.7716 36 36 34
-0.437549 -0.338738 1.70483 35 35 32
-0.377121 -0.298039 1.5 36 36 33
-0.410992 -0.331718 1.6695 36 37 34
