ply
format ascii 1.0
element vertex 1504
property float x
property float y
property float z
property uchar red
property uchar green
property uchar blue
end_header
0.965849 0.70305 1.92083 0 0 0
0.97591 0.70305 1.92083 0 0 0
0.990448 0.706242 1.92955 0 0 0
0.996032 0.70305 1.92083 0 0 0
1.00609 0.70305 1.92083 0 0 0
1.05803 0.732026 2 0 0 0
1.06851 0.732026 2 0 0 0
1.07899 0.732026 2 0 0 0
1.02101 0.686031 1.87433 0 0 0
1.09994 0.732026 2 0 0 0
1.06026 0.698963 1.90967 0 0 0
1.06196 0.693545 1.89486 0 0 0
1.08026 0.698963 1.90967 0 0 0
1.20186 0.770508 2.10514 0 0 0
1.0038 0.637682 1.74224 0 0 0
1.10166 0.693545 1.89486 0 0 0
1.17327 0.732026 2 0 0 0
1.10936 0.686031 1.87433 0 0 0
1.10109 0.674943 1.84404 0 0 0
1.129 0.686031 1.87433 0 0 0
1.21517 0.732026 2 0 0 0
1.32122 0.789109 2.15596 0 0 0
1.36272 0.806998 2.20483 0 0 0
1.2466 0.732026 2 0 0 0
-0.780791 0.461171 1.24224 0 0 0
-0.750969 0.447284 1.20483 0 0 0
-0.92709 0.556863 1.5 0 0 0
-0.919233 0.556863 1.5 0 0 0
-0.683937 0.417894 1.12567 0 0 0
-0.90352 0.556863 1.5 0 0 0
-0.895663 0.556863 1.5 0 0 0
-0.813428 0.51021 1.37433 0 0 0
-0.788459 0.498965 1.34404 0 0 0
-0.799031 0.51021 1.37433 0 0 0
-0.81219 0.523327 1.40967 0 0 0
-0.907953 0.590399 1.59033 0 0 0
-0.797422 0.523327 1.40967 0 0 0
-0.891294 0.590399 1.59033 0 0 0
-0.83281 0.556863 1.5 0 0 0
-0.66262 0.447284 1.20483 0 0 0
-0.88555 0.603515 1.62567 0 0 0
-0.919745 0.632905 1.70483 0 0 0
-0.839019 0.583015 1.57045 0 0 0
-0.841314 0.590399 1.59033 0 0 0
-0.785669 0.556863 1.5 0 0 0
-0.971921 0.695831 1.87433 0 0 0
-0.85001 0.614761 1.65596 0 0 0
-0.762099 0.556863 1.5 0 0 0
-0.799665 0.590399 1.59033 0 0 0
-0.791335 0.590399 1.59033 0 0 0
-0.773214 0.583015 1.57045 0 0 0
-0.83045 0.632905 1.70483 0 0 0
-0.783371 0.603515 1.62567 0 0 0
-0.855647 0.666441 1.79517 0 0 0
-0.893242 0.703452 1.89486 0 0 0
-0.819405 0.652555 1.75776 0 0 0
-0.863929 0.695831 1.87433 0 0 0
-0.818037 0.666441 1.79517 0 0 0
-0.745927 0.614761 1.65596 0 0 0
-0.799231 0.666441 1.79517 0 0 0
-0.766541 0.646792 1.74224 0 0 0
-0.77018 0.657692 1.7716 0 0 0
-0.754957 0.652555 1.75776 0 0 0
-0.769802 0.673601 1.81445 0 0 0
-0.752218 0.666441 1.79517 0 0 0
-0.737211 0.661413 1.78162 0 0 0
-0.749316 0.680893 1.8341 0 0 0
-0.739709 0.680893 1.8341 0 0 0
-0.730103 0.680893 1.8341 0 0 0
-0.71607 0.67671 1.82283 0 0 0
-0.726486 0.695831 1.87433 0 0 0
-0.686399 0.666441 1.79517 0 0 0
-0.687428 0.67671 1.82283 0 0 0
-0.699886 0.698679 1.882 0 0 0
-0.668332 0.67671 1.82283 0 0 0
-0.680171 0.698679 1.882 0 0 0
-0.629085 0.655706 1.76625 0 0 0
-0.647134 0.684585 1.84404 0 0 0
-0.610583 0.655706 1.76625 0 0 0
-0.601332 0.655706 1.76625 0 0 0
-0.565027 0.625746 1.68555 0 0 0
-0.597256 0.671936 1.80997 0 0 0
-0.59561 0.680893 1.8341 0 0 0
-0.59886 0.695831 1.87433 0 0 0
-0.572856 0.67671 1.82283 0 0 0
-0.55476 0.666441 1.79517 0 0 0
-0.545358 0.666441 1.79517 0 0 0
-0.518724 0.645015 1.73745 0 0 0
-0.526552 0.666441 1.79517 0 0 0
-0.520609 0.6709 1.80718 0 0 0
-0.491422 0.645015 1.73745 0 0 0
-0.511912 0.684585 1.84404 0 0 0
-0.485253 0.661413 1.78162 0 0 0
-0.4654 0.646792 1.74224 0 0 0
-0.46034 0.652555 1.75776 0 0 0
-0.448799 0.649179 1.74867 0 0 0
-0.44406 0.655706 1.76625 0 0 0
-0.456809 0.688882 1.85562 0 0 0
-0.41076 0.632905 1.70483 0 0 0
-0.383171 0.603515 1.62567 0 0 0
-0.422691 0.680893 1.8341 0 0 0
-0.401267 0.661413 1.78162 0 0 0
-0.398171 0.671936 1.80997 0 0 0
-0.366112 0.632905 1.70483 0 0 0
-0.368272 0.652555 1.75776 0 0 0
-0.382878 0.695831 1.87433 0 0 0
-0.351548 0.655706 1.76625 0 0 0
-0.337643 0.646792 1.74224 0 0 0
-0.321464 0.632905 1.70483 0 0 0
-0.329095 0.666441 1.79517 0 0 0
-0.314543 0.655706 1.76625 0 0 0
-0.301141 0.646792 1.74224 0 0 0
-0.296937 0.657692 1.7716 0 0 0
-0.28289 0.646792 1.74224 0 0 0
-0.271012 0.640288 1.72472 0 0 0
-0.261978 0.640288 1.72472 0 0 0
-0.253484 0.641654 1.7284 0 0 0
-0.243531 0.639291 1.72203 0 0 0
-0.244471 0.666441 1.79517 0 0 0
-0.235068 0.666441 1.79517 0 0 0
-0.22203 0.655706 1.76625 0 0 0
-0.20538 0.632905 1.70483 0 0 0
-0.203528 0.655706 1.76625 0 0 0
-0.193343 0.652555 1.75776 0 0 0
-0.189605 0.671936 1.80997 0 0 0
-0.178652 0.666441 1.79517 0 0 0
-0.166523 0.655706 1.76625 0 0 0
-0.157271 0.655706 1.76625 0 0 0
-0.141257 0.625746 1.68555 0 0 0
-0.139977 0.661413 1.78162 0 0 0
-0.126472 0.640288 1.72472 0 0 0
-0.120266 0.655706 1.76625 0 0 0
-0.104934 0.619789 1.6695 0 0 0
-0.0992163 0.639291 1.72203 0 0 0
-0.0901967 0.639291 1.72203 0 0 0
-0.0787006 0.619789 1.6695 0 0 0
-0.0736544 0.652555 1.75776 0 0 0
-0.062507 0.632905 1.70483 0 0 0
-0.0547529 0.646792 1.74224 0 0 0
-0.0466589 0.661413 1.78162 0 0 0
-0.0361349 0.640288 1.72472 0 0 0
-0.0267887 0.632905 1.70483 0 0 0
-0.018251 0.646792 1.74224 0 0 0
-0.00901967 0.639291 1.72203 0 0 0
0 0.614761 1.65596 0 0 0
0.00874451 0.619789 1.6695 0 0 0
0.0183183 0.649179 1.74867 0 0 0
0.0273765 0.646792 1.74224 0 0 0
0.0373271 0.661413 1.78162 0 0 0
0.0451687 0.640288 1.72472 0 0 0
0.0555075 0.655706 1.76625 0 0 0
0.0632361 0.640288 1.72472 0 0 0
0.0722699 0.640288 1.72472 0 0 0
0.079457 0.625746 1.68555 0 0 0
0.0910042 0.645015 1.73745 0 0 0
0.101275 0.652555 1.75776 0 0 0
0.105943 0.625746 1.68555 0 0 0
0.116084 0.632905 1.70483 0 0 0
0.129518 0.655706 1.76625 0 0 0
0.136882 0.646792 1.74224 0 0 0
0.145607 0.645015 1.73745 0 0 0
0.159846 0.666441 1.79517 0 0 0
0.165722 0.652555 1.75776 0 0 0
0.169662 0.632905 1.70483 0 0 0
0.188054 0.666441 1.79517 0 0 0
0.193343 0.652555 1.75776 0 0 0
0.193832 0.624468 1.68211 0 0 0
0.207776 0.640288 1.72472 0 0 0
0.223963 0.661413 1.78162 0 0 0
0.218613 0.619789 1.6695 0 0 0
0.234877 0.640288 1.72472 0 0 0
0.251958 0.661413 1.78162 0 0 0
0.255514 0.646792 1.74224 0 0 0
0.256028 0.625746 1.68555 0 0 0
0.273765 0.646792 1.74224 0 0 0
0.276817 0.632905 1.70483 0 0 0
0.292016 0.646792 1.74224 0 0 0
0.31029 0.666441 1.79517 0 0 0
0.319692 0.666441 1.79517 0 0 0
0.315688 0.639291 1.72203 0 0 0
0.335944 0.661413 1.78162 0 0 0
0.357372 0.684585 1.84404 0 0 0
0.343282 0.640288 1.72472 0 0 0
0.37669 0.684585 1.84404 0 0 0
0.365019 0.646792 1.74224 0 0 0
0.382603 0.661413 1.78162 0 0 0
0.391935 0.661413 1.78162 0 0 0
0.376014 0.619789 1.6695 0 0 0
0.407055 0.655706 1.76625 0 0 0
0.41993 0.661413 1.78162 0 0 0
0.432525 0.666441 1.79517 0 0 0
0.445572 0.671936 1.80997 0 0 0
0.447926 0.661413 1.78162 0 0 0
0.48302 0.698679 1.882 0 0 0
0.474013 0.671936 1.80997 0 0 0
0.46072 0.640288 1.72472 0 0 0
0.485253 0.661413 1.78162 0 0 0
0.509151 0.680893 1.8341 0 0 0
0.541814 0.711156 1.91561 0 0 0
0.525118 0.67671 1.82283 0 0 0
0.511027 0.646792 1.74224 0 0 0
0.531912 0.661413 1.78162 0 0 0
0.536573 0.655706 1.76625 0 0 0
0.56679 0.680893 1.8341 0 0 0
0.58316 0.688882 1.85562 0 0 0
0.586004 0.680893 1.8341 0 0 0
0.56578 0.646792 1.74224 0 0 0
0.597256 0.671936 1.80997 0 0 0
0.59208 0.655706 1.76625 0 0 0
0.606566 0.661413 1.78162 0 0 0
0.625697 0.671936 1.80997 0 0 0
0.635177 0.671936 1.80997 0 0 0
0.649237 0.67671 1.82283 0 0 0
0.661557 0.679558 1.8305 0 0 0
0.687217 0.695831 1.87433 0 0 0
0.650301 0.649179 1.74867 0 0 0
0.670509 0.660055 1.77797 0 0 0
0.693772 0.673601 1.81445 0 0 0
0.669923 0.641654 1.7284 0 0 0
0.698447 0.660055 1.77797 0 0 0
0.728671 0.679558 1.8305 0 0 0
0.743721 0.684585 1.84404 0 0 0
0.733412 0.666441 1.79517 0 0 0
0.750795 0.673601 1.81445 0 0 0
0.74501 0.660055 1.77797 0 0 0
0.77661 0.679558 1.8305 0 0 0
0.786198 0.679558 1.8305 0 0 0
0.819697 0.699977 1.8855 0 0 0
0.773371 0.652555 1.75776 0 0 0
0.828448 0.690803 1.86079 0 0 0
0.838194 0.690803 1.86079 0 0 0
0.818037 0.666441 1.79517 0 0 0
0.857687 0.690803 1.86079 0 0 0
0.873747 0.695831 1.87433 0 0 0
0.912892 0.718928 1.93655 0 0 0
0.898704 0.699977 1.8855 0 0 0
0.929808 0.716331 1.92955 0 0 0
0.89826 0.684585 1.84404 0 0 0
0.907919 0.684585 1.84404 0 0 0
0.893258 0.666441 1.79517 0 0 0
0.91657 0.67671 1.82283 0 0 0
0.936895 0.684585 1.84404 0 0 0
1.02661 0.742484 2 0 0 0
0.945213 0.67671 1.82283 0 0 0
0.940272 0.666441 1.79517 0 0 0
0.921674 0.646792 1.74224 0 0 0
0.959077 0.666441 1.79517 0 0 0
1.02227 0.703452 1.89486 0 0 0
1.00451 0.684585 1.84404 0 0 0
1.04212 0.703452 1.89486 0 0 0
1.05204 0.703452 1.89486 0 0 0
1.12089 0.742484 2 0 0 0
1.07189 0.703452 1.89486 0 0 0
1.21358 0.789136 2.12567 0 0 0
1.15232 0.742484 2 0 0 0
1.25346 0.800382 2.15596 0 0 0
1.00011 0.632905 1.70483 0 0 0
1.27605 0.800382 2.15596 0 0 0
1.07191 0.666441 1.79517 0 0 0
1.20469 0.742484 2 0 0 0
1.12041 0.684585 1.84404 0 0 0
1.13007 0.684585 1.84404 0 0 0
1.41855 0.852062 2.29517 0 0 0
1.11892 0.666441 1.79517 0 0 0
-0.814058 0.487592 1.29517 0 0 0
-0.765659 0.462457 1.2284 0 0 0
-0.871258 0.530698 1.40967 0 0 0
-0.823659 0.505992 1.34404 0 0 0
-0.911376 0.564706 1.5 0 0 0
-0.602347 0.376471 1 0 0 0
-0.690233 0.435184 1.15596 0 0 0
-0.846111 0.538185 1.42955 0 0 0
-0.788459 0.505992 1.34404 0 0 0
-0.872093 0.564706 1.5 0 0 0
-0.864236 0.564706 1.5 0 0 0
-0.804806 0.530698 1.40967 0 0 0
-0.91961 0.612015 1.62567 0 0 0
-0.840666 0.564706 1.5 0 0 0
-0.83281 0.564706 1.5 0 0 0
-0.775272 0.530698 1.40967 0 0 0
-0.902051 0.62342 1.65596 0 0 0
-0.877035 0.612015 1.62567 0 0 0
-0.801383 0.564706 1.5 0 0 0
-0.793526 0.564706 1.5 0 0 0
-0.851491 0.612015 1.62567 0 0 0
-0.858684 0.62342 1.65596 0 0 0
-0.723587 0.530698 1.40967 0 0 0
-0.885172 0.655901 1.74224 0 0 0
-0.902661 0.675828 1.79517 0 0 0
-0.917578 0.694227 1.84404 0 0 0
-0.815316 0.62342 1.65596 0 0 0
-0.83045 0.641819 1.70483 0 0 0
-0.797969 0.62342 1.65596 0 0 0
-0.893382 0.705632 1.87433 0 0 0
-0.846245 0.675828 1.79517 0 0 0
-0.836842 0.675828 1.79517 0 0 0
-0.827439 0.675828 1.79517 0 0 0
-0.818037 0.675828 1.79517 0 0 0
-0.767943 0.641819 1.70483 0 0 0
-0.850207 0.718933 1.90967 0 0 0
-0.779459 0.666955 1.7716 0 0 0
-0.801673 0.694227 1.84404 0 0 0
-0.809822 0.709836 1.8855 0 0 0
-0.782356 0.694227 1.84404 0 0 0
-0.768529 0.690483 1.8341 0 0 0
-0.74894 0.6814 1.80997 0 0 0
-0.744713 0.686241 1.82283 0 0 0
-0.748389 0.698585 1.85562 0 0 0
-0.714607 0.675828 1.79517 0 0 0
-0.711019 0.6814 1.80997 0 0 0
-0.71089 0.690483 1.8341 0 0 0
-0.68122 0.670729 1.78162 0 0 0
-0.720176 0.718933 1.90967 0 0 0
-0.693791 0.702349 1.86561 0 0 0
-0.647588 0.664941 1.76625 0 0 0
-0.654137 0.6814 1.80997 0 0 0
-0.664476 0.702349 1.86561 0 0 0
-0.613664 0.658322 1.74867 0 0 0
-0.634037 0.690483 1.8341 0 0 0
-0.603153 0.666955 1.7716 0 0 0
-0.611047 0.686241 1.82283 0 0 0
-0.605217 0.690483 1.8341 0 0 0
-0.635724 0.736987 1.95762 0 0 0
-0.578295 0.6814 1.80997 0 0 0
-0.535774 0.641819 1.70483 0 0 0
-0.550575 0.670729 1.78162 0 0 0
-0.529278 0.655901 1.74224 0 0 0
-0.514121 0.648295 1.72203 0 0 0
-0.534666 0.686241 1.82283 0 0 0
-0.51715 0.675828 1.79517 0 0 0
-0.497167 0.661746 1.75776 0 0 0
-0.48796 0.661746 1.75776 0 0 0
-0.495131 0.684384 1.81789 0 0 0
-0.4654 0.655901 1.74224 0 0 0
-0.450983 0.648295 1.72203 0 0 0
-0.467833 0.686241 1.82283 0 0 0
-0.44406 0.664941 1.76625 0 0 0
-0.424586 0.649307 1.72472 0 0 0
-0.429262 0.670729 1.78162 0 0 0
-0.416307 0.664941 1.76625 0 0 0
-0.41372 0.675828 1.79517 0 0 0
-0.404317 0.675828 1.79517 0 0 0
-0.388553 0.664941 1.76625 0 0 0
-0.374145 0.655901 1.74224 0 0 0
-0.376109 0.675828 1.79517 0 0 0
-0.344314 0.634559 1.68555 0 0 0
-0.346768 0.655901 1.74224 0 0 0
-0.355445 0.690483 1.8341 0 0 0
-0.335944 0.670729 1.78162 0 0 0
-0.329095 0.675828 1.79517 0 0 0
-0.307147 0.649307 1.72472 0 0 0
-0.307949 0.670729 1.78162 0 0 0
-0.29604 0.664941 1.76625 0 0 0
-0.286789 0.664941 1.76625 0 0 0
-0.27059 0.648295 1.72203 0 0 0
-0.276881 0.686241 1.82283 0 0 0
-0.263276 0.675828 1.79517 0 0 0
-0.255967 0.6814 1.80997 0 0 0
-0.226583 0.626378 1.66382 0 0 0
-0.228137 0.655901 1.74224 0 0 0
-0.211885 0.634559 1.68555 0 0 0
-0.219595 0.686241 1.82283 0 0 0
-0.19645 0.641819 1.70483 0 0 0
-0.2005 0.686241 1.82283 0 0 0
-0.185025 0.664941 1.76625 0 0 0
-0.167995 0.635514 1.68808 0 0 0
-0.166523 0.664941 1.76625 0 0 0
-0.157271 0.664941 1.76625 0 0 0
-0.147309 0.661746 1.75776 0 0 0
-0.138769 0.664941 1.76625 0 0 0
-0.130645 0.670729 1.78162 0 0 0
-0.124119 0.686241 1.82283 0 0 0
-0.108405 0.649307 1.72472 0 0 0
-0.10038 0.655901 1.74224 0 0 0
-0.092068 0.661746 1.75776 0 0 0
-0.0803661 0.641819 1.70483 0 0 0
-0.0721573 0.648295 1.72203 0 0 0
-0.0649549 0.666955 1.7716 0 0 0
-0.0552408 0.661746 1.75776 0 0 0
-0.0451687 0.649307 1.72472 0 0 0
-0.0364017 0.654099 1.73745 0 0 0
-0.0276204 0.661746 1.75776 0 0 0
-0.0189605 0.6814 1.80997 0 0 0
-0.00912549 0.655901 1.74224 0 0 0
0 0.649307 1.72472 0 0 0
0.00948025 0.6814 1.80997 0 0 0
0.0183183 0.658322 1.74867 0 0 0
0.0279954 0.670729 1.78162 0 0 0
0.037005 0.664941 1.76625 0 0 0
0.0429292 0.617114 1.63921 0 0 0
0.054955 0.658322 1.74867 0 0 0
0.0684019 0.702349 1.86561 0 0 0
0.0763808 0.686241 1.82283 0 0 0
0.0859284 0.686241 1.82283 0 0 0
0.0903373 0.649307 1.72472 0 0 0
0.10265 0.670729 1.78162 0 0 0
0.110482 0.661746 1.75776 0 0 0
0.119688 0.661746 1.75776 0 0 0
0.129518 0.664941 1.76625 0 0 0
0.136882 0.655901 1.74224 0 0 0
0.141257 0.634559 1.68555 0 0 0
0.156516 0.661746 1.75776 0 0 0
0.171857 0.686241 1.82283 0 0 0
0.181405 0.686241 1.82283 0 0 0
0.189605 0.6814 1.80997 0 0 0
0.189708 0.649307 1.72472 0 0 0
0.198742 0.649307 1.72472 0 0 0
0.214631 0.670729 1.78162 0 0 0
0.219012 0.655901 1.74224 0 0 0
0.223239 0.641819 1.70483 0 0 0
0.244471 0.675828 1.79517 0 0 0
0.246388 0.655901 1.74224 0 0 0
0.263276 0.675828 1.79517 0 0 0
0.258957 0.641819 1.70483 0 0 0
0.264857 0.634559 1.68555 0 0 0
0.289285 0.670729 1.78162 0 0 0
0.300887 0.675828 1.79517 0 0 0
0.298113 0.649307 1.72472 0 0 0
0.319692 0.675828 1.79517 0 0 0
0.326612 0.670729 1.78162 0 0 0
0.331445 0.661746 1.75776 0 0 0
0.345276 0.670729 1.78162 0 0 0
0.335485 0.634559 1.68555 0 0 0
0.348253 0.641819 1.70483 0 0 0
0.360787 0.648295 1.72203 0 0 0
0.369806 0.648295 1.72203 0 0 0
0.379417 0.649307 1.72472 0 0 0
0.392396 0.655901 1.74224 0 0 0
0.383448 0.626378 1.66382 0 0 0
0.426611 0.6814 1.80997 0 0 0
0.415552 0.649307 1.72472 0 0 0
0.428898 0.655901 1.74224 0 0 0
0.433619 0.649307 1.72472 0 0 0
0.457257 0.670729 1.78162 0 0 0
0.470136 0.675828 1.79517 0 0 0
0.461703 0.650692 1.7284 0 0 0
0.469754 0.649307 1.72472 0 0 0
0.473267 0.641819 1.70483 0 0 0
0.499568 0.664941 1.76625 0 0 0
0.525118 0.686241 1.82283 0 0 0
0.51807 0.664941 1.76625 0 0 0
0.544213 0.686241 1.82283 0 0 0
0.553761 0.686241 1.82283 0 0 0
0.550575 0.670729 1.78162 0 0 0
0.555075 0.664941 1.76625 0 0 0
0.569239 0.670729 1.78162 0 0 0
0.578571 0.670729 1.78162 0 0 0
0.615617 0.702349 1.86561 0 0 0
0.611047 0.686241 1.82283 0 0 0
0.631757 0.698585 1.85562 0 0 0
0.615898 0.670729 1.78162 0 0 0
0.651195 0.698585 1.85562 0 0 0
0.615605 0.650692 1.7284 0 0 0
0.655758 0.683088 1.81445 0 0 0
0.663618 0.6814 1.80997 0 0 0
0.661196 0.669352 1.77797 0 0 0
0.69032 0.689129 1.8305 0 0 0
0.74448 0.733015 1.94707 0 0 0
0.695801 0.675828 1.79517 0 0 0
0.762997 0.731213 1.94228 0 0 0
0.699717 0.661746 1.75776 0 0 0
0.760442 0.709836 1.8855 0 0 0
0.747847 0.689129 1.8305 0 0 0
0.784068 0.71336 1.89486 0 0 0
0.752218 0.675828 1.79517 0 0 0
0.789462 0.700533 1.86079 0 0 0
0.754957 0.661746 1.75776 0 0 0
0.780426 0.675828 1.79517 0 0 0
0.848955 0.72642 1.92955 0 0 0
0.828448 0.700533 1.86079 0 0 0
0.817321 0.683088 1.81445 0 0 0
0.800991 0.661746 1.75776 0 0 0
0.849967 0.694227 1.84404 0 0 0
0.849737 0.686241 1.82283 0 0 0
0.8629 0.689129 1.8305 0 0 0
0.855647 0.675828 1.79517 0 0 0
0.874344 0.683088 1.81445 0 0 0
0.939914 0.72642 1.92955 0 0 0
0.953465 0.729054 1.93655 0 0 0
0.960128 0.72642 1.92955 0 0 0
0.91657 0.686241 1.82283 0 0 0
0.936895 0.694227 1.84404 0 0 0
0.962103 0.705632 1.87433 0 0 0
0.930869 0.675828 1.79517 0 0 0
1.04756 0.752941 2 0 0 0
0.949675 0.675828 1.79517 0 0 0
1.02025 0.718933 1.90967 0 0 0
1.01119 0.705632 1.87433 0 0 0
1.08946 0.752941 2 0 0 0
1.03082 0.705632 1.87433 0 0 0
1.05204 0.71336 1.89486 0 0 0
0.985127 0.661746 1.75776 0 0 0
1.13136 0.752941 2 0 0 0
1.07009 0.705632 1.87433 0 0 0
1.06246 0.694227 1.84404 0 0 0
1.16279 0.752941 2 0 0 0
1.03116 0.661746 1.75776 0 0 0
1.18374 0.752941 2 0 0 0
1.04957 0.661746 1.75776 0 0 0
1.20469 0.752941 2 0 0 0
1.21517 0.752941 2 0 0 0
1.22564 0.752941 2 0 0 0
1.10952 0.675828 1.79517 0 0 0
1.37427 0.830055 2.20483 0 0 0
-0.780791 0.474161 1.24224 0 0 0
-0.891037 0.54566 1.42955 0 0 0
-0.800491 0.494364 1.29517 0 0 0
-0.761271 0.474161 1.24224 0 0 0
-0.816619 0.51302 1.34404 0 0 0
-0.809579 0.51302 1.34404 0 0 0
-0.853599 0.54566 1.42955 0 0 0
-0.735245 0.474161 1.24224 0 0 0
-0.80623 0.524582 1.37433 0 0 0
-0.819573 0.538068 1.40967 0 0 0
-0.648561 0.429666 1.12567 0 0 0
-0.85638 0.572549 1.5 0 0 0
-0.899623 0.60703 1.59033 0 0 0
-0.985127 0.670937 1.75776 0 0 0
-0.83281 0.572549 1.5 0 0 0
-0.824953 0.572549 1.5 0 0 0
-0.866304 0.60703 1.59033 0 0 0
-0.725101 0.51302 1.34404 0 0 0
-0.910816 0.650734 1.70483 0 0 0
-0.901886 0.650734 1.70483 0 0 0
-0.832985 0.60703 1.59033 0 0 0
-0.824655 0.60703 1.59033 0 0 0
-0.902266 0.670937 1.75776 0 0 0
-0.841336 0.632078 1.65596 0 0 0
-0.857238 0.650734 1.70483 0 0 0
-0.893258 0.685214 1.79517 0 0 0
-0.839379 0.650734 1.70483 0 0 0
-0.806642 0.632078 1.65596 0 0 0
-0.847025 0.670937 1.75776 0 0 0
-0.758016 0.60703 1.59033 0 0 0
-0.883564 0.715432 1.87433 0 0 0
-0.873747 0.715432 1.87433 0 0 0
-0.763274 0.632078 1.65596 0 0 0
-0.818037 0.685214 1.79517 0 0 0
-0.767943 0.650734 1.70483 0 0 0
-0.843617 0.723268 1.89486 0 0 0
-0.750084 0.650734 1.70483 0 0 0
-0.814843 0.715432 1.87433 0 0 0
-0.786198 0.6987 1.8305 0 0 0
-0.77661 0.6987 1.8305 0 0 0
-0.78539 0.715432 1.87433 0 0 0
-0.74894 0.690864 1.80997 0 0 0
-0.744713 0.695773 1.82283 0 0 0
-0.748389 0.708287 1.85562 0 0 0
-0.709216 0.680045 1.78162 0 0 0
-0.699884 0.680045 1.78162 0 0 0
-0.668496 0.658325 1.72472 0 0 0
-0.696975 0.695773 1.82283 0 0 0
-0.671888 0.680045 1.78162 0 0 0
-0.67788 0.695773 1.82283 0 0 0
-0.684019 0.712104 1.86561 0 0 0
-0.629659 0.665011 1.74224 0 0 0
-0.649237 0.695773 1.82283 0 0 0
-0.635177 0.690864 1.80997 0 0 0
-0.602282 0.665011 1.74224 0 0 0
-0.616216 0.690864 1.80997 0 0 0
-0.606736 0.690864 1.80997 0 0 0
-0.632117 0.731189 1.91561 0 0 0
-0.578571 0.680045 1.78162 0 0 0
-0.589182 0.70387 1.84404 0 0 0
-0.559907 0.680045 1.78162 0 0 0
-0.55476 0.685214 1.79517 0 0 0
-0.549855 0.690864 1.80997 0 0 0
-0.535955 0.685214 1.79517 0 0 0
-0.500056 0.650734 1.70483 0 0 0
-0.542165 0.71836 1.882 0 0 0
-0.515571 0.695773 1.82283 0 0 0
-0.509151 0.700073 1.8341 0 0 0
-0.481065 0.674176 1.76625 0 0 0
-0.471814 0.674176 1.76625 0 0 0
-0.466589 0.680045 1.78162 0 0 0
-0.460733 0.685214 1.79517 0 0 0
-0.458285 0.695773 1.82283 0 0 0
-0.441928 0.685214 1.79517 0 0 0
-0.436092 0.690864 1.80997 0 0 0
-0.429642 0.695773 1.82283 0 0 0
-0.427651 0.708287 1.85562 0 0 0
-0.393844 0.667466 1.74867 0 0 0
-0.379417 0.658325 1.72472 0 0 0
-0.374145 0.665011 1.74224 0 0 0
-0.373271 0.680045 1.78162 0 0 0
-0.366706 0.685214 1.79517 0 0 0
-0.349858 0.670937 1.75776 0 0 0
-0.330394 0.650734 1.70483 0 0 0
-0.328517 0.665011 1.74224 0 0 0
-0.331809 0.690864 1.80997 0 0 0
-0.319692 0.685214 1.79517 0 0 0
-0.31029 0.685214 1.79517 0 0 0
-0.292016 0.665011 1.74224 0 0 0
-0.291484 0.685214 1.79517 0 0 0
-0.277538 0.674176 1.76625 0 0 0
-0.264639 0.665011 1.74224 0 0 0
-0.265447 0.690864 1.80997 0 0 0
-0.253873 0.685214 1.79517 0 0 0
-0.232169 0.650734 1.70483 0 0 0
-0.239694 0.6987 1.8305 0 0 0
-0.227526 0.690864 1.80997 0 0 0
-0.216263 0.685214 1.79517 0 0 0
-0.203528 0.674176 1.76625 0 0 0
-0.192343 0.667466 1.74867 0 0 0
-0.180675 0.658325 1.72472 0 0 0
-0.167742 0.643372 1.68555 0 0 0
-0.160732 0.650734 1.70483 0 0 0
-0.155133 0.665011 1.74224 0 0 0
-0.14454 0.658325 1.72472 0 0 0
-0.138769 0.674176 1.76625 0 0 0
-0.126472 0.658325 1.72472 0 0 0
-0.111416 0.624565 1.63628 0 0 0
-0.108236 0.657299 1.72203 0 0 0
-0.10038 0.665011 1.74224 0 0 0
-0.0912549 0.665011 1.74224 0 0 0
-0.081177 0.657299 1.72203 0 0 0
-0.0746543 0.680045 1.78162 0 0 0
-0.0617999 0.643372 1.68555 0 0 0
-0.0559907 0.680045 1.78162 0 0 0
-0.0441428 0.643372 1.68555 0 0 0
-0.0371171 0.676218 1.7716 0 0 0
-0.0279954 0.680045 1.78162 0 0 0
-0.0189313 0.689798 1.80718 0 0 0
-0.00912549 0.665011 1.74224 0 0 0
0 0.670937 1.75776 0 0 0
0.00933178 0.680045 1.78162 0 0 0
0.0180675 0.658325 1.72472 0 0 0
0.0267887 0.650734 1.70483 0 0 0
0.037005 0.674176 1.76625 0 0 0
0.0474013 0.690864 1.80997 0 0 0
0.0568815 0.690864 1.80997 0 0 0
0.0610031 0.635078 1.66382 0 0 0
0.0722699 0.658325 1.72472 0 0 0
0.0803661 0.650734 1.70483 0 0 0
0.0905301 0.659729 1.7284 0 0 0
0.0993711 0.658325 1.72472 0 0 0
0.110482 0.670937 1.75776 0 0 0
0.116084 0.650734 1.70483 0 0 0
0.130645 0.680045 1.78162 0 0 0
0.133943 0.650734 1.70483 0 0 0
0.150444 0.685214 1.79517 0 0 0
0.156516 0.670937 1.75776 0 0 0
0.158914 0.643372 1.68555 0 0 0
0.166146 0.637248 1.6695 0 0 0
0.190952 0.695773 1.82283 0 0 0
0.194276 0.674176 1.76625 0 0 0
0.198742 0.658325 1.72472 0 0 0
0.20538 0.650734 1.70483 0 0 0
0.21681 0.658325 1.72472 0 0 0
0.223239 0.650734 1.70483 0 0 0
0.244471 0.685214 1.79517 0 0 0
0.243911 0.658325 1.72472 0 0 0
0.252945 0.658325 1.72472 0 0 0
0.261978 0.658325 1.72472 0 0 0
0.276204 0.670937 1.75776 0 0 0
0.266161 0.625685 1.63921 0 0 0
0.278872 0.635078 1.66382 0 0 0
0.298113 0.658325 1.72472 0 0 0
0.313031 0.670937 1.75776 0 0 0
0.308368 0.642059 1.68211 0 0 0
0.331445 0.670937 1.75776 0 0 0
0.326656 0.643372 1.68555 0 0 0
0.354608 0.680045 1.78162 0 0 0
0.352316 0.658325 1.72472 0 0 0
0.365019 0.665011 1.74224 0 0 0
0.370383 0.658325 1.72472 0 0 0
0.378826 0.657299 1.72203 0 0 0
0.392396 0.665011 1.74224 0 0 0
0.407055 0.674176 1.76625 0 0 0
0.40183 0.650734 1.70483 0 0 0
0.447089 0.708287 1.85562 0 0 0
0.414095 0.642059 1.68211 0 0 0
0.447926 0.680045 1.78162 0 0 0
0.473277 0.70387 1.84404 0 0 0
0.45265 0.659729 1.7284 0 0 0
0.492594 0.70387 1.84404 0 0 0
0.481065 0.674176 1.76625 0 0 0
0.48796 0.670937 1.75776 0 0 0
0.511934 0.690864 1.80997 0 0 0
0.491126 0.650734 1.70483 0 0 0
0.534666 0.695773 1.82283 0 0 0
0.550547 0.70387 1.84404 0 0 0
0.549855 0.690864 1.80997 0 0 0
0.569864 0.70387 1.84404 0 0 0
0.558757 0.678648 1.77797 0 0 0
0.544704 0.650734 1.70483 0 0 0
0.59561 0.700073 1.8341 0 0 0
0.597256 0.690864 1.80997 0 0 0
0.611047 0.695773 1.82283 0 0 0
0.631757 0.708287 1.85562 0 0 0
0.641476 0.708287 1.85562 0 0 0
0.635177 0.690864 1.80997 0 0 0
0.674894 0.723268 1.89486 0 0 0
0.670634 0.708287 1.85562 0 0 0
0.691311 0.719695 1.8855 0 0 0
0.680732 0.6987 1.8305 0 0 0
0.676996 0.685214 1.79517 0 0 0
0.699908 0.6987 1.8305 0 0 0
0.703276 0.692575 1.81445 0 0 0
0.71278 0.692575 1.81445 0 0 0
0.728671 0.6987 1.8305 0 0 0
0.667865 0.632078 1.65596 0 0 0
0.770318 0.719695 1.8855 0 0 0
0.775573 0.715432 1.87433 0 0 0
0.779715 0.710263 1.86079 0 0 0
0.769802 0.692575 1.81445 0 0 0
0.809822 0.719695 1.8855 0 0 0
0.78881 0.692575 1.81445 0 0 0
0.82466 0.715432 1.87433 0 0 0
0.834477 0.715432 1.87433 0 0 0
0.838194 0.710263 1.86079 0 0 0
0.854112 0.715432 1.87433 0 0 0
0.869077 0.719695 1.8855 0 0 0
0.808212 0.661771 1.73375 0 0 0
0.912892 0.739179 1.93655 0 0 0
0.878943 0.70387 1.84404 0 0 0
0.86505 0.685214 1.79517 0 0 0
0.89826 0.70387 1.84404 0 0 0
0.945728 0.733181 1.92083 0 0 0
0.995181 0.763399 2 0 0 0
0.952791 0.723268 1.89486 0 0 0
0.983895 0.739179 1.93655 0 0 0
0.946554 0.70387 1.84404 0 0 0
1.03708 0.763399 2 0 0 0
1.10263 0.803529 2.10514 0 0 0
1.05803 0.763399 2 0 0 0
0.973856 0.695773 1.82283 0 0 0
1.02227 0.723268 1.89486 0 0 0
1.08946 0.763399 2 0 0 0
1.03082 0.715432 1.87433 0 0 0
0.975921 0.670937 1.75776 0 0 0
1.05046 0.715432 1.87433 0 0 0
1.08026 0.728918 1.90967 0 0 0
1.14184 0.763399 2 0 0 0
1.0343 0.685214 1.79517 0 0 0
1.02195 0.670937 1.75776 0 0 0
1.23494 0.803529 2.10514 0 0 0
1.18374 0.763399 2 0 0 0
1.11918 0.715432 1.87433 0 0 0
1.20469 0.763399 2 0 0 0
1.21517 0.763399 2 0 0 0
1.22564 0.763399 2 0 0 0
1.23612 0.763399 2 0 0 0
1.14939 0.70387 1.84404 0 0 0
-0.780791 0.480657 1.24224 0 0 0
-0.720506 0.447273 1.15596 0 0 0
-0.88355 0.553134 1.42955 0 0 0
-0.793707 0.501137 1.29517 0 0 0
-0.911376 0.580392 1.5 0 0 0
-0.849107 0.545439 1.40967 0 0 0
-0.741751 0.480657 1.24224 0 0 0
-0.766572 0.501137 1.29517 0 0 0
-0.87995 0.580392 1.5 0 0 0
-0.753004 0.501137 1.29517 0 0 0
-0.916283 0.615345 1.59033 0 0 0
-0.85638 0.580392 1.5 0 0 0
-0.681552 0.466184 1.20483 0 0 0
-0.880148 0.60765 1.57045 0 0 0
-0.83281 0.580392 1.5 0 0 0
-0.824953 0.580392 1.5 0 0 0
-0.748642 0.531768 1.37433 0 0 0
-0.80924 0.580392 1.5 0 0 0
-0.910816 0.659648 1.70483 0 0 0
-0.876031 0.640737 1.65596 0 0 0
-0.892957 0.659648 1.70483 0 0 0
-0.777813 0.580392 1.5 0 0 0
-0.894298 0.674121 1.74224 0 0 0
-0.848217 0.645977 1.6695 0 0 0
-0.883853 0.680128 1.75776 0 0 0
-0.668783 0.520047 1.34404 0 0 0
-0.773214 0.60765 1.57045 0 0 0
-0.806642 0.640737 1.65596 0 0 0
-0.963754 0.773856 2 0 0 0
-0.878943 0.713512 1.84404 0 0 0
-0.780621 0.640737 1.65596 0 0 0
-0.883317 0.733176 1.89486 0 0 0
-0.921852 0.773856 2 0 0 0
-0.776872 0.659648 1.70483 0 0 0
-0.767943 0.659648 1.70483 0 0 0
-0.799231 0.694601 1.79517 0 0 0
-0.750084 0.659648 1.70483 0 0 0
-0.806705 0.71799 1.85562 0 0 0
-0.763635 0.687945 1.77797 0 0 0
-0.791508 0.721858 1.86561 0 0 0
-0.74501 0.687945 1.77797 0 0 0
-0.705436 0.659648 1.70483 0 0 0
-0.711788 0.674121 1.74224 0 0 0
-0.748389 0.71799 1.85562 0 0 0
-0.738669 0.71799 1.85562 0 0 0
-0.744368 0.733176 1.89486 0 0 0
-0.706523 0.705304 1.82283 0 0 0
-0.692058 0.700328 1.80997 0 0 0
-0.722419 0.741205 1.91561 0 0 0
-0.67788 0.705304 1.82283 0 0 0
-0.647588 0.683412 1.76625 0 0 0
-0.670634 0.71799 1.85562 0 0 0
-0.644657 0.700328 1.80997 0 0 0
-0.623946 0.687945 1.77797 0 0 0
-0.664021 0.743224 1.92083 0 0 0
-0.606566 0.68936 1.78162 0 0 0
-0.611047 0.705304 1.82283 0 0 0
-0.605217 0.709663 1.8341 0 0 0
-0.587776 0.700328 1.80997 0 0 0
-0.564327 0.683412 1.76625 0 0 0
-0.555075 0.683412 1.76625 0 0 0
-0.579225 0.725233 1.87433 0 0 0
-0.536573 0.683412 1.76625 0 0 0
-0.527322 0.683412 1.76625 0 0 0
-0.52258 0.68936 1.78162 0 0 0
-0.528364 0.709663 1.8341 0 0 0
-0.503916 0.68936 1.78162 0 0 0
-0.498344 0.694601 1.79517 0 0 0
-0.496475 0.705304 1.82283 0 0 0
-0.455408 0.659648 1.70483 0 0 0
-0.470136 0.694601 1.79517 0 0 0
-0.476247 0.71799 1.85562 0 0 0
-0.480117 0.738903 1.90967 0 0 0
-0.438594 0.68936 1.78162 0 0 0
-0.429262 0.68936 1.78162 0 0 0
-0.414306 0.680128 1.75776 0 0 0
-0.401521 0.674121 1.74224 0 0 0
-0.404317 0.694601 1.79517 0 0 0
-0.398171 0.700328 1.80997 0 0 0
-0.374145 0.674121 1.74224 0 0 0
-0.37005 0.683412 1.76625 0 0 0
-0.355894 0.674121 1.74224 0 0 0
-0.37306 0.725233 1.87433 0 0 0
-0.350769 0.700328 1.80997 0 0 0
-0.31373 0.643778 1.66382 0 0 0
-0.316181 0.667343 1.72472 0 0 0
-0.307147 0.667343 1.72472 0 0 0
-0.312848 0.700328 1.80997 0 0 0
-0.305523 0.705304 1.82283 0 0 0
-0.301299 0.71799 1.85562 0 0 0
-0.279954 0.68936 1.78162 0 0 0
-0.264639 0.674121 1.74224 0 0 0
-0.26129 0.68936 1.78162 0 0 0
-0.255967 0.700328 1.80997 0 0 0
-0.226583 0.643778 1.66382 0 0 0
-0.232816 0.687945 1.77797 0 0 0
-0.231809 0.713512 1.84404 0 0 0
-0.216263 0.694601 1.79517 0 0 0
-0.204878 0.687945 1.77797 0 0 0
-0.187521 0.659648 1.70483 0 0 0
-0.178591 0.659648 1.70483 0 0 0
-0.167742 0.652185 1.68555 0 0 0
-0.170645 0.700328 1.80997 0 0 0
-0.15864 0.68936 1.78162 0 0 0
-0.14802 0.683412 1.76625 0 0 0
-0.133943 0.659648 1.70483 0 0 0
-0.129518 0.683412 1.76625 0 0 0
-0.121313 0.68936 1.78162 0 0 0
-0.111981 0.68936 1.78162 0 0 0
-0.101764 0.683412 1.76625 0 0 0
-0.0903373 0.667343 1.72472 0 0 0
-0.087474 0.71799 1.85562 0 0 0
-0.0730039 0.674121 1.74224 0 0 0
-0.065819 0.694601 1.79517 0 0 0
-0.054118 0.666304 1.72203 0 0 0
-0.0456274 0.674121 1.74224 0 0 0
-0.0357183 0.659648 1.70483 0 0 0
-0.0277538 0.683412 1.76625 0 0 0
-0.0176571 0.652185 1.68555 0 0 0
-0.00892957 0.659648 1.70483 0 0 0
0 0.68936 1.78162 0 0 0
0.00881053 0.650854 1.68211 0 0 0
0.0176211 0.650854 1.68211 0 0 0
0.0264857 0.652185 1.68555 0 0 0
0.0357183 0.659648 1.70483 0 0 0
0.0451687 0.667343 1.72472 0 0 0
0.0542024 0.667343 1.72472 0 0 0
0.0653225 0.68936 1.78162 0 0 0
0.07401 0.683412 1.76625 0 0 0
0.0813036 0.667343 1.72472 0 0 0
0.0925126 0.683412 1.76625 0 0 0
0.101764 0.683412 1.76625 0 0 0
0.105726 0.650854 1.68211 0 0 0
0.119688 0.680128 1.75776 0 0 0
0.125014 0.659648 1.70483 0 0 0
0.138769 0.683412 1.76625 0 0 0
0.146547 0.676609 1.74867 0 0 0
0.155706 0.676609 1.74867 0 0 0
0.160732 0.659648 1.70483 0 0 0
0.169662 0.659648 1.70483 0 0 0
0.190952 0.705304 1.82283 0 0 0
0.192343 0.676609 1.74867 0 0 0
0.19645 0.659648 1.70483 0 0 0
0.207776 0.667343 1.72472 0 0 0
0.219012 0.674121 1.74224 0 0 0
0.225492 0.666304 1.72203 0 0 0
0.246487 0.700328 1.80997 0 0 0
0.247298 0.676609 1.74867 0 0 0
0.26129 0.68936 1.78162 0 0 0
0.255505 0.650854 1.68211 0 0 0
0.271012 0.667343 1.72472 0 0 0
0.273685 0.652185 1.68555 0 0 0
0.303368 0.700328 1.80997 0 0 0
0.298113 0.667343 1.72472 0 0 0
0.307147 0.667343 1.72472 0 0 0
0.329095 0.694601 1.79517 0 0 0
0.321464 0.659648 1.70483 0 0 0
0.345276 0.68936 1.78162 0 0 0
0.346768 0.674121 1.74224 0 0 0
0.357208 0.676609 1.74867 0 0 0
0.384265 0.709663 1.8341 0 0 0
0.374145 0.674121 1.74224 0 0 0
0.398171 0.700328 1.80997 0 0 0
0.407651 0.700328 1.80997 0 0 0
0.420095 0.705304 1.82283 0 0 0
0.40183 0.659648 1.70483 0 0 0
0.416438 0.668767 1.7284 0 0 0
0.451511 0.709663 1.8341 0 0 0
0.473163 0.7282 1.882 0 0 0
0.467833 0.705304 1.82283 0 0 0
0.440526 0.650854 1.68211 0 0 0
0.488977 0.708271 1.8305 0 0 0
0.459085 0.652185 1.68555 0 0 0
0.498344 0.694601 1.79517 0 0 0
0.51774 0.708271 1.8305 0 0 0
0.521414 0.700328 1.80997 0 0 0
0.526552 0.694601 1.79517 0 0 0
0.556987 0.721858 1.86561 0 0 0
0.541243 0.68936 1.78162 0 0 0
0.559335 0.700328 1.80997 0 0 0
0.568815 0.700328 1.80997 0 0 0
0.564327 0.683412 1.76625 0 0 0
0.573578 0.683412 1.76625 0 0 0
0.608499 0.713512 1.84404 0 0 0
0.640156 0.738903 1.90967 0 0 0
0.611177 0.694601 1.79517 0 0 0
0.637475 0.713512 1.84404 0 0 0
0.623946 0.687945 1.77797 0 0 0
0.629085 0.683412 1.76625 0 0 0
0.666451 0.713512 1.84404 0 0 0
0.65819 0.694601 1.79517 0 0 0
0.680732 0.708271 1.8305 0 0 0
0.670509 0.687945 1.77797 0 0 0
0.71149 0.719992 1.86079 0 0 0
0.706523 0.705304 1.82283 0 0 0
0.736303 0.725233 1.87433 0 0 0
0.734062 0.713512 1.84404 0 0 0
0.738259 0.708271 1.8305 0 0 0
0.741291 0.702063 1.81445 0 0 0
0.757434 0.708271 1.8305 0 0 0
0.808529 0.746598 1.92955 0 0 0
0.76162 0.694601 1.79517 0 0 0
0.805025 0.725233 1.87433 0 0 0
0.819697 0.729554 1.8855 0 0 0
0.852033 0.749305 1.93655 0 0 0
0.820991 0.713512 1.84404 0 0 0
0.838194 0.719992 1.86079 0 0 0
0.807297 0.685482 1.7716 0 0 0
0.816576 0.685482 1.7716 0 0 0
0.825856 0.685482 1.7716 0 0 0
0.909595 0.746598 1.92955 0 0 0
0.915545 0.743224 1.92083 0 0 0
0.888602 0.713512 1.84404 0 0 0
0.906419 0.719992 1.86079 0 0 0
0.897475 0.705304 1.82283 0 0 0
0.917578 0.713512 1.84404 0 0 0
0.902661 0.694601 1.79517 0 0 0
0.97591 0.743224 1.92083 0 0 0
1.02661 0.773856 2 0 0 0
0.971921 0.725233 1.87433 0 0 0
1.04756 0.773856 2 0 0 0
1.05803 0.773856 2 0 0 0
1.11081 0.804488 2.07917 0 0 0
1.07899 0.773856 2 0 0 0
1.02101 0.725233 1.87433 0 0 0
0.937604 0.659648 1.70483 0 0 0
1.04064 0.725233 1.87433 0 0 0
1.12089 0.773856 2 0 0 0
0.994334 0.680128 1.75776 0 0 0
1.21358 0.82248 2.12567 0 0 0
1.01275 0.680128 1.75776 0 0 0
1.16279 0.773856 2 0 0 0
1.17327 0.773856 2 0 0 0
1.18374 0.773856 2 0 0 0
1.19422 0.773856 2 0 0 0
1.20469 0.773856 2 0 0 0
1.21517 0.773856 2 0 0 0
1.35117 0.853112 2.20483 0 0 0
1.10952 0.694601 1.79517 0 0 0
1.2466 0.773856 2 0 0 0
-0.942803 0.588235 1.5 0 0 0
-0.878641 0.55281 1.40967 0 0 0
-0.830698 0.527075 1.34404 0 0 0
-0.793707 0.507909 1.29517 0 0 0
-0.732037 0.472483 1.20483 0 0 0
-0.827825 0.538954 1.37433 0 0 0
-0.895663 0.588235 1.5 0 0 0
-0.684178 0.453317 1.15596 0 0 0
-0.95367 0.637516 1.62567 0 0 0
-0.753004 0.507909 1.29517 0 0 0
-0.791833 0.538954 1.37433 0 0 0
-0.907953 0.623661 1.59033 0 0 0
-0.964393 0.668562 1.70483 0 0 0
-0.840666 0.588235 1.5 0 0 0
-0.946534 0.668562 1.70483 0 0 0
-0.874634 0.623661 1.59033 0 0 0
-0.817096 0.588235 1.5 0 0 0
-0.877035 0.637516 1.62567 0 0 0
-0.849644 0.623661 1.59033 0 0 0
-0.745738 0.55281 1.40967 0 0 0
-0.738354 0.55281 1.40967 0 0 0
-0.741283 0.560609 1.42955 0 0 0
-0.902266 0.689318 1.75776 0 0 0
-0.797891 0.615861 1.57045 0 0 0
-0.754243 0.588235 1.5 0 0 0
-0.791335 0.623661 1.59033 0 0 0
-0.865439 0.689318 1.75776 0 0 0
-0.923016 0.743084 1.89486 0 0 0
-0.797969 0.649395 1.65596 0 0 0
-0.893382 0.735033 1.87433 0 0 0
-0.828612 0.689318 1.75776 0 0 0
-0.932328 0.784314 2 0 0 0
-0.849967 0.723154 1.84404 0 0 0
-0.870212 0.748888 1.90967 0 0 0
-0.821094 0.714835 1.82283 0 0 0
-0.775666 0.683231 1.74224 0 0 0
-0.789828 0.703987 1.79517 0 0 0
-0.764164 0.689318 1.75776 0 0 0
-0.777381 0.709792 1.80997 0 0 0
-0.754322 0.697241 1.77797 0 0 0
-0.781736 0.731613 1.86561 0 0 0
-0.767827 0.727692 1.85562 0 0 0
-0.758108 0.727692 1.85562 0 0 0
-0.735166 0.714835 1.82283 0 0 0
-0.699717 0.689318 1.75776 0 0 0
-0.711019 0.709792 1.80997 0 0 0
-0.723106 0.731613 1.86561 0 0 0
-0.709511 0.727692 1.85562 0 0 0
-0.682578 0.709792 1.80997 0 0 0
-0.697034 0.735033 1.87433 0 0 0
-0.668332 0.714835 1.82283 0 0 0
-0.658785 0.714835 1.82283 0 0 0
-0.634561 0.698676 1.78162 0 0 0
-0.625229 0.698676 1.78162 0 0 0
-0.625697 0.709792 1.80997 0 0 0
-0.611177 0.703987 1.79517 0 0 0
-0.606736 0.709792 1.80997 0 0 0
-0.597256 0.709792 1.80997 0 0 0
-0.582969 0.703987 1.79517 0 0 0
-0.564327 0.692647 1.76625 0 0 0
-0.564163 0.703987 1.79517 0 0 0
-0.591982 0.751222 1.91561 0 0 0
-0.556091 0.717843 1.8305 0 0 0
-0.540374 0.709792 1.80997 0 0 0
-0.526552 0.703987 1.79517 0 0 0
-0.513248 0.698676 1.78162 0 0 0
-0.503916 0.698676 1.78162 0 0 0
-0.515125 0.727692 1.85562 0 0 0
-0.488941 0.703987 1.79517 0 0 0
-0.475921 0.698676 1.78162 0 0 0
-0.474013 0.709792 1.80997 0 0 0
-0.442653 0.676361 1.72472 0 0 0
-0.43964 0.685752 1.74867 0 0 0
-0.434809 0.692647 1.76625 0 0 0
-0.441904 0.719253 1.8341 0 0 0
-0.429642 0.714835 1.82283 0 0 0
-0.417131 0.709792 1.80997 0 0 0
-0.428563 0.746204 1.90282 0 0 0
-0.379417 0.676361 1.72472 0 0 0
-0.391452 0.714835 1.82283 0 0 0
-0.36212 0.677804 1.7284 0 0 0
-0.366706 0.703987 1.79517 0 0 0
-0.362809 0.714835 1.82283 0 0 0
-0.347901 0.703987 1.79517 0 0 0
-0.343714 0.714835 1.82283 0 0 0
-0.334166 0.714835 1.82283 0 0 0
-0.319692 0.703987 1.79517 0 0 0
-0.302253 0.685752 1.74867 0 0 0
-0.278872 0.652477 1.66382 0 0 0
-0.283934 0.685752 1.74867 0 0 0
-0.274775 0.685752 1.74867 0 0 0
-0.258957 0.668562 1.70483 0 0 0
-0.265038 0.708697 1.80718 0 0 0
-0.253873 0.703987 1.79517 0 0 0
-0.246487 0.709792 1.80997 0 0 0
-0.223239 0.668562 1.70483 0 0 0
-0.223963 0.698676 1.78162 0 0 0
-0.200439 0.652477 1.66382 0 0 0
-0.20686 0.703987 1.79517 0 0 0
-0.177222 0.631843 1.6112 0 0 0
-0.180675 0.676361 1.72472 0 0 0
-0.178652 0.703987 1.79517 0 0 0
-0.162607 0.676361 1.72472 0 0 0
-0.153573 0.676361 1.72472 0 0 0
-0.142873 0.668562 1.70483 0 0 0
-0.141041 0.703987 1.79517 0 0 0
-0.122006 0.652477 1.66382 0 0 0
-0.116084 0.668562 1.70483 0 0 0
-0.108405 0.676361 1.72472 0 0 0
-0.100751 0.685752 1.74867 0 0 0
-0.0903373 0.676361 1.72472 0 0 0
-0.0832613 0.692647 1.76625 0 0 0
-0.0730039 0.683231 1.74224 0 0 0
-0.0641142 0.685752 1.74867 0 0 0
-0.0555075 0.692647 1.76625 0 0 0
-0.0466589 0.698676 1.78162 0 0 0
-0.0348589 0.652477 1.66382 0 0 0
-0.0279954 0.698676 1.78162 0 0 0
-0.0172722 0.64659 1.64881 0 0 0
-0.0092068 0.689318 1.75776 0 0 0
0 0.676361 1.72472 0 0 0
0.00915917 0.685752 1.74867 0 0 0
0.0180675 0.676361 1.72472 0 0 0
0.0267887 0.668562 1.70483 0 0 0
0.0361349 0.676361 1.72472 0 0 0
0.0451687 0.676361 1.72472 0 0 0
0.0535774 0.668562 1.70483 0 0 0
0.0610031 0.652477 1.66382 0 0 0
0.0752218 0.703987 1.79517 0 0 0
0.0824325 0.685752 1.74867 0 0 0
0.0881053 0.659649 1.68211 0 0 0
0.101764 0.692647 1.76625 0 0 0
0.113763 0.709792 1.80997 0 0 0
0.117439 0.676361 1.72472 0 0 0
0.126275 0.675308 1.72203 0 0 0
0.130721 0.652477 1.66382 0 0 0
0.138777 0.649395 1.65596 0 0 0
0.161164 0.709792 1.80997 0 0 0
0.170645 0.709792 1.80997 0 0 0
0.175774 0.692647 1.76625 0 0 0
0.185025 0.692647 1.76625 0 0 0
0.185021 0.659649 1.68211 0 0 0
0.198742 0.676361 1.72472 0 0 0
0.214631 0.698676 1.78162 0 0 0
0.225665 0.703987 1.79517 0 0 0
0.225843 0.676361 1.72472 0 0 0
0.246487 0.709792 1.80997 0 0 0
0.251958 0.698676 1.78162 0 0 0
0.256457 0.685752 1.74867 0 0 0
0.270622 0.698676 1.78162 0 0 0
0.274775 0.685752 1.74867 0 0 0
0.280046 0.676361 1.72472 0 0 0
0.305523 0.714835 1.82283 0 0 0
0.305291 0.692647 1.76625 0 0 0
0.311412 0.685752 1.74867 0 0 0
0.331809 0.709792 1.80997 0 0 0
0.321464 0.668562 1.70483 0 0 0
0.347901 0.703987 1.79517 0 0 0
0.354608 0.698676 1.78162 0 0 0
0.360799 0.692647 1.76625 0 0 0
0.388773 0.727692 1.85562 0 0 0
0.379302 0.692647 1.76625 0 0 0
0.388553 0.692647 1.76625 0 0 0
0.397804 0.692647 1.76625 0 0 0
0.407055 0.692647 1.76625 0 0 0
0.43737 0.727692 1.85562 0 0 0
0.429262 0.698676 1.78162 0 0 0
0.438594 0.698676 1.78162 0 0 0
0.458285 0.714835 1.82283 0 0 0
0.469801 0.717843 1.8305 0 0 0
0.462563 0.692647 1.76625 0 0 0
0.474944 0.697241 1.77797 0 0 0
0.492973 0.709792 1.80997 0 0 0
0.494585 0.698676 1.78162 0 0 0
0.502881 0.697241 1.77797 0 0 0
0.521414 0.709792 1.80997 0 0 0
0.521507 0.697241 1.77797 0 0 0
0.535955 0.703987 1.79517 0 0 0
0.549855 0.709792 1.80997 0 0 0
0.55476 0.703987 1.79517 0 0 0
0.595494 0.743084 1.89486 0 0 0
0.582404 0.714835 1.82283 0 0 0
0.582969 0.703987 1.79517 0 0 0
0.577028 0.685752 1.74867 0 0 0
0.596008 0.697241 1.77797 0 0 0
0.645119 0.743084 1.89486 0 0 0
0.637475 0.723154 1.84404 0 0 0
0.642381 0.717843 1.8305 0 0 0
0.662758 0.729722 1.86079 0 0 0
0.661557 0.717843 1.8305 0 0 0
0.671144 0.717843 1.8305 0 0 0
0.667593 0.703987 1.79517 0 0 0
0.69032 0.717843 1.8305 0 0 0
0.675342 0.692647 1.76625 0 0 0
0.686666 0.694745 1.7716 0 0 0
0.72895 0.727692 1.85562 0 0 0
0.707759 0.697241 1.77797 0 0 0
0.731787 0.71155 1.81445 0 0 0
0.793516 0.76168 1.94228 0 0 0
0.733063 0.694745 1.7716 0 0 0
0.804875 0.753268 1.92083 0 0 0
0.799946 0.739412 1.8855 0 0 0
0.754957 0.689318 1.75776 0 0 0
0.780426 0.703987 1.79517 0 0 0
0.87995 0.784314 2 0 0 0
0.771887 0.679902 1.73375 0 0 0
0.844295 0.735033 1.87433 0 0 0
0.875301 0.753268 1.92083 0 0 0
0.827439 0.703987 1.79517 0 0 0
0.825856 0.694745 1.7716 0 0 0
0.846245 0.703987 1.79517 0 0 0
0.953279 0.784314 2 0 0 0
0.888602 0.723154 1.84404 0 0 0
0.887927 0.714835 1.82283 0 0 0
0.984706 0.784314 2 0 0 0
0.955788 0.753268 1.92083 0 0 0
0.965849 0.753268 1.92083 0 0 0
0.945405 0.729722 1.86079 0 0 0
0.962103 0.735033 1.87433 0 0 0
0.982566 0.743084 1.89486 0 0 0
0.992491 0.743084 1.89486 0 0 0
1.05803 0.784314 2 0 0 0
1.02025 0.748888 1.90967 0 0 0
1.07899 0.784314 2 0 0 0
1.13867 0.819739 2.09033 0 0 0
1.21259 0.86464 2.20483 0 0 0
1.11041 0.784314 2 0 0 0
1.17981 0.825544 2.10514 0 0 0
1.13136 0.784314 2 0 0 0
1.00354 0.689318 1.75776 0 0 0
1.15232 0.784314 2 0 0 0
1.10166 0.743084 1.89486 0 0 0
1.0531 0.703987 1.79517 0 0 0
1.10936 0.735033 1.87433 0 0 0
1.28734 0.845474 2.15596 0 0 0
1.08131 0.703987 1.79517 0 0 0
1.21517 0.784314 2 0 0 0
1.13007 0.723154 1.84404 0 0 0
1.23612 0.784314 2 0 0 0
1.2466 0.784314 2 0 0 0
-0.814058 0.514681 1.29517 0 0 0
-0.750969 0.478783 1.20483 0 0 0
-0.744659 0.478783 1.20483 0 0 0
-0.842222 0.546141 1.37433 0 0 0
-0.856491 0.560181 1.40967 0 0 0
-0.696288 0.459361 1.15596 0 0 0
-0.719416 0.478783 1.20483 0 0 0
-0.887806 0.596078 1.5 0 0 0
-0.87995 0.596078 1.5 0 0 0
-0.872093 0.596078 1.5 0 0 0
-0.916283 0.631976 1.59033 0 0 0
-0.945419 0.658054 1.65596 0 0 0
-0.7603 0.534103 1.34404 0 0 0
-0.840666 0.596078 1.5 0 0 0
-0.83281 0.596078 1.5 0 0 0
-0.910725 0.658054 1.65596 0 0 0
-0.732141 0.534103 1.34404 0 0 0
-1.07899 0.794771 2 0 0 0
-0.849644 0.631976 1.59033 0 0 0
-0.841314 0.631976 1.59033 0 0 0
-0.832985 0.631976 1.59033 0 0 0
-0.930869 0.713374 1.79517 0 0 0
-0.875097 0.677476 1.70483 0 0 0
-0.893059 0.698509 1.75776 0 0 0
-0.789665 0.624073 1.57045 0 0 0
-0.791335 0.631976 1.59033 0 0 0
-0.783006 0.631976 1.59033 0 0 0
-0.669459 0.546141 1.37433 0 0 0
-0.963754 0.794771 2 0 0 0
-0.789295 0.658054 1.65596 0 0 0
-0.803661 0.677476 1.70483 0 0 0
-0.883317 0.752991 1.89486 0 0 0
-0.921852 0.794771 2 0 0 0
-0.830642 0.724366 1.82283 0 0 0
-0.808634 0.713374 1.79517 0 0 0
-0.799231 0.713374 1.79517 0 0 0
-0.818701 0.739452 1.86079 0 0 0
-0.772947 0.706538 1.77797 0 0 0
-0.792015 0.732796 1.84404 0 0 0
-0.7679 0.719256 1.80997 0 0 0
-0.819025 0.776732 1.9546 0 0 0
-0.763038 0.732796 1.84404 0 0 0
-0.749316 0.728843 1.8341 0 0 0
-0.724009 0.713374 1.79517 0 0 0
-0.75746 0.756153 1.90282 0 0 0
-0.72895 0.737395 1.85562 0 0 0
-0.719231 0.737395 1.85562 0 0 0
-0.730178 0.758874 1.90967 0 0 0
-0.699792 0.737395 1.85562 0 0 0
-0.67788 0.724366 1.82283 0 0 0
-0.716647 0.776732 1.9546 0 0 0
-0.670634 0.737395 1.85562 0 0 0
-0.622823 0.694896 1.74867 0 0 0
-0.635177 0.719256 1.80997 0 0 0
-0.641476 0.737395 1.85562 0 0 0
-0.631757 0.737395 1.85562 0 0 0
-0.625389 0.741368 1.86561 0 0 0
-0.612318 0.737395 1.85562 0 0 0
-0.582969 0.713374 1.79517 0 0 0
-0.569239 0.707992 1.78162 0 0 0
-0.572856 0.724366 1.82283 0 0 0
-0.55476 0.713374 1.79517 0 0 0
-0.566759 0.741368 1.86561 0 0 0
-0.540374 0.719256 1.80997 0 0 0
-0.534666 0.724366 1.82283 0 0 0
-0.513248 0.707992 1.78162 0 0 0
-0.487822 0.685379 1.72472 0 0 0
-0.502453 0.719256 1.80997 0 0 0
-0.492973 0.719256 1.80997 0 0 0
-0.495686 0.737395 1.85562 0 0 0
-0.480331 0.728843 1.8341 0 0 0
-0.476247 0.737395 1.85562 0 0 0
-0.469042 0.741368 1.86561 0 0 0
-0.430481 0.694896 1.74867 0 0 0
-0.43919 0.724366 1.82283 0 0 0
-0.426611 0.719256 1.80997 0 0 0
-0.427651 0.737395 1.85562 0 0 0
-0.392396 0.69234 1.74224 0 0 0
-0.379417 0.685379 1.72472 0 0 0
-0.391452 0.724366 1.82283 0 0 0
-0.386349 0.732796 1.84404 0 0 0
-0.36394 0.707992 1.78162 0 0 0
-0.362809 0.724366 1.82283 0 0 0
-0.347901 0.713374 1.79517 0 0 0
-0.333045 0.701882 1.76625 0 0 0
-0.316181 0.685379 1.72472 0 0 0
-0.303605 0.677476 1.70483 0 0 0
-0.307316 0.706538 1.77797 0 0 0
-0.289696 0.686841 1.7284 0 0 0
-0.280643 0.686841 1.7284 0 0 0
-0.284408 0.719256 1.80997 0 0 0
-0.272679 0.713374 1.79517 0 0 0
-0.256457 0.694896 1.74867 0 0 0
-0.247298 0.694896 1.74867 0 0 0
-0.232169 0.677476 1.70483 0 0 0
-0.226325 0.686841 1.7284 0 0 0
-0.21982 0.694896 1.74867 0 0 0
-0.202642 0.668445 1.68211 0 0 0
-0.19645 0.677476 1.70483 0 0 0
-0.197457 0.713374 1.79517 0 0 0
-0.190952 0.724366 1.82283 0 0 0
-0.177304 0.707992 1.78162 0 0 0
-0.162954 0.686841 1.7284 0 0 0
-0.161164 0.719256 1.80997 0 0 0
-0.14802 0.701882 1.76625 0 0 0
-0.135506 0.685379 1.72472 0 0 0
-0.126472 0.685379 1.72472 0 0 0
-0.119069 0.694896 1.74867 0 0 0
-0.108636 0.686841 1.7284 0 0 0
-0.104283 0.719256 1.80997 0 0 0
-0.0915917 0.694896 1.74867 0 0 0
-0.0853223 0.719256 1.80997 0 0 0
-0.075842 0.719256 1.80997 0 0 0
-0.0616737 0.668445 1.68211 0 0 0
-0.0568815 0.719256 1.80997 0 0 0
-0.0456274 0.69234 1.74224 0 0 0
-0.0365019 0.69234 1.74224 0 0 0
-0.0282082 0.713374 1.79517 0 0 0
-0.0174295 0.661177 1.66382 0 0 0
-0.00871474 0.661177 1.66382 0 0 0
0 0.677476 1.70483 0 0 0
0.00912549 0.69234 1.74224 0 0 0
0.0188054 0.713374 1.79517 0 0 0
0.0271012 0.685379 1.72472 0 0 0
0.0357183 0.677476 1.70483 0 0 0
0.0462563 0.701882 1.76625 0 0 0
0.0535774 0.677476 1.70483 0 0 0
0.0653225 0.707992 1.78162 0 0 0
0.0724241 0.686841 1.7284 0 0 0
0.0859284 0.724366 1.82283 0 0 0
0.0892957 0.677476 1.70483 0 0 0
0.101764 0.701882 1.76625 0 0 0
0.115905 0.732796 1.84404 0 0 0
0.120266 0.701882 1.76625 0 0 0
0.125014 0.677476 1.70483 0 0 0
0.139977 0.707992 1.78162 0 0 0
0.14802 0.701882 1.76625 0 0 0
0.153573 0.685379 1.72472 0 0 0
0.162954 0.686841 1.7284 0 0 0
0.182526 0.728843 1.8341 0 0 0
0.185025 0.701882 1.76625 0 0 0
0.190113 0.686841 1.7284 0 0 0
0.201502 0.694896 1.74867 0 0 0
0.208219 0.686841 1.7284 0 0 0
0.22203 0.701882 1.76625 0 0 0
0.235068 0.713374 1.79517 0 0 0
0.240533 0.701882 1.76625 0 0 0
0.244431 0.686841 1.7284 0 0 0
0.265447 0.719256 1.80997 0 0 0
0.265616 0.694896 1.74867 0 0 0
0.267887 0.677476 1.70483 0 0 0
0.291484 0.713374 1.79517 0 0 0
0.289696 0.686841 1.7284 0 0 0
0.290747 0.668445 1.68211 0 0 0
0.326625 0.728843 1.8341 0 0 0
0.329095 0.713374 1.79517 0 0 0
0.333045 0.701882 1.76625 0 0 0
0.347901 0.713374 1.79517 0 0 0
0.36025 0.719256 1.80997 0 0 0
0.357208 0.694896 1.74867 0 0 0
0.372505 0.706538 1.77797 0 0 0
0.381817 0.706538 1.77797 0 0 0
0.394914 0.713374 1.79517 0 0 0
0.407651 0.719256 1.80997 0 0 0
0.418164 0.721037 1.81445 0 0 0
0.416307 0.701882 1.76625 0 0 0
0.416438 0.686841 1.7284 0 0 0
0.45396 0.732796 1.84404 0 0 0
0.422905 0.668445 1.68211 0 0 0
0.465683 0.721037 1.81445 0 0 0
0.465631 0.706538 1.77797 0 0 0
0.492594 0.732796 1.84404 0 0 0
0.464337 0.677476 1.70483 0 0 0
0.515125 0.737395 1.85562 0 0 0
0.515571 0.724366 1.82283 0 0 0
0.506374 0.698509 1.75776 0 0 0
0.536916 0.727414 1.8305 0 0 0
0.522073 0.694896 1.74867 0 0 0
0.545358 0.713374 1.79517 0 0 0
0.55476 0.713374 1.79517 0 0 0
0.54955 0.694896 1.74867 0 0 0
0.56807 0.706538 1.77797 0 0 0
0.577382 0.706538 1.77797 0 0 0
0.625269 0.752991 1.89486 0 0 0
0.589235 0.698509 1.75776 0 0 0
0.641932 0.749271 1.8855 0 0 0
0.632793 0.727414 1.8305 0 0 0
0.642381 0.727414 1.8305 0 0 0
0.671559 0.749271 1.8855 0 0 0
0.666451 0.732796 1.84404 0 0 0
0.616737 0.668445 1.68211 0 0 0
0.674765 0.721037 1.81445 0 0 0
0.670509 0.706538 1.77797 0 0 0
0.716669 0.744833 1.87433 0 0 0
0.703276 0.721037 1.81445 0 0 0
0.736303 0.744833 1.87433 0 0 0
0.734062 0.732796 1.84404 0 0 0
0.738259 0.727414 1.8305 0 0 0
0.70832 0.688967 1.73375 0 0 0
0.775573 0.744833 1.87433 0 0 0
0.760299 0.721037 1.81445 0 0 0
0.821603 0.769557 1.93655 0 0 0
0.732224 0.677476 1.70483 0 0 0
0.84189 0.769557 1.93655 0 0 0
0.82466 0.744833 1.87433 0 0 0
0.828448 0.739452 1.86079 0 0 0
0.798018 0.704008 1.7716 0 0 0
0.807297 0.704008 1.7716 0 0 0
0.840189 0.724366 1.82283 0 0 0
0.808212 0.688967 1.73375 0 0 0
0.835135 0.704008 1.7716 0 0 0
0.886926 0.739452 1.86079 0 0 0
0.804495 0.663436 1.6695 0 0 0
0.97423 0.794771 2 0 0 0
0.857796 0.69234 1.74224 0 0 0
0.893258 0.713374 1.79517 0 0 0
0.942468 0.744833 1.87433 0 0 0
1.01613 0.794771 2 0 0 0
1.02661 0.794771 2 0 0 0
1.03708 0.794771 2 0 0 0
1.04756 0.794771 2 0 0 0
0.97553 0.732796 1.84404 0 0 0
0.959077 0.713374 1.79517 0 0 0
0.994848 0.732796 1.84404 0 0 0
0.957507 0.698509 1.75776 0 0 0
0.987286 0.713374 1.79517 0 0 0
1.11041 0.794771 2 0 0 0
1.03348 0.732796 1.84404 0 0 0
1.13136 0.794771 2 0 0 0
0.945419 0.658054 1.65596 0 0 0
1.15232 0.794771 2 0 0 0
1.16279 0.794771 2 0 0 0
1.09955 0.744833 1.87433 0 0 0
1.06251 0.713374 1.79517 0 0 0
1.10109 0.732796 1.84404 0 0 0
1.0269 0.677476 1.70483 0 0 0
1.21517 0.794771 2 0 0 0
1.04476 0.677476 1.70483 0 0 0
1.54515 0.993464 2.5 0 0 0
1.2466 0.794771 2 0 0 0
-0.75728 0.485083 1.20483 0 0 0
-0.934947 0.603922 1.5 0 0 0
-0.871258 0.567552 1.40967 0 0 0
-0.823659 0.541131 1.34404 0 0 0
-0.911376 0.603922 1.5 0 0 0
-0.849107 0.567552 1.40967 0 0 0
-0.895663 0.603922 1.5 0 0 0
-0.887806 0.603922 1.5 0 0 0
-0.826957 0.567552 1.40967 0 0 0
-0.872093 0.603922 1.5 0 0 0
-0.74622 0.521453 1.29517 0 0 0
-1.14184 0.805229 2 0 0 0
-0.732653 0.521453 1.29517 0 0 0
-0.891294 0.640291 1.59033 0 0 0
-0.763039 0.553327 1.37433 0 0 0
-0.824953 0.603922 1.5 0 0 0
-0.817096 0.603922 1.5 0 0 0
-0.877035 0.654516 1.62567 0 0 0
-0.910816 0.68639 1.70483 0 0 0
-0.756259 0.575559 1.42955 0 0 0
-0.892957 0.68639 1.70483 0 0 0
-0.824655 0.640291 1.59033 0 0 0
-0.769956 0.603922 1.5 0 0 0
-0.841336 0.666713 1.65596 0 0 0
-0.876047 0.70145 1.74224 0 0 0
-0.995181 0.805229 2 0 0 0
-0.783006 0.640291 1.59033 0 0 0
-0.84867 0.70145 1.74224 0 0 0
-0.903199 0.754634 1.87433 0 0 0
-0.953279 0.805229 2 0 0 0
-0.893242 0.762899 1.89486 0 0 0
-0.757827 0.654516 1.62567 0 0 0
-0.849967 0.742438 1.84404 0 0 0
-0.807297 0.713271 1.7716 0 0 0
-0.808634 0.72276 1.79517 0 0 0
-0.850207 0.768859 1.90967 0 0 0
-0.829573 0.75913 1.8855 0 0 0
-0.806705 0.747097 1.85562 0 0 0
-0.771023 0.72276 1.79517 0 0 0
-0.773356 0.733897 1.82283 0 0 0
