ply
format ascii 1.0
element vertex 1295
property float x
property float y
property float z
property uchar red
property uchar green
property uchar blue
end_header
0.784792 -0.109317 1.74224 34 37 35
0.818037 -0.112638 1.79517 33 36 35
0.793731 -0.108049 1.72203 33 36 34
0.809937 -0.109017 1.73745 33 36 34
0.846245 -0.112638 1.79517 32 36 34
0.855647 -0.112638 1.79517 31 35 33
0.86505 -0.112638 1.79517 31 35 33
0.89826 -0.115705 1.84404 34 37 35
0.891144 -0.113567 1.80997 35 38 35
0.884699 -0.111559 1.77797 34 38 35
0.888121 -0.110824 1.76625 33 37 34
0.947855 -0.117058 1.86561 33 36 34
0.946554 -0.115705 1.84404 33 36 35
0.930869 -0.112638 1.79517 33 36 35
0.992491 -0.118893 1.89486 33 36 36
0.940575 -0.111559 1.77797 33 36 36
0.934235 -0.10972 1.74867 32 35 35
1.01119 -0.117605 1.87433 33 36 35
0.988388 -0.113848 1.81445 33 36 36
0.977825 -0.111559 1.77797 33 36 36
0.975921 -0.110291 1.75776 33 35 35
1.0169 -0.113848 1.81445 34 36 36
1.06028 -0.117605 1.87433 34 36 36
1.04507 -0.114855 1.8305 34 37 36
1.1067 -0.120523 1.92083 34 37 37
1.00799 -0.108784 1.73375 33 37 37
1.01708 -0.108784 1.73375 31 36 36
1.13028 -0.119822 1.90967 30 36 35
1.08843 -0.114374 1.82283 31 36 36
1.04943 -0.109317 1.74224 33 37 37
1.10752 -0.114374 1.82283 34 38 38
1.10012 -0.112638 1.79517 35 39 39
1.10952 -0.112638 1.79517 33 39 39
1.13617 -0.114374 1.82283 32 38 38
-0.568959 -0.0520646 0.905214 35 37 35
-0.579388 -0.0534645 0.929553 35 37 35
-0.57452 -0.0534645 0.929553 36 38 36
-0.577452 -0.0541967 0.942284 37 38 35
-0.607584 -0.0575163 1 37 38 36
-0.564127 -0.0538669 0.936549 37 38 35
-0.52556 -0.0506244 0.880174 36 37 33
-0.573942 -0.055774 0.969708 36 37 31
-0.567976 -0.0556871 0.968195 36 37 33
-0.531233 -0.0525539 0.91372 38 40 34
-0.54133 -0.0540396 0.939552 38 40 35
-0.536409 -0.0540396 0.939552 36 37 34
-0.531488 -0.0540396 0.939552 35 36 33
-0.576651 -0.0591796 1.02892 36 37 34
-0.572864 -0.0593456 1.0318 37 38 35
-0.549969 -0.0575163 1 37 38 35
-0.544731 -0.0575163 1 38 39 35
-0.539493 -0.0575163 1 39 40 36
-0.534255 -0.0575163 1 39 40 36
-0.560995 -0.0609931 1.06045 38 39 35
-0.555441 -0.0609931 1.06045 37 38 34
-0.583705 -0.0647442 1.12567 37 38 34
-0.564478 -0.0632505 1.0997 37 38 34
-0.525074 -0.0594417 1.03348 37 38 34
-0.519661 -0.0594417 1.03348 37 39 34
-0.515171 -0.0595485 1.03533 37 38 34
-0.544117 -0.0635634 1.10514 36 37 32
-0.523431 -0.0618044 1.07455 36 38 33
-0.514051 -0.0613565 1.06677 36 38 34
-0.476639 -0.0575163 1 36 38 34
-0.533672 -0.065114 1.1321 36 37 34
-0.534744 -0.065978 1.14712 35 37 33
-0.509386 -0.0635634 1.10514 35 37 33
-0.549028 -0.0692976 1.20483 36 38 34
-0.530257 -0.0677066 1.17717 36 38 34
-0.536407 -0.0692976 1.20483 36 38 35
-0.550555 -0.071972 1.25133 36 38 34
-0.506862 -0.0670586 1.1659 36 38 34
-0.523292 -0.0700765 1.21838 37 39 34
-0.51691 -0.0700765 1.21838 37 38 34
-0.524338 -0.071972 1.25133 36 38 34
-0.47353 -0.0658208 1.14438 36 38 33
-0.511229 -0.071972 1.25133 36 38 33
-0.497584 -0.0709608 1.23375 35 37 34
-0.535026 -0.0773044 1.34404 36 38 34
-0.508787 -0.0744933 1.29517 36 37 34
-0.502003 -0.0744933 1.29517 35 37 33
-0.543268 -0.0817211 1.42083 37 38 35
-0.5497 -0.083837 1.45762 38 39 36
-0.504131 -0.07797 1.35562 38 39 35
-0.532049 -0.0834634 1.45113 38 39 35
-0.524448 -0.0834634 1.45113 37 39 35
-0.519161 -0.083837 1.45762 37 38 34
-0.54355 -0.0890856 1.54887 37 38 34
-0.518542 -0.0862745 1.5 37 38 34
-0.494045 -0.0834634 1.45113 35 37 33
-0.519212 -0.0890856 1.54887 35 36 32
-0.511099 -0.0890856 1.54887 35 36 32
-0.505858 -0.0895941 1.55772 35 37 33
-0.52539 -0.094579 1.64438 36 37 34
-0.510894 -0.0935024 1.62567 37 38 34
-0.491461 -0.0914702 1.59033 36 37 34
-0.473222 -0.0895941 1.55772 36 37 34
-0.498437 -0.0960236 1.6695 37 38 34
-0.500056 -0.0980557 1.70483 37 38 34
-0.491126 -0.0980557 1.70483 37 38 34
-0.459805 -0.0935024 1.62567 36 38 34
-0.416405 -0.0862745 1.5 36 37 34
-0.451026 -0.0952447 1.65596 37 38 34
-0.455408 -0.0980557 1.70483 36 38 34
-0.446478 -0.0980557 1.70483 36 37 33
-0.429585 -0.096271 1.6738 37 39 34
-0.428619 -0.0980557 1.70483 38 39 35
-0.397962 -0.0929793 1.61657 37 38 33
-0.396196 -0.094579 1.64438 36 37 33
-0.389091 -0.094947 1.65078 36 37 32
-0.389489 -0.0972043 1.69003 35 36 31
-0.393309 -0.10044 1.74629 36 36 32
-0.378376 -0.0989274 1.71999 36 37 32
-0.372322 -0.099719 1.73375 37 37 34
-0.371942 -0.102108 1.77528 37 38 34
-0.348253 -0.0980557 1.70483 37 37 33
-0.328566 -0.094947 1.65078 37 37 34
-0.327525 -0.0972043 1.69003 36 37 34
-0.324018 -0.0988347 1.71838 35 36 33
-0.307464 -0.0964647 1.67717 36 37 34
-0.29284 -0.094579 1.64438 37 37 34
-0.287185 -0.095563 1.66149 36 37 34
-0.28111 -0.0964647 1.67717 36 37 34
-0.272325 -0.0964647 1.67717 36 37 34
-0.259394 -0.094947 1.65078 36 36 33
-0.256709 -0.0972043 1.69003 36 37 34
-0.244319 -0.0958167 1.6659 36 37 34
-0.234969 -0.095563 1.66149 37 38 35
-0.222575 -0.0940039 1.63439 37 38 36
-0.214015 -0.0940039 1.63439 36 37 34
-0.209416 -0.0958167 1.6659 35 36 33
-0.198098 -0.094579 1.64438 36 37 34
-0.191965 -0.0958167 1.6659 36 37 34
-0.180542 -0.0944063 1.64138 35 36 33
-0.171944 -0.0944063 1.64138 34 35 32
-0.160878 -0.0929793 1.61657 34 35 33
-0.149937 -0.0914702 1.59033 35 36 34
-0.148336 -0.0958167 1.6659 36 37 35
-0.136969 -0.0940039 1.63439 37 38 35
-0.124948 -0.0914702 1.59033 37 38 36
-0.119848 -0.0940039 1.63439 37 38 36
-0.110694 -0.0935024 1.62567 36 36 35
-0.103758 -0.094947 1.65078 35 35 34
-0.0941664 -0.0940039 1.63439 35 35 34
-0.0885203 -0.0972043 1.69003 36 36 34
-0.0810045 -0.0988347 1.71838 36 37 35
-0.0689036 -0.094579 1.64438 36 37 35
-0.0619642 -0.0972043 1.69003 36 37 34
-0.0516777 -0.094579 1.64438 35 37 34
-0.04213 -0.0925261 1.60869 36 37 35
-0.0351387 -0.0964647 1.67717 37 38 36
-0.0257114 -0.0941126 1.63628 37 38 36
-0.0172929 -0.094947 1.65078 37 38 35
-0.00892957 -0.0980557 1.70483 36 37 35
0 -0.0980557 1.70483 36 37 35
0.00861295 -0.094579 1.64438 36 37 35
0.0169345 -0.0929793 1.61657 36 37 35
0.0256817 -0.0940039 1.63439 36 37 35
0.0345858 -0.094947 1.65078 37 38 36
0.0419496 -0.0921299 1.6018 36 37 35
0.0527081 -0.0964647 1.67717 36 37 35
0.0605252 -0.094947 1.65078 36 37 35
0.0702774 -0.0964647 1.67717 36 36 34
0.0796683 -0.0972043 1.69003 36 37 34
0.0859722 -0.0944063 1.64138 36 37 35
0.0951111 -0.094947 1.65078 36 37 35
0.106321 -0.097293 1.69157 36 37 34
0.115181 -0.097293 1.69157 37 37 36
0.117964 -0.0925261 1.60869 37 38 36
0.13177 -0.0964647 1.67717 37 37 35
0.134816 -0.0925261 1.60869 36 37 35
0.143944 -0.0929793 1.61657 37 37 35
0.15409 -0.0940039 1.63439 37 38 36
0.168189 -0.0972043 1.69003 36 37 35
0.174513 -0.0958167 1.6659 36 36 35
0.177813 -0.0929793 1.61657 36 36 35
0.188333 -0.0940039 1.63439 36 36 35
0.199492 -0.0952447 1.65596 37 37 35
0.208862 -0.095563 1.66149 37 37 35
0.217564 -0.095563 1.66149 37 37 35
0.232169 -0.0980557 1.70483 36 36 35
0.233454 -0.094947 1.65078 37 37 35
0.235407 -0.0923216 1.60514 37 38 36
0.252374 -0.095563 1.66149 36 37 35
0.252221 -0.0923216 1.60514 36 36 35
0.271778 -0.096271 1.6738 36 37 35
0.283265 -0.0972043 1.69003 37 37 35
0.290363 -0.0966205 1.67988 38 38 36
0.29284 -0.094579 1.64438 38 38 37
0.306846 -0.096271 1.6738 38 38 36
0.316248 -0.0964647 1.67717 37 38 36
0.315052 -0.0935024 1.62567 37 38 37
0.327292 -0.094579 1.64438 38 38 37
0.341914 -0.096271 1.6738 37 38 36
0.350681 -0.096271 1.6738 37 37 36
0.366112 -0.0980557 1.70483 37 37 35
0.378021 -0.0988347 1.71838 37 37 36
0.372964 -0.0952447 1.65596 37 37 35
0.382913 -0.095563 1.66149 36 37 35
0.389091 -0.094947 1.65078 35 35 34
0.397737 -0.094947 1.65078 34 35 33
0.407658 -0.0952447 1.65596 36 38 36
0.432429 -0.0989274 1.71999 37 39 36
0.441438 -0.0989274 1.71999 35 37 34
0.438352 -0.096271 1.6738 34 36 33
0.451865 -0.097293 1.69157 34 36 34
0.455886 -0.096271 1.6738 35 37 35
0.465588 -0.0964647 1.67717 35 36 35
0.47801 -0.0972043 1.69003 35 36 34
0.487306 -0.097293 1.69157 37 38 36
0.495714 -0.0972043 1.69003 37 38 36
0.505026 -0.097293 1.69157 35 37 35
0.513418 -0.0972043 1.69003 35 36 34
0.535781 -0.099719 1.73375 36 37 35
0.526022 -0.096271 1.6738 36 37 35
0.522195 -0.0940039 1.63439 36 37 35
0.563024 -0.099719 1.73375 36 36 34
0.567032 -0.0988347 1.71838 36 37 35
0.595107 -0.102108 1.77528 37 38 36
0.594537 -0.10044 1.74629 37 38 36
0.605426 -0.10073 1.75133 36 37 36
0.598281 -0.0980557 1.70483 36 37 35
0.601938 -0.0972043 1.69003 36 37 35
0.639072 -0.101705 1.76828 35 36 35
0.630626 -0.0989274 1.71999 35 36 34
0.639036 -0.0988347 1.71838 36 37 36
0.642929 -0.0980557 1.70483 37 38 36
0.662915 -0.099719 1.73375 36 37 35
0.671996 -0.099719 1.73375 36 37 35
0.697391 -0.102108 1.77528 35 36 34
0.714607 -0.103251 1.79517 35 36 34
0.70633 -0.10073 1.75133 35 36 34
0.709832 -0.0999318 1.73745 34 36 34
0.698505 -0.0970924 1.68808 35 36 35
0.701363 -0.096271 1.6738 35 37 35
0.748348 -0.101452 1.76388 35 37 34
0.760901 -0.101896 1.7716 35 37 34
0.780426 -0.103251 1.79517 34 36 34
0.757652 -0.0990451 1.72203 33 35 33
0.775666 -0.100207 1.74224 33 36 34
0.798018 -0.101896 1.7716 33 37 35
0.784711 -0.0990451 1.72203 33 37 35
0.832975 -0.103942 1.80718 32 36 34
0.847436 -0.104559 1.81789 33 36 35
0.859285 -0.104842 1.82283 33 36 35
0.793041 -0.0956967 1.66382 31 35 33
0.858524 -0.102472 1.78162 30 34 31
0.867856 -0.102472 1.78162 34 37 34
0.877188 -0.102472 1.78162 35 38 36
0.866921 -0.100207 1.74224 33 37 34
0.888121 -0.101588 1.76625 31 35 33
0.903324 -0.102262 1.77797 32 36 34
0.946554 -0.106063 1.84404 34 37 35
0.930869 -0.103251 1.79517 34 37 35
0.92068 -0.1011 1.75776 34 37 36
0.97553 -0.106063 1.84404 32 35 35
1.00734 -0.108447 1.8855 31 35 34
0.987541 -0.105284 1.8305 32 36 35
1.06284 -0.112222 1.95113 33 36 36
0.987286 -0.103251 1.79517 33 36 36
0.975921 -0.1011 1.75776 33 36 36
1.05672 -0.108447 1.8855 32 35 35
0.994334 -0.1011 1.75776 31 35 35
1.07009 -0.107805 1.87433 33 37 37
1.07211 -0.107026 1.86079 34 38 38
1.01293 -0.100207 1.74224 34 38 38
1.03928 -0.101896 1.7716 34 38 38
1.06251 -0.103251 1.79517 34 38 38
1.04957 -0.1011 1.75776 34 39 38
1.15701 -0.110479 1.92083 34 38 38
1.09072 -0.103251 1.79517 34 38 38
1.16121 -0.108986 1.89486 34 39 39
1.02348 -0.0952447 1.65596 34 39 39
1.19029 -0.109837 1.90967 35 40 40
-0.605025 -0.0503318 0.962595 35 37 35
-0.583749 -0.0489699 0.936549 35 37 35
-0.559476 -0.0473314 0.905214 36 37 35
-0.554735 -0.0473314 0.905214 36 37 35
-0.590015 -0.0507756 0.971083 36 37 35
-0.565936 -0.0491269 0.939552 37 37 35
-0.597109 -0.0522876 1 36 37 33
-0.591871 -0.0522876 1 36 37 32
-0.569669 -0.0507756 0.971083 37 38 34
-0.542577 -0.0487965 0.933233 39 40 35
-0.576158 -0.0522876 1 38 39 35
-0.536409 -0.0491269 0.939552 37 38 35
-0.565682 -0.0522876 1 36 38 34
-0.543467 -0.0507037 0.969708 37 38 35
-0.572025 -0.0538715 1.03029 37 38 35
-0.532477 -0.0506246 0.968195 38 39 35
-0.581101 -0.0557786 1.06677 38 39 35
-0.572104 -0.0554483 1.06045 39 40 36
-0.550439 -0.0538715 1.03029 38 39 35
-0.529017 -0.0522876 1 38 39 35
-0.52378 -0.0522876 1 37 38 34
-0.518542 -0.0522876 1 37 38 34
-0.544332 -0.0554483 1.06045 37 38 33
-0.540304 -0.0556053 1.06345 36 37 33
-0.552958 -0.0575004 1.0997 37 39 34
-0.480934 -0.0505372 0.966525 38 39 35
-0.527037 -0.0559711 1.07045 37 38 34
-0.519638 -0.0557786 1.06677 36 38 33
-0.529918 -0.0575004 1.0997 36 37 33
-0.521818 -0.0572437 1.09479 35 37 33
-0.544921 -0.0604423 1.15596 35 36 32
-0.527742 -0.0591946 1.1321 35 37 32
-0.528736 -0.05998 1.14712 35 38 33
-0.491764 -0.056427 1.07917 36 39 34
-0.516719 -0.05998 1.14712 37 39 35
-0.536407 -0.0629978 1.20483 38 40 36
-0.553384 -0.0657653 1.25776 37 39 35
-0.523785 -0.0629978 1.20483 37 39 34
-0.523292 -0.0637059 1.21838 37 39 34
-0.51691 -0.0637059 1.21838 37 38 34
-0.542706 -0.0677212 1.29517 36 38 34
-0.543902 -0.0687296 1.31445 36 38 33
-0.545895 -0.0698658 1.33618 35 37 33
-0.546734 -0.0708819 1.35562 35 37 33
-0.494501 -0.0649536 1.24224 35 37 33
-0.508787 -0.0677212 1.29517 35 37 33
-0.532688 -0.0718606 1.37433 36 38 34
-0.505796 -0.0691675 1.32283 38 39 35
-0.468474 -0.0649536 1.24224 38 39 35
-0.53965 -0.0758758 1.45113 38 39 35
-0.549969 -0.0784314 1.5 37 38 34
-0.526796 -0.0762155 1.45762 36 37 33
-0.516848 -0.0758758 1.45113 37 37 34
-0.494697 -0.073708 1.40967 37 39 35
-0.518542 -0.0784314 1.5 37 38 35
-0.496257 -0.0762155 1.45762 36 38 34
-0.472547 -0.073708 1.40967 36 37 33
-0.494972 -0.0784314 1.5 36 37 33
-0.534003 -0.0859809 1.64438 36 37 34
-0.52539 -0.0859809 1.64438 36 37 34
-0.52467 -0.0872942 1.6695 37 38 34
-0.526844 -0.0891416 1.70483 37 38 35
-0.493865 -0.0850021 1.62567 37 38 35
-0.500727 -0.0876952 1.67717 37 38 35
-0.500056 -0.0891416 1.70483 37 38 34
-0.480948 -0.0872942 1.6695 36 37 34
-0.449812 -0.0831547 1.59033 36 37 34
-0.473267 -0.0891416 1.70483 36 37 33
-0.446464 -0.0857103 1.63921 36 38 34
-0.46072 -0.0901815 1.72472 37 38 35
-0.428524 -0.0855569 1.63628 38 39 35
-0.43375 -0.0883676 1.69003 39 40 36
-0.421665 -0.0876952 1.67717 37 38 34
-0.406384 -0.0863154 1.65078 36 37 32
-0.407565 -0.0884482 1.69157 36 37 32
-0.398705 -0.0884482 1.69157 36 37 33
-0.376666 -0.0854581 1.63439 36 37 33
-0.37421 -0.0868755 1.66149 37 38 34
-0.357626 -0.0850021 1.62567 38 38 34
-0.362933 -0.0883676 1.69003 38 38 35
-0.36002 -0.0898497 1.71838 36 37 33
-0.3394 -0.0868755 1.66149 35 36 31
-0.339324 -0.0891416 1.70483 36 37 33
-0.325033 -0.0876952 1.67717 36 37 33
-0.321464 -0.0891416 1.70483 36 37 34
-0.298022 -0.0850021 1.62567 36 37 34
-0.29106 -0.0854581 1.63439 36 37 34
-0.287185 -0.0868755 1.66149 36 37 34
-0.285746 -0.0891416 1.70483 36 37 34
-0.270496 -0.0871061 1.6659 36 37 34
-0.25278 -0.0841147 1.60869 36 37 34
-0.252374 -0.0868755 1.66149 37 38 35
-0.238417 -0.0850021 1.62567 37 38 35
-0.228616 -0.0845266 1.61657 37 38 36
-0.222575 -0.0854581 1.63439 37 38 35
-0.217564 -0.0868755 1.66149 36 37 34
-0.210832 -0.0876952 1.67717 36 37 34
-0.198869 -0.0863154 1.65078 36 37 34
-0.184578 -0.0837544 1.6018 35 36 34
-0.185893 -0.0883676 1.69003 34 36 32
-0.174051 -0.0868755 1.66149 34 35 32
-0.165349 -0.0868755 1.66149 34 35 32
-0.155033 -0.0859809 1.64438 34 36 33
-0.145413 -0.0853892 1.63307 35 36 33
-0.139611 -0.0871061 1.6659 36 37 35
-0.13177 -0.0876952 1.67717 37 38 36
-0.120581 -0.0859809 1.64438 37 38 36
-0.108754 -0.0835127 1.59718 36 36 34
-0.108972 -0.0906536 1.73375 36 36 34
-0.09314 -0.0845266 1.61657 36 36 34
-0.0846727 -0.0845266 1.61657 36 36 34
-0.0810805 -0.089934 1.71999 36 37 34
-0.0684846 -0.0854581 1.63439 36 37 35
-0.0602907 -0.0859809 1.64438 35 37 34
-0.050556 -0.0841147 1.60869 35 37 34
-0.04213 -0.0841147 1.60869 36 37 35
-0.0342423 -0.0854581 1.63439 37 38 36
-0.0254018 -0.0845266 1.61657 36 38 36
-0.0178591 -0.0891416 1.70483 36 37 35
-0.00872567 -0.0871061 1.6659 35 36 34
0 -0.0854581 1.63439 36 36 34
0.00856058 -0.0854581 1.63439 36 37 35
0.0172259 -0.0859809 1.64438 36 37 35
0.0267887 -0.0891416 1.70483 36 37 35
0.0338989 -0.0846011 1.618 36 37 35
0.0432323 -0.0863154 1.65078 36 37 35
0.0515833 -0.0858239 1.64138 36 37 36
0.060918 -0.0868755 1.66149 36 37 35
0.0696205 -0.0868755 1.66149 36 36 34
0.0780621 -0.0865861 1.65596 35 36 34
0.0870257 -0.0868755 1.66149 36 37 35
0.09314 -0.0845266 1.61657 36 37 35
0.102727 -0.0854581 1.63439 36 37 35
0.110694 -0.0850021 1.62567 36 37 35
0.117964 -0.0841147 1.60869 36 37 35
0.127009 -0.0845266 1.61657 36 36 35
0.137556 -0.0858239 1.64138 37 37 36
0.143944 -0.0845266 1.61657 37 38 36
0.15409 -0.0854581 1.63439 36 37 35
0.166909 -0.0876952 1.67717 35 36 34
0.180179 -0.089934 1.71999 36 37 35
0.176946 -0.0841147 1.60869 37 37 35
0.191456 -0.0868755 1.66149 37 37 35
0.195843 -0.0850021 1.62567 37 37 35
0.207515 -0.0863154 1.65078 37 37 35
0.216162 -0.0863154 1.65078 36 37 35
0.228402 -0.0876952 1.67717 36 36 35
0.248584 -0.0919091 1.75776 36 36 34
0.243672 -0.0868755 1.66149 36 36 34
0.254756 -0.0876952 1.67717 36 36 34
0.265561 -0.0883676 1.69003 36 36 35
0.26978 -0.0868755 1.66149 37 37 35
0.285746 -0.0891416 1.70483 36 37 35
0.287947 -0.0871061 1.6659 38 38 36
0.295887 -0.0868755 1.66149 38 38 37
0.315018 -0.0898497 1.71838 38 38 37
0.304822 -0.0845266 1.61657 38 38 37
0.327824 -0.0884482 1.69157 38 38 37
0.333818 -0.0876952 1.67717 38 38 37
0.337212 -0.0863154 1.65078 38 39 37
0.348103 -0.0868755 1.66149 37 37 36
0.372322 -0.0906536 1.73375 36 37 35
0.371785 -0.0883676 1.69003 36 37 35
0.371798 -0.0863154 1.65078 37 37 35
0.392901 -0.0891416 1.70483 36 37 35
0.394517 -0.0875191 1.6738 35 36 34
0.404095 -0.0876952 1.67717 36 36 34
0.41288 -0.0876952 1.67717 37 38 36
0.432429 -0.089934 1.71999 36 38 36
0.437549 -0.0891416 1.70483 34 36 34
0.430648 -0.0859809 1.64438 34 36 34
0.43926 -0.0859809 1.64438 33 35 33
0.451026 -0.0865861 1.65596 34 36 34
0.469158 -0.0883676 1.69003 35 37 35
0.474373 -0.0876952 1.67717 36 37 35
0.483157 -0.0876952 1.67717 37 39 36
0.482325 -0.0859809 1.64438 36 38 35
0.497363 -0.0871061 1.6659 34 36 34
0.53051 -0.0913094 1.74629 35 36 34
0.539657 -0.0913094 1.74629 35 36 34
0.526022 -0.0875191 1.6738 36 37 34
0.539974 -0.0883676 1.69003 36 37 35
0.567097 -0.0913094 1.74629 36 37 34
0.567032 -0.0898497 1.71838 38 39 36
0.567047 -0.0884482 1.69157 38 39 37
0.585033 -0.0898497 1.71838 39 39 38
0.589351 -0.0891416 1.70483 37 38 37
0.611408 -0.0910974 1.74224 36 37 35
0.61751 -0.0906536 1.73375 36 36 35
0.621035 -0.0898497 1.71838 35 36 35
0.619642 -0.0883676 1.69003 35 36 35
0.644753 -0.0906536 1.73375 36 37 36
0.665198 -0.0922292 1.76388 36 37 36
0.669638 -0.0915729 1.75133 36 37 35
0.666662 -0.089934 1.71999 36 37 35
0.648485 -0.0863154 1.65078 36 37 35
0.702153 -0.0922292 1.76388 35 36 34
0.704298 -0.0913094 1.74629 34 36 34
0.720631 -0.0922292 1.76388 34 36 34
0.727337 -0.0919091 1.75776 35 36 35
0.726482 -0.0906536 1.73375 35 37 35
0.71013 -0.0875191 1.6738 36 37 35
0.752196 -0.0915729 1.75133 35 37 35
0.790306 -0.0950533 1.81789 35 36 34
0.784915 -0.093281 1.784 34 36 34
0.779715 -0.0915729 1.75133 32 35 34
0.760398 -0.0882658 1.68808 32 36 34
0.807297 -0.0926327 1.7716 34 37 35
0.816576 -0.0926327 1.7716 33 37 35
0.819405 -0.0919091 1.75776 33 37 35
0.828612 -0.0919091 1.75776 33 36 34
0.837819 -0.0919091 1.75776 33 36 34
0.920224 -0.0998518 1.90967 33 36 34
0.881663 -0.0946389 1.80997 33 37 35
0.829884 -0.0881332 1.68555 32 36 34
0.917578 -0.0964205 1.84404 31 35 33
0.894011 -0.0929655 1.77797 31 36 34
0.878142 -0.0903739 1.7284 32 36 35
0.897598 -0.0914336 1.74867 33 37 35
0.977711 -0.0985883 1.8855 34 37 36
0.940272 -0.0938649 1.79517 34 37 36
0.968366 -0.0957123 1.8305 32 36 35
0.939093 -0.0919091 1.75776 31 35 35
0.9483 -0.0919091 1.75776 31 35 35
0.968512 -0.0929655 1.77797 32 36 36
1.04212 -0.0990778 1.89486 33 36 37
1.08103 -0.101808 1.94707 33 36 36
1.0169 -0.0948733 1.81445 32 35 36
0.980751 -0.0906536 1.73375 31 35 35
1.01144 -0.0926327 1.7716 33 37 37
1.11576 -0.101257 1.93655 34 38 38
1.08973 -0.0980044 1.87433 35 40 39
1.17327 -0.104575 2 35 40 40
1.14205 -0.100892 1.92955 35 40 40
1.13144 -0.0990778 1.89486 35 40 39
1.16226 -0.100892 1.92955 34 39 39
1.09072 -0.0938649 1.79517 34 39 39
1.17029 -0.0998518 1.90967 34 39 39
1.10952 -0.0938649 1.79517 35 40 40
1.19725 -0.100436 1.92083 35 40 40
-0.584257 -0.0437437 0.929553 36 39 36
-0.553987 -0.0418259 0.8888 36 38 35
-0.521668 -0.0397196 0.844042 36 38 35
-0.594258 -0.0456333 0.969708 36 37 35
-0.569032 -0.0440729 0.936549 36 37 34
-0.564127 -0.0440729 0.936549 36 37 34
-0.57712 -0.0454835 0.966525 37 37 33
-0.591871 -0.0470588 1 36 38 32
-0.551172 -0.0442142 0.939552 36 37 32
-0.581395 -0.0470588 1 36 38 32
-0.54133 -0.0442142 0.939552 37 38 34
-0.57092 -0.0470588 1 37 38 35
-0.547691 -0.0455621 0.968195 36 37 34
-0.560444 -0.0470588 1 36 38 34
-0.536621 -0.0454835 0.966525 36 37 34
-0.549969 -0.0470588 1 37 38 34
-0.562966 -0.0486341 1.03348 37 38 34
-0.521433 -0.0454835 0.966525 38 39 35
-0.534255 -0.0470588 1 38 39 35
-0.529017 -0.0470588 1 38 39 34
-0.507121 -0.0455621 0.968195 37 38 34
-0.555071 -0.050374 1.07045 38 39 35
-0.513304 -0.0470588 1 38 40 35
-0.508066 -0.0470588 1 38 39 35
-0.540316 -0.0505672 1.07455 38 39 35
-0.530813 -0.0502008 1.06677 38 39 34
-0.52906 -0.0505672 1.07455 37 38 34
-0.535678 -0.0517504 1.0997 37 38 33
-0.515824 -0.050374 1.07045 36 37 33
-0.532881 -0.0526116 1.118 35 37 32
-0.544921 -0.054398 1.15596 34 36 31
-0.524745 -0.0529725 1.12567 36 38 34
-0.549803 -0.0561328 1.19282 37 39 35
-0.494141 -0.0510299 1.08438 37 39 34
-0.548818 -0.0573353 1.21838 37 39 35
-0.519076 -0.0548661 1.1659 37 40 35
-0.530096 -0.056698 1.20483 37 39 35
-0.563057 -0.060949 1.29517 37 39 34
-0.523292 -0.0573353 1.21838 37 38 34
-0.496174 -0.0550354 1.1695 36 38 33
-0.524338 -0.0588862 1.25133 36 37 33
-0.543902 -0.0618566 1.31445 35 37 33
-0.484353 -0.0557905 1.18555 35 37 33
-0.542066 -0.063249 1.34404 35 37 33
-0.552843 -0.0653553 1.3888 35 37 33
-0.534566 -0.0640372 1.36079 36 37 33
-0.512724 -0.0622508 1.32283 36 37 33
-0.484162 -0.0595882 1.26625 37 38 34
-0.518291 -0.0646745 1.37433 37 38 34
-0.542065 -0.0685939 1.45762 36 38 33
-0.532049 -0.0682883 1.45113 36 37 33
-0.468084 -0.060949 1.29517 36 37 34
-0.471152 -0.0622508 1.32283 36 37 34
-0.54355 -0.0728882 1.54887 37 38 34
-0.518542 -0.0705882 1.5 36 38 34
-0.559842 -0.0773828 1.64438 36 38 34
-0.517035 -0.0725825 1.54238 36 37 34
-0.494972 -0.0705882 1.5 36 37 34
-0.468372 -0.0678722 1.44228 37 38 35
-0.497699 -0.0733043 1.55772 37 38 34
-0.48954 -0.0733043 1.55772 36 37 34
-0.508164 -0.0773828 1.64438 37 38 35
-0.487628 -0.0755359 1.60514 38 39 35
-0.48535 -0.0765019 1.62567 37 38 35
-0.500056 -0.0802274 1.70483 36 37 34
-0.51036 -0.0833694 1.7716 35 36 32
-0.474373 -0.0789257 1.67717 35 36 32
-0.481295 -0.0815882 1.73375 34 35 31
-0.427735 -0.0739034 1.57045 34 35 31
-0.44597 -0.0785648 1.6695 36 37 33
-0.442602 -0.0795308 1.69003 37 39 35
-0.422035 -0.0773828 1.64438 37 39 34
-0.410908 -0.0769123 1.63439 36 38 34
-0.41969 -0.0802274 1.70483 36 37 32
-0.407194 -0.0795308 1.69003 36 37 33
-0.398705 -0.0796034 1.69157 37 37 34
-0.376666 -0.0769123 1.63439 37 37 34
-0.371798 -0.0776839 1.65078 37 38 34
-0.361744 -0.0773828 1.64438 38 38 35
-0.356805 -0.0781879 1.66149 37 37 33
-0.354404 -0.0796034 1.69157 35 36 32
-0.333863 -0.0769123 1.63439 36 37 32
-0.339324 -0.0802274 1.70483 36 37 33
-0.32438 -0.0787672 1.6738 36 37 34
-0.313292 -0.0781879 1.66149 36 38 34
-0.30459 -0.0781879 1.66149 36 37 34
-0.295887 -0.0781879 1.66149 36 37 34
-0.285333 -0.0776839 1.65078 36 37 34
-0.278482 -0.0781879 1.66149 36 37 34
-0.262485 -0.076074 1.61657 36 37 34
-0.259394 -0.0776839 1.65078 36 37 34
-0.254756 -0.0789257 1.67717 37 38 35
-0.241163 -0.0773828 1.64438 37 38 35
-0.237186 -0.0789257 1.67717 37 38 36
-0.227943 -0.0787672 1.6738 37 38 36
-0.214015 -0.0769123 1.63439 36 37 35
-0.209416 -0.0783955 1.6659 36 37 35
-0.203782 -0.0796034 1.69157 36 37 34
-0.190222 -0.0776839 1.65078 36 37 34
-0.186062 -0.0796034 1.69157 36 37 34
-0.170298 -0.0765019 1.62567 36 37 35
-0.168342 -0.0796034 1.69157 36 37 35
-0.152545 -0.076141 1.618 36 37 35
-0.14699 -0.0776839 1.65078 36 37 35
-0.137807 -0.0773828 1.64438 36 37 35
-0.129194 -0.0773828 1.64438 37 38 36
-0.122986 -0.0789257 1.67717 37 37 35
-0.108288 -0.0748393 1.59033 37 37 35
-0.104431 -0.0781879 1.66149 37 37 35
-0.0957282 -0.0781879 1.66149 36 36 34
-0.0878468 -0.0789257 1.67717 35 36 33
-0.0817293 -0.0815882 1.73375 36 37 34
-0.0684846 -0.0769123 1.63439 37 37 35
-0.0605252 -0.0776839 1.65078 36 37 34
-0.0510894 -0.0765019 1.62567 35 36 34
-0.04213 -0.0757032 1.60869 36 37 35
-0.0342423 -0.0769123 1.63439 37 38 36
-0.025278 -0.0757032 1.60869 37 37 36
-0.0175341 -0.0787672 1.6738 36 37 36
-0.00872567 -0.0783955 1.6659 36 37 35
0 -0.0795308 1.69003 36 36 34
0.00864646 -0.0776839 1.65078 36 37 35
0.0174051 -0.0781879 1.66149 37 38 36
0.0261077 -0.0781879 1.66149 36 37 35
0.0351387 -0.0789257 1.67717 36 37 35
0.0419496 -0.075379 1.6018 36 37 36
0.0510894 -0.0765019 1.62567 37 37 36
0.062507 -0.0802274 1.70483 36 37 36
0.0702774 -0.0789257 1.67717 36 37 35
0.0803661 -0.0802274 1.70483 36 37 34
0.0856058 -0.0769123 1.63439 36 37 35
0.0941664 -0.0769123 1.63439 36 37 35
0.107155 -0.0802274 1.70483 36 37 35
0.113133 -0.0781879 1.66149 36 37 35
0.124041 -0.0796034 1.69157 36 37 35
0.131506 -0.0787672 1.6738 37 38 36
0.138343 -0.0776839 1.65078 37 38 36
0.151803 -0.0802274 1.70483 36 37 35
0.151668 -0.0757032 1.60869 36 36 34
0.162651 -0.0769123 1.63439 36 37 35
0.18001 -0.0808647 1.71838 38 38 36
0.180872 -0.0773828 1.64438 37 38 36
0.194745 -0.0795308 1.69003 36 37 35
0.194747 -0.076074 1.61657 36 37 35
0.208862 -0.0781879 1.66149 36 37 35
0.211682 -0.076074 1.61657 37 37 35
0.222575 -0.0769123 1.63439 37 37 35
0.234969 -0.0781879 1.66149 37 37 35
0.239696 -0.0769123 1.63439 37 37 36
0.249776 -0.0773828 1.64438 37 37 36
0.261077 -0.0781879 1.66149 37 38 36
0.265378 -0.0769123 1.63439 37 37 35
0.276687 -0.0776839 1.65078 35 35 34
0.280992 -0.0765019 1.62567 37 37 36
0.284434 -0.0751614 1.59718 38 39 37
0.302626 -0.0776839 1.65078 37 38 36
0.318673 -0.0795308 1.69003 37 37 36
0.321995 -0.0781879 1.66149 36 37 36
0.333147 -0.0787672 1.6738 36 37 35
0.335905 -0.0773828 1.64438 37 37 36
0.340596 -0.0765019 1.62567 37 37 36
0.363264 -0.0796034 1.69157 36 37 35
0.368957 -0.0789257 1.67717 36 37 35
0.360767 -0.075379 1.6018 36 37 35
0.380444 -0.0776839 1.65078 36 36 35
0.398342 -0.0795308 1.69003 36 36 35
0.414023 -0.0808647 1.71838 36 37 35
0.412051 -0.0787672 1.6738 37 38 36
0.408716 -0.0765019 1.62567 36 38 36
0.422035 -0.0773828 1.64438 35 37 35
0.464928 -0.0835426 1.77528 35 37 35
0.44597 -0.0785648 1.6695 35 37 35
0.452533 -0.0781879 1.66149 36 38 36
0.469158 -0.0795308 1.69003 35 37 35
0.490376 -0.0815882 1.73375 35 37 35
0.504522 -0.0824156 1.75133 35 37 35
0.504501 -0.0809406 1.71999 35 36 34
0.532621 -0.0839529 1.784 36 37 35
0.522519 -0.0809406 1.71999 36 37 35
0.531528 -0.0809406 1.71999 36 37 34
0.531122 -0.0795308 1.69003 35 36 34
0.553943 -0.0815882 1.73375 36 36 34
0.536081 -0.0776839 1.65078 35 36 33
0.562563 -0.0802274 1.70483 37 37 35
0.56222 -0.0789257 1.67717 37 38 35
0.591527 -0.0817624 1.73745 37 37 36
0.589351 -0.0802274 1.70483 37 37 36
0.593627 -0.0796034 1.69157 36 36 35
0.642984 -0.0849539 1.80527 35 36 35
0.61614 -0.0802274 1.70483 35 36 35
0.614928 -0.0789257 1.67717 34 35 34
0.628494 -0.0795308 1.69003 35 36 36
0.653834 -0.0815882 1.73375 36 37 35
0.651858 -0.0802274 1.70483 37 38 35
0.671996 -0.0815882 1.73375 36 37 35
0.669717 -0.0802274 1.70483 36 37 35
0.678647 -0.0802274 1.70483 35 36 34
0.693689 -0.0809406 1.71999 34 36 34
0.720631 -0.0830063 1.76388 34 36 34
0.724676 -0.0824156 1.75133 35 37 35
0.720715 -0.0809406 1.71999 35 37 35
0.737134 -0.0817624 1.73745 36 38 35
0.725031 -0.0794392 1.68808 35 37 35
0.764164 -0.0827182 1.75776 35 37 35
0.764435 -0.0817624 1.73745 35 37 35
0.775666 -0.0819877 1.74224 33 35 35
0.798018 -0.0833694 1.7716 32 35 34
0.807297 -0.0833694 1.7716 33 36 35
0.810198 -0.0827182 1.75776 34 37 36
0.80275 -0.0810369 1.72203 33 36 34
0.828612 -0.0827182 1.75776 32 36 34
0.849192 -0.0838411 1.78162 33 36 35
0.898997 -0.0877936 1.86561 34 37 35
0.89826 -0.0867784 1.84404 33 37 35
0.849171 -0.0811633 1.72472 32 36 34
0.858205 -0.0811633 1.72472 31 36 34
0.933056 -0.0873231 1.85562 31 36 34
0.888439 -0.0822903 1.74867 32 36 35
0.921467 -0.0844785 1.79517 32 37 35
0.956213 -0.0867784 1.84404 33 37 35
0.948025 -0.085175 1.80997 33 37 36
0.97553 -0.0867784 1.84404 32 36 35
0.959077 -0.0844785 1.79517 31 35 35
0.987541 -0.0861411 1.8305 31 36 35
0.957507 -0.0827182 1.75776 31 35 35
0.953508 -0.0815882 1.73375 31 35 36
1.0163 -0.0861411 1.8305 32 36 37
1.00609 -0.0844785 1.79517 30 35 35
1.0264 -0.085386 1.81445 29 34 35
1.06236 -0.0875666 1.86079 31 36 37
1.10027 -0.0898666 1.90967 34 39 39
1.0437 -0.0844785 1.79517 36 41 41
1.08178 -0.0867784 1.84404 36 41 41
1.07888 -0.0857802 1.82283 35 40 40
1.15215 -0.0908025 1.92955 35 39 39
1.06712 -0.0833694 1.7716 35 40 40
1.03583 -0.0802274 1.70483 36 41 41
1.11707 -0.0857802 1.82283 35 40 41
1.15845 -0.088204 1.87433 35 41 41
1.18106 -0.08917 1.89486 35 40 40
-0.565873 -0.0376598 0.900304 36 38 35
-0.566992 -0.0380514 0.909666 36 38 35
-0.582388 -0.0394158 0.942284 36 38 35
-0.544676 -0.0371786 0.8888 36 37 35
-0.586118 -0.0403521 0.964669 36 37 34
-0.581065 -0.0403521 0.964669 36 37 34
-0.559222 -0.0391759 0.936549 37 38 34
-0.573047 -0.0404997 0.968195 38 39 34
-0.586633 -0.0418301 1 36 38 33
-0.599886 -0.0431604 1.0318 35 37 30
-0.576158 -0.0418301 1 35 37 32
-0.57092 -0.0418301 1 37 38 34
-0.545696 -0.0403521 0.964669 36 38 34
-0.560444 -0.0418301 1 36 38 34
-0.555206 -0.0418301 1 36 37 33
-0.549969 -0.0418301 1 36 37 33
-0.544731 -0.0418301 1 37 38 34
-0.539493 -0.0418301 1 38 39 35
-0.534255 -0.0418301 1 38 39 35
-0.545843 -0.0431604 1.0318 38 39 35
-0.573427 -0.045795 1.09479 38 39 35
-0.536863 -0.043308 1.03533 39 40 36
-0.551573 -0.0449487 1.07455 39 40 35
-0.526017 -0.043308 1.03533 39 40 36
-0.502828 -0.0418301 1 38 39 34
-0.570795 -0.047984 1.14712 36 37 33
-0.544117 -0.0462279 1.10514 37 38 33
-0.523431 -0.0449487 1.07455 37 39 34
-0.561823 -0.0487699 1.1659 37 38 34
-0.529642 -0.0464816 1.1112 36 37 33
-0.523821 -0.0464816 1.1112 36 38 33
-0.484688 -0.0434923 1.03974 36 39 34
-0.555339 -0.0503982 1.20483 36 39 34
-0.5552 -0.0509647 1.21838 36 38 34
-0.516719 -0.047984 1.14712 36 39 34
-0.501161 -0.0470867 1.12567 36 39 34
-0.542819 -0.0516078 1.23375 37 38 34
-0.523785 -0.0503982 1.20483 37 38 34
-0.529895 -0.0516078 1.23375 36 38 33
-0.530892 -0.0523433 1.25133 36 37 33
-0.53283 -0.0531911 1.2716 36 38 33
-0.505661 -0.0511178 1.22203 36 38 33
-0.519509 -0.0531911 1.2716 36 38 34
-0.522354 -0.0541769 1.29517 36 38 34
-0.535026 -0.0562214 1.34404 36 38 34
-0.519653 -0.055334 1.32283 36 37 34
-0.481488 -0.0519629 1.24224 36 37 33
-0.538998 -0.0589664 1.40967 36 38 34
-0.498867 -0.055334 1.32283 37 38 34
-0.511092 -0.0574885 1.37433 37 38 34
-0.532049 -0.0607007 1.45113 37 37 34
-0.504115 -0.0583472 1.39486 37 38 35
-0.502081 -0.0589664 1.40967 37 38 35
-0.54355 -0.0647895 1.54887 37 38 34
-0.487314 -0.0589664 1.40967 36 37 34
-0.527325 -0.0647895 1.54887 36 38 34
-0.519212 -0.0647895 1.54887 36 37 34
-0.511099 -0.0647895 1.54887 36 38 34
-0.534003 -0.0687847 1.64438 37 38 34
-0.52539 -0.0687847 1.64438 37 38 35
-0.48472 -0.0645178 1.54238 37 38 34
-0.478649 -0.0647895 1.54887 37 38 35
-0.507181 -0.0698353 1.6695 37 38 35
-0.535955 -0.075092 1.79517 37 38 34
-0.476835 -0.0680017 1.62567 36 37 34
-0.473712 -0.0687847 1.64438 34 36 32
-0.482197 -0.0713133 1.70483 34 35 31
-0.48796 -0.0735273 1.75776 31 34 28
-0.469754 -0.0721452 1.72472 31 34 28
-0.451454 -0.0706941 1.69003 34 35 31
-0.450447 -0.0719472 1.71999 36 38 34
-0.437549 -0.0713133 1.70483 36 38 34
-0.420818 -0.0700153 1.6738 36 37 33
-0.416046 -0.0706941 1.69003 36 37 32
-0.417017 -0.0723996 1.7308 37 37 34
-0.405023 -0.0718798 1.71838 37 38 35
-0.386526 -0.0701562 1.67717 38 38 35
-0.368105 -0.0683665 1.63439 37 37 34
-0.355625 -0.0676213 1.61657 37 37 34
-0.360172 -0.0701562 1.67717 36 37 33
-0.357183 -0.0713133 1.70483 36 37 33
-0.348253 -0.0713133 1.70483 38 39 35
-0.345079 -0.0725229 1.73375 37 38 34
-0.311762 -0.0672917 1.60869 37 38 34
-0.310066 -0.0687847 1.64438 36 37 34
-0.30459 -0.0695004 1.66149 36 37 34
-0.29106 -0.0683665 1.63439 36 37 34
-0.282499 -0.0683665 1.63439 36 37 34
-0.276687 -0.0690523 1.65078 36 37 34
-0.272325 -0.0701562 1.67717 36 37 34
-0.259394 -0.0690523 1.65078 36 37 34
-0.254756 -0.0701562 1.67717 36 37 34
-0.245477 -0.0700153 1.6738 36 37 35
-0.234969 -0.0695004 1.66149 36 37 35
-0.232169 -0.0713133 1.70483 36 37 35
-0.214015 -0.0683665 1.63439 37 38 35
-0.207515 -0.0690523 1.65078 37 38 35
-0.203782 -0.0707586 1.69157 37 38 35
-0.189139 -0.0686591 1.64138 37 38 35
-0.185893 -0.0706941 1.69003 36 38 35
-0.175341 -0.0700153 1.6738 36 37 35
-0.165349 -0.0695004 1.66149 36 37 35
-0.158124 -0.0701562 1.67717 36 38 35
-0.14553 -0.0683665 1.63439 36 38 35
-0.138343 -0.0690523 1.65078 37 38 35
-0.127009 -0.0676213 1.61657 37 38 36
-0.12105 -0.0690523 1.65078 38 37 35
-0.112404 -0.0690523 1.65078 37 38 35
-0.104431 -0.0695004 1.66149 37 37 35
-0.0957282 -0.0695004 1.66149 37 37 35
-0.0842601 -0.0672917 1.60869 36 37 34
-0.0775166 -0.0687847 1.64438 36 37 34
-0.067259 -0.067143 1.60514 36 37 35
-0.060715 -0.0692688 1.65596 36 37 34
-0.0535774 -0.0713133 1.70483 35 36 34
-0.0425745 -0.0680017 1.62567 36 37 35
-0.0340596 -0.0680017 1.62567 36 37 36
-0.026354 -0.0701562 1.67717 36 37 35
-0.0172929 -0.0690523 1.65078 36 37 35
-0.00842601 -0.0672917 1.60869 36 37 35
0 -0.0696849 1.6659 36 37 35
0.00878468 -0.0701562 1.67717 36 37 35
0.0178591 -0.0713133 1.70483 37 38 35
0.0256817 -0.0683665 1.63439 37 38 35
0.0331947 -0.0662749 1.58438 36 37 35
0.0425745 -0.0680017 1.62567 35 36 35
0.0510894 -0.0680017 1.62567 36 37 35
0.0583089 -0.0665238 1.59033 37 37 36
0.0701363 -0.0700153 1.6738 36 37 35
0.0783231 -0.0695004 1.66149 36 37 35
0.0878468 -0.0701562 1.67717 36 37 35
0.0947425 -0.0687847 1.64438 36 37 35
0.103167 -0.0686591 1.64138 36 37 35
0.111288 -0.0683665 1.63439 36 37 36
0.125014 -0.0713133 1.70483 36 37 36
0.128409 -0.0683665 1.63439 37 38 36
0.140273 -0.0700153 1.6738 37 38 36
0.143944 -0.0676213 1.61657 36 37 35
0.164641 -0.0730475 1.74629 36 37 35
0.165349 -0.0695004 1.66149 37 38 36
0.175694 -0.0701562 1.67717 38 38 36
0.179772 -0.0683665 1.63439 37 37 36
0.193263 -0.0701562 1.67717 37 37 35
0.196893 -0.0683665 1.63439 36 37 35
0.208166 -0.0692688 1.65596 36 37 35
0.221301 -0.0706941 1.69003 37 37 35
0.230363 -0.0707586 1.69157 37 38 36
0.231136 -0.0683665 1.63439 38 38 36
0.241163 -0.0687847 1.64438 38 38 36
0.245551 -0.0676213 1.61657 38 38 36
0.256817 -0.0683665 1.63439 37 37 35
0.263962 -0.0680017 1.62567 37 37 35
0.277554 -0.0692688 1.65596 37 37 35
0.292117 -0.0706941 1.69003 37 37 35
0.298679 -0.0701562 1.67717 37 37 35
0.2928 -0.0668101 1.59718 36 37 35
0.313292 -0.0695004 1.66149 36 37 36
0.32285 -0.0696849 1.6659 36 37 36
0.333818 -0.0701562 1.67717 36 36 35
0.3394 -0.0695004 1.66149 35 36 35
0.340596 -0.0680017 1.62567 36 36 35
0.353131 -0.0687847 1.64438 36 37 36
0.371357 -0.0706126 1.68808 36 37 35
0.368105 -0.0683665 1.63439 36 37 35
0.389845 -0.0707586 1.69157 36 37 35
0.405402 -0.0719472 1.71999 36 37 35
0.407194 -0.0706941 1.69003 36 37 35
0.402812 -0.0684455 1.63628 37 38 36
0.428619 -0.0713133 1.70483 36 38 36
0.43325 -0.0706126 1.68808 35 37 35
0.438352 -0.0700153 1.6738 36 37 35
0.451454 -0.0706941 1.69003 35 37 35
0.44515 -0.0683665 1.63439 36 37 36
0.461236 -0.0695004 1.66149 36 37 36
0.47342 -0.0700153 1.6738 35 36 34
0.491126 -0.0713133 1.70483 34 36 33
0.487344 -0.0695004 1.66149 35 37 35
0.522868 -0.0732583 1.75133 36 38 36
0.513418 -0.0706941 1.69003 36 37 35
0.535781 -0.0725229 1.73375 36 37 35
0.527081 -0.0701562 1.67717 36 37 34
0.527434 -0.0690523 1.65078 36 37 35
0.558554 -0.0719472 1.71999 36 37 34
0.571132 -0.0723996 1.7308 36 36 34
0.56653 -0.0706941 1.69003 35 35 33
0.575382 -0.0706941 1.69003 34 35 34
0.584767 -0.0707586 1.69157 35 35 34
0.593627 -0.0707586 1.69157 35 36 35
0.607211 -0.0713133 1.70483 35 36 35
0.606143 -0.0701562 1.67717 35 36 36
0.64672 -0.0737834 1.76388 35 36 35
0.655959 -0.0737834 1.76388 35 36 35
0.631227 -0.0700153 1.6738 36 37 36
0.667711 -0.0730475 1.74629 37 38 36
0.688093 -0.07426 1.77528 36 37 36
0.675671 -0.0719472 1.71999 35 36 35
0.702153 -0.0737834 1.76388 35 36 34
0.687577 -0.0713133 1.70483 34 35 34
0.70832 -0.0725229 1.73375 34 36 34
0.734586 -0.07426 1.77528 35 37 35
0.739109 -0.0737834 1.76388 35 37 35
0.756882 -0.0746248 1.784 37 39 37
0.760901 -0.0741061 1.7716 36 38 36
0.755334 -0.0726777 1.73745 35 37 35
0.779459 -0.0741061 1.7716 34 36 35
0.773535 -0.0726777 1.73745 33 36 35
0.767943 -0.0713133 1.70483 32 36 35
0.800991 -0.0735273 1.75776 32 36 35
0.816576 -0.0741061 1.7716 33 36 35
0.825856 -0.0741061 1.7716 32 36 34
0.819037 -0.0726777 1.73745 33 36 34
0.830419 -0.0728779 1.74224 34 37 35
0.829809 -0.0720328 1.72203 34 37 36
0.874453 -0.075092 1.79517 34 37 36
0.91854 -0.0780387 1.86561 32 36 35
0.928312 -0.0780387 1.86561 32 36 35
0.888121 -0.0738823 1.76625 32 37 35
0.930015 -0.0765699 1.8305 31 36 35
0.921467 -0.075092 1.79517 32 37 35
0.930869 -0.075092 1.79517 33 37 36
0.905301 -0.0722991 1.7284 33 37 36
0.914354 -0.0722991 1.7284 34 38 37
0.959077 -0.075092 1.79517 33 37 37
0.987541 -0.0765699 1.8305 32 37 36
1.0549 -0.081006 1.93655 30 35 35
0.966714 -0.0735273 1.75776 29 34 35
1.02382 -0.0771364 1.84404 31 35 36
1.05046 -0.0784035 1.87433 29 35 35
0.980751 -0.0725229 1.73375 27 34 34
1.06236 -0.077837 1.86079 30 36 37
1.07991 -0.0784035 1.87433 35 40 40
1.12183 -0.0807133 1.92955 37 42 41
1.00011 -0.0713133 1.70483 35 40 40
1.07888 -0.076249 1.82283 33 38 38
1.14028 -0.0798814 1.90967 34 39 39
1.09797 -0.076249 1.82283 36 41 41
1.0764 -0.0741061 1.7716 37 42 42
1.11707 -0.076249 1.82283 36 41 41
1.15008 -0.077837 1.86079 35 41 41
1.2466 -0.0836601 2 35 40 40
-0.584257 -0.0340229 0.929553 34 37 34
-0.601276 -0.0353081 0.964669 35 37 34
-0.559476 -0.033132 0.905214 36 38 35
-0.594258 -0.0354926 0.969708 36 38 35
-0.549994 -0.033132 0.905214 36 37 34
-0.542295 -0.0329523 0.900304 36 37 34
-0.555044 -0.0340229 0.929553 36 37 33
-0.552354 -0.0341576 0.933233 37 38 33
-0.542897 -0.0338725 0.925446 37 39 34
-0.562904 -0.0354372 0.968195 36 38 32
-0.576158 -0.0366013 1 35 37 32
-0.551808 -0.0353761 0.966525 37 38 34
-0.601575 -0.0389237 1.06345 37 39 35
-0.560444 -0.0366013 1 37 38 34
-0.536621 -0.0353761 0.966525 36 37 34
-0.533309 -0.0354926 0.969708 36 37 34
-0.579295 -0.0389237 1.06345 37 38 34
-0.555835 -0.03771 1.03029 37 38 35
-0.551247 -0.0377654 1.0318 38 38 35
-0.547708 -0.0378945 1.03533 38 39 35
-0.52378 -0.0366013 1 38 39 36
-0.551444 -0.0389237 1.06345 38 39 35
-0.545874 -0.0389237 1.06345 38 39 35
-0.540304 -0.0389237 1.06345 38 39 35
-0.538251 -0.0391797 1.07045 37 38 34
-0.547198 -0.0402503 1.0997 36 37 32
-0.577279 -0.0429147 1.17249 36 37 32
-0.558778 -0.041986 1.14712 36 37 32
-0.501026 -0.0380557 1.03974 36 38 33
-0.49558 -0.0380557 1.03974 37 38 34
-0.544921 -0.0423096 1.15596 37 38 34
-0.561649 -0.0440984 1.20483 36 39 34
-0.515314 -0.0409201 1.118 36 39 34
-0.531289 -0.0426736 1.1659 36 39 34
-0.566559 -0.0460357 1.25776 36 38 34
-0.55306 -0.0454675 1.24224 36 38 34
-0.508593 -0.0423096 1.15596 36 38 34
-0.536357 -0.0451569 1.23375 36 38 33
-0.511117 -0.0435567 1.19003 36 38 33
-0.549489 -0.0474048 1.29517 36 38 33
-0.524338 -0.0458004 1.25133 36 38 33
-0.545326 -0.0482366 1.31789 36 39 34
-0.538423 -0.0482366 1.31789 37 39 34
-0.573037 -0.0520043 1.42083 37 38 35
-0.561149 -0.0515956 1.40967 37 38 35
-0.561578 -0.0523235 1.42955 36 38 34
-0.502003 -0.0474048 1.29517 36 37 33
-0.538998 -0.0515956 1.40967 36 38 33
-0.518291 -0.0503024 1.37433 36 38 34
-0.596924 -0.0587501 1.60514 37 38 34
-0.516848 -0.0515956 1.40967 36 37 33
-0.509464 -0.0515956 1.40967 37 38 34
-0.496809 -0.0510538 1.39486 37 38 34
-0.5581 -0.0582083 1.59033 36 37 34
-0.589351 -0.0623991 1.70483 36 37 33
-0.510685 -0.054902 1.5 36 37 34
-0.559648 -0.0611059 1.6695 36 38 34
-0.494972 -0.054902 1.5 36 37 34
-0.521258 -0.0587501 1.60514 36 37 34
-0.479258 -0.054902 1.5 36 37 34
-0.471402 -0.054902 1.5 36 37 33
-0.491461 -0.0582083 1.59033 36 37 33
-0.455688 -0.054902 1.5 36 37 34
-0.462423 -0.0566908 1.54887 36 38 34
-0.454311 -0.0566908 1.54887 36 38 34
-0.473712 -0.0601866 1.64438 35 36 33
-0.453998 -0.0587501 1.60514 34 36 32
-0.45505 -0.0599972 1.63921 32 34 30
-0.439733 -0.0590927 1.6145 31 34 28
-0.455408 -0.0623991 1.70483 34 36 32
-0.425745 -0.0595015 1.62567 37 39 35
-0.441438 -0.0629538 1.71999 36 38 34
-0.424898 -0.0618573 1.69003 36 38 34
-0.41288 -0.0613867 1.67717 37 38 34
-0.404095 -0.0613867 1.67717 37 38 34
-0.409519 -0.063593 1.73745 38 38 35
-0.380444 -0.0604208 1.65078 38 38 35
-0.371798 -0.0604208 1.65078 37 37 34
-0.371785 -0.0618573 1.69003 36 37 33
-0.354505 -0.0604208 1.65078 36 37 33
-0.340596 -0.0595015 1.62567 37 37 34
-0.348253 -0.0623991 1.70483 37 38 34
-0.327292 -0.0601866 1.64438 37 38 34
-0.327525 -0.0618573 1.69003 37 38 34
-0.331445 -0.0643364 1.75776 36 37 34
-0.296355 -0.0591686 1.61657 36 37 34
-0.29284 -0.0601866 1.64438 36 37 34
-0.289894 -0.0613867 1.67717 35 36 33
-0.283523 -0.0619137 1.69157 35 36 32
-0.274413 -0.0618573 1.69003 36 37 34
-0.26354 -0.0613867 1.67717 37 38 35
-0.252374 -0.0608128 1.66149 37 38 35
-0.247857 -0.0618573 1.69003 36 37 35
-0.241098 -0.0623991 1.70483 36 37 34
-0.226867 -0.0609743 1.6659 36 37 34
-0.217564 -0.0608128 1.66149 37 38 35
-0.199916 -0.0582083 1.59033 37 38 36
-0.192968 -0.0586281 1.6018 37 38 35
-0.182571 -0.0579906 1.58438 37 38 35
-0.178813 -0.0595015 1.62567 36 37 35
-0.172929 -0.0604208 1.65078 36 37 34
-0.165349 -0.0608128 1.66149 36 38 35
-0.153268 -0.0595015 1.62567 37 38 35
-0.14553 -0.0598207 1.63439 37 38 35
-0.136969 -0.0598207 1.63439 37 38 36
-0.129697 -0.0604208 1.65078 37 38 35
-0.126007 -0.0628948 1.71838 37 37 35
-0.111288 -0.0598207 1.63439 37 37 35
-0.102179 -0.0595015 1.62567 36 36 34
-0.0973724 -0.0618573 1.69003 36 37 34
-0.0885203 -0.0618573 1.69003 36 37 35
-0.0803661 -0.0623991 1.70483 36 37 34
-0.0669256 -0.0584589 1.59718 36 37 34
-0.058982 -0.0588803 1.60869 36 37 34
-0.0503395 -0.0586281 1.6018 35 36 34
-0.0429861 -0.0600767 1.64138 36 37 35
-0.0357183 -0.0623991 1.70483 37 38 36
-0.026354 -0.0613867 1.67717 37 38 36
-0.0173471 -0.0606102 1.65596 37 38 36
-0.00861295 -0.0601866 1.64438 36 37 35
0 -0.0609743 1.6659 36 37 34
0.00832985 -0.0582083 1.59033 36 37 35
0.0170298 -0.0595015 1.62567 37 37 35
0.0256817 -0.0598207 1.63439 37 38 35
0.033704 -0.0588803 1.60869 37 38 36
0.0433679 -0.0606102 1.65596 37 38 36
0.050556 -0.0588803 1.60869 36 37 35
0.0610797 -0.0609743 1.6659 35 36 35
0.0671194 -0.0586281 1.6018 35 36 34
0.0783231 -0.0608128 1.66149 35 36 35
0.0859722 -0.0600767 1.64138 36 37 36
0.0902046 -0.0573039 1.56562 36 37 36
0.103758 -0.0604208 1.65078 37 37 36
0.106934 -0.0574804 1.57045 37 38 36
0.12105 -0.0604208 1.65078 36 37 36
0.129194 -0.0601866 1.64438 37 37 36
0.139611 -0.0609743 1.6659 36 37 35
0.150485 -0.0618573 1.69003 36 37 35
0.155636 -0.0604208 1.65078 36 37 35
0.17101 -0.0628948 1.71838 37 37 35
0.172929 -0.0604208 1.65078 37 37 35
0.177813 -0.0591686 1.61657 37 37 35
0.188333 -0.0598207 1.63439 36 37 35
0.198869 -0.0604208 1.65078 36 37 35
0.197416 -0.0574804 1.57045 36 37 35
0.217564 -0.0608128 1.66149 37 37 36
0.215766 -0.0579906 1.58438 38 38 37
0.23671 -0.0612634 1.6738 38 38 36
0.243672 -0.0608128 1.66149 38 38 36
0.256943 -0.0619137 1.69157 37 37 35
0.258389 -0.0601866 1.64438 37 37 35
0.279016 -0.0628948 1.71838 37 38 35
0.28111 -0.0613867 1.67717 37 37 35
0.282499 -0.0598207 1.63439 36 36 34
0.303605 -0.0623991 1.70483 35 36 34
0.300903 -0.0600767 1.64138 36 36 35
0.315613 -0.0612634 1.6738 36 37 36
0.335998 -0.0634575 1.73375 36 37 36
0.327292 -0.0601866 1.64438 36 37 35
0.335905 -0.0601866 1.64438 36 36 35
0.357183 -0.0623991 1.70483 35 36 35
0.362933 -0.0618573 1.69003 36 37 35
0.385271 -0.064101 1.75133 36 37 35
0.380199 -0.0617861 1.68808 36 37 35
0.37897 -0.0601866 1.64438 36 37 35
0.40183 -0.0623991 1.70483 35 36 35
0.414411 -0.0629538 1.71999 35 36 34
0.397962 -0.0591686 1.61657 36 37 35
0.420818 -0.0612634 1.6738 36 37 35
0.422035 -0.0601866 1.64438 36 38 36
0.455021 -0.063593 1.73745 37 38 36
0.443831 -0.0608128 1.66149 36 38 36
0.456803 -0.0613867 1.67717 36 38 36
0.482322 -0.063593 1.73745 36 37 36
0.482197 -0.0623991 1.70483 35 37 35
0.482187 -0.0612634 1.6738 35 36 34
0.508538 -0.0634575 1.73375 35 37 34
0.526615 -0.0645604 1.76388 35 36 34
0.522519 -0.0629538 1.71999 35 37 34
0.543201 -0.0643364 1.75776 35 36 34
0.540537 -0.0629538 1.71999 36 36 34
0.540467 -0.0619137 1.69157 37 37 35
0.575315 -0.0648428 1.7716 37 37 35
0.572105 -0.0634575 1.73375 36 36 34
0.567047 -0.0619137 1.69157 35 35 33
0.580422 -0.0623991 1.70483 35 36 34
0.594033 -0.0628948 1.71838 36 36 35
0.603034 -0.0628948 1.71838 36 36 35
0.602487 -0.0619137 1.69157 35 36 35
0.6416 -0.0649775 1.77528 35 36 35
0.640271 -0.0639166 1.74629 35 37 36
0.629068 -0.0619137 1.69157 35 37 35
0.648644 -0.0629538 1.71999 35 37 36
0.657037 -0.0628948 1.71838 36 38 36
0.671996 -0.0634575 1.73375 36 37 35
0.687984 -0.064101 1.75133 36 37 35
0.690158 -0.0634575 1.73375 36 37 36
0.704298 -0.0639166 1.74629 35 36 35
0.725287 -0.0649775 1.77528 34 36 34
0.742815 -0.0657055 1.79517 35 37 35
0.752218 -0.0657055 1.79517 35 37 35
0.748348 -0.0645604 1.76388 35 37 35
0.746234 -0.063593 1.73745 35 37 35
0.77018 -0.0648428 1.7716 34 36 34
0.789828 -0.0657055 1.79517 33 36 34
0.788738 -0.0648428 1.7716 33 36 35
0.775691 -0.0630287 1.72203 33 36 35
0.828393 -0.0665373 1.81789 34 37 36
0.816576 -0.0648428 1.7716 33 36 35
0.819405 -0.0643364 1.75776 33 36 35
0.83986 -0.0652098 1.78162 33 36 35
0.812591 -0.0623991 1.70483 34 37 35
0.892862 -0.0678179 1.85288 34 38 36
0.860367 -0.064647 1.76625 33 36 35
0.897475 -0.0667179 1.82283 31 35 34
0.848309 -0.0623991 1.70483 33 36 35
0.902661 -0.0657055 1.79517 34 38 37
0.905183 -0.0652098 1.78162 33 37 36
0.912637 -0.0650759 1.77797 33 37 36
0.956213 -0.0674943 1.84404 33 37 36
0.940272 -0.0657055 1.79517 34 37 37
0.959877 -0.0664113 1.81445 34 37 37
0.939093 -0.0643364 1.75776 33 37 37
0.976466 -0.0662473 1.80997 32 36 36
0.977883 -0.0657055 1.79517 31 35 35
0.987286 -0.0657055 1.79517 31 35 36
1.0163 -0.0669986 1.8305 31 36 36
1.05046 -0.0686031 1.87433 29 35 35
1.06659 -0.0690118 1.8855 27 34 34
1.10162 -0.0706242 1.92955 32 37 37
1.11173 -0.0706242 1.92955 36 41 41
1.08973 -0.0686031 1.87433 35 40 40
1.08178 -0.0674943 1.84404 32 37 37
1.13689 -0.070305 1.92083 32 38 37
1.10109 -0.0674943 1.84404 33 38 38
1.15028 -0.0698963 1.90967 36 40 41
1.16028 -0.0698963 1.90967 38 43 43
1.14863 -0.0686031 1.87433 37 42 42
1.13973 -0.0674943 1.84404 36 41 41
1.2466 -0.0732026 2 34 39 39
-0.565873 -0.0282448 0.900304 35 37 34
-0.561158 -0.0282448 0.900304 35 37 34
-0.556442 -0.0282448 0.900304 35 37 34
-0.517247 -0.0264797 0.844042 37 38 35
-0.584858 -0.0301991 0.962595 37 37 34
-0.542295 -0.0282448 0.900304 36 37 34
-0.597109 -0.0313726 1 36 37 33
-0.611684 -0.0324228 1.03348 36 38 33
-0.531028 -0.0283989 0.905214 37 39 34
-0.53805 -0.0290336 0.925446 38 39 35
-0.576158 -0.0313726 1 37 39 34
-0.589078 -0.0323703 1.0318 36 37 34
-0.585668 -0.032481 1.03533 36 38 34
-0.544238 -0.0304653 0.971083 36 37 34
-0.537548 -0.0303748 0.968195 36 37 34
-0.549969 -0.0313726 1 36 37 34
-0.562966 -0.0324228 1.03348 36 37 34
-0.539493 -0.0313726 1 37 38 35
-0.550439 -0.0323229 1.03029 38 38 35
-0.545843 -0.0323703 1.0318 38 39 35
-0.557014 -0.0333632 1.06345 38 38 35
-0.536863 -0.032481 1.03533 37 38 34
-0.544332 -0.033269 1.06045 38 38 34
-0.564563 -0.0348612 1.1112 38 39 34
-0.536401 -0.0334672 1.06677 37 38 33
-0.56332 -0.0355167 1.1321 36 37 32
-0.560893 -0.0357399 1.13921 36 37 31
-0.558778 -0.035988 1.14712 35 36 31
-0.515824 -0.0335826 1.07045 36 37 32
-0.550975 -0.0362654 1.15596 37 38 34
-0.530641 -0.035315 1.12567 37 38 34
-0.538866 -0.0362654 1.15596 37 39 34
-0.528736 -0.035988 1.14712 37 39 34
-0.549028 -0.0377987 1.20483 38 40 35
-0.491142 -0.0342066 1.09033 37 39 34
-0.519076 -0.0365774 1.1659 36 38 34
-0.536055 -0.0382236 1.21838 36 38 34
-0.51735 -0.0373343 1.19003 36 38 34
-0.556273 -0.0406327 1.29517 36 38 33
-0.511164 -0.0377987 1.20483 37 39 34
-0.512061 -0.0383383 1.22203 36 38 34
-0.535922 -0.0406327 1.29517 37 39 34
-0.561482 -0.0431164 1.37433 37 39 34
-0.554283 -0.0431164 1.37433 37 38 35
-0.51557 -0.0406327 1.29517 36 38 34
-0.545569 -0.0435702 1.3888 36 37 33
-0.546382 -0.0442248 1.40967 36 37 33
-0.554851 -0.0455255 1.45113 37 38 34
-0.531615 -0.0442248 1.40967 37 38 34
-0.557825 -0.0470588 1.5 37 38 34
-0.549969 -0.0470588 1.5 37 37 34
-0.509464 -0.0442248 1.40967 36 37 33
-0.551663 -0.0485921 1.54887 36 37 33
-0.54355 -0.0485921 1.54887 35 36 33
-0.518542 -0.0470588 1.5 35 37 33
-0.494045 -0.0455255 1.45113 36 37 34
-0.544954 -0.0510013 1.62567 36 38 34
-0.542616 -0.0515885 1.64438 36 37 34
-0.487115 -0.0470588 1.5 36 37 33
-0.533415 -0.0523765 1.6695 36 36 32
-0.52467 -0.0523765 1.6695 36 36 32
