ply
format ascii 1.0
element vertex 1326
property float x
property float y
property float z
property uchar red
property uchar green
property uchar blue
end_header
0.738194 -0.307827 1.784 36 37 34
0.761741 -0.313676 1.81789 37 37 34
0.7679 -0.312308 1.80997 37 38 35
0.780784 -0.313676 1.81789 37 37 34
0.77018 -0.305688 1.7716 36 37 34
0.779459 -0.305688 1.7716 36 37 33
0.799231 -0.309754 1.79517 36 37 34
0.814044 -0.311827 1.80718 35 37 34
0.807297 -0.305688 1.7716 36 37 34
0.837915 -0.313676 1.81789 36 37 34
0.825856 -0.305688 1.7716 36 37 35
0.846245 -0.309754 1.79517 37 37 35
0.878943 -0.318188 1.84404 36 36 34
0.898997 -0.32191 1.86561 35 36 34
0.908768 -0.32191 1.86561 36 36 34
0.877188 -0.307417 1.78162 36 37 34
0.970862 -0.336665 1.95113 37 38 35
0.895851 -0.307417 1.78162 37 38 36
0.942775 -0.320185 1.85562 36 37 35
0.921467 -0.309754 1.79517 36 37 34
0.986692 -0.32833 1.90282 36 37 34
0.958778 -0.315851 1.8305 36 37 34
0.959877 -0.313082 1.81445 35 36 33
0.966986 -0.312308 1.80997 35 36 33
0.994848 -0.318188 1.84404 35 36 34
1.02101 -0.323415 1.87433 35 37 35
1.06119 -0.332943 1.92955 35 37 35
1.04064 -0.323415 1.87433 35 36 35
1.00609 -0.309754 1.79517 35 37 36
1.04314 -0.318188 1.84404 36 37 36
1.10561 -0.33415 1.93655 35 37 35
1.06246 -0.318188 1.84404 34 35 33
1.12183 -0.332943 1.92955 34 35 33
1.17327 -0.345098 2 34 36 34
1.13689 -0.331438 1.92083 35 37 35
1.14028 -0.329511 1.90967 35 38 35
1.25238 -0.358758 2.07917 34 36 34
1.21517 -0.345098 2 33 35 33
1.22564 -0.345098 2 34 36 33
1.10952 -0.309754 1.79517 34 36 34
1.2466 -0.345098 2 35 37 35
-0.553221 -0.147271 0.880174 38 38 34
-0.526089 -0.141225 0.844042 38 38 34
-0.533834 -0.144519 0.863725 39 38 34
-0.525636 -0.143516 0.85773 39 39 35
-0.546216 -0.15042 0.898997 39 38 34
-0.541508 -0.15042 0.898997 38 37 33
-0.536799 -0.15042 0.898997 38 37 32
-0.495719 -0.140138 0.837546 37 36 31
-0.55902 -0.159444 0.952929 38 36 31
-0.520269 -0.149729 0.894863 38 37 33
-0.50082 -0.145442 0.869241 38 37 33
-0.510895 -0.149729 0.894863 37 37 32
-0.508546 -0.15042 0.898997 37 37 33
-0.50598 -0.15106 0.90282 37 37 33
-0.541619 -0.163225 0.975527 37 37 33
-0.534756 -0.162692 0.972338 37 37 33
-0.501606 -0.154074 0.920833 37 37 34
-0.510938 -0.158464 0.947071 37 37 34
-0.519477 -0.162692 0.972338 37 37 34
-0.514993 -0.162885 0.973489 37 37 34
-0.510449 -0.163062 0.974549 38 38 34
-0.504795 -0.162885 0.973489 38 38 35
-0.513304 -0.16732 1 37 38 34
-0.536121 -0.17656 1.05522 36 37 33
-0.476214 -0.158464 0.947071 37 37 33
-0.497591 -0.16732 1 38 38 34
-0.463936 -0.157663 0.942284 38 38 35
-0.500589 -0.171949 1.02766 39 39 35
-0.481877 -0.16732 1 38 38 35
-0.501868 -0.176176 1.05293 38 38 35
-0.471402 -0.16732 1 38 38 35
-0.452043 -0.162252 0.969708 37 37 34
-0.500695 -0.181757 1.08628 37 37 34
-0.469492 -0.172389 1.03029 37 36 33
-0.504426 -0.187369 1.11983 37 36 32
-0.489598 -0.184001 1.0997 37 37 33
-0.481678 -0.18318 1.09479 38 37 34
-0.509725 -0.196181 1.17249 38 37 34
-0.472319 -0.184001 1.0997 37 37 34
-0.468867 -0.184912 1.10514 37 37 34
-0.480669 -0.191936 1.14712 37 36 34
-0.45729 -0.184912 1.10514 37 37 34
-0.472265 -0.193415 1.15596 38 38 35
-0.453993 -0.188347 1.12567 39 38 35
-0.468599 -0.196965 1.17717 38 37 34
-0.462434 -0.196965 1.17717 37 36 32
-0.494294 -0.21338 1.27528 37 36 33
-0.450102 -0.196965 1.17717 38 37 34
-0.465273 -0.206431 1.23375 38 37 34
-0.453094 -0.203859 1.21838 38 37 33
-0.452349 -0.206431 1.23375 37 36 32
-0.468084 -0.216708 1.29517 36 36 31
-0.469394 -0.22051 1.31789 36 36 33
-0.487375 -0.232374 1.3888 37 37 34
-0.491174 -0.237734 1.42083 37 37 34
-0.431103 -0.211869 1.26625 36 36 33
-0.403883 -0.201593 1.20483 36 36 33
-0.436509 -0.221336 1.32283 37 37 34
-0.452973 -0.233389 1.39486 37 37 34
-0.450396 -0.235866 1.40967 37 37 34
-0.471402 -0.25098 1.5 37 37 33
-0.435629 -0.235866 1.40967 36 36 33
-0.455688 -0.25098 1.5 37 37 33
-0.460484 -0.258071 1.54238 37 37 34
-0.489692 -0.279341 1.6695 37 37 33
-0.432118 -0.25098 1.5 37 37 33
-0.449812 -0.266095 1.59033 37 37 33
-0.445591 -0.268572 1.60514 37 37 32
-0.454714 -0.279341 1.6695 36 36 31
-0.448019 -0.280625 1.67717 37 36 31
-0.456274 -0.291512 1.74224 36 36 31
-0.422035 -0.275139 1.64438 37 37 32
-0.408716 -0.272007 1.62567 38 37 33
-0.404809 -0.275139 1.64438 39 39 35
-0.41076 -0.285253 1.70483 38 38 35
-0.40183 -0.285253 1.70483 37 37 34
-0.374656 -0.272007 1.62567 36 37 33
-0.393844 -0.292588 1.74867 36 37 33
-0.371785 -0.282776 1.69003 37 38 34
-0.35139 -0.273782 1.63628 38 39 35
-0.351387 -0.280625 1.67717 37 38 34
-0.340301 -0.27874 1.6659 37 38 34
-0.323566 -0.272007 1.62567 37 38 34
-0.327525 -0.282776 1.69003 36 36 32
-0.318673 -0.282776 1.69003 36 36 32
-0.29962 -0.273466 1.63439 36 36 32
-0.306017 -0.287519 1.71838 36 37 33
-0.294676 -0.285253 1.70483 37 38 34
-0.283265 -0.282776 1.69003 37 38 34
-0.276817 -0.285253 1.70483 36 37 34
-0.272431 -0.290092 1.73375 37 38 35
-0.250747 -0.276209 1.65078 37 38 35
-0.250028 -0.285253 1.70483 37 37 35
-0.231136 -0.273466 1.63439 37 37 35
-0.234013 -0.287519 1.71838 37 37 34
-0.219617 -0.280625 1.67717 36 37 34
-0.21431 -0.285253 1.70483 37 38 35
-0.20538 -0.285253 1.70483 36 37 34
-0.191965 -0.27874 1.6659 36 37 34
-0.182754 -0.278002 1.66149 36 37 34
-0.174513 -0.27874 1.6659 37 37 34
-0.166574 -0.280061 1.6738 37 37 35
-0.157807 -0.280061 1.6738 36 36 33
-0.14699 -0.276209 1.65078 33 33 29
-0.140555 -0.280625 1.67717 35 35 32
-0.133943 -0.285253 1.70483 38 38 35
-0.122159 -0.27874 1.6659 37 38 34
-0.114201 -0.280625 1.67717 37 37 34
-0.104708 -0.27874 1.6659 37 38 34
-0.0957282 -0.278002 1.66149 37 38 35
-0.0885203 -0.282776 1.69003 37 37 34
-0.0780621 -0.277075 1.65596 35 36 33
-0.0731738 -0.29219 1.74629 36 37 34
-0.062507 -0.285253 1.70483 36 37 35
-0.0499791 -0.266095 1.59033 37 38 35
-0.0432323 -0.276209 1.65078 36 37 34
-0.0350681 -0.280061 1.6738 36 37 35
-0.0259394 -0.276209 1.65078 36 37 35
-0.0174051 -0.278002 1.66149 37 37 35
-0.00892957 -0.285253 1.70483 36 37 34
0 -0.276209 1.65078 36 37 34
0.00878468 -0.280625 1.67717 36 37 34
0.0174513 -0.27874 1.6659 36 37 34
0.026177 -0.27874 1.6659 36 37 34
0.0354081 -0.282776 1.69003 36 38 35
0.0439234 -0.280625 1.67717 37 38 35
0.0527081 -0.280625 1.67717 37 38 35
0.0614928 -0.280625 1.67717 36 38 35
0.0677382 -0.270485 1.61657 36 38 35
0.0783231 -0.278002 1.66149 36 37 34
0.0864646 -0.276209 1.65078 37 38 35
0.0957282 -0.278002 1.66149 37 38 35
0.101112 -0.269167 1.60869 38 39 35
0.114201 -0.280625 1.67717 38 38 35
0.120581 -0.275139 1.64438 38 38 35
0.131506 -0.280061 1.6738 38 38 34
0.145296 -0.290092 1.73375 37 37 34
0.150485 -0.282776 1.69003 36 36 33
0.156646 -0.278002 1.66149 36 36 34
0.160094 -0.269167 1.60869 37 37 35
0.178591 -0.285253 1.70483 37 37 35
0.183239 -0.27874 1.6659 36 37 34
0.187328 -0.272007 1.62567 37 37 34
0.200159 -0.278002 1.66149 38 38 35
0.212449 -0.282776 1.69003 38 39 35
0.230972 -0.295133 1.76388 39 39 36
0.230153 -0.282776 1.69003 38 39 35
0.248584 -0.294109 1.75776 38 38 35
0.245971 -0.280625 1.67717 38 38 35
0.256709 -0.282776 1.69003 37 37 34
0.265561 -0.282776 1.69003 37 37 34
0.274413 -0.282776 1.69003 38 38 35
0.273939 -0.273466 1.63439 38 38 35
0.285333 -0.276209 1.65078 38 39 35
0.306017 -0.287519 1.71838 38 38 35
0.312535 -0.285253 1.70483 37 38 35
0.326917 -0.290092 1.73375 36 37 34
0.341838 -0.295133 1.76388 36 36 33
0.333818 -0.280625 1.67717 37 37 34
0.333863 -0.273466 1.63439 38 38 35
0.371942 -0.29704 1.77528 38 39 35
0.366112 -0.285253 1.70483 38 39 36
0.361744 -0.275139 1.64438 38 39 35
0.387385 -0.287789 1.71999 37 38 34
0.392901 -0.285253 1.70483 37 37 34
0.411603 -0.29219 1.74629 36 37 33
0.406724 -0.282451 1.68808 37 37 34
0.434226 -0.295133 1.76388 37 38 34
0.428619 -0.285253 1.70483 37 37 34
0.44497 -0.290092 1.73375 37 37 33
0.443005 -0.283034 1.69157 37 37 33
0.451454 -0.282776 1.69003 37 37 33
0.472214 -0.290092 1.73375 38 38 34
0.481295 -0.290092 1.73375 38 38 35
0.482197 -0.285253 1.70483 38 38 34
0.495492 -0.287789 1.71999 38 38 35
0.509623 -0.290711 1.73745 38 38 35
0.517619 -0.290092 1.73375 38 38 35
0.517915 -0.285253 1.70483 38 38 35
0.531528 -0.287789 1.71999 38 38 35
0.54003 -0.287519 1.71838 38 38 35
0.55795 -0.29219 1.74629 38 38 35
0.563024 -0.290092 1.73375 37 38 34
0.576244 -0.29219 1.74629 37 37 34
0.58539 -0.29219 1.74629 37 37 34
0.585033 -0.287519 1.71838 37 37 34
0.589351 -0.285253 1.70483 38 38 35
0.598281 -0.285253 1.70483 38 38 36
0.596159 -0.280061 1.6738 37 38 35
0.6416 -0.29704 1.77528 37 38 35
0.64672 -0.295133 1.76388 36 37 34
0.653683 -0.294109 1.75776 36 36 34
0.658564 -0.29219 1.74629 36 37 34
0.674437 -0.295133 1.76388 37 38 35
0.688093 -0.29704 1.77528 37 38 35
0.682531 -0.290711 1.73745 37 38 35
0.666295 -0.280061 1.6738 37 38 35
0.681607 -0.282776 1.69003 37 38 35
0.746626 -0.305779 1.82751 36 37 35
0.738194 -0.298499 1.784 36 37 34
0.733849 -0.293033 1.75133 36 37 34
0.765907 -0.302058 1.80527 37 38 34
0.746234 -0.290711 1.73745 37 37 34
0.785647 -0.302377 1.80718 37 38 34
0.742714 -0.282451 1.68808 36 37 34
0.775666 -0.291512 1.74224 36 37 33
0.821094 -0.304996 1.82283 36 37 34
0.807297 -0.296424 1.7716 36 37 35
0.832975 -0.302377 1.80718 36 37 35
0.859626 -0.308546 1.84404 37 37 35
0.851906 -0.302377 1.80718 36 37 35
0.830419 -0.291512 1.74224 35 36 34
0.894179 -0.310482 1.85562 35 36 34
0.887927 -0.304996 1.82283 36 36 34
0.940229 -0.319526 1.90967 36 37 35
0.907022 -0.304996 1.82283 37 38 36
0.927237 -0.308546 1.84404 37 38 36
0.912064 -0.300368 1.79517 36 37 35
0.967836 -0.315483 1.8855 36 37 34
0.911473 -0.294109 1.75776 35 36 34
0.931262 -0.29749 1.77797 35 36 34
0.949675 -0.300368 1.79517 34 35 33
1.00734 -0.315483 1.8855 35 36 33
0.987541 -0.30628 1.8305 35 37 35
1.03652 -0.31838 1.90282 35 37 35
0.937604 -0.285253 1.70483 36 37 36
1.04064 -0.313614 1.87433 36 37 36
1.08854 -0.324983 1.94228 36 37 36
1.00216 -0.296424 1.7716 36 37 36
1.0528 -0.308546 1.84404 36 37 35
1.11173 -0.322853 1.92955 35 36 34
1.05978 -0.304996 1.82283 33 35 33
1.03928 -0.296424 1.7716 33 36 34
1.13689 -0.321394 1.92083 34 36 34
1.08843 -0.304996 1.82283 34 37 35
1.20469 -0.334641 2 34 36 34
1.21517 -0.334641 2 34 36 34
1.17713 -0.321394 1.92083 34 36 34
1.23612 -0.334641 2 34 37 34
1.2466 -0.334641 2 35 37 35
-0.559635 -0.144323 0.89038 38 38 34
-0.538358 -0.140002 0.863725 38 37 34
-0.547293 -0.143532 0.885502 38 37 34
-0.53269 -0.140897 0.869241 39 38 34
-0.559484 -0.149259 0.920833 38 38 34
-0.543811 -0.14634 0.90282 38 37 32
-0.519031 -0.140897 0.869241 38 37 32
-0.542999 -0.148707 0.917429 38 37 32
-0.498666 -0.137785 0.850047 38 37 33
-0.520269 -0.14505 0.894863 38 37 33
-0.517964 -0.14572 0.898997 37 37 33
-0.541905 -0.153854 0.949179 37 37 33
-0.535741 -0.153512 0.947071 37 37 33
-0.516076 -0.149259 0.920833 37 37 34
-0.509362 -0.148707 0.917429 37 37 34
-0.504557 -0.148707 0.917429 38 38 34
-0.501606 -0.149259 0.920833 38 38 34
-0.509703 -0.153141 0.944781 38 38 34
-0.520092 -0.157794 0.973489 37 37 34
-0.514384 -0.157608 0.972338 37 37 34
-0.538268 -0.166575 1.02766 38 38 34
-0.53425 -0.167002 1.03029 37 38 34
-0.513304 -0.162092 1 37 37 34
-0.494012 -0.157608 0.972338 37 37 33
-0.502828 -0.162092 1 37 37 33
-0.497591 -0.162092 1 37 37 34
-0.492353 -0.162092 1 37 37 33
-0.501201 -0.166779 1.02892 38 38 34
-0.495812 -0.166779 1.02892 38 38 35
-0.519696 -0.176734 1.09033 38 37 35
-0.513985 -0.176734 1.09033 38 37 35
-0.508274 -0.176734 1.09033 36 36 34
-0.460926 -0.162092 1 37 36 33
-0.498881 -0.177456 1.09479 37 36 32
-0.513157 -0.184656 1.13921 37 36 32
-0.473462 -0.172376 1.06345 38 37 34
-0.469351 -0.172914 1.06677 38 37 34
-0.478079 -0.178251 1.0997 38 37 34
-0.459756 -0.17351 1.07045 37 37 34
-0.474323 -0.181218 1.118 37 36 33
-0.484374 -0.187371 1.15596 37 36 34
-0.45729 -0.179133 1.10514 37 37 34
-0.482947 -0.191609 1.18211 38 37 34
-0.470221 -0.188983 1.1659 38 38 34
-0.494501 -0.201356 1.24224 38 37 34
-0.467485 -0.192894 1.19003 37 37 33
-0.466989 -0.195293 1.20483 37 36 33
-0.487615 -0.206712 1.27528 38 37 34
-0.448786 -0.192894 1.19003 38 38 34
-0.448057 -0.195293 1.20483 38 37 34
-0.458795 -0.20283 1.25133 37 36 32
-0.454565 -0.203873 1.25776 36 36 32
-0.435252 -0.198081 1.22203 36 36 32
-0.454516 -0.209936 1.29517 37 37 34
-0.464628 -0.217858 1.34404 37 37 34
-0.472826 -0.225113 1.3888 36 36 33
-0.443437 -0.214419 1.32283 36 35 32
-0.436509 -0.214419 1.32283 36 36 33
-0.420597 -0.209936 1.29517 37 36 33
-0.445666 -0.226095 1.39486 37 37 34
-0.43836 -0.226095 1.39486 36 36 33
-0.411164 -0.215663 1.3305 36 36 33
-0.499551 -0.266541 1.64438 37 37 34
-0.40127 -0.217858 1.34404 37 37 34
-0.456904 -0.252492 1.55772 37 37 34
-0.462406 -0.260179 1.60514 37 37 33
-0.465099 -0.266541 1.64438 37 37 32
-0.456486 -0.266541 1.64438 37 36 31
-0.454714 -0.270612 1.6695 36 36 31
-0.428776 -0.260179 1.60514 36 36 30
-0.420369 -0.260179 1.60514 36 35 30
-0.397522 -0.251059 1.54887 36 36 30
-0.413422 -0.266541 1.64438 36 35 30
-0.381296 -0.251059 1.54887 37 37 33
-0.373184 -0.251059 1.54887 39 38 35
-0.383171 -0.263507 1.62567 38 38 34
-0.387663 -0.272655 1.68211 37 38 34
-0.379628 -0.273213 1.68555 37 37 33
-0.351359 -0.258889 1.59718 37 37 33
-0.356805 -0.269314 1.66149 37 37 34
-0.360358 -0.278795 1.71999 36 37 33
-0.351349 -0.278795 1.71999 37 38 34
-0.331575 -0.270029 1.6659 38 39 35
-0.325033 -0.271855 1.67717 37 37 33
-0.321464 -0.276339 1.70483 36 36 32
-0.30459 -0.269314 1.66149 36 36 32
-0.303605 -0.276339 1.70483 36 37 33
-0.285333 -0.267578 1.65078 37 38 34
-0.288016 -0.278534 1.71838 37 38 34
-0.279016 -0.278534 1.71838 36 37 34
-0.267887 -0.276339 1.70483 36 37 34
-0.258957 -0.276339 1.70483 36 37 34
-0.239696 -0.26492 1.63439 36 36 33
-0.239223 -0.274189 1.69157 36 36 34
-0.226267 -0.269314 1.66149 37 37 34
-0.214015 -0.26492 1.63439 37 37 34
-0.206333 -0.266054 1.64138 37 38 35
-0.200159 -0.269314 1.66149 37 38 35
-0.199783 -0.281026 1.73375 37 38 35
-0.189188 -0.278795 1.71999 36 37 34
-0.178591 -0.276339 1.70483 36 36 33
-0.164798 -0.268417 1.65596 36 36 34
-0.159337 -0.27394 1.69003 36 36 34
-0.154115 -0.280548 1.7308 36 37 34
-0.139241 -0.269314 1.66149 38 38 36
-0.136215 -0.281026 1.73375 38 38 35
-0.12105 -0.267578 1.65078 37 38 34
-0.115181 -0.274189 1.69157 38 38 35
-0.105586 -0.272294 1.67988 37 38 35
-0.0982252 -0.276339 1.70483 38 38 35
-0.0851491 -0.263507 1.62567 37 38 35
-0.0790621 -0.271855 1.67717 36 36 33
-0.072004 -0.278534 1.71838 35 36 33
-0.0599241 -0.26492 1.63439 36 37 35
-0.0518788 -0.267578 1.65078 37 38 36
-0.0442602 -0.27394 1.69003 37 38 36
-0.0344518 -0.266541 1.64438 38 39 36
-0.0261077 -0.269314 1.66149 37 37 35
-0.0172259 -0.266541 1.64438 36 37 34
-0.00856058 -0.26492 1.63439 36 37 34
0 -0.26492 1.63439 36 37 34
0.00892957 -0.276339 1.70483 36 37 34
0.0178591 -0.276339 1.70483 37 38 35
0.0267887 -0.276339 1.70483 37 38 35
0.0351387 -0.271855 1.67717 37 38 35
0.0439234 -0.271855 1.67717 36 38 35
0.0501942 -0.258889 1.59718 37 38 35
0.060918 -0.269314 1.66149 37 38 35
0.0703909 -0.272294 1.67988 37 38 35
0.079741 -0.274189 1.69157 37 38 35
0.0851491 -0.263507 1.62567 37 39 35
0.0966315 -0.271855 1.67717 37 38 35
0.102179 -0.263507 1.62567 38 39 35
0.112404 -0.267578 1.65078 38 38 35
0.125014 -0.276339 1.70483 38 38 35
0.129194 -0.266541 1.64438 38 38 34
0.145296 -0.281026 1.73375 37 37 34
0.14642 -0.266541 1.64438 36 36 33
0.152411 -0.262033 1.61657 36 36 34
0.169662 -0.276339 1.70483 37 37 35
0.175694 -0.271855 1.67717 37 38 35
0.185893 -0.27394 1.69003 37 37 35
0.191456 -0.269314 1.66149 37 38 35
0.207012 -0.278534 1.71838 38 38 35
0.217945 -0.281026 1.73375 38 39 35
0.223239 -0.276339 1.70483 38 39 35
0.230363 -0.274189 1.69157 38 39 35
0.237186 -0.271855 1.67717 38 38 34
0.239696 -0.26492 1.63439 38 38 34
0.248257 -0.26492 1.63439 37 37 34
0.265803 -0.274189 1.69157 36 36 32
0.271778 -0.271309 1.6738 37 37 34
0.283265 -0.27394 1.69003 37 38 35
0.287185 -0.269314 1.66149 38 38 35
0.300969 -0.27394 1.69003 37 38 35
0.307464 -0.271855 1.67717 37 38 35
0.327615 -0.281626 1.73745 37 38 35
0.32438 -0.271309 1.6738 37 38 35
0.333818 -0.271855 1.67717 37 38 35
0.326262 -0.258889 1.59718 37 38 34
0.363241 -0.281026 1.73375 37 37 34
0.356805 -0.269314 1.66149 37 38 35
0.384162 -0.283059 1.74629 38 39 35
0.370357 -0.266541 1.64438 37 38 35
0.392901 -0.276339 1.70483 37 37 34
0.394517 -0.271309 1.6738 36 37 33
0.407194 -0.27394 1.69003 36 37 33
0.429896 -0.283059 1.74629 37 37 34
0.432024 -0.278534 1.71838 37 37 33
0.437549 -0.276339 1.70483 38 37 34
0.450447 -0.278795 1.71999 37 37 34
0.463133 -0.281026 1.73375 37 37 34
0.468465 -0.278795 1.71999 37 37 34
0.477027 -0.278534 1.71838 38 37 34
0.486027 -0.278534 1.71838 37 37 33
0.491126 -0.276339 1.70483 38 38 34
0.512217 -0.283059 1.74629 38 38 35
0.517619 -0.281026 1.73375 37 37 34
0.533994 -0.284918 1.75776 37 37 34
0.513451 -0.269314 1.66149 37 37 34
0.543936 -0.280548 1.7308 37 38 34
0.549546 -0.278795 1.71999 38 38 35
0.567097 -0.283059 1.74629 38 38 35
0.562563 -0.276339 1.70483 37 37 34
0.571492 -0.276339 1.70483 36 37 33
0.604406 -0.287758 1.77528 36 37 33
0.603684 -0.283059 1.74629 37 37 34
0.593627 -0.274189 1.69157 37 37 35
0.621977 -0.283059 1.74629 37 37 34
0.625526 -0.280548 1.7308 36 36 33
0.642118 -0.283876 1.75133 35 35 32
0.644753 -0.281026 1.73375 35 36 33
0.653834 -0.281026 1.73375 36 37 34
0.657037 -0.278534 1.71838 37 37 35
0.681303 -0.284918 1.75776 37 38 35
0.701472 -0.289441 1.78567 37 38 35
0.70669 -0.287758 1.77528 37 38 35
0.715988 -0.287758 1.77528 37 38 35
0.720631 -0.28591 1.76388 37 38 35
0.724676 -0.283876 1.75133 36 37 33
0.747538 -0.289171 1.784 35 36 33
0.743023 -0.283876 1.75133 36 37 34
0.780784 -0.294665 1.81789 37 37 34
0.785647 -0.292928 1.80718 37 37 34
0.784915 -0.289171 1.784 36 37 34
0.788738 -0.287161 1.7716 36 37 34
0.803603 -0.289171 1.784 36 37 35
0.800991 -0.284918 1.75776 36 37 35
0.816576 -0.287161 1.7716 36 37 35
0.812168 -0.282402 1.74224 36 37 34
0.83986 -0.288786 1.78162 35 36 34
0.844414 -0.287161 1.7716 36 37 35
0.858524 -0.288786 1.78162 36 37 35
0.866074 -0.288193 1.77797 36 37 34
0.91854 -0.3024 1.86561 35 36 34
0.886519 -0.288786 1.78162 36 37 35
0.869089 -0.280159 1.7284 37 38 36
0.912064 -0.290981 1.79517 37 38 36
0.921467 -0.290981 1.79517 37 38 35
0.94087 -0.294107 1.81445 36 37 35
0.940272 -0.290981 1.79517 36 37 35
0.981653 -0.300779 1.85562 36 37 35
0.959077 -0.290981 1.79517 35 36 34
1.02227 -0.307141 1.89486 35 37 35
0.997129 -0.296708 1.8305 36 37 36
0.987286 -0.290981 1.79517 36 37 37
1.04064 -0.303814 1.87433 36 38 37
1.04287 -0.301618 1.86079 36 38 37
0.985552 -0.282402 1.74224 36 37 36
1.07009 -0.303814 1.87433 36 37 36
1.0343 -0.290981 1.79517 36 38 36
1.08186 -0.301618 1.86079 34 37 35
1.13194 -0.312764 1.92955 33 36 34
1.04856 -0.287161 1.7716 33 36 35
1.08843 -0.295465 1.82283 34 37 35
1.20469 -0.324183 2 34 37 35
1.16028 -0.309541 1.90967 34 37 35
1.11707 -0.295465 1.82283 34 37 35
1.0864 -0.284918 1.75776 34 37 34
1.2466 -0.324183 2 34 37 35
-0.542882 -0.135486 0.863725 37 37 34
-0.52204 -0.13138 0.837546 38 37 34
-0.530129 -0.134546 0.85773 38 37 34
-0.53269 -0.136352 0.869241 39 38 34
-0.540981 -0.139667 0.89038 38 38 34
-0.529493 -0.13789 0.87905 38 37 33
-0.547805 -0.14391 0.917429 38 37 33
-0.529643 -0.140371 0.894863 38 37 33
-0.527381 -0.141019 0.898997 38 37 33
-0.550622 -0.14856 0.947071 38 38 34
-0.559497 -0.152327 0.971083 37 37 33
-0.525722 -0.144444 0.920833 37 37 33
-0.520899 -0.144444 0.920833 37 37 34
-0.545587 -0.152704 0.973489 37 37 34
-0.512994 -0.144936 0.923969 37 37 34
-0.520859 -0.14856 0.947071 37 38 34
-0.515899 -0.14856 0.947071 38 38 34
-0.525191 -0.152704 0.973489 38 38 34
-0.520092 -0.152704 0.973489 38 38 34
-0.514384 -0.152524 0.972338 38 38 34
-0.496056 -0.14856 0.947071 38 37 34
-0.504198 -0.152524 0.972338 37 37 33
-0.526912 -0.161021 1.02651 37 37 34
-0.494012 -0.152524 0.972338 37 37 34
-0.530594 -0.165525 1.05522 37 37 34
-0.497591 -0.156863 1 38 38 34
-0.478115 -0.152327 0.971083 38 37 34
-0.51656 -0.166345 1.06045 38 38 34
-0.511006 -0.166345 1.06045 38 38 35
-0.490423 -0.161399 1.02892 38 37 34
-0.516084 -0.171731 1.09479 37 37 34
-0.479644 -0.161399 1.02892 35 35 31
-0.500695 -0.170397 1.08628 36 36 32
-0.481989 -0.165916 1.05772 37 36 33
-0.495358 -0.172501 1.0997 37 37 34
-0.487413 -0.171731 1.09479 39 38 35
-0.4889 -0.174306 1.1112 38 38 34
-0.478079 -0.172501 1.0997 38 38 34
-0.477259 -0.174306 1.1112 37 37 34
-0.501522 -0.185428 1.18211 36 36 33
-0.477356 -0.178699 1.13921 36 36 33
-0.48516 -0.18392 1.17249 37 37 34
-0.456755 -0.175372 1.118 37 37 33
-0.507268 -0.197296 1.25776 38 37 34
-0.468599 -0.184654 1.17717 38 37 34
-0.4733 -0.188993 1.20483 38 37 34
-0.494294 -0.200044 1.27528 38 37 33
-0.503909 -0.206728 1.31789 37 36 33
-0.479547 -0.199467 1.2716 38 37 33
-0.46535 -0.196287 1.25133 38 37 34
-0.489906 -0.209597 1.33618 37 36 32
-0.476297 -0.206728 1.31789 36 36 32
-0.4613 -0.203163 1.29517 37 37 33
-0.454516 -0.203163 1.29517 37 38 34
-0.4751 -0.215582 1.37433 37 38 34
-0.472826 -0.217851 1.3888 37 37 33
-0.460703 -0.215582 1.37433 37 36 33
-0.460279 -0.218802 1.39486 37 37 33
-0.452973 -0.218802 1.39486 37 37 34
-0.465718 -0.228646 1.45762 38 38 34
-0.48472 -0.241942 1.54238 37 37 33
-0.478649 -0.242961 1.54887 36 36 33
-0.470536 -0.242961 1.54887 36 37 33
-0.460484 -0.241942 1.54238 37 37 33
-0.425639 -0.227628 1.45113 37 37 34
-0.418038 -0.227628 1.45113 37 37 33
-0.453998 -0.251786 1.60514 37 37 33
-0.400383 -0.226241 1.44228 37 37 32
-0.42186 -0.242961 1.54887 37 36 32
-0.424822 -0.249464 1.59033 37 37 32
-0.416492 -0.249464 1.59033 37 36 32
-0.428481 -0.261883 1.6695 36 36 31
-0.413422 -0.257943 1.64438 36 36 31
-0.41288 -0.263086 1.67717 36 36 31
-0.404095 -0.263086 1.67717 38 37 33
-0.386363 -0.257131 1.63921 38 39 35
-0.397484 -0.270544 1.72472 38 39 35
-0.380637 -0.265103 1.69003 37 37 33
-0.363151 -0.258946 1.65078 36 37 33
-0.350984 -0.256374 1.63439 36 37 33
-0.357183 -0.267425 1.70483 36 37 33
-0.345229 -0.265103 1.69003 37 37 34
-0.333818 -0.263086 1.67717 38 38 35
-0.316742 -0.256374 1.63439 38 38 35
-0.316248 -0.263086 1.67717 37 38 34
-0.307464 -0.263086 1.67717 36 37 32
-0.30823 -0.271498 1.7308 36 37 33
-0.292117 -0.265103 1.69003 37 38 35
-0.280545 -0.262557 1.6738 37 37 34
-0.281033 -0.271498 1.7308 35 36 32
-0.256817 -0.256374 1.63439 35 36 32
-0.245551 -0.25358 1.61657 36 37 34
-0.250028 -0.267425 1.70483 37 37 34
-0.227502 -0.252344 1.60869 36 37 34
-0.226867 -0.261318 1.6659 36 36 34
-0.223239 -0.267425 1.70483 36 37 34
-0.208862 -0.260626 1.66149 37 38 35
-0.198869 -0.258946 1.65078 38 39 36
-0.198197 -0.269802 1.71999 37 38 35
-0.180872 -0.257943 1.64438 37 37 35
-0.180179 -0.269802 1.71999 36 36 34
-0.162651 -0.256374 1.63439 35 35 33
-0.151668 -0.252344 1.60869 36 36 34
-0.150622 -0.265345 1.69157 37 37 35
-0.140273 -0.262557 1.6738 38 38 35
-0.13278 -0.265103 1.69003 38 38 35
-0.126007 -0.269549 1.71838 38 38 35
-0.111288 -0.256374 1.63439 38 38 35
-0.104708 -0.261318 1.6659 38 38 35
-0.0973724 -0.265103 1.69003 38 38 35
-0.0885203 -0.265103 1.69003 37 38 34
-0.0783231 -0.260626 1.66149 36 37 34
-0.0696205 -0.260626 1.66149 36 37 34
-0.0592709 -0.25358 1.61657 36 37 35
-0.0531122 -0.265103 1.69003 37 38 35
-0.0439234 -0.263086 1.67717 37 38 35
-0.0351387 -0.263086 1.67717 37 38 35
-0.0267887 -0.267425 1.70483 37 37 34
-0.0175694 -0.263086 1.67717 37 37 34
-0.00861295 -0.257943 1.64438 36 37 34
0 -0.258946 1.65078 36 37 34
0.00892957 -0.267425 1.70483 37 37 35
0.0172259 -0.257943 1.64438 37 38 35
0.0261077 -0.260626 1.66149 37 38 35
0.0348103 -0.260626 1.66149 36 37 35
0.0450025 -0.269549 1.71838 36 37 34
0.0544862 -0.271961 1.73375 37 38 35
0.062507 -0.267425 1.70483 38 39 36
0.0666388 -0.249464 1.59033 37 39 36
0.0783231 -0.260626 1.66149 37 38 35
0.0870257 -0.260626 1.66149 37 38 35
0.0951111 -0.258946 1.65078 37 38 35
0.104431 -0.260626 1.66149 37 38 35
0.117116 -0.269802 1.71999 38 38 35
0.123928 -0.265103 1.69003 38 38 35
0.130538 -0.260626 1.66149 38 39 35
0.144143 -0.269802 1.71999 38 38 35
0.150311 -0.264797 1.68808 36 37 34
0.162161 -0.269802 1.71999 36 37 34
0.164798 -0.259758 1.65596 37 37 35
0.181621 -0.271961 1.73375 37 37 35
0.189011 -0.269549 1.71838 37 37 35
0.188333 -0.256374 1.63439 37 38 35
0.20538 -0.267425 1.70483 37 38 35
0.206711 -0.257943 1.64438 37 38 34
0.227026 -0.271961 1.73375 37 37 33
0.217508 -0.250538 1.59718 37 37 34
0.229902 -0.255006 1.62567 37 37 34
0.247857 -0.265103 1.69003 37 37 33
0.258957 -0.267425 1.70483 37 37 34
0.272431 -0.271961 1.73375 37 37 33
0.272325 -0.263086 1.67717 36 36 33
0.288016 -0.269549 1.71838 37 37 34
0.282499 -0.256374 1.63439 38 38 35
0.298679 -0.263086 1.67717 38 38 35
0.312535 -0.267425 1.70483 38 39 36
0.314124 -0.261318 1.6659 38 39 36
0.32438 -0.262557 1.6738 38 39 36
0.342019 -0.269549 1.71838 38 38 35
0.345544 -0.265345 1.69157 37 37 34
0.351387 -0.263086 1.67717 36 37 34
0.353131 -0.257943 1.64438 36 37 34
0.359544 -0.256374 1.63439 38 38 35
0.380637 -0.265103 1.69003 37 38 35
0.389489 -0.265103 1.69003 37 38 34
0.37917 -0.252344 1.60869 36 37 34
0.41076 -0.267425 1.70483 37 37 34
0.41969 -0.267425 1.70483 38 38 35
0.424898 -0.265103 1.69003 38 38 34
0.430449 -0.263086 1.67717 38 38 34
0.450025 -0.269549 1.71838 38 38 34
0.455408 -0.267425 1.70483 38 38 34
0.464337 -0.267425 1.70483 37 37 33
0.461236 -0.260626 1.66149 37 36 33
0.474373 -0.263086 1.67717 36 36 32
0.491126 -0.267425 1.70483 37 37 33
0.504501 -0.269802 1.71999 37 37 34
0.522868 -0.274719 1.75133 37 37 33
0.513886 -0.265345 1.69157 36 36 33
0.508164 -0.257943 1.64438 37 37 34
0.544862 -0.271961 1.73375 37 38 34
0.544704 -0.267425 1.70483 38 38 35
0.553633 -0.267425 1.70483 38 38 35
0.572105 -0.271961 1.73375 38 38 35
0.581186 -0.271961 1.73375 37 37 34
0.589263 -0.271498 1.7308 36 36 33
0.584767 -0.265345 1.69157 37 37 34
0.608429 -0.271961 1.73375 37 37 34
0.628243 -0.276688 1.76388 37 37 34
0.648788 -0.281595 1.79517 36 36 33
0.644476 -0.275727 1.75776 35 36 33
0.617882 -0.260626 1.66149 36 36 33
0.653834 -0.271961 1.73375 36 37 34
0.690262 -0.28318 1.80527 36 37 34
0.688093 -0.278475 1.77528 36 37 35
0.69051 -0.275727 1.75776 36 37 34
0.690158 -0.271961 1.73375 37 37 35
0.728085 -0.28318 1.80527 37 38 36
0.738319 -0.283479 1.80718 36 37 35
0.750795 -0.28462 1.81445 35 36 33
0.726482 -0.271961 1.73375 35 36 33
0.751621 -0.277898 1.7716 36 37 33
0.760901 -0.277898 1.7716 36 37 34
0.77178 -0.278475 1.77528 36 37 34
0.789828 -0.281595 1.79517 37 37 34
0.799231 -0.281595 1.79517 37 38 35
0.814044 -0.283479 1.80718 36 38 35
0.784711 -0.270123 1.72203 36 37 35
0.849967 -0.289261 1.84404 36 37 35
0.869682 -0.292645 1.86561 35 36 34
0.846245 -0.281595 1.79517 35 36 34
0.844414 -0.277898 1.7716 37 37 35
0.842643 -0.274301 1.74867 37 38 35
0.903898 -0.291077 1.85562 36 37 35
0.860962 -0.274301 1.74867 35 36 34
0.870121 -0.274301 1.74867 35 36 34
0.902661 -0.281595 1.79517 36 37 35
0.936895 -0.289261 1.84404 37 38 36
0.912637 -0.278897 1.77797 37 38 36
0.94087 -0.28462 1.81445 36 37 35
0.931262 -0.278897 1.77797 36 37 35
0.940575 -0.278897 1.77797 36 38 36
0.943628 -0.277059 1.76625 36 37 35
0.93246 -0.271122 1.7284 35 37 35
1.02101 -0.294013 1.87433 35 36 35
1.03697 -0.295765 1.8855 35 36 36
1.0074 -0.28462 1.81445 36 37 36
1.0169 -0.28462 1.81445 36 37 37
1.06028 -0.294013 1.87433 36 37 36
1.04069 -0.285934 1.82283 35 37 35
1.0038 -0.273292 1.74224 35 38 36
1.11676 -0.301307 1.92083 35 38 36
1.0916 -0.291889 1.86079 34 37 36
1.12151 -0.297233 1.89486 33 37 35
1.13144 -0.297233 1.89486 33 37 35
1.09797 -0.285934 1.82283 33 37 35
1.16707 -0.301307 1.92083 34 37 35
1.22564 -0.313726 2 34 38 35
1.0864 -0.275727 1.75776 33 37 34
1.2466 -0.313726 2 32 36 34
-0.521998 -0.125932 0.830499 38 38 34
-0.541796 -0.131807 0.869241 39 38 34
-0.533834 -0.13097 0.863725 39 38 35
-0.53269 -0.131807 0.869241 39 38 35
-0.546216 -0.136318 0.898997 39 38 34
-0.53017 -0.133464 0.880174 38 37 33
-0.52556 -0.133464 0.880174 38 37 33
-0.542999 -0.139113 0.917429 38 37 34
-0.527381 -0.136318 0.898997 38 37 34
-0.549291 -0.143261 0.944781 37 37 33
-0.546876 -0.143928 0.949179 37 37 33
-0.57092 -0.151634 1 37 37 33
-0.503672 -0.135012 0.89038 38 38 35
-0.516076 -0.13963 0.920833 37 37 34
-0.52582 -0.143608 0.947071 37 37 33
-0.523089 -0.144223 0.951125 37 37 33
-0.530867 -0.147775 0.974549 38 38 34
-0.498475 -0.140105 0.923969 38 38 34
-0.52118 -0.147923 0.975527 39 38 34
-0.488796 -0.140105 0.923969 38 38 34
-0.509894 -0.147614 0.973489 38 37 34
-0.518542 -0.151634 1 37 37 33
-0.500742 -0.147923 0.975527 37 37 33
-0.508066 -0.151634 1 37 37 33
-0.489498 -0.147614 0.973489 37 38 34
-0.497591 -0.151634 1 38 38 35
-0.523593 -0.161255 1.06345 39 38 35
-0.487115 -0.151634 1 39 39 35
-0.542433 -0.170689 1.12567 39 39 35
-0.491078 -0.156227 1.03029 39 39 35
-0.498609 -0.160386 1.05772 38 38 35
-0.479644 -0.156019 1.02892 38 37 34
-0.460926 -0.151634 1 37 37 33
-0.484602 -0.161255 1.06345 37 37 33
-0.479032 -0.161255 1.06345 37 37 33
-0.492021 -0.167576 1.10514 37 36 32
-0.486232 -0.167576 1.10514 36 36 32
-0.478079 -0.166751 1.0997 37 37 33
-0.496483 -0.175283 1.15596 38 38 34
-0.468867 -0.167576 1.10514 38 38 35
-0.484374 -0.175283 1.15596 38 38 34
-0.493573 -0.180872 1.19282 37 37 33
-0.472265 -0.175283 1.15596 36 36 32
-0.507268 -0.190719 1.25776 37 37 33
-0.464115 -0.176791 1.1659 38 37 34
-0.462434 -0.178499 1.17717 38 38 34
-0.472239 -0.184747 1.21838 38 38 34
-0.471736 -0.187078 1.23375 37 37 33
-0.465273 -0.187078 1.23375 37 36 32
-0.481651 -0.196391 1.29517 37 36 32
-0.498928 -0.206342 1.36079 37 36 32
-0.478081 -0.200586 1.32283 37 36 33
-0.494649 -0.210589 1.3888 37 37 34
-0.462492 -0.199838 1.31789 38 38 35
-0.437736 -0.192007 1.26625 38 38 35
-0.450366 -0.200586 1.32283 38 38 35
-0.450548 -0.203802 1.34404 37 37 34
-0.453504 -0.208396 1.37433 36 36 33
-0.446306 -0.208396 1.37433 37 37 33
-0.465718 -0.221025 1.45762 37 37 33
-0.483157 -0.233123 1.53741 36 37 33
-0.491461 -0.241149 1.59033 36 37 32
-0.455688 -0.227451 1.5 36 37 33
-0.43324 -0.22004 1.45113 37 37 34
-0.466471 -0.241149 1.59033 37 38 34
-0.448745 -0.236203 1.55772 38 38 34
-0.410438 -0.22004 1.45113 38 38 34
-0.473267 -0.258511 1.70483 38 38 34
-0.438835 -0.244313 1.6112 37 38 33
-0.412012 -0.233877 1.54238 38 37 33
-0.430648 -0.249345 1.64438 37 38 34
-0.44497 -0.262895 1.73375 37 37 33
-0.421665 -0.254316 1.67717 37 37 32
-0.426808 -0.262895 1.73375 37 37 33
-0.386739 -0.243393 1.60514 37 37 33
-0.40183 -0.258511 1.70483 38 38 34
-0.383448 -0.252291 1.66382 38 39 35
-0.376983 -0.253805 1.6738 38 38 34
-0.368216 -0.253805 1.6738 37 37 33
-0.363264 -0.2565 1.69157 36 37 33
-0.360358 -0.260809 1.71999 36 37 33
-0.3394 -0.251939 1.66149 37 38 34
-0.339324 -0.258511 1.70483 38 39 35
-0.32438 -0.253805 1.6738 38 38 35
-0.324322 -0.260809 1.71999 37 38 34
-0.310104 -0.2565 1.69157 36 37 33
-0.303605 -0.258511 1.70483 36 37 34
-0.294676 -0.258511 1.70483 37 38 35
-0.269632 -0.243933 1.60869 37 37 34
-0.271778 -0.253805 1.6738 36 36 32
-0.259394 -0.250315 1.65078 36 36 32
-0.250747 -0.250315 1.65078 38 38 35
-0.244319 -0.252608 1.6659 39 39 36
-0.237186 -0.254316 1.67717 37 37 35
-0.232169 -0.258511 1.70483 36 37 34
-0.217564 -0.251939 1.66149 37 38 35
-0.210832 -0.254316 1.67717 38 39 36
-0.200159 -0.251939 1.66149 38 38 35
-0.19645 -0.258511 1.70483 37 38 35
-0.186062 -0.2565 1.69157 38 38 35
-0.172259 -0.249345 1.64438 38 38 35
-0.169662 -0.258511 1.70483 37 37 34
-0.159482 -0.2565 1.69157 36 36 33
-0.154377 -0.262895 1.73375 37 37 34
-0.138343 -0.250315 1.65078 37 38 35
-0.13177 -0.254316 1.67717 37 38 35
-0.122159 -0.252608 1.6659 37 37 34
-0.113434 -0.252608 1.6659 37 38 35
-0.104431 -0.251939 1.66149 37 38 34
-0.0974612 -0.2565 1.69157 37 37 34
-0.0870257 -0.251939 1.66149 36 37 34
-0.0758341 -0.243933 1.60869 37 38 34
-0.0687778 -0.248889 1.64138 37 38 35
-0.0610797 -0.252608 1.6659 37 37 34
-0.0535774 -0.258511 1.70483 36 37 34
-0.0442602 -0.256266 1.69003 36 37 34
-0.0342423 -0.247828 1.63439 37 37 35
-0.025278 -0.243933 1.60869 37 37 35
-0.0175341 -0.253805 1.6738 37 37 35
-0.00872567 -0.252608 1.6659 37 37 34
0 -0.262895 1.73375 37 37 34
0.00864646 -0.250315 1.65078 37 37 35
0.0177202 -0.2565 1.69157 37 38 35
0.026354 -0.254316 1.67717 36 37 35
0.033704 -0.243933 1.60869 36 37 34
0.0423364 -0.245127 1.61657 36 37 35
0.0522154 -0.251939 1.66149 37 38 35
0.0599241 -0.247828 1.63439 37 39 36
0.0681193 -0.246506 1.62567 37 39 36
0.0796683 -0.256266 1.69003 37 38 35
0.0856058 -0.247828 1.63439 37 38 35
0.0959824 -0.252608 1.6659 37 38 35
0.104431 -0.251939 1.66149 38 38 35
0.116084 -0.258511 1.70483 38 39 35
0.119209 -0.246506 1.62567 38 38 35
0.13177 -0.254316 1.67717 38 38 35
0.135476 -0.245127 1.61657 37 38 35
0.150311 -0.255971 1.68808 37 38 35
0.155033 -0.249345 1.64438 37 37 35
0.17117 -0.260809 1.71999 37 37 35
0.172259 -0.249345 1.64438 36 37 35
0.184478 -0.254316 1.67717 37 37 35
0.192875 -0.253805 1.6738 37 38 35
0.203782 -0.2565 1.69157 37 38 35
0.217945 -0.262895 1.73375 37 37 34
0.223239 -0.258511 1.70483 36 37 33
0.226267 -0.251939 1.66149 36 37 33
0.234969 -0.251939 1.66149 37 37 33
0.243672 -0.251939 1.66149 36 37 33
0.254756 -0.254316 1.67717 38 38 34
0.265561 -0.256266 1.69003 38 38 35
0.263962 -0.246506 1.62567 37 37 34
0.283523 -0.2565 1.69157 36 36 32
0.285333 -0.250315 1.65078 36 36 33
0.29106 -0.247828 1.63439 37 37 34
0.309821 -0.256266 1.69003 36 36 33
0.318673 -0.256266 1.69003 36 37 33
0.321995 -0.251939 1.66149 38 38 35
0.327292 -0.249345 1.64438 38 38 35
0.345229 -0.256266 1.69003 36 36 33
0.350681 -0.253805 1.6738 35 36 32
0.350984 -0.247828 1.63439 36 37 34
0.353892 -0.243933 1.60869 38 39 36
0.37421 -0.251939 1.66149 38 38 36
0.389489 -0.256266 1.69003 38 38 35
0.40183 -0.258511 1.70483 37 37 34
0.414023 -0.260564 1.71838 37 38 34
0.402347 -0.247828 1.63439 38 38 34
0.435889 -0.262895 1.73375 38 37 34
0.455629 -0.269193 1.77528 38 38 34
0.46034 -0.266536 1.75776 37 37 33
0.459026 -0.260564 1.71838 38 38 34
0.461066 -0.256689 1.69282 37 37 34
0.473267 -0.258511 1.70483 37 36 32
0.478446 -0.2565 1.69157 35 36 31
0.506374 -0.266536 1.75776 36 36 33
0.504028 -0.260564 1.71838 37 37 34
0.500727 -0.254316 1.67717 37 37 34
0.522029 -0.260564 1.71838 36 37 33
0.539657 -0.264797 1.74629 37 37 34
0.531122 -0.256266 1.69003 38 38 35
0.560026 -0.265782 1.75279 37 37 34
0.534003 -0.249345 1.64438 37 37 34
0.576244 -0.264797 1.74629 37 37 34
0.576032 -0.260564 1.71838 37 37 34
0.585033 -0.260564 1.71838 37 37 34
0.59459 -0.260809 1.71999 37 37 34
0.592403 -0.255971 1.68808 37 37 34
0.607211 -0.258511 1.70483 37 37 34
0.648788 -0.272208 1.79517 37 37 34
0.64672 -0.267465 1.76388 37 37 35
0.66406 -0.270768 1.78567 37 37 35
0.642929 -0.258511 1.70483 37 38 35
0.674437 -0.267465 1.76388 37 37 35
0.678811 -0.265561 1.75133 36 37 35
0.692915 -0.267465 1.76388 36 37 35
0.684038 -0.260564 1.71838 36 37 35
0.70633 -0.265561 1.75133 37 38 35
0.709832 -0.263457 1.73745 37 38 35
0.738194 -0.270515 1.784 36 37 34
0.728033 -0.263457 1.73745 35 36 33
0.748348 -0.267465 1.76388 36 37 33
0.760901 -0.268635 1.7716 36 37 34
0.761369 -0.265561 1.75133 36 37 33
0.799828 -0.275655 1.81789 36 37 34
0.794259 -0.270515 1.784 36 37 34
0.814044 -0.27403 1.80718 36 37 34
0.784711 -0.261119 1.72203 36 37 35
0.845382 -0.278111 1.8341 37 38 35
0.836842 -0.272208 1.79517 35 36 34
0.851906 -0.27403 1.80718 34 35 32
0.862703 -0.274453 1.80997 36 37 35
0.839545 -0.264182 1.74224 37 38 36
0.887927 -0.276403 1.82283 36 37 34
0.903022 -0.278111 1.8341 35 36 33
0.858205 -0.261526 1.72472 35 36 34
0.87928 -0.265158 1.74867 36 37 35
0.942775 -0.281374 1.85562 36 37 35
0.902266 -0.266536 1.75776 36 37 35
0.94919 -0.277566 1.8305 36 37 35
0.931262 -0.2696 1.77797 36 37 35
0.964308 -0.276403 1.82283 35 36 34
1.03461 -0.293647 1.93655 36 37 35
0.987541 -0.277566 1.8305 36 37 35
0.957507 -0.266536 1.75776 35 37 35
0.987286 -0.272208 1.79517 35 36 36
0.987138 -0.2696 1.77797 35 36 36
1.12089 -0.303268 2 35 36 36
1.04314 -0.279619 1.84404 34 36 35
1.0528 -0.279619 1.84404 34 36 35
1.11173 -0.292586 1.92955 34 37 35
1.03 -0.268635 1.7716 35 37 36
1.0916 -0.282159 1.86079 34 37 35
1.13689 -0.291264 1.92083 34 37 35
1.13144 -0.287326 1.89486 34 37 35
1.15028 -0.28957 1.90967 33 36 34
1.09072 -0.272208 1.79517 33 36 34
1.11707 -0.276403 1.82283 32 36 34
1.10952 -0.272208 1.79517 31 35 33
1.18106 -0.287326 1.89486 32 36 33
-0.556569 -0.129642 0.885502 39 39 35
-0.557766 -0.131013 0.894863 40 39 35
-0.52538 -0.124451 0.850047 40 39 35
-0.542655 -0.129642 0.885502 39 38 35
-0.524786 -0.126454 0.863725 38 37 34
-0.570465 -0.138656 0.947071 38 37 33
-0.54559 -0.133773 0.91372 38 37 34
-0.529643 -0.131013 0.894863 39 38 34
-0.55424 -0.138321 0.944781 39 38 34
-0.533389 -0.134316 0.917429 37 37 33
-0.545662 -0.138656 0.947071 37 37 34
-0.540701 -0.138656 0.947071 37 37 33
-0.518973 -0.134316 0.917429 37 37 34
-0.560444 -0.146405 1 37 37 34
-0.52582 -0.138656 0.947071 37 37 33
-0.535971 -0.142679 0.974549 38 38 34
-0.473502 -0.127261 0.869241 38 38 34
-0.539493 -0.146405 1 39 38 34
-0.519477 -0.142355 0.972338 38 38 34
-0.514993 -0.142524 0.973489 39 38 34
-0.52378 -0.146405 1 38 38 34
-0.518542 -0.146405 1 37 37 33
-0.513304 -0.146405 1 36 36 32
-0.508066 -0.146405 1 36 36 32
-0.472433 -0.137555 0.939552 37 37 34
-0.51198 -0.150639 1.02892 38 38 35
-0.492353 -0.146405 1 39 39 35
-0.472359 -0.14197 0.969708 39 39 35
-0.481877 -0.146405 1 39 39 35
-0.515996 -0.158494 1.08257 39 39 35
-0.485033 -0.150639 1.02892 38 38 35
-0.493069 -0.154855 1.05772 39 38 35
-0.491701 -0.15618 1.06677 38 38 34
-0.496853 -0.159631 1.09033 37 37 33
-0.495358 -0.161001 1.0997 36 36 32
-0.492021 -0.161798 1.10514 35 35 31
-0.469351 -0.15618 1.06677 36 35 31
-0.463763 -0.15618 1.06677 36 36 31
-0.459756 -0.156719 1.07045 37 37 34
-0.457849 -0.157996 1.07917 39 39 36
-0.514729 -0.179844 1.2284 38 38 35
-0.465785 -0.164803 1.12567 37 37 33
-0.476328 -0.170695 1.1659 36 36 33
-0.497584 -0.180627 1.23375 37 37 33
-0.479611 -0.176394 1.20483 38 38 35
-0.494093 -0.184143 1.25776 39 39 35
-0.456268 -0.172344 1.17717 38 38 35
-0.478458 -0.183202 1.25133 38 37 34
-0.454368 -0.176394 1.20483 37 36 32
-0.46535 -0.183202 1.25133 36 35 31
-0.474867 -0.189619 1.29517 37 36 32
-0.459566 -0.186169 1.2716 37 36 33
-0.478708 -0.196775 1.34404 37 37 34
-0.464223 -0.193669 1.32283 37 38 34
-0.437736 -0.185386 1.26625 38 38 35
-0.431103 -0.185386 1.26625 38 38 35
-0.472547 -0.206382 1.40967 37 37 34
-0.465163 -0.206382 1.40967 35 36 32
-0.446306 -0.20121 1.37433 36 36 32
-0.463643 -0.212452 1.45113 36 36 32
-0.443012 -0.206382 1.40967 36 37 33
-0.435629 -0.206382 1.40967 36 37 33
-0.440841 -0.212452 1.45113 37 37 33
-0.479221 -0.235 1.60514 37 38 34
-0.456904 -0.228058 1.55772 38 38 34
-0.41991 -0.213403 1.45762 39 39 35
-0.446653 -0.231198 1.57917 39 39 35
-0.416405 -0.219608 1.5 39 39 35
-0.454714 -0.244424 1.6695 38 38 34
-0.428776 -0.235 1.60514 37 37 33
-0.463964 -0.259371 1.7716 37 37 33
-0.397522 -0.226763 1.54887 37 37 33
-0.419736 -0.244424 1.6695 37 37 33
-0.425491 -0.253047 1.7284 37 38 34
-0.41076 -0.249596 1.70483 37 38 34
-0.396474 -0.246269 1.68211 38 38 34
-0.392901 -0.249596 1.70483 39 39 35
-0.387385 -0.251815 1.71999 39 39 35
-0.363151 -0.241683 1.65078 37 38 33
-0.356805 -0.243251 1.66149 37 37 33
-0.354081 -0.247429 1.69003 37 37 33
-0.3394 -0.243251 1.66149 37 38 34
-0.328566 -0.241683 1.65078 38 38 34
-0.336715 -0.254372 1.73745 37 37 34
-0.326917 -0.25383 1.73375 37 37 34
-0.312535 -0.249596 1.70483 36 36 32
-0.306017 -0.251579 1.71838 36 37 33
-0.283708 -0.240307 1.64138 37 38 34
-0.285746 -0.249596 1.70483 36 37 34
-0.276817 -0.249596 1.70483 36 37 33
-0.270015 -0.251579 1.71838 37 37 34
-0.254756 -0.245547 1.67717 38 39 35
-0.238417 -0.238006 1.62567 38 38 35
-0.239005 -0.247429 1.69003 37 37 34
-0.222575 -0.239283 1.63439 37 37 34
-0.221301 -0.247429 1.69003 38 38 35
-0.207515 -0.241683 1.65078 38 38 35
-0.198098 -0.240746 1.64438 37 37 34
-0.199783 -0.25383 1.73375 38 38 34
-0.178813 -0.238006 1.62567 38 38 35
-0.172929 -0.241683 1.65078 38 38 35
-0.166574 -0.245053 1.6738 37 37 34
-0.157401 -0.244424 1.6695 37 37 34
-0.14553 -0.239283 1.63439 37 37 33
-0.144008 -0.251579 1.71838 37 37 34
-0.130885 -0.243897 1.6659 37 37 34
-0.119209 -0.238006 1.62567 37 37 34
-0.116084 -0.249596 1.70483 37 37 34
-0.101112 -0.235521 1.60869 37 37 34
-0.0974612 -0.247655 1.69157 36 37 33
-0.0908103 -0.25383 1.73375 37 37 34
-0.0789033 -0.245053 1.6738 37 38 35
-0.0708163 -0.247429 1.69003 37 38 35
-0.0602907 -0.240746 1.64438 37 38 34
-0.0499791 -0.232833 1.59033 37 37 34
-0.0432323 -0.241683 1.65078 36 37 34
-0.0344518 -0.240746 1.64438 37 37 34
-0.0258389 -0.240746 1.64438 37 37 34
-0.0175341 -0.245053 1.6738 37 37 35
-0.00870257 -0.243251 1.66149 37 37 34
0 -0.241683 1.65078 37 37 34
0.00885203 -0.247429 1.69003 37 37 35
0.0172929 -0.241683 1.65078 37 37 35
0.026354 -0.245547 1.67717 36 37 34
0.0348103 -0.243251 1.66149 36 37 34
0.0432323 -0.241683 1.65078 37 38 35
0.0513635 -0.239283 1.63439 37 38 35
0.0596043 -0.238006 1.62567 37 38 35
0.0691717 -0.241683 1.65078 37 38 35
0.0783231 -0.243251 1.66149 37 38 35
0.0851491 -0.238006 1.62567 37 39 35
0.0966315 -0.245547 1.67717 38 38 35
0.106224 -0.247429 1.69003 38 38 35
0.114201 -0.245547 1.67717 38 39 36
0.121836 -0.243251 1.66149 37 38 35
0.13177 -0.245547 1.67717 36 37 34
0.137807 -0.240746 1.64438 37 37 34
0.153152 -0.251815 1.71999 37 38 35
0.156646 -0.243251 1.66149 37 38 35
0.162651 -0.239283 1.63439 37 38 36
0.171212 -0.239283 1.63439 37 37 35
0.174927 -0.232833 1.59033 36 37 35
0.19645 -0.249596 1.70483 37 38 35
0.207206 -0.251815 1.71999 38 39 35
0.206711 -0.240746 1.64438 37 38 34
0.221301 -0.247429 1.69003 36 37 33
0.226267 -0.243251 1.66149 36 37 33
0.244771 -0.253399 1.7308 37 38 34
0.247857 -0.247429 1.69003 37 37 34
0.261259 -0.251815 1.71999 38 38 35
0.26354 -0.245547 1.67717 39 39 36
0.271778 -0.245053 1.6738 38 38 35
0.29354 -0.256404 1.75133 36 36 33
0.280992 -0.238006 1.62567 35 35 31
0.298679 -0.245547 1.67717 36 36 32
0.302626 -0.241683 1.65078 35 35 31
0.318964 -0.247655 1.69157 36 36 33
0.310427 -0.234512 1.6018 38 38 35
0.339324 -0.249596 1.70483 37 37 34
0.3394 -0.243251 1.66149 34 35 31
0.340596 -0.238006 1.62567 35 36 32
0.362933 -0.247429 1.69003 36 37 34
0.365508 -0.243251 1.66149 38 38 35
0.380637 -0.247429 1.69003 38 38 36
0.40651 -0.258242 1.76388 37 38 35
0.405402 -0.251815 1.71999 36 37 33
0.403284 -0.245053 1.6738 37 37 34
0.41969 -0.249596 1.70483 37 37 34
0.435889 -0.25383 1.73375 38 37 34
0.44497 -0.25383 1.73375 38 37 33
0.442602 -0.247429 1.69003 37 37 33
0.451454 -0.247429 1.69003 38 38 34
0.452533 -0.243251 1.66149 38 38 34
0.473267 -0.249596 1.70483 38 38 34
0.493923 -0.255666 1.74629 36 36 32
0.491126 -0.249596 1.70483 37 37 33
0.500056 -0.249596 1.70483 38 38 35
0.517619 -0.25383 1.73375 38 38 35
0.517915 -0.249596 1.70483 37 37 34
0.526844 -0.249596 1.70483 37 37 35
0.527081 -0.245547 1.67717 37 37 34
0.544704 -0.249596 1.70483 36 36 33
0.568733 -0.256404 1.75133 36 36 33
0.557678 -0.247429 1.69003 36 37 34
0.58708 -0.256404 1.75133 37 37 35
0.604406 -0.25991 1.77528 37 38 35
0.605426 -0.256404 1.75133 37 37 35
0.619004 -0.258242 1.76388 37 37 35
0.61751 -0.25383 1.73375 36 37 34
0.622357 -0.252115 1.72203 36 37 34
0.640271 -0.255666 1.74629 37 38 35
0.660197 -0.25991 1.77528 37 38 35
0.642929 -0.249596 1.70483 37 38 35
0.678794 -0.25991 1.77528 37 38 35
0.692119 -0.261431 1.78567 37 37 35
0.681077 -0.25383 1.73375 37 38 35
0.734062 -0.269977 1.84404 36 37 35
0.70633 -0.256404 1.75133 37 38 35
0.723784 -0.259371 1.7716 37 38 35
0.705436 -0.249596 1.70483 36 37 34
0.733849 -0.256404 1.75133 36 37 34
0.745751 -0.257346 1.75776 36 37 34
0.760901 -0.259371 1.7716 36 37 34
0.775571 -0.261187 1.784 35 37 33
0.795113 -0.26458 1.80718 35 37 33
0.788738 -0.259371 1.7716 36 37 34
0.823203 -0.267557 1.82751 36 37 34
0.793917 -0.255073 1.74224 36 38 35
0.814111 -0.258588 1.76625 37 38 35
0.812168 -0.255073 1.74224 36 37 35
0.83986 -0.260839 1.78162 36 36 34
0.868832 -0.266872 1.82283 37 37 35
0.87838 -0.266872 1.82283 36 37 35
0.860367 -0.258588 1.76625 35 36 34
0.849171 -0.252508 1.72472 35 36 34
0.886519 -0.260839 1.78162 35 36 34
0.91657 -0.266872 1.82283 36 37 34
0.912064 -0.262822 1.79517 36 37 35
0.952495 -0.271672 1.85562 35 36 34
0.94919 -0.267995 1.8305 35 36 34
0.940272 -0.262822 1.79517 34 35 33
1.02447 -0.283521 1.93655 33 35 32
0.934235 -0.256014 1.74867 35 36 35
0.9483 -0.257346 1.75776 37 38 36
0.988388 -0.265645 1.81445 36 37 36
1.03697 -0.276047 1.8855 36 37 37
0.983603 -0.259371 1.7716 35 37 36
1.02589 -0.267995 1.8305 34 36 35
1.06028 -0.274412 1.87433 34 36 35
0.989832 -0.25383 1.73375 33 36 35
1.15232 -0.29281 2 34 36 35
1.0437 -0.262822 1.79517 34 37 35
1.06933 -0.266872 1.82283 34 37 36
1.13689 -0.28122 1.92083 34 37 35
1.07191 -0.262822 1.79517 33 37 35
1.04943 -0.255073 1.74224 32 36 34
1.16028 -0.279585 1.90967 32 36 35
1.17029 -0.279585 1.90967 33 36 34
1.12662 -0.266872 1.82283 33 36 34
1.18106 -0.277418 1.89486 33 36 34
-0.526427 -0.118242 0.837546 39 39 35
-0.566992 -0.128423 0.909666 39 38 35
-0.547293 -0.125012 0.885502 39 38 35
-0.564307 -0.13 0.920833 38 37 34
-0.575425 -0.133704 0.947071 37 36 32
-0.541508 -0.126917 0.898997 37 37 33
-0.54559 -0.128996 0.91372 38 37 34
-0.529643 -0.126334 0.894863 39 38 34
-0.555583 -0.133704 0.947071 39 38 35
-0.533389 -0.129519 0.917429 38 38 34
-0.503754 -0.123435 0.874334 37 38 34
-0.527512 -0.130443 0.923969 37 37 33
-0.520899 -0.13 0.920833 37 37 33
-0.529497 -0.133381 0.944781 37 37 34
-0.52582 -0.133704 0.947071 37 37 34
-0.518227 -0.133028 0.942284 39 39 35
-0.514651 -0.133381 0.944781 40 39 36
-0.539493 -0.141176 1 39 38 34
-0.520092 -0.137434 0.973489 38 37 33
-0.514384 -0.137271 0.972338 38 38 33
-0.509894 -0.137434 0.973489 38 38 34
-0.504795 -0.137434 0.973489 37 37 33
-0.498461 -0.137094 0.971083 36 36 32
-0.52212 -0.145082 1.02766 36 36 33
-0.473807 -0.133028 0.942284 37 37 34
-0.464368 -0.131751 0.933233 38 37 34
-0.492353 -0.141176 1 38 37 34
-0.487115 -0.141176 1 38 37 34
-0.508486 -0.148972 1.05522 37 37 34
-0.517764 -0.153357 1.08628 37 37 34
-0.501313 -0.150134 1.06345 37 37 33
-0.512638 -0.155251 1.0997 38 38 34
-0.475586 -0.145667 1.0318 38 38 35
-0.48779 -0.151122 1.07045 38 38 34
-0.495358 -0.155251 1.0997 37 37 33
-0.478405 -0.151702 1.07455 37 37 34
-0.520097 -0.166886 1.18211 38 37 34
-0.467148 -0.151702 1.07455 37 37 33
-0.512316 -0.168398 1.19282 37 37 34
-0.486677 -0.161946 1.14712 37 38 35
-0.454383 -0.15309 1.08438 37 38 34
-0.504147 -0.172006 1.21838 37 37 33
-0.480931 -0.166189 1.17717 36 36 32
-0.474765 -0.166189 1.17717 36 37 33
-0.468599 -0.166189 1.17717 38 38 34
-0.462434 -0.166189 1.17717 38 38 34
-0.492868 -0.17952 1.2716 38 37 34
-0.510902 -0.188638 1.33618 37 36 33
-0.471904 -0.176659 1.25133 36 36 32
-0.46535 -0.176659 1.25133 37 36 33
-0.466226 -0.17952 1.2716 37 37 34
-0.459566 -0.17952 1.2716 37 37 34
-0.435252 -0.172523 1.22203 36 37 33
-0.462492 -0.186056 1.31789 37 37 34
-0.457295 -0.186752 1.32283 37 37 34
-0.483732 -0.200588 1.42083 37 38 35
-0.454428 -0.191381 1.35562 37 38 35
-0.465163 -0.199012 1.40967 36 37 34
-0.45778 -0.199012 1.40967 36 37 33
-0.494874 -0.218665 1.54887 36 37 33
-0.456042 -0.204865 1.45113 36 37 33
-0.448441 -0.204865 1.45113 37 37 34
-0.470536 -0.218665 1.54887 37 37 33
-0.479221 -0.226608 1.60514 37 38 34
-0.439975 -0.211765 1.5 37 38 34
-0.501902 -0.245963 1.74224 38 38 34
-0.449812 -0.224518 1.59033 37 38 33
-0.429972 -0.218665 1.54887 37 37 33
-0.437184 -0.226608 1.60514 36 37 32
-0.428776 -0.226608 1.60514 37 37 33
-0.420369 -0.226608 1.60514 37 38 34
-0.422035 -0.232148 1.64438 37 38 34
-0.413422 -0.232148 1.64438 37 37 33
-0.41969 -0.240682 1.70483 38 38 34
-0.416438 -0.244009 1.7284 37 38 34
-0.392163 -0.234892 1.66382 38 38 34
-0.369925 -0.226608 1.60514 38 39 35
-0.380637 -0.238593 1.69003 37 38 34
-0.371785 -0.238593 1.69003 36 37 32
-0.354505 -0.233052 1.65078 37 37 33
-0.357183 -0.240682 1.70483 36 37 32
-0.3394 -0.234564 1.66149 37 38 34
-0.333818 -0.236777 1.67717 38 38 35
-0.318679 -0.232148 1.64438 37 38 35
-0.310066 -0.232148 1.64438 37 38 35
