ply
format ascii 1.0
element vertex 1338
property float x
property float y
property float z
property uchar red
property uchar green
property uchar blue
end_header
1.02382 -0.8485 1.84404 38 38 36
1.06196 -0.871885 1.89486 38 39 36
1.13136 -0.920261 2 39 39 36
1.0249 -0.826012 1.79517 39 39 36
0.982252 -0.784446 1.70483 38 38 35
1.08973 -0.862439 1.87433 37 38 35
1.17327 -0.920261 2 38 40 34
1.18374 -0.920261 2 38 40 33
1.28734 -0.992023 2.15596 37 39 33
1.20469 -0.920261 2 37 40 32
1.21517 -0.920261 2 37 39 35
1.13007 -0.8485 1.84404 37 39 38
1.05369 -0.784446 1.70483 38 39 38
1.2466 -0.920261 2 37 39 38
-0.488979 -0.353898 0.777965 25 42 30
-0.592834 -0.432669 0.951125 26 42 31
-0.491461 -0.361723 0.795167 26 40 41
-0.504248 -0.374306 0.822829 29 38 48
-0.474903 -0.355562 0.781624 28 38 46
-0.487882 -0.368457 0.80997 26 36 47
-0.549838 -0.418889 0.920833 27 36 45
-0.493677 -0.379432 0.834095 33 38 44
-0.507798 -0.393769 0.865614 37 39 42
-0.484939 -0.379432 0.834095 39 38 36
-0.48057 -0.379432 0.834095 42 37 36
-0.499175 -0.397736 0.874334 42 37 36
-0.498934 -0.401225 0.882004 42 36 36
-0.536693 -0.435624 0.957621 41 36 36
-0.534439 -0.437886 0.962595 41 35 36
-0.50356 -0.416515 0.915615 38 36 36
-0.498764 -0.416515 0.915615 36 36 36
-0.501487 -0.422856 0.929553 36 37 37
-0.474846 -0.404317 0.8888 35 39 37
-0.484376 -0.416515 0.915615 35 39 37
-0.465535 -0.404317 0.8888 34 38 36
-0.457356 -0.401225 0.882004 36 39 37
-0.475035 -0.420987 0.925446 38 41 39
-0.467844 -0.418889 0.920833 39 38 38
-0.502828 -0.454902 1 40 36 36
-0.497591 -0.454902 1 42 35 36
-0.472788 -0.436826 0.960263 39 35 36
-0.506472 -0.472978 1.03974 41 34 36
-0.481877 -0.454902 1 39 34 35
-0.438905 -0.418889 0.920833 39 36 37
-0.471402 -0.454902 1 41 38 38
-0.44764 -0.436826 0.960263 39 37 36
-0.441393 -0.435624 0.957621 39 37 35
-0.437581 -0.436826 0.960263 39 37 34
-0.430002 -0.434251 0.954604 37 37 33
-0.46408 -0.47418 1.04238 38 38 33
-0.439975 -0.454902 1 38 39 34
-0.417462 -0.436826 0.960263 37 38 33
-0.483473 -0.512068 1.12567 37 38 32
-0.424261 -0.454902 1 37 37 32
-0.419024 -0.454902 1 37 37 31
-0.413786 -0.454902 1 36 36 31
-0.443023 -0.493289 1.08438 36 36 31
-0.442504 -0.499109 1.09718 38 38 35
-0.417528 -0.477135 1.04887 40 40 37
-0.413627 -0.47898 1.05293 39 39 36
-0.448046 -0.525848 1.15596 39 38 37
-0.401047 -0.477135 1.04887 37 37 37
-0.411188 -0.495995 1.09033 36 36 37
-0.454454 -0.555906 1.22203 36 36 38
-0.386052 -0.47898 1.05293 37 36 38
-0.382267 -0.481157 1.05772 36 36 38
-0.422256 -0.539308 1.18555 36 36 37
-0.431085 -0.558802 1.2284 36 36 38
-0.363992 -0.47898 1.05293 37 37 38
-0.41605 -0.555906 1.22203 38 36 37
-0.377345 -0.512068 1.12567 38 35 35
-0.391208 -0.539308 1.18555 39 36 35
-0.391261 -0.548081 1.20483 39 37 36
-0.378789 -0.539308 1.18555 39 37 35
-0.390395 -0.565096 1.24224 39 36 35
-0.388686 -0.572158 1.25776 37 37 35
-0.373178 -0.558802 1.2284 37 37 35
-0.336072 -0.512068 1.12567 38 37 35
-0.334149 -0.518228 1.13921 39 37 35
-0.362335 -0.572158 1.25776 38 36 34
-0.355747 -0.572158 1.25776 38 34 36
-0.349159 -0.572158 1.25776 38 34 39
-0.342571 -0.572158 1.25776 39 34 38
-0.321844 -0.548081 1.20483 40 34 40
-0.377719 -0.656098 1.44228 40 34 38
-0.366898 -0.650307 1.42955 39 35 36
-0.302912 -0.548081 1.20483 40 35 36
-0.391503 -0.723446 1.59033 39 35 36
-0.320569 -0.605246 1.3305 38 36 36
-0.40183 -0.775532 1.70483 40 38 38
-0.329459 -0.650307 1.42955 40 38 38
-0.337838 -0.682353 1.5 39 38 37
-0.314484 -0.650307 1.42955 38 38 36
-0.349111 -0.739519 1.62567 38 38 35
-0.357183 -0.775532 1.70483 38 38 34
-0.306411 -0.682353 1.5 38 37 34
-0.339324 -0.775532 1.70483 37 37 33
-0.290698 -0.682353 1.5 38 36 32
-0.331445 -0.799609 1.75776 36 36 32
-0.343608 -0.852638 1.87433 38 36 32
-0.310267 -0.792547 1.74224 36 37 32
-0.280992 -0.739519 1.62567 36 39 34
-0.300887 -0.816625 1.79517 35 40 34
-0.285411 -0.799609 1.75776 36 40 34
-0.235701 -0.682353 1.5 34 40 34
-0.272679 -0.816625 1.79517 35 39 33
-0.293317 -0.909804 2 36 38 33
-0.253873 -0.816625 1.79517 37 38 34
-0.239377 -0.799609 1.75776 38 37 34
-0.223239 -0.775532 1.70483 38 37 34
-0.240059 -0.868711 1.90967 38 38 35
-0.219595 -0.829208 1.82283 38 37 34
-0.209082 -0.825398 1.81445 38 37 35
-0.192343 -0.795473 1.74867 38 37 36
-0.191756 -0.832697 1.8305 37 37 36
-0.1674 -0.765193 1.68211 38 37 35
-0.178648 -0.861977 1.89486 37 37 36
-0.162992 -0.832697 1.8305 38 38 37
-0.150444 -0.816625 1.79517 38 38 37
-0.148138 -0.857718 1.8855 36 37 36
-0.142426 -0.883549 1.94228 36 37 36
-0.124641 -0.832697 1.8305 36 36 36
-0.11851 -0.857718 1.8855 36 36 37
-0.104541 -0.825398 1.81445 36 37 39
-0.0974644 -0.846477 1.86079 37 37 39
-0.0838136 -0.8088 1.77797 36 37 39
-0.0793993 -0.861977 1.89486 36 37 39
-0.0665261 -0.825398 1.81445 36 37 39
-0.0544862 -0.788686 1.73375 36 37 38
-0.0454051 -0.788686 1.73375 37 38 38
-0.0380149 -0.825398 1.81445 38 38 38
-0.0272431 -0.788686 1.73375 37 38 38
-0.0188054 -0.816625 1.79517 36 37 36
-0.00892957 -0.775532 1.70483 37 38 36
0 -0.8088 1.77797 38 38 37
0.00892957 -0.775532 1.70483 37 39 36
0.0191756 -0.832697 1.8305 36 38 37
0.0276204 -0.799609 1.75776 35 37 38
0.0380149 -0.825398 1.81445 35 37 38
0.045265 -0.786253 1.7284 35 37 38
0.0558757 -0.8088 1.77797 36 38 38
0.0687217 -0.852638 1.87433 36 38 39
0.0752218 -0.816625 1.79517 37 39 38
0.0838136 -0.8088 1.77797 36 38 36
0.0950373 -0.825398 1.81445 37 37 35
0.107991 -0.852638 1.87433 37 37 35
0.107155 -0.775532 1.70483 39 37 35
0.117689 -0.786253 1.7284 39 37 35
0.130377 -0.8088 1.77797 38 38 33
0.133943 -0.775532 1.70483 39 39 32
0.154539 -0.838858 1.84404 39 39 33
0.164198 -0.838858 1.84404 38 39 31
0.174948 -0.844123 1.85562 38 38 31
0.18653 -0.852638 1.87433 37 38 32
0.191756 -0.832697 1.8305 36 38 33
0.199578 -0.825398 1.81445 37 38 34
0.209082 -0.825398 1.81445 38 38 34
0.218586 -0.825398 1.81445 38 38 34
0.220963 -0.799609 1.75776 37 37 33
0.235068 -0.816625 1.79517 37 38 34
0.249282 -0.832697 1.8305 38 38 34
0.25887 -0.832697 1.8305 37 38 34
0.277897 -0.861977 1.89486 37 38 34
0.278046 -0.832697 1.8305 37 40 36
0.289761 -0.838858 1.84404 37 42 36
0.293888 -0.823359 1.80997 38 42 35
0.298004 -0.8088 1.77797 36 41 34
0.320738 -0.844123 1.85562 36 40 34
0.325984 -0.832697 1.8305 37 40 34
0.329095 -0.816625 1.79517 36 39 33
0.347714 -0.838858 1.84404 36 38 32
0.354748 -0.832697 1.8305 36 39 34
0.386585 -0.883549 1.94228 36 41 36
0.370646 -0.825398 1.81445 37 40 37
0.368272 -0.799609 1.75776 36 39 39
0.415873 -0.88094 1.93655 36 37 39
0.402687 -0.832697 1.8305 38 36 37
0.395892 -0.799609 1.75776 38 36 39
0.431965 -0.852638 1.87433 38 37 37
0.414306 -0.799609 1.75776 38 39 34
0.428381 -0.8088 1.77797 38 39 34
0.450626 -0.832697 1.8305 37 38 33
0.456179 -0.825398 1.81445 36 37 33
0.483918 -0.857718 1.8855 37 39 34
0.479389 -0.832697 1.8305 38 39 35
0.488977 -0.832697 1.8305 38 39 36
0.494194 -0.825398 1.81445 38 39 36
0.539184 -0.883549 1.94228 37 38 36
0.501081 -0.805904 1.7716 36 37 36
0.51715 -0.816625 1.79517 36 37 37
0.568022 -0.88094 1.93655 36 38 37
0.541713 -0.825398 1.81445 36 38 37
0.533994 -0.799609 1.75776 36 37 36
0.569864 -0.838858 1.84404 36 38 36
0.589043 -0.852638 1.87433 37 39 35
0.579728 -0.825398 1.81445 37 39 33
0.612304 -0.857718 1.8855 37 39 32
0.618495 -0.852638 1.87433 38 41 32
0.632056 -0.857718 1.8855 38 40 33
0.623206 -0.832697 1.8305 36 39 29
0.669454 -0.88094 1.93655 35 37 30
0.679598 -0.88094 1.93655 36 39 34
0.630991 -0.805904 1.7716 38 40 36
0.672505 -0.846477 1.86079 36 39 36
0.67611 -0.838858 1.84404 36 37 35
0.697034 -0.852638 1.87433 36 39 36
0.642929 -0.775532 1.70483 36 39 36
0.740457 -0.88094 1.93655 35 40 37
0.775194 -0.909804 2 36 39 36
0.736303 -0.852638 1.87433 35 39 36
0.764631 -0.873791 1.92083 35 40 37
0.774692 -0.873791 1.92083 35 40 38
0.765756 -0.852638 1.87433 35 40 37
0.790193 -0.868711 1.90967 34 40 36
0.808529 -0.877758 1.92955 34 40 36
0.782356 -0.838858 1.84404 34 40 36
0.8202 -0.868711 1.90967 34 40 36
0.757415 -0.792547 1.74224 34 39 36
0.87995 -0.909804 2 34 39 35
0.890425 -0.909804 2 35 40 35
0.798018 -0.805904 1.7716 36 40 35
0.875301 -0.873791 1.92083 36 40 36
0.880215 -0.868711 1.90967 36 40 36
0.895423 -0.873791 1.92083 36 40 36
0.859285 -0.829208 1.82283 35 40 35
0.903166 -0.861977 1.89486 37 41 37
0.920224 -0.868711 1.90967 37 41 37
1.06053 -0.990399 2.17717 36 41 37
0.922834 -0.852638 1.87433 36 40 36
0.942866 -0.861977 1.89486 38 40 36
1.00566 -0.909804 2 40 41 37
0.893059 -0.799609 1.75776 39 41 35
1.08058 -0.957631 2.10514 38 40 33
0.911473 -0.799609 1.75776 37 40 32
0.992491 -0.861977 1.89486 37 40 33
0.964308 -0.829208 1.82283 37 40 32
1.06851 -0.909804 2 37 40 34
1.16312 -0.98075 2.15596 37 39 36
1.08946 -0.909804 2 37 39 36
0.987286 -0.816625 1.79517 37 38 36
0.975921 -0.799609 1.75776 37 38 35
1.23569 -1.00298 2.20483 37 39 35
1.21959 -0.98075 2.15596 38 39 36
1.0249 -0.816625 1.79517 38 39 35
1.24217 -0.98075 2.15596 37 39 35
1.16279 -0.909804 2 37 39 35
1.17327 -0.909804 2 38 40 34
1.18374 -0.909804 2 37 39 32
1.19422 -0.909804 2 37 38 33
1.38249 -1.04408 2.29517 36 39 31
1.03583 -0.775532 1.70483 36 38 34
0.612822 -0.454902 1 37 38 37
1.23612 -0.909804 2 38 39 38
1.43057 -1.04408 2.29517 37 39 38
-0.470565 -0.336656 0.748668 28 42 33
-0.533303 -0.384747 0.855615 28 42 33
-0.508558 -0.370004 0.822829 28 40 42
-0.496367 -0.364222 0.80997 29 38 48
-0.474903 -0.351475 0.781624 29 38 46
-0.526652 -0.393165 0.874334 26 36 46
-0.466715 -0.351475 0.781624 28 36 45
-0.499564 -0.379543 0.844042 33 38 44
-0.53364 -0.409052 0.909666 36 38 41
-0.503264 -0.389243 0.865614 39 38 36
-0.48057 -0.37507 0.834095 41 36 36
-0.499175 -0.393165 0.874334 43 38 37
-0.458185 -0.364222 0.80997 43 38 38
-0.518661 -0.416148 0.925446 43 38 38
-0.516094 -0.417995 0.929553 42 36 37
-0.488812 -0.39967 0.8888 39 36 36
-0.504119 -0.416148 0.925446 36 37 36
-0.499272 -0.416148 0.925446 35 37 36
-0.455657 -0.383519 0.852883 35 38 37
-0.466595 -0.396613 0.882004 35 38 36
-0.479581 -0.411728 0.915615 34 38 36
-0.457356 -0.396613 0.882004 36 39 37
-0.452736 -0.396613 0.882004 37 39 37
-0.489062 -0.432853 0.962595 39 38 37
-0.449963 -0.402396 0.894863 40 36 36
-0.460493 -0.416148 0.925446 41 34 36
-0.473936 -0.432853 0.962595 38 34 35
-0.448552 -0.414074 0.920833 40 33 35
-0.462729 -0.431805 0.960263 38 34 35
-0.441104 -0.416148 0.925446 38 34 35
-0.434082 -0.414074 0.920833 40 38 37
-0.429259 -0.414074 0.920833 39 37 36
-0.424436 -0.414074 0.920833 39 37 35
-0.455688 -0.449673 1 39 37 34
-0.46835 -0.467542 1.03974 38 37 33
-0.385382 -0.389243 0.865614 39 39 34
-0.422492 -0.431805 0.960263 38 40 35
-0.454472 -0.470086 1.0454 37 39 34
-0.480179 -0.502733 1.118 36 38 32
-0.443521 -0.470086 1.0454 37 38 33
-0.435674 -0.467542 1.03974 37 37 33
-0.413786 -0.449673 1 36 37 32
-0.445454 -0.490294 1.09033 36 36 32
-0.421619 -0.470086 1.0454 36 36 33
-0.417528 -0.471651 1.04887 37 37 35
-0.412034 -0.471651 1.04887 37 38 35
-0.425263 -0.493372 1.09718 37 37 36
-0.399717 -0.470086 1.0454 37 37 37
-0.395553 -0.471651 1.04887 36 36 37
-0.414464 -0.50116 1.1145 37 36 38
-0.405194 -0.49695 1.10514 37 37 38
-0.402789 -0.50116 1.1145 37 37 39
-0.422256 -0.533109 1.18555 37 36 38
-0.391113 -0.50116 1.1145 36 36 37
-0.38204 -0.49695 1.10514 36 36 37
-0.383241 -0.506182 1.12567 38 36 36
-0.356489 -0.478205 1.06345 38 36 35
-0.397572 -0.541781 1.20483 40 37 36
-0.37539 -0.519803 1.15596 40 37 36
-0.422651 -0.594841 1.32283 39 37 36
-0.384046 -0.549516 1.22203 38 36 34
-0.391309 -0.569399 1.26625 37 35 33
-0.327842 -0.485272 1.07917 37 36 34
-0.366744 -0.552379 1.2284 37 36 34
-0.390257 -0.59829 1.3305 38 36 34
-0.415491 -0.648556 1.44228 38 36 34
-0.351356 -0.558601 1.24224 38 35 37
-0.326786 -0.529342 1.17717 38 34 39
-0.362382 -0.59829 1.3305 39 35 38
-0.367123 -0.618001 1.37433 40 34 40
-0.359924 -0.618001 1.37433 40 34 37
-0.370165 -0.648556 1.44228 39 35 36
-0.377121 -0.67451 1.5 40 35 36
-0.347026 -0.633889 1.40967 40 36 36
-0.33113 -0.618001 1.37433 39 36 36
-0.353551 -0.67451 1.5 40 38 38
-0.345695 -0.67451 1.5 40 38 38
-0.317492 -0.633889 1.40967 39 39 37
-0.36429 -0.74464 1.65596 38 38 36
-0.322124 -0.67451 1.5 38 38 35
-0.314268 -0.67451 1.5 38 38 35
-0.320801 -0.706188 1.57045 38 38 35
-0.316534 -0.715131 1.59033 37 37 34
-0.320922 -0.74464 1.65596 38 35 32
-0.321464 -0.766618 1.70483 35 35 32
-0.303575 -0.74464 1.65596 38 35 32
-0.303605 -0.766618 1.70483 37 37 33
-0.31029 -0.807239 1.79517 36 38 34
-0.285746 -0.766618 1.70483 35 40 35
-0.304339 -0.842838 1.87433 36 40 35
-0.260207 -0.74464 1.65596 34 39 34
-0.266997 -0.790418 1.75776 35 39 34
-0.24286 -0.74464 1.65596 37 39 35
-0.265069 -0.842838 1.87433 38 39 35
-0.255252 -0.842838 1.87433 39 38 35
-0.248123 -0.852069 1.89486 38 38 35
-0.241462 -0.863747 1.92083 38 37 34
-0.211756 -0.790418 1.75776 38 37 34
-0.210931 -0.823126 1.8305 38 37 35
-0.197457 -0.807239 1.79517 38 37 36
-0.186252 -0.799503 1.77797 37 37 36
-0.175774 -0.794235 1.76625 37 36 35
-0.169249 -0.807239 1.79517 37 37 36
-0.164198 -0.829216 1.84404 39 38 37
-0.149002 -0.799503 1.77797 39 39 38
-0.14579 -0.834421 1.85562 37 37 37
-0.130377 -0.799503 1.77797 36 36 36
-0.117689 -0.777215 1.7284 36 36 36
-0.10991 -0.786329 1.74867 37 37 38
-0.105466 -0.823126 1.8305 39 39 40
-0.101733 -0.873393 1.94228 39 39 40
-0.0766342 -0.731018 1.62567 38 38 39
-0.0760299 -0.815911 1.81445 37 37 38
-0.0671145 -0.823126 1.8305 36 37 38
-0.0575267 -0.823126 1.8305 36 37 38
-0.0488585 -0.838916 1.86561 36 37 37
-0.0383511 -0.823126 1.8305 37 37 37
-0.0296276 -0.84786 1.8855 37 38 38
-0.0190075 -0.815911 1.81445 37 38 37
-0.00958778 -0.823126 1.8305 37 38 36
0 -0.815911 1.81445 37 38 37
0.0092068 -0.790418 1.75776 37 39 36
0.0190075 -0.815911 1.81445 36 39 38
0.0276204 -0.790418 1.75776 36 38 38
0.0376109 -0.807239 1.79517 35 37 37
0.0470136 -0.807239 1.79517 34 36 37
0.0595494 -0.852069 1.89486 35 37 38
0.0671145 -0.823126 1.8305 37 39 40
0.0760299 -0.815911 1.81445 37 39 38
0.0838136 -0.799503 1.77797 36 38 36
0.0905301 -0.777215 1.7284 37 38 36
0.102439 -0.799503 1.77797 37 37 35
0.108636 -0.777215 1.7284 39 38 35
0.122235 -0.807239 1.79517 39 38 35
0.137443 -0.842838 1.87433 39 38 34
0.148138 -0.84786 1.8855 39 40 32
0.149002 -0.799503 1.77797 39 39 33
0.156516 -0.790418 1.75776 39 39 32
0.17258 -0.823126 1.8305 38 38 32
0.174929 -0.790418 1.75776 37 38 33
0.186252 -0.799503 1.77797 36 38 33
0.202833 -0.829216 1.84404 36 37 33
0.217269 -0.84786 1.8855 37 38 34
0.21419 -0.799503 1.77797 38 38 35
0.235617 -0.842838 1.87433 38 38 34
0.26189 -0.899346 2 38 38 34
0.256773 -0.84786 1.8855 38 38 34
0.262422 -0.834421 1.85562 38 39 35
0.263276 -0.807239 1.79517 38 39 35
0.26335 -0.779621 1.73375 37 40 35
0.296276 -0.84786 1.8855 36 41 36
0.307672 -0.852069 1.89486 38 42 36
0.318931 -0.855647 1.90282 36 41 35
0.318738 -0.829216 1.84404 37 40 34
0.333791 -0.842838 1.87433 38 40 34
0.331809 -0.813895 1.80997 37 39 34
0.347714 -0.829216 1.84404 37 39 34
0.357372 -0.829216 1.84404 37 40 35
0.348048 -0.786329 1.74867 36 41 37
0.387071 -0.852069 1.89486 38 41 38
0.406931 -0.873393 1.94228 37 40 39
0.381817 -0.799503 1.77797 37 38 39
0.402687 -0.823126 1.8305 38 37 38
0.395892 -0.790418 1.75776 39 37 39
0.424983 -0.829216 1.84404 39 38 37
0.43145 -0.823126 1.8305 39 39 34
0.441038 -0.823126 1.8305 38 39 34
0.478145 -0.873393 1.94228 38 38 34
0.471234 -0.842838 1.87433 37 38 33
0.451133 -0.790418 1.75776 37 38 33
0.457958 -0.786329 1.74867 37 38 34
0.479539 -0.807239 1.79517 38 38 35
0.513545 -0.84786 1.8855 37 37 35
0.520321 -0.842838 1.87433 36 37 35
0.513202 -0.815911 1.81445 36 37 36
0.527328 -0.823126 1.8305 35 36 36
0.549773 -0.842838 1.87433 36 37 37
0.535955 -0.807239 1.79517 37 38 38
0.560205 -0.829216 1.84404 37 38 37
0.598452 -0.870814 1.93655 36 38 36
0.535774 -0.766618 1.70483 36 38 34
0.573566 -0.807239 1.79517 36 38 31
0.589231 -0.815911 1.81445 36 39 31
0.618495 -0.842838 1.87433 38 40 32
0.623772 -0.836748 1.86079 37 40 32
0.611177 -0.807239 1.79517 35 38 29
0.651808 -0.84786 1.8855 35 38 31
0.68161 -0.873393 1.94228 36 39 34
0.651969 -0.823126 1.8305 38 40 36
0.677399 -0.842838 1.87433 36 39 36
0.682251 -0.836748 1.86079 36 37 35
0.717569 -0.867668 1.92955 36 39 36
0.732477 -0.873393 1.94228 36 39 36
0.737782 -0.867668 1.92955 35 39 36
0.721237 -0.836748 1.86079 36 39 36
0.71278 -0.815911 1.81445 34 38 35
0.770887 -0.870814 1.93655 34 39 37
0.750476 -0.836748 1.86079 35 40 38
0.817096 -0.899346 2 35 41 38
0.720913 -0.783438 1.74224 36 41 38
0.81146 -0.870814 1.93655 35 40 37
0.88211 -0.934946 2.07917 36 41 37
0.799208 -0.836748 1.86079 35 40 37
0.869474 -0.899346 2 34 39 36
0.87995 -0.899346 2 34 39 35
0.799231 -0.807239 1.79517 36 40 35
0.86021 -0.858725 1.90967 37 40 36
0.870212 -0.858725 1.90967 37 40 36
0.873392 -0.852069 1.89486 36 39 35
0.890217 -0.858725 1.90967 36 39 35
0.883564 -0.842838 1.87433 37 40 36
0.910222 -0.858725 1.90967 39 42 38
0.925606 -0.863747 1.92083 38 41 37
0.874453 -0.807239 1.79517 37 41 37
0.932941 -0.852069 1.89486 36 39 35
0.942866 -0.852069 1.89486 37 39 35
0.960234 -0.858725 1.90967 39 40 36
0.952286 -0.842838 1.87433 39 40 35
1.02661 -0.899346 2 38 39 33
1.03708 -0.899346 2 37 39 31
0.940272 -0.807239 1.79517 37 39 33
1.05803 -0.899346 2 37 39 32
1.06851 -0.899346 2 37 39 34
0.9483 -0.790418 1.75776 37 38 36
1.08946 -0.899346 2 37 39 36
1.09994 -0.899346 2 37 38 36
1.11041 -0.899346 2 37 38 35
1.05046 -0.842838 1.87433 38 39 36
1.01549 -0.807239 1.79517 38 39 36
1.0528 -0.829216 1.84404 37 39 36
1.15232 -0.899346 2 38 39 36
1.08973 -0.842838 1.87433 37 39 36
1.00011 -0.766618 1.70483 38 40 35
1.27605 -0.969477 2.15596 37 40 33
1.31652 -0.991454 2.20483 37 38 33
1.08131 -0.807239 1.79517 37 39 32
1.21517 -0.899346 2 36 38 34
1.04476 -0.766618 1.70483 35 37 36
1.05369 -0.766618 1.70483 36 37 36
1.2466 -0.899346 2 35 37 36
-0.537785 -0.380273 0.855615 30 43 34
-0.562726 -0.401253 0.90282 30 42 34
-0.56913 -0.409259 0.920833 30 41 42
-0.469575 -0.340555 0.76625 31 38 48
-0.525933 -0.384717 0.865614 30 39 46
-0.495628 -0.365702 0.822829 29 37 47
-0.491318 -0.365702 0.822829 31 37 45
-0.487009 -0.365702 0.822829 35 39 43
-0.517413 -0.392002 0.882004 36 39 40
-0.503264 -0.384717 0.865614 38 37 35
-0.49873 -0.384717 0.865614 38 33 33
-0.499175 -0.388593 0.874334 42 36 36
-0.494595 -0.388593 0.874334 43 38 38
-0.477993 -0.379059 0.852883 43 37 37
-0.485436 -0.388593 0.874334 42 36 36
-0.506429 -0.409259 0.920833 39 36 37
-0.498764 -0.40694 0.915615 36 37 37
-0.496783 -0.409259 0.920833 35 37 36
-0.494424 -0.411309 0.925446 35 38 36
-0.489577 -0.411309 0.925446 35 38 36
-0.457958 -0.388593 0.874334 34 38 36
-0.46088 -0.395022 0.8888 36 38 36
-0.452736 -0.392002 0.882004 37 38 36
-0.451569 -0.395022 0.8888 39 38 37
-0.446914 -0.395022 0.8888 40 36 37
-0.442259 -0.395022 0.8888 41 35 36
-0.474957 -0.428742 0.964669 39 35 36
-0.435901 -0.397717 0.894863 40 34 35
-0.462729 -0.426784 0.960263 38 35 36
-0.459799 -0.428742 0.964669 39 36 37
-0.471402 -0.444444 1 41 38 38
-0.429259 -0.409259 0.920833 40 38 37
-0.403003 -0.388593 0.874334 39 37 36
-0.455688 -0.444444 1 38 37 34
-0.431361 -0.425609 0.957621 37 37 33
-0.445213 -0.444444 1 38 38 34
-0.457458 -0.462105 1.03974 38 40 35
-0.454472 -0.46462 1.0454 37 38 33
-0.410002 -0.424269 0.954604 35 37 31
-0.424261 -0.444444 1 36 37 32
-0.419024 -0.444444 1 37 38 33
-0.431322 -0.463279 1.04238 37 38 34
-0.445454 -0.484593 1.09033 38 38 35
-0.421619 -0.46462 1.0454 37 37 35
-0.413891 -0.462105 1.03974 37 37 34
-0.462434 -0.523187 1.17717 37 38 35
-0.44356 -0.508615 1.14438 37 37 36
-0.437566 -0.508615 1.14438 37 37 37
-0.411188 -0.484593 1.09033 36 36 37
-0.405477 -0.484593 1.09033 37 37 38
-0.448054 -0.543126 1.22203 37 38 39
-0.425439 -0.523187 1.17717 37 37 38
-0.429125 -0.535481 1.20483 36 36 38
-0.422815 -0.535481 1.20483 35 36 37
-0.399608 -0.513759 1.15596 36 36 36
-0.393554 -0.513759 1.15596 37 36 36
-0.434165 -0.57563 1.29517 37 35 34
-0.409915 -0.552106 1.24224 38 37 35
-0.343486 -0.470096 1.05772 39 38 37
-0.404574 -0.562778 1.26625 38 37 36
-0.37864 -0.535481 1.20483 37 36 34
-0.347865 -0.500296 1.12567 38 37 35
-0.393462 -0.57563 1.29517 38 37 35
-0.394936 -0.587924 1.32283 38 37 35
-0.379894 -0.57563 1.29517 38 37 35
-0.347087 -0.535481 1.20483 38 37 35
-0.366326 -0.57563 1.29517 38 35 37
-0.381519 -0.610815 1.37433 38 35 39
-0.395236 -0.644945 1.45113 39 35 38
-0.367123 -0.610815 1.37433 39 34 39
-0.348444 -0.591333 1.3305 39 34 37
-0.302123 -0.523187 1.17717 39 35 36
-0.35941 -0.635357 1.42955 40 36 36
-0.351922 -0.635357 1.42955 39 36 36
-0.378381 -0.697976 1.57045 38 35 35
-0.370156 -0.697976 1.57045 38 36 36
-0.36193 -0.697976 1.57045 38 37 36
-0.366141 -0.722518 1.62567 38 37 36
-0.357626 -0.722518 1.62567 37 37 35
-0.337253 -0.697976 1.57045 39 38 35
-0.357183 -0.757703 1.70483 39 39 36
-0.306411 -0.666667 1.5 38 38 35
-0.323566 -0.722518 1.62567 37 37 34
-0.330394 -0.757703 1.70483 37 36 33
-0.312249 -0.735981 1.65596 36 35 32
-0.287899 -0.697976 1.57045 39 37 34
-0.289507 -0.722518 1.62567 38 38 35
-0.294676 -0.757703 1.70483 36 39 35
-0.314156 -0.833037 1.87433 35 40 36
-0.285411 -0.781228 1.75776 36 40 36
-0.282082 -0.797852 1.79517 34 39 35
-0.246932 -0.722518 1.62567 35 39 35
-0.24286 -0.735981 1.65596 38 39 36
-0.257785 -0.810146 1.82283 39 40 36
-0.237263 -0.774328 1.74224 40 40 37
-0.26189 -0.888889 2 39 38 35
-0.229143 -0.810146 1.82283 38 38 35
-0.216263 -0.797852 1.79517 38 37 34
-0.193263 -0.745409 1.67717 38 37 35
-0.187521 -0.757703 1.70483 38 37 36
-0.184136 -0.781228 1.75776 38 37 36
-0.169662 -0.757703 1.70483 38 37 36
-0.166523 -0.785 1.76625 38 37 36
-0.153901 -0.768178 1.7284 39 38 38
-0.149002 -0.790207 1.77797 39 40 39
-0.139689 -0.790207 1.77797 37 38 37
-0.130377 -0.790207 1.77797 37 37 36
-0.124641 -0.813555 1.8305 37 37 37
-0.119099 -0.842161 1.89486 37 37 37
-0.107211 -0.827018 1.86079 38 39 39
-0.0905301 -0.768178 1.7284 39 39 39
-0.0828612 -0.781228 1.75776 38 38 38
-0.074501 -0.790207 1.77797 37 37 38
-0.0633711 -0.768178 1.7284 36 37 37
-0.0575267 -0.813555 1.8305 36 36 37
-0.0470136 -0.797852 1.79517 35 36 36
-0.0383511 -0.813555 1.8305 36 36 36
-0.0279379 -0.790207 1.77797 37 38 38
-0.0186252 -0.790207 1.77797 38 39 37
-0.00931262 -0.790207 1.77797 37 38 36
0 -0.768178 1.7284 37 38 36
0.00987587 -0.838001 1.8855 37 39 36
0.0191756 -0.813555 1.8305 37 39 38
0.027159 -0.768178 1.7284 36 38 38
0.0383511 -0.813555 1.8305 36 38 38
0.0465631 -0.790207 1.77797 36 38 38
0.0558757 -0.790207 1.77797 36 38 38
0.0644476 -0.781228 1.75776 37 39 39
0.074501 -0.790207 1.77797 37 39 38
0.08629 -0.813555 1.8305 37 39 37
0.0915917 -0.777186 1.74867 37 38 36
0.107991 -0.833037 1.87433 37 37 35
0.112833 -0.797852 1.79517 38 37 35
0.121064 -0.790207 1.77797 38 37 34
0.135222 -0.819574 1.84404 38 38 32
0.139689 -0.790207 1.77797 39 39 32
0.150444 -0.797852 1.79517 39 39 33
0.159846 -0.797852 1.79517 39 40 33
0.178648 -0.842161 1.89486 38 39 32
0.183516 -0.819574 1.84404 37 38 32
0.189605 -0.804431 1.80997 36 37 32
0.201343 -0.813555 1.8305 37 38 34
0.210931 -0.813555 1.8305 38 38 35
0.220519 -0.813555 1.8305 38 38 35
0.231809 -0.819574 1.84404 39 39 35
0.241468 -0.819574 1.84404 38 38 34
0.251127 -0.819574 1.84404 38 38 34
0.253873 -0.797852 1.79517 38 39 35
0.256457 -0.777186 1.74867 39 39 35
0.281861 -0.824718 1.85562 37 40 35
0.279379 -0.790207 1.77797 36 40 35
0.291484 -0.797852 1.79517 37 40 35
0.305523 -0.810146 1.82283 35 40 34
0.298749 -0.768178 1.7284 36 40 34
0.307802 -0.768178 1.7284 38 40 35
0.320571 -0.777186 1.74867 37 40 34
0.331445 -0.781228 1.75776 36 39 34
0.367222 -0.842161 1.89486 36 40 35
0.361142 -0.806423 1.81445 36 40 36
0.385159 -0.838001 1.8855 38 41 38
0.388773 -0.824718 1.85562 37 40 39
0.385511 -0.797852 1.79517 37 38 39
0.394914 -0.797852 1.79517 38 37 37
0.400443 -0.790207 1.77797 38 37 38
0.424983 -0.819574 1.84404 38 38 36
0.43145 -0.813555 1.8305 38 38 34
0.432525 -0.797852 1.79517 37 38 33
0.445572 -0.804431 1.80997 37 38 33
0.441926 -0.781228 1.75776 37 37 33
0.473277 -0.819574 1.84404 37 38 33
0.482936 -0.819574 1.84404 37 38 34
0.50617 -0.842161 1.89486 37 38 35
0.527449 -0.860688 1.93655 36 37 34
0.48796 -0.781228 1.75776 37 37 35
0.547735 -0.860688 1.93655 37 38 37
0.522705 -0.806423 1.81445 36 37 37
0.515581 -0.781228 1.75776 36 37 37
0.535955 -0.797852 1.79517 37 38 37
0.5267 -0.770556 1.73375 37 38 37
0.565679 -0.813555 1.8305 36 38 36
0.558757 -0.790207 1.77797 37 39 35
0.553943 -0.770556 1.73375 37 39 33
0.615344 -0.842161 1.89486 37 39 32
0.618495 -0.833037 1.87433 37 40 32
0.632056 -0.838001 1.8855 37 39 33
0.60532 -0.790207 1.77797 36 39 31
0.643265 -0.827018 1.86079 37 39 33
0.623946 -0.790207 1.77797 36 39 34
0.633258 -0.790207 1.77797 38 40 36
0.655758 -0.806423 1.81445 36 39 36
0.665261 -0.806423 1.81445 36 37 35
0.697034 -0.833037 1.87433 36 39 36
0.706851 -0.833037 1.87433 37 40 37
0.716669 -0.833037 1.87433 36 39 36
0.775194 -0.888889 2 36 38 36
0.785669 -0.888889 2 35 38 35
0.764631 -0.853704 1.92083 34 38 35
0.774692 -0.853704 1.92083 35 40 37
0.770318 -0.838001 1.8855 36 41 38
0.742815 -0.797852 1.79517 35 41 37
0.78539 -0.833037 1.87433 34 40 36
0.782356 -0.819574 1.84404 35 40 36
0.858999 -0.888889 2 35 40 37
0.835057 -0.853704 1.92083 35 40 36
0.766541 -0.774328 1.74224 34 39 35
0.820991 -0.819574 1.84404 36 39 35
0.86021 -0.84874 1.90967 37 40 36
0.879275 -0.857579 1.92955 36 39 35
0.921852 -0.888889 2 36 39 34
0.825856 -0.787378 1.7716 37 40 35
0.942803 -0.888889 2 36 40 35
0.915545 -0.853704 1.92083 36 40 36
0.920224 -0.84874 1.90967 36 39 35
0.874453 -0.797852 1.79517 35 39 34
0.907919 -0.819574 1.84404 35 38 34
0.942866 -0.842161 1.89486 37 39 35
0.952791 -0.842161 1.89486 38 39 35
1.01613 -0.888889 2 38 39 35
0.921467 -0.797852 1.79517 38 39 34
0.971921 -0.833037 1.87433 37 39 33
0.992491 -0.842161 1.89486 37 39 34
1.01025 -0.84874 1.90967 37 40 33
1.01234 -0.842161 1.89486 37 39 35
1.14678 -0.94474 2.12567 37 38 36
1.08946 -0.888889 2 37 39 36
1.09994 -0.888889 2 37 38 36
1.02382 -0.819574 1.84404 37 38 35
1.12089 -0.888889 2 37 39 35
1.04314 -0.819574 1.84404 38 39 36
1.07009 -0.833037 1.87433 38 40 36
1.24217 -0.958204 2.15596 39 40 37
1.25346 -0.958204 2.15596 38 40 36
1.17327 -0.888889 2 38 40 35
1.18374 -0.888889 2 38 40 34
1.07191 -0.797852 1.79517 37 39 34
1.20469 -0.888889 2 37 39 33
1.21517 -0.888889 2 37 39 35
1.10012 -0.797852 1.79517 36 38 37
1.36272 -0.979926 2.20483 36 37 36
1.37427 -0.979926 2.20483 36 38 37
-0.544069 -0.380191 0.865614 31 42 34
-0.54497 -0.384021 0.874334 30 42 34
-0.458747 -0.326003 0.742238 31 41 42
-0.530467 -0.380191 0.865614 32 38 47
-0.531232 -0.384021 0.874334 31 39 45
-0.495628 -0.361399 0.822829 31 37 46
-0.546722 -0.402153 0.915615 34 38 45
-0.512332 -0.380191 0.865614 36 40 44
-0.512913 -0.384021 0.874334 36 39 40
-0.495862 -0.3746 0.852883 38 37 36
-0.48057 -0.366348 0.834095 40 35 34
-0.503553 -0.38739 0.882004 40 35 34
-0.498934 -0.38739 0.882004 41 35 35
-0.482425 -0.378073 0.860791 41 36 35
-0.496834 -0.393038 0.894863 41 36 36
-0.488812 -0.390375 0.8888 39 37 37
-0.501606 -0.404444 0.920833 36 37 36
-0.499272 -0.40647 0.925446 34 37 35
-0.459882 -0.378073 0.860791 34 38 36
-0.473398 -0.393038 0.894863 36 39 36
-0.461976 -0.38739 0.882004 35 39 37
-0.46088 -0.390375 0.8888 38 39 37
-0.441847 -0.378073 0.860791 38 38 37
-0.470188 -0.40647 0.925446 39 38 38
-0.463021 -0.404444 0.920833 40 37 37
-0.460493 -0.40647 0.925446 41 36 37
-0.472788 -0.421763 0.960263 39 36 36
-0.450799 -0.40647 0.925446 41 35 35
-0.463853 -0.422787 0.962595 40 37 37
-0.443062 -0.408274 0.929553 41 38 38
-0.453769 -0.422787 0.962595 41 39 38
-0.446408 -0.420602 0.957621 41 39 38
-0.460926 -0.439216 1 40 38 36
-0.473796 -0.456669 1.03974 38 36 34
-0.45045 -0.439216 1 38 37 34
-0.426345 -0.420602 0.957621 38 38 34
-0.439975 -0.439216 1 38 39 35
-0.398052 -0.402153 0.915615 37 38 34
-0.447701 -0.457829 1.04238 36 37 33
-0.424261 -0.439216 1 37 37 33
-0.435674 -0.456669 1.03974 37 38 34
-0.431322 -0.457829 1.04238 37 38 34
-0.459889 -0.49441 1.12567 38 38 35
-0.437344 -0.476279 1.08438 39 39 36
-0.417528 -0.460682 1.04887 38 39 36
-0.392835 -0.439216 1 38 38 36
-0.420304 -0.476279 1.08438 37 37 37
-0.441991 -0.507715 1.15596 36 36 37
-0.394241 -0.459154 1.0454 36 36 37
-0.371884 -0.439216 1 36 37 38
-0.43632 -0.52268 1.19003 36 36 37
-0.394056 -0.478892 1.09033 36 36 37
-0.388345 -0.478892 1.09033 36 36 37
-0.405663 -0.507715 1.15596 36 36 36
-0.399608 -0.507715 1.15596 36 36 36
-0.383241 -0.49441 1.12567 37 37 36
-0.387499 -0.507715 1.15596 36 36 35
-0.377625 -0.502632 1.14438 36 35 34
-0.369951 -0.500358 1.13921 38 37 36
-0.392481 -0.539533 1.2284 38 37 36
-0.397941 -0.556157 1.26625 38 37 36
-0.391309 -0.556157 1.26625 38 38 36
-0.36016 -0.520711 1.18555 38 38 36
-0.404725 -0.595408 1.35562 39 38 36
-0.390257 -0.584376 1.3305 38 37 35
-0.37311 -0.568858 1.29517 39 38 36
-0.347442 -0.539533 1.2284 38 37 38
-0.369351 -0.584376 1.3305 38 35 39
-0.374321 -0.603629 1.37433 39 36 38
-0.335983 -0.552429 1.25776 39 35 38
-0.392835 -0.658824 1.5 39 35 37
-0.332407 -0.568858 1.29517 39 35 36
-0.35941 -0.627882 1.42955 39 36 36
-0.31884 -0.568858 1.29517 39 35 36
-0.295969 -0.539533 1.2284 38 35 35
-0.370156 -0.689765 1.57045 37 35 35
-0.345695 -0.658824 1.5 38 36 36
-0.383971 -0.748789 1.70483 38 37 36
-0.357626 -0.714018 1.62567 37 37 35
-0.322124 -0.658824 1.5 39 38 35
-0.329027 -0.689765 1.57045 39 38 36
-0.306411 -0.658824 1.5 38 37 35
-0.298554 -0.658824 1.5 37 37 34
-0.301883 -0.684173 1.55772 37 36 33
-0.293724 -0.684173 1.55772 36 36 34
-0.287899 -0.689765 1.57045 39 37 35
-0.310267 -0.765218 1.74224 38 38 36
-0.303824 -0.772037 1.75776 37 39 36
-0.317597 -0.832254 1.89486 35 40 36
-0.258225 -0.6985 1.59033 37 40 36
-0.282082 -0.788466 1.79517 35 39 35
-0.258957 -0.748789 1.70483 35 39 34
-0.263276 -0.788466 1.79517 37 39 35
-0.222093 -0.689765 1.57045 39 39 36
-0.241261 -0.778114 1.7716 40 39 36
-0.23869 -0.800615 1.82283 38 37 34
-0.225665 -0.788466 1.79517 38 37 34
-0.218046 -0.794967 1.80997 37 37 34
-0.199166 -0.75914 1.7284 38 37 35
-0.190113 -0.75914 1.7284 38 37 36
-0.188054 -0.788466 1.79517 38 38 36
-0.172007 -0.75914 1.7284 38 37 36
-0.169249 -0.788466 1.79517 37 37 36
-0.155706 -0.768042 1.74867 38 37 36
-0.146547 -0.768042 1.74867 38 38 37
-0.135795 -0.75914 1.7284 37 38 37
-0.135222 -0.809932 1.84404 37 38 37
-0.117689 -0.75914 1.7284 38 38 38
-0.10991 -0.768042 1.74867 37 38 37
-0.102439 -0.78091 1.77797 38 38 38
-0.0931262 -0.78091 1.77797 38 38 38
-0.0917852 -0.855184 1.94707 38 38 38
-0.0726482 -0.76149 1.73375 36 36 37
-0.0651883 -0.78091 1.77797 36 36 36
-0.0579523 -0.809932 1.84404 35 36 36
-0.0482936 -0.809932 1.84404 35 35 35
-0.037005 -0.775765 1.76625 36 36 36
-0.0282082 -0.788466 1.79517 37 38 37
-0.0186636 -0.782517 1.78162 37 38 37
-0.00940272 -0.788466 1.79517 37 39 36
0 -0.855184 1.94707 37 38 36
0.00881053 -0.738807 1.68211 36 38 35
0.0188054 -0.788466 1.79517 36 38 36
0.0289761 -0.809932 1.84404 36 37 37
0.0386349 -0.809932 1.84404 36 38 38
0.0485967 -0.815015 1.85562 37 38 38
0.0579523 -0.809932 1.84404 37 38 38
0.0671145 -0.803984 1.8305 38 39 39
0.074501 -0.78091 1.77797 37 39 38
0.0853223 -0.794967 1.80997 37 38 37
0.0915917 -0.768042 1.74867 37 38 35
0.100751 -0.768042 1.74867 37 37 34
0.115905 -0.809932 1.84404 37 37 34
0.125563 -0.809932 1.84404 37 37 33
0.132724 -0.794967 1.80997 38 38 32
0.143817 -0.803984 1.8305 39 39 32
0.150444 -0.788466 1.79517 39 40 34
0.162992 -0.803984 1.8305 40 40 34
0.169249 -0.788466 1.79517 38 39 33
0.178652 -0.788466 1.79517 38 39 33
0.186252 -0.78091 1.77797 39 39 35
0.197457 -0.788466 1.79517 39 39 36
0.204878 -0.78091 1.77797 38 39 35
0.211756 -0.772037 1.75776 38 38 35
0.231809 -0.809932 1.84404 38 39 35
0.232816 -0.78091 1.77797 38 38 34
0.247097 -0.796936 1.81445 38 38 34
0.243911 -0.757524 1.72472 38 38 34
0.260753 -0.78091 1.77797 38 38 34
0.270066 -0.78091 1.77797 37 39 34
0.29158 -0.815015 1.85562 36 39 34
0.291484 -0.788466 1.79517 35 38 33
0.311019 -0.815015 1.85562 35 39 33
0.305291 -0.775765 1.76625 35 38 32
0.317281 -0.782517 1.78162 36 39 33
0.312535 -0.748789 1.70483 37 39 34
0.349896 -0.815015 1.85562 37 39 33
0.347901 -0.788466 1.79517 36 40 34
0.364336 -0.803984 1.8305 36 40 36
0.37669 -0.809932 1.84404 37 40 37
0.37921 -0.794967 1.80997 36 39 38
0.371173 -0.75914 1.7284 37 38 39
0.402687 -0.803984 1.8305 39 37 38
0.415325 -0.809932 1.84404 37 36 37
0.397484 -0.757524 1.72472 38 37 35
0.416307 -0.775765 1.76625 38 38 34
0.447089 -0.815015 1.85562 37 38 34
0.446675 -0.796936 1.81445 37 38 34
0.43964 -0.768042 1.74867 37 38 33
0.464532 -0.794967 1.80997 37 38 33
0.479389 -0.803984 1.8305 38 39 34
0.492594 -0.809932 1.84404 38 39 35
0.484256 -0.78091 1.77797 38 38 35
0.511912 -0.809932 1.84404 38 38 35
0.533297 -0.828142 1.8855 37 38 36
0.527328 -0.803984 1.8305 36 37 37
0.547215 -0.819407 1.86561 36 37 37
0.530819 -0.78091 1.77797 36 37 37
0.540132 -0.78091 1.77797 36 38 37
0.569864 -0.809932 1.84404 37 39 36
0.58316 -0.815015 1.85562 37 39 36
0.623395 -0.856965 1.95113 38 40 34
0.577382 -0.78091 1.77797 37 40 33
0.614026 -0.817289 1.86079 38 40 33
0.632056 -0.828142 1.8855 38 40 34
0.633519 -0.817289 1.86079 37 39 32
0.614633 -0.78091 1.77797 37 39 33
0.657764 -0.823237 1.87433 36 39 34
0.630991 -0.778114 1.7716 39 40 36
0.672505 -0.817289 1.86079 37 40 37
0.687217 -0.823237 1.87433 37 38 35
0.691998 -0.817289 1.86079 37 39 36
0.754243 -0.878431 2 37 40 37
0.74265 -0.853082 1.94228 36 39 36
0.730815 -0.828142 1.8855 36 38 36
0.764877 -0.855184 1.94707 36 39 36
0.750566 -0.828142 1.8855 36 39 37
0.755938 -0.823237 1.87433 36 40 38
0.817096 -0.878431 2 36 40 37
0.720913 -0.765218 1.74224 35 40 36
0.763808 -0.800615 1.82283 35 40 37
0.751621 -0.778114 1.7716 35 40 37
0.792015 -0.809932 1.84404 35 40 37
0.757415 -0.765218 1.74224 35 40 37
0.801999 -0.800615 1.82283 35 39 36
0.850207 -0.838755 1.90967 36 39 35
0.808634 -0.788466 1.79517 37 39 36
0.807297 -0.778114 1.7716 36 39 35
0.827439 -0.788466 1.79517 37 39 35
0.932328 -0.878431 2 38 41 36
0.942803 -0.878431 2 36 40 35
0.953279 -0.878431 2 36 39 35
0.888602 -0.809932 1.84404 36 39 35
0.923016 -0.832254 1.89486 35 39 35
0.940229 -0.838755 1.90967 35 39 35
0.955788 -0.84366 1.92083 37 39 35
1.00566 -0.878431 2 38 39 35
1.01613 -0.878431 2 37 38 35
1.09111 -0.933626 2.12567 37 39 33
0.982566 -0.832254 1.89486 37 39 33
0.940272 -0.788466 1.79517 37 39 34
1.00242 -0.832254 1.89486 38 40 34
1.06851 -0.878431 2 37 39 35
0.96848 -0.788466 1.79517 37 38 36
1.08946 -0.878431 2 37 38 36
0.894065 -0.714018 1.62567 37 37 35
1.11041 -0.878431 2 36 37 35
1.12089 -0.878431 2 37 38 34
1.06028 -0.823237 1.87433 37 39 36
1.14184 -0.878431 2 38 39 36
1.15232 -0.878431 2 38 39 36
1.0437 -0.788466 1.79517 38 40 37
1.17327 -0.878431 2 38 40 36
1.35844 -1.00807 2.29517 38 40 35
1.19422 -0.878431 2 37 39 34
1.20469 -0.878431 2 37 40 34
1.39451 -1.00807 2.29517 37 39 36
1.22564 -0.878431 2 37 38 37
1.23612 -0.878431 2 37 38 37
1.2466 -0.878431 2 37 39 38
-0.562453 -0.388359 0.894863 31 42 34
-0.51989 -0.361986 0.834095 31 42 35
-0.515521 -0.361986 0.834095 33 42 43
-0.517247 -0.366303 0.844042 34 39 46
-0.506783 -0.361986 0.834095 31 38 44
-0.478966 -0.345092 0.795167 31 36 45
-0.526652 -0.382778 0.882004 33 37 44
-0.470636 -0.345092 0.795167 35 38 43
-0.53364 -0.394783 0.909666 36 39 40
-0.490722 -0.366303 0.844042 37 37 36
-0.486301 -0.366303 0.844042 40 36 35
-0.503553 -0.382778 0.882004 40 36 35
-0.520899 -0.39963 0.920833 40 35 35
-0.513151 -0.397365 0.915615 40 35 35
-0.485436 -0.37945 0.874334 40 35 35
-0.492147 -0.388359 0.894863 39 37 36
-0.523085 -0.416742 0.960263 37 38 37
-0.455355 -0.366303 0.844042 35 38 36
-0.478085 -0.388359 0.894863 35 38 36
-0.466595 -0.382778 0.882004 36 39 36
-0.450865 -0.373572 0.860791 36 39 37
-0.424112 -0.354955 0.817894 37 39 37
-0.479032 -0.405011 0.933233 38 38 37
-0.474144 -0.405011 0.933233 39 38 38
-0.485063 -0.418654 0.964669 40 37 37
-0.424387 -0.37014 0.852883 41 36 37
-0.457668 -0.403414 0.929553 40 38 37
-0.487115 -0.433987 1 43 39 38
-0.449704 -0.405011 0.933233 42 40 38
-0.496839 -0.452379 1.04238 42 40 38
-0.471402 -0.433987 1 40 39 37
-0.433324 -0.403414 0.929553 38 36 35
-0.460926 -0.433987 1 38 37 36
-0.455688 -0.433987 1 39 37 36
-0.45045 -0.433987 1 39 37 35
-0.429483 -0.418654 0.964669 38 39 35
-0.457458 -0.451232 1.03974 39 40 37
-0.420184 -0.419459 0.966525 38 39 35
-0.414324 -0.418654 0.964669 37 39 35
-0.442241 -0.452379 1.04238 37 38 34
-0.402373 -0.416742 0.960263 37 38 34
-0.413786 -0.433987 1 37 38 34
-0.424783 -0.451232 1.03974 38 38 35
-0.453993 -0.488524 1.12567 39 39 36
-0.398072 -0.433987 1 39 39 37
-0.428321 -0.473191 1.09033 38 39 36
-0.42261 -0.473191 1.09033 38 38 37
-0.401047 -0.455198 1.04887 38 37 38
-0.411188 -0.473191 1.09033 37 37 38
-0.408023 -0.476162 1.09718 36 37 37
-0.384565 -0.455198 1.04887 35 36 36
-0.417773 -0.501671 1.15596 37 38 38
-0.393617 -0.479615 1.10514 38 39 38
-0.395033 -0.488524 1.12567 38 38 37
-0.385276 -0.483678 1.1145 36 37 36
-0.379438 -0.483678 1.1145 37 37 36
-0.354566 -0.459035 1.05772 37 36 35
-0.403248 -0.530347 1.22203 37 37 36
-0.384999 -0.514512 1.18555 38 38 37
-0.396902 -0.539115 1.24224 38 38 37
-0.390395 -0.539115 1.24224 38 38 36
-0.383889 -0.539115 1.24224 38 38 36
-0.351171 -0.501671 1.15596 38 37 35
-0.359708 -0.522882 1.20483 38 37 36
-0.379894 -0.562086 1.29517 38 37 35
-0.432118 -0.65098 1.5 39 37 36
-0.358147 -0.549536 1.26625 38 37 37
-0.387218 -0.605352 1.39486 39 37 39
-0.389361 -0.620407 1.42955 39 37 38
-0.400691 -0.65098 1.5 39 36 38
-0.374385 -0.620407 1.42955 39 35 37
-0.370165 -0.625932 1.44228 39 36 36
-0.377121 -0.65098 1.5 39 36 36
-0.351922 -0.620407 1.42955 39 36 36
-0.344435 -0.620407 1.42955 38 36 36
-0.339948 -0.625932 1.44228 39 37 37
-0.324876 -0.611776 1.40967 39 38 38
-0.317492 -0.611776 1.40967 38 37 37
-0.357626 -0.705518 1.62567 37 38 36
-0.337253 -0.681553 1.57045 40 39 37
-0.333194 -0.690184 1.59033 40 40 37
-0.348253 -0.739875 1.70483 39 39 36
-0.339324 -0.739875 1.70483 39 39 36
-0.290698 -0.65098 1.5 39 38 35
-0.338498 -0.779079 1.79517 38 37 35
-0.312535 -0.739875 1.70483 39 38 36
-0.337447 -0.822346 1.89486 38 38 36
-0.294676 -0.739875 1.70483 36 38 35
-0.263222 -0.681553 1.57045 35 39 35
-0.285411 -0.762846 1.75776 36 39 35
-0.255447 -0.705518 1.62567 35 39 36
-0.272679 -0.779079 1.79517 36 39 35
-0.25779 -0.762846 1.75776 37 39 35
-0.257785 -0.791084 1.82283 38 39 36
-0.232169 -0.739875 1.70483 39 38 36
-0.235068 -0.779079 1.79517 38 37 34
-0.220963 -0.762846 1.75776 38 37 34
-0.22215 -0.80029 1.84404 38 37 34
-0.208566 -0.785503 1.80997 38 37 34
-0.190113 -0.750103 1.7284 38 37 36
-0.173471 -0.718664 1.65596 38 38 36
-0.174024 -0.758899 1.74867 38 37 36
-0.169249 -0.779079 1.79517 36 36 35
-0.159846 -0.779079 1.79517 37 36 35
-0.14802 -0.766529 1.76625 38 37 37
-0.139977 -0.773202 1.78162 37 37 37
-0.126472 -0.748506 1.72472 37 38 37
-0.117689 -0.750103 1.7284 37 37 37
-0.111751 -0.771614 1.77797 37 37 37
-0.104283 -0.785503 1.80997 37 37 37
-0.0958778 -0.794413 1.8305 38 38 38
-0.087474 -0.805313 1.85562 38 38 37
-0.0722699 -0.748506 1.72472 36 36 36
-0.0663618 -0.785503 1.80997 36 36 36
-0.058316 -0.805313 1.85562 36 37 37
-0.0446478 -0.739875 1.70483 37 38 37
-0.037005 -0.766529 1.76625 38 38 38
-0.0282082 -0.779079 1.79517 37 38 37
-0.0186252 -0.771614 1.77797 37 38 36
-0.00948025 -0.785503 1.80997 37 38 35
0 -0.771614 1.77797 37 38 36
0.00958778 -0.794413 1.8305 37 38 35
0.0191756 -0.794413 1.8305 36 38 36
0.0282082 -0.779079 1.79517 37 38 37
0.036212 -0.750103 1.7284 37 38 38
0.0482936 -0.80029 1.84404 37 38 38
0.0564163 -0.779079 1.79517 37 38 37
0.0638784 -0.756108 1.74224 37 39 37
0.0763808 -0.791084 1.82283 37 38 37
0.0893241 -0.822346 1.89486 37 38 37
0.0948025 -0.785503 1.80997 38 39 36
0.100751 -0.758899 1.74867 38 38 35
0.10991 -0.758899 1.74867 38 38 35
0.129566 -0.825799 1.90282 38 37 34
0.120202 -0.711395 1.63921 38 37 32
0.142204 -0.785503 1.80997 38 39 32
0.140968 -0.730012 1.68211 39 39 33
0.16789 -0.818283 1.8855 39 39 33
0.169249 -0.779079 1.79517 38 39 32
0.17694 -0.771614 1.77797 38 39 33
0.194387 -0.805313 1.85562 39 39 35
0.201343 -0.794413 1.8305 39 39 36
0.20686 -0.779079 1.79517 38 38 35
0.216263 -0.779079 1.79517 38 38 35
0.223503 -0.771614 1.77797 39 39 35
0.242983 -0.805313 1.85562 38 39 35
0.242128 -0.771614 1.77797 38 39 35
0.253873 -0.779079 1.79517 37 38 34
0.260753 -0.771614 1.77797 37 37 33
0.272679 -0.779079 1.79517 37 39 35
0.282082 -0.779079 1.79517 37 41 36
0.288691 -0.771614 1.77797 37 40 35
0.293093 -0.758899 1.74867 36 40 34
0.318738 -0.80029 1.84404 35 38 32
0.311412 -0.758899 1.74867 36 37 31
0.347372 -0.822346 1.89486 37 38 33
0.335254 -0.771614 1.77797 37 39 33
0.344567 -0.771614 1.77797 37 40 34
0.364336 -0.794413 1.8305 37 40 36
0.366706 -0.779079 1.79517 36 38 35
0.376109 -0.779079 1.79517 35 37 36
0.40064 -0.809652 1.86561 37 37 37
0.394914 -0.779079 1.79517 39 38 38
0.407651 -0.785503 1.80997 38 37 37
0.417131 -0.785503 1.80997 38 37 35
0.434642 -0.80029 1.84404 38 38 34
0.432525 -0.779079 1.79517 37 38 34
0.43272 -0.762846 1.75776 37 38 34
0.428619 -0.739875 1.70483 37 38 33
0.469801 -0.794413 1.8305 37 38 33
0.465631 -0.771614 1.77797 37 38 34
0.50367 -0.818283 1.8855 38 38 35
0.498564 -0.794413 1.8305 38 38 35
0.502453 -0.785503 1.80997 38 38 35
0.507747 -0.779079 1.79517 37 38 36
0.512194 -0.771614 1.77797 36 37 37
0.506968 -0.750103 1.7284 35 36 36
0.524787 -0.762846 1.75776 35 36 36
0.549855 -0.785503 1.80997 36 38 36
0.569864 -0.80029 1.84404 37 39 37
0.579523 -0.80029 1.84404 38 40 36
0.579728 -0.787449 1.81445 38 40 34
0.594442 -0.794413 1.8305 38 40 34
0.586695 -0.771614 1.77797 38 40 33
0.649168 -0.840437 1.93655 38 41 35
0.611177 -0.779079 1.79517 38 40 33
0.643265 -0.807559 1.86079 38 40 34
0.661683 -0.818283 1.8855 37 40 36
0.651969 -0.794413 1.8305 38 40 36
0.699884 -0.840437 1.93655 36 39 36
0.71213 -0.842926 1.94228 36 37 35
0.644753 -0.752425 1.73375 37 39 36
0.69032 -0.794413 1.8305 38 40 37
0.740457 -0.840437 1.93655 36 39 36
0.752823 -0.842926 1.94228 35 38 35
0.730983 -0.807559 1.86079 36 39 36
0.796145 -0.867974 2 36 39 36
0.714504 -0.768851 1.7716 36 40 37
0.791173 -0.840437 1.93655 36 40 37
0.757434 -0.794413 1.8305 36 40 37
0.800195 -0.82877 1.90967 36 40 38
0.814935 -0.833616 1.92083 36 40 37
0.771023 -0.779079 1.79517 35 40 37
0.835057 -0.833616 1.92083 35 39 36
0.845118 -0.833616 1.92083 35 39 36
0.890425 -0.867974 2 37 40 36
0.86524 -0.833616 1.92083 38 41 37
0.870212 -0.82877 1.90967 37 40 36
0.810198 -0.762846 1.75776 36 39 35
0.932328 -0.867974 2 36 39 35
0.859285 -0.791084 1.82283 35 39 35
0.915545 -0.833616 1.92083 35 38 34
0.87838 -0.791084 1.82283 35 39 35
0.930227 -0.82877 1.90967 36 39 36
1.02918 -0.907178 2.09033 36 39 35
0.942866 -0.822346 1.89486 37 39 35
0.902661 -0.779079 1.79517 37 39 35
1.01613 -0.867974 2 37 38 34
0.972641 -0.822346 1.89486 36 38 33
1.03708 -0.867974 2 37 39 33
0.992491 -0.822346 1.89486 38 40 35
1.10582 -0.907178 2.09033 37 40 33
1.01234 -0.822346 1.89486 37 39 35
1.16312 -0.935658 2.15596 37 38 36
1.08946 -0.867974 2 37 38 36
1.03082 -0.813437 1.87433 37 38 36
0.996688 -0.779079 1.79517 37 37 35
1.12089 -0.867974 2 37 38 35
1.13136 -0.867974 2 37 39 36
1.21358 -0.922511 2.12567 37 39 36
1.15232 -0.867974 2 37 38 35
1.16279 -0.867974 2 37 39 36
1.17327 -0.867974 2 37 39 35
1.18374 -0.867974 2 37 39 34
1.10109 -0.80029 1.84404 36 38 34
1.20469 -0.867974 2 37 40 35
1.21517 -0.867974 2 38 40 36
1.35117 -0.956869 2.20483 38 40 37
1.23612 -0.867974 2 37 39 38
1.43057 -0.996073 2.29517 37 38 37
-0.499791 -0.340934 0.795167 31 41 34
-0.480936 -0.33083 0.771599 32 42 34
-0.498884 -0.346084 0.807177 34 42 43
-0.557463 -0.390027 0.909666 35 39 46
-0.483131 -0.340934 0.795167 32 38 44
-0.508406 -0.36189 0.844042 31 35 44
-0.503985 -0.36189 0.844042 34 36 43
-0.522032 -0.378166 0.882004 34 37 42
-0.507798 -0.371139 0.865614 35 37 39
-0.512793 -0.378166 0.882004 36 37 35
-0.486301 -0.36189 0.844042 39 37 36
-0.48188 -0.36189 0.844042 40 37 36
-0.525832 -0.398554 0.929553 40 35 35
-0.463773 -0.354802 0.82751 39 35 35
-0.499855 -0.386013 0.900304 40 35 35
-0.488812 -0.38108 0.8888 39 37 36
-0.445532 -0.350679 0.817894 37 38 37
-0.460124 -0.365681 0.852883 36 38 36
-0.459882 -0.369071 0.860791 35 38 36
-0.512192 -0.415122 0.968195 36 39 36
-0.486881 -0.398554 0.929553 36 39 37
-0.464024 -0.38368 0.894863 37 39 37
-0.459337 -0.38368 0.894863 37 38 37
-0.490115 -0.41361 0.964669 38 37 37
-0.43964 -0.374878 0.874334 39 36 36
-0.458198 -0.394815 0.920833 39 35 35
-0.461112 -0.401553 0.936549 39 37 36
-0.419304 -0.369071 0.860791 44 40 39
-0.431214 -0.38368 0.894863 42 40 39
-0.402304 -0.36189 0.844042 42 40 39
-0.439928 -0.400131 0.933233 39 38 36
-0.450559 -0.414405 0.966525 35 34 32
-0.460926 -0.428758 1 37 36 35
-0.475 -0.446928 1.04238 39 38 37
-0.45045 -0.428758 1 39 38 36
-0.461866 -0.444796 1.03741 38 39 36
-0.439975 -0.428758 1 39 40 37
-0.452012 -0.445796 1.03974 38 39 36
-0.480179 -0.47935 1.118 37 39 35
-0.424261 -0.428758 1 37 38 34
-0.435674 -0.445796 1.03974 37 37 33
-0.413786 -0.428758 1 36 37 33
-0.408548 -0.428758 1 37 37 34
-0.40331 -0.428758 1 39 39 36
-0.42775 -0.460724 1.07455 39 39 36
-0.423934 -0.462702 1.07917 38 38 36
-0.420304 -0.464939 1.08438 38 38 37
-0.433743 -0.486377 1.13439 39 39 39
-0.431572 -0.490664 1.14438 38 38 38
-0.433581 -0.499891 1.1659 37 38 38
-0.43632 -0.510235 1.19003 37 38 38
-0.41359 -0.490664 1.14438 38 39 39
-0.390783 -0.470425 1.09718 38 39 39
-0.410416 -0.501433 1.1695 39 40 39
-0.416504 -0.516582 1.20483 39 39 38
-0.398165 -0.501433 1.1695 38 38 37
-0.373601 -0.47785 1.1145 37 37 36
-0.347447 -0.451452 1.05293 37 37 36
-0.384999 -0.508313 1.18555 38 38 37
-0.384951 -0.516582 1.20483 39 39 38
-0.390395 -0.53262 1.24224 39 39 38
-0.383889 -0.53262 1.24224 39 38 37
-0.417512 -0.589257 1.37433 38 37 36
-0.394936 -0.567174 1.32283 38 37 35
-0.379894 -0.555313 1.29517 37 37 35
-0.353876 -0.526687 1.2284 38 37 36
-0.366326 -0.555313 1.29517 39 38 38
-0.349159 -0.539276 1.25776 39 38 40
-0.374321 -0.589257 1.37433 39 37 39
-0.32814 -0.526687 1.2284 39 36 38
-0.359924 -0.589257 1.37433 40 36 37
-0.344951 -0.576269 1.34404 39 36 37
-0.345527 -0.589257 1.37433 40 36 36
-0.343382 -0.598059 1.39486 39 36 36
-0.347502 -0.618391 1.44228 38 37 36
-0.367155 -0.667883 1.55772 39 38 38
-0.332393 -0.618391 1.44228 39 37 38
-0.350837 -0.667883 1.55772 37 37 37
-0.329981 -0.643137 1.5 38 38 36
-0.337253 -0.673342 1.57045 40 40 37
-0.314268 -0.643137 1.5 40 41 38
-0.332081 -0.697018 1.62567 40 40 37
-0.357303 -0.769693 1.79517 40 40 37
-0.290698 -0.643137 1.5 40 39 36
-0.299874 -0.681869 1.59033 38 38 35
-0.303575 -0.710006 1.65596 39 38 36
-0.294901 -0.710006 1.65596 38 38 36
-0.301141 -0.746999 1.74224 35 37 34
-0.292016 -0.746999 1.74224 34 38 34
-0.254996 -0.673342 1.57045 35 38 34
-0.273765 -0.746999 1.74224 35 39 35
-0.280103 -0.790648 1.84404 37 39 35
-0.24286 -0.710006 1.65596 37 39 35
-0.246388 -0.746999 1.74224 38 38 35
-0.232169 -0.730961 1.70483 38 37 34
-0.231982 -0.759588 1.7716 38 37 34
-0.220963 -0.753655 1.75776 39 39 36
-0.210661 -0.749756 1.74867 40 39 36
-0.20686 -0.769693 1.79517 38 37 35
-0.192343 -0.749756 1.74867 37 37 35
-0.190952 -0.781553 1.82283 38 37 35
-0.181405 -0.781553 1.82283 37 37 35
-0.164865 -0.749756 1.74867 36 35 34
-0.155706 -0.749756 1.74867 36 35 34
-0.151684 -0.776039 1.80997 37 36 35
-0.142204 -0.776039 1.80997 37 36 36
-0.128228 -0.749756 1.74867 37 37 36
-0.121313 -0.763886 1.78162 36 37 36
-0.113763 -0.776039 1.80997 37 37 37
-0.102439 -0.762317 1.77797 37 37 37
-0.0940272 -0.769693 1.79517 37 37 37
-0.0832613 -0.757294 1.76625 37 37 37
-0.0704842 -0.721217 1.68211 37 37 37
-0.065819 -0.769693 1.79517 38 38 37
-0.0568815 -0.776039 1.80997 38 38 38
-0.0474013 -0.776039 1.80997 38 39 38
-0.0366367 -0.749756 1.74867 37 38 37
-0.0274775 -0.749756 1.74867 37 37 36
-0.0188054 -0.769693 1.79517 37 38 36
-0.00931262 -0.762317 1.77797 37 38 35
0 -0.784841 1.8305 37 38 36
0.00892957 -0.730961 1.70483 37 38 36
0.0193174 -0.790648 1.84404 37 38 36
0.0276204 -0.753655 1.75776 37 39 37
