ply
format ascii 1.0
element vertex 1332
property float x
property float y
property float z
property uchar red
property uchar green
property uchar blue
end_header
-0.421186 -0.452312 1.21838 38 39 34
-0.410193 -0.447284 1.20483 37 37 33
-0.387499 -0.42914 1.15596 37 37 33
-0.388444 -0.437015 1.17717 37 37 34
-0.365553 -0.417894 1.12567 37 37 35
-0.389278 -0.452312 1.21838 37 38 36
-0.399623 -0.472071 1.2716 37 38 36
-0.391309 -0.470085 1.26625 39 39 37
-0.371244 -0.45367 1.22203 39 39 37
-0.359708 -0.447284 1.20483 38 39 36
-0.364369 -0.461171 1.24224 38 39 36
-0.347087 -0.447284 1.20483 39 39 36
-0.410438 -0.538718 1.45113 39 40 36
-0.339241 -0.45367 1.22203 39 40 36
-0.338343 -0.461171 1.24224 39 39 35
-0.400691 -0.556863 1.5 39 39 36
-0.392835 -0.556863 1.5 39 39 36
-0.384978 -0.556863 1.5 38 38 35
-0.350688 -0.517832 1.39486 38 39 36
-0.369265 -0.556863 1.5 38 38 36
-0.336076 -0.517832 1.39486 38 38 35
-0.393503 -0.619789 1.6695 38 38 36
-0.358996 -0.578289 1.55772 39 39 36
-0.309535 -0.51021 1.37433 38 38 35
-0.367269 -0.619789 1.6695 37 38 35
-0.358525 -0.619789 1.6695 38 39 35
-0.32636 -0.578289 1.55772 39 40 36
-0.306411 -0.556863 1.5 39 39 36
-0.310042 -0.578289 1.55772 39 38 35
-0.311073 -0.595894 1.60514 39 38 35
-0.314802 -0.619789 1.6695 39 38 33
-0.294258 -0.595894 1.60514 38 38 32
-0.315495 -0.657692 1.7716 38 38 32
-0.288569 -0.619789 1.6695 37 37 31
-0.285746 -0.632905 1.70483 36 36 30
-0.295976 -0.67671 1.82283 36 37 33
-0.282082 -0.666441 1.79517 38 39 35
-0.266997 -0.652555 1.75776 37 38 34
-0.259035 -0.655706 1.76625 37 37 34
-0.236102 -0.619789 1.6695 37 38 34
-0.239377 -0.652555 1.75776 36 37 33
-0.23017 -0.652555 1.75776 37 38 32
-0.222703 -0.657692 1.7716 37 38 33
-0.219 -0.674878 1.81789 37 38 33
-0.201809 -0.650168 1.75133 37 38 34
-0.189413 -0.639291 1.72203 38 39 35
-0.184136 -0.652555 1.75776 39 39 35
-0.173384 -0.646792 1.74224 38 39 35
-0.167027 -0.657692 1.7716 38 38 35
-0.153334 -0.639291 1.72203 37 38 34
-0.153706 -0.680893 1.8341 37 37 35
-0.135295 -0.639291 1.72203 36 37 35
-0.131638 -0.666441 1.79517 36 36 35
-0.119688 -0.652555 1.75776 36 37 35
-0.104934 -0.619789 1.6695 38 38 36
-0.0992163 -0.639291 1.72203 37 37 35
-0.0901967 -0.639291 1.72203 36 37 34
-0.0819037 -0.645015 1.73745 37 37 33
-0.0742342 -0.657692 1.7716 38 37 34
-0.0631377 -0.639291 1.72203 38 38 34
-0.0552408 -0.652555 1.75776 38 37 34
-0.0446478 -0.632905 1.70483 38 37 34
-0.0371171 -0.657692 1.7716 37 37 34
-0.0273012 -0.645015 1.73745 37 37 34
-0.0180393 -0.639291 1.72203 37 37 34
-0.00901967 -0.639291 1.72203 38 38 35
0 -0.655706 1.76625 38 39 35
0.00884184 -0.626687 1.68808 37 37 33
0.018251 -0.646792 1.74224 35 35 32
0.0276204 -0.652555 1.75776 37 37 35
0.0365019 -0.646792 1.74224 38 38 36
0.0450983 -0.639291 1.72203 38 38 36
0.0550387 -0.650168 1.75133 38 38 36
0.0662594 -0.6709 1.80718 38 38 36
0.0714365 -0.632905 1.70483 39 38 37
0.0810805 -0.638531 1.71999 38 37 36
0.0901967 -0.639291 1.72203 38 37 36
0.0972602 -0.626687 1.68808 38 37 36
0.112131 -0.662295 1.784 38 37 36
0.122235 -0.666441 1.79517 38 37 35
0.126472 -0.640288 1.72472 38 37 35
0.138102 -0.652555 1.75776 38 37 35
0.144315 -0.639291 1.72203 38 36 35
0.156516 -0.652555 1.75776 38 37 35
0.164259 -0.646792 1.74224 38 38 35
0.176306 -0.657692 1.7716 38 37 34
0.178591 -0.632905 1.70483 37 37 34
0.193343 -0.652555 1.75776 38 37 35
0.20255 -0.652555 1.75776 38 37 34
0.209886 -0.646792 1.74224 38 37 34
0.220963 -0.652555 1.75776 39 37 34
0.225843 -0.640288 1.72472 39 37 34
0.236611 -0.645015 1.73745 39 37 34
0.241098 -0.632905 1.70483 39 37 34
0.250028 -0.632905 1.70483 39 37 35
0.253591 -0.619789 1.6695 39 37 35
0.273012 -0.645015 1.73745 38 37 35
0.282113 -0.645015 1.73745 38 37 35
0.282514 -0.625746 1.68555 37 37 35
0.312366 -0.6709 1.80718 37 37 35
0.300622 -0.626687 1.68808 37 37 35
0.318515 -0.645015 1.73745 37 37 36
0.334054 -0.657692 1.7716 37 37 35
0.340652 -0.652555 1.75776 37 38 36
0.374587 -0.698679 1.882 37 37 36
0.37669 -0.684585 1.84404 38 38 36
0.368272 -0.652555 1.75776 38 38 37
0.382603 -0.661413 1.78162 38 37 36
0.397556 -0.6709 1.80718 37 37 36
0.401267 -0.661413 1.78162 37 36 36
0.405099 -0.652555 1.75776 37 36 36
0.425953 -0.6709 1.80718 39 38 37
0.432525 -0.666441 1.79517 41 40 38
0.439179 -0.662295 1.784 41 40 38
0.448523 -0.662295 1.784 40 39 37
0.457867 -0.662295 1.784 38 37 35
0.470136 -0.666441 1.79517 38 37 34
0.482747 -0.6709 1.80718 39 38 35
0.4859 -0.662295 1.784 39 38 36
0.501678 -0.6709 1.80718 39 38 35
0.504588 -0.662295 1.784 38 38 35
0.486301 -0.626687 1.68808 38 38 34
0.526552 -0.666441 1.79517 37 38 34
0.531912 -0.661413 1.78162 37 38 34
0.545358 -0.666441 1.79517 36 38 35
0.547477 -0.657692 1.7716 37 39 35
0.547529 -0.646792 1.74224 38 39 36
0.573566 -0.666441 1.79517 37 39 35
0.586869 -0.6709 1.80718 37 38 35
0.580028 -0.652555 1.75776 36 38 35
0.557743 -0.617679 1.66382 36 38 34
0.615266 -0.6709 1.80718 36 38 34
0.630142 -0.67671 1.82283 37 38 34
0.629982 -0.666441 1.79517 37 38 35
0.65325 -0.680893 1.8341 37 39 35
0.623328 -0.640288 1.72472 38 39 35
0.663618 -0.671936 1.80997 38 39 35
0.650301 -0.649179 1.74867 37 38 34
0.687428 -0.67671 1.82283 37 38 34
0.696975 -0.67671 1.82283 38 39 35
0.719231 -0.688882 1.85562 37 38 35
0.684411 -0.646792 1.74224 37 37 35
0.742649 -0.692594 1.86561 37 37 35
0.743721 -0.684585 1.84404 37 38 35
0.706135 -0.641654 1.7284 37 38 35
0.775573 -0.695831 1.87433 37 38 35
0.772697 -0.684585 1.84404 37 38 35
0.787266 -0.688882 1.85562 38 38 35
0.796985 -0.688882 1.85562 37 38 35
0.806705 -0.688882 1.85562 38 39 35
0.829573 -0.699977 1.8855 38 39 36
0.814961 -0.679558 1.8305 37 38 36
0.824549 -0.679558 1.8305 37 38 35
0.859201 -0.699977 1.8855 37 39 36
0.827439 -0.666441 1.79517 37 39 36
0.878953 -0.699977 1.8855 37 39 36
0.8629 -0.679558 1.8305 36 38 35
0.886926 -0.690803 1.86079 36 38 35
0.86505 -0.666441 1.79517 36 38 35
0.935667 -0.713094 1.92083 35 37 35
0.916166 -0.690803 1.86079 35 36 34
0.893258 -0.666441 1.79517 35 37 35
0.902661 -0.666441 1.79517 36 38 35
0.936895 -0.684585 1.84404 36 38 35
0.856962 -0.619789 1.6695 36 38 36
0.996032 -0.713094 1.92083 36 38 35
1.04756 -0.742484 2 36 38 36
1.01615 -0.713094 1.92083 37 39 36
1.06851 -0.742484 2 37 39 36
0.994848 -0.684585 1.84404 36 38 35
1.08946 -0.742484 2 36 38 35
1.09994 -0.742484 2 35 38 34
1.06646 -0.713094 1.92083 35 38 35
0.985127 -0.652555 1.75776 36 38 35
1.08026 -0.708948 1.90967 35 38 35
1.14184 -0.742484 2 35 37 34
1.09174 -0.703452 1.89486 34 36 34
1.08973 -0.695831 1.87433 35 37 35
1.17327 -0.742484 2 36 38 36
1.10936 -0.695831 1.87433 37 38 36
1.19422 -0.742484 2 37 38 36
1.129 -0.695831 1.87433 37 38 37
1.21517 -0.742484 2 37 38 36
1.13007 -0.684585 1.84404 38 40 38
1.33251 -0.800382 2.15596 39 41 38
1.3438 -0.800382 2.15596 37 40 37
-0.492772 -0.286954 0.784 40 39 35
-0.536529 -0.315061 0.860791 39 39 35
-0.53202 -0.315061 0.860791 39 39 36
-0.507116 -0.302879 0.82751 38 38 36
-0.476346 -0.286954 0.784 37 38 36
-0.503672 -0.306054 0.836183 36 36 34
-0.522073 -0.320018 0.874334 36 36 32
-0.503797 -0.311548 0.851194 37 37 31
-0.490532 -0.306054 0.836183 37 38 31
-0.49868 -0.31394 0.85773 37 38 30
-0.478498 -0.303973 0.830499 37 38 29
-0.485964 -0.311548 0.851194 37 39 29
-0.481505 -0.311548 0.851194 37 38 30
-0.48071 -0.31394 0.85773 37 38 28
-0.476217 -0.31394 0.85773 37 38 29
-0.486998 -0.324105 0.885502 37 37 30
-0.495523 -0.332949 0.909666 38 37 30
-0.471697 -0.320018 0.874334 38 37 31
-0.490141 -0.335791 0.917429 38 37 29
-0.462538 -0.320018 0.874334 39 37 29
-0.508633 -0.355429 0.971083 40 38 30
-0.45917 -0.324105 0.885502 40 39 31
-0.426298 -0.303973 0.830499 40 38 32
-0.478743 -0.344888 0.942284 39 37 33
-0.442577 -0.322155 0.880174 38 36 32
-0.452641 -0.332949 0.909666 37 36 32
-0.445685 -0.33132 0.905214 37 38 34
-0.454592 -0.341576 0.933233 39 39 35
-0.481877 -0.366013 1 39 39 35
-0.437283 -0.335791 0.917429 39 39 35
-0.456409 -0.354372 0.968195 39 38 35
-0.419689 -0.329523 0.900304 39 38 34
-0.460926 -0.366013 1 39 39 35
-0.442511 -0.355429 0.971083 39 39 35
-0.435371 -0.353761 0.966525 38 38 33
-0.459372 -0.377654 1.0318 37 37 31
-0.425982 -0.354372 0.968195 38 37 32
-0.421568 -0.354926 0.969708 38 37 32
-0.429499 -0.366013 1 38 37 33
-0.424261 -0.366013 1 39 38 35
-0.448542 -0.391797 1.07045 39 38 35
-0.442936 -0.391797 1.07045 39 38 35
-0.453979 -0.406714 1.1112 39 37 34
-0.418396 -0.379704 1.03741 38 37 34
-0.437759 -0.402503 1.0997 38 37 35
-0.406714 -0.378945 1.03533 37 37 35
-0.414902 -0.391797 1.07045 38 37 34
-0.424877 -0.406714 1.1112 38 37 34
-0.408945 -0.396899 1.08438 37 37 33
-0.399609 -0.393301 1.07455 36 36 32
-0.431605 -0.43086 1.17717 37 37 32
-0.374926 -0.379704 1.03741 38 38 33
-0.388345 -0.399077 1.09033 38 38 34
-0.395033 -0.412008 1.12567 38 38 33
-0.379289 -0.401582 1.09718 37 37 33
-0.410193 -0.440985 1.20483 36 36 31
-0.413576 -0.451569 1.23375 37 37 32
-0.392688 -0.435567 1.19003 37 37 34
-0.403408 -0.454675 1.24224 37 37 34
-0.369335 -0.423096 1.15596 37 38 35
-0.37864 -0.440985 1.20483 37 38 36
-0.386699 -0.458004 1.25133 38 39 36
-0.371244 -0.447281 1.22203 38 39 36
-0.370876 -0.454675 1.24224 38 38 36
-0.364369 -0.454675 1.24224 38 39 36
-0.390524 -0.496173 1.35562 39 39 36
-0.394524 -0.510538 1.39486 39 39 36
-0.351515 -0.463464 1.26625 39 39 36
-0.369223 -0.496173 1.35562 38 38 35
-0.372606 -0.510538 1.39486 38 38 34
-0.3653 -0.510538 1.39486 38 38 35
-0.372434 -0.531131 1.45113 38 38 35
-0.377121 -0.54902 1.5 38 38 35
-0.347026 -0.515956 1.40967 38 38 36
-0.349632 -0.531131 1.45113 38 38 35
-0.336947 -0.523235 1.42955 37 37 35
-0.332393 -0.527895 1.44228 38 38 35
-0.350837 -0.570144 1.55772 38 38 35
-0.375042 -0.623991 1.70483 37 38 34
-0.358525 -0.611059 1.6695 37 38 34
-0.314268 -0.54902 1.5 38 39 35
-0.348253 -0.623991 1.70483 39 38 35
-0.339324 -0.623991 1.70483 39 37 34
-0.318679 -0.601866 1.64438 37 36 33
-0.321464 -0.623991 1.70483 37 36 31
-0.334166 -0.667179 1.82283 37 37 30
-0.303605 -0.623991 1.70483 37 38 33
-0.321633 -0.681074 1.86079 37 38 32
-0.32195 -0.70305 1.92083 37 38 33
-0.295976 -0.667179 1.82283 38 39 35
-0.272431 -0.634575 1.73375 38 39 36
-0.270066 -0.650759 1.77797 38 38 35
-0.255514 -0.637682 1.74224 37 37 34
-0.255572 -0.661451 1.80718 36 37 33
-0.232169 -0.623991 1.70483 37 37 33
-0.235068 -0.657055 1.79517 38 38 34
-0.225665 -0.657055 1.79517 38 38 34
-0.214917 -0.652967 1.784 37 38 33
-0.20686 -0.657055 1.79517 37 38 34
-0.178813 -0.595015 1.62567 38 39 35
-0.180393 -0.630287 1.72203 39 39 35
-0.17754 -0.652967 1.784 39 39 35
-0.165116 -0.64101 1.75133 38 38 35
-0.161164 -0.662473 1.80997 37 38 34
-0.148468 -0.648428 1.7716 37 38 35
-0.139189 -0.648428 1.7716 36 37 35
-0.130819 -0.652967 1.784 36 37 35
-0.119688 -0.643364 1.75776 36 37 35
-0.108107 -0.629538 1.71999 37 38 36
-0.101275 -0.643364 1.75776 37 38 35
-0.0874451 -0.611059 1.6695 37 38 34
-0.0821294 -0.637682 1.74224 37 37 33
-0.0761741 -0.665373 1.81789 38 37 34
-0.065819 -0.657055 1.79517 38 38 34
-0.052467 -0.611059 1.6695 38 37 34
-0.0480331 -0.671303 1.8341 37 37 34
-0.0368272 -0.643364 1.75776 37 37 34
-0.0273012 -0.63593 1.73745 37 37 34
-0.0185586 -0.648428 1.7716 37 37 34
-0.00910042 -0.63593 1.73745 38 38 35
0 -0.611059 1.6695 38 38 35
0.00874451 -0.611059 1.6695 37 37 34
0.0180393 -0.630287 1.72203 37 37 34
0.0276204 -0.643364 1.75776 38 38 36
0.0364017 -0.63593 1.73745 38 38 36
0.0473281 -0.661451 1.80718 37 37 35
0.0520414 -0.606102 1.65596 38 38 36
0.0637029 -0.63593 1.73745 38 38 36
0.0728033 -0.63593 1.73745 38 38 36
0.0819037 -0.63593 1.73745 38 37 36
0.0884184 -0.617861 1.68808 38 37 36
0.0961896 -0.611059 1.6695 38 37 36
0.110482 -0.643364 1.75776 38 37 36
0.117256 -0.630287 1.72203 37 36 35
0.127757 -0.637682 1.74224 38 36 35
0.143582 -0.668892 1.82751 38 37 35
0.148468 -0.648428 1.7716 38 37 35
0.151803 -0.623991 1.70483 38 37 35
0.163807 -0.63593 1.73745 38 37 35
0.169662 -0.623991 1.70483 37 37 34
0.180393 -0.630287 1.72203 38 37 34
0.198778 -0.661451 1.80718 39 38 35
0.20255 -0.643364 1.75776 39 38 35
0.213423 -0.648428 1.7716 39 38 35
0.21841 -0.63593 1.73745 39 38 35
0.231982 -0.648428 1.7716 38 37 34
0.236611 -0.63593 1.73745 38 37 34
0.234186 -0.606102 1.65596 38 37 34
0.25982 -0.648428 1.7716 38 37 35
0.272679 -0.657055 1.79517 38 37 35
0.273765 -0.637682 1.74224 38 37 35
0.280046 -0.63127 1.72472 37 37 34
0.285746 -0.623991 1.70483 37 37 34
0.300314 -0.63593 1.73745 36 36 34
0.311886 -0.64101 1.75133 37 37 35
0.312535 -0.623991 1.70483 37 38 35
0.336392 -0.652967 1.784 38 38 36
0.347901 -0.657055 1.79517 38 38 36
0.339324 -0.623991 1.70483 37 37 36
0.364425 -0.652967 1.784 37 36 35
0.373769 -0.652967 1.784 37 37 36
0.369806 -0.630287 1.72203 38 37 36
0.400999 -0.667179 1.82283 37 37 36
0.392396 -0.637682 1.74224 37 36 36
0.418957 -0.665373 1.81789 37 36 35
0.409519 -0.63593 1.73745 36 36 35
0.426847 -0.648428 1.7716 39 38 36
0.42772 -0.63593 1.73745 41 40 38
0.448523 -0.652967 1.784 40 39 37
0.454685 -0.648428 1.7716 38 37 34
0.476088 -0.665373 1.81789 38 37 34
0.476555 -0.652967 1.784 38 37 35
0.459775 -0.617861 1.68808 38 37 34
0.491802 -0.648428 1.7716 38 37 34
0.511144 -0.661451 1.80718 37 37 34
0.501902 -0.637682 1.74224 37 37 34
0.517376 -0.645604 1.76388 37 37 34
0.520153 -0.637682 1.74224 36 37 34
0.545358 -0.657055 1.79517 36 38 35
0.55476 -0.657055 1.79517 37 39 35
0.547529 -0.637682 1.74224 37 39 36
0.556655 -0.637682 1.74224 36 38 35
0.570822 -0.643364 1.75776 37 38 35
0.596335 -0.661451 1.80718 36 38 35
0.621121 -0.678179 1.85288 36 38 35
0.620594 -0.667179 1.82283 37 38 35
0.630142 -0.667179 1.82283 37 38 35
0.643643 -0.671303 1.8341 37 38 35
0.643663 -0.661451 1.80718 38 39 35
0.648788 -0.657055 1.79517 38 39 36
0.668332 -0.667179 1.82283 37 39 35
0.68207 -0.671303 1.8341 36 38 34
0.66609 -0.64647 1.76625 37 39 35
0.713334 -0.682839 1.86561 39 40 36
0.706523 -0.667179 1.82283 38 38 35
0.732878 -0.682839 1.86561 37 38 36
0.696097 -0.640035 1.74867 38 38 36
0.712347 -0.64647 1.76625 38 39 36
0.733412 -0.657055 1.79517 38 38 36
0.74894 -0.662473 1.80997 37 38 35
0.740101 -0.64647 1.76625 37 38 35
0.803917 -0.693545 1.89486 37 38 35
0.777381 -0.662473 1.80997 37 38 35
0.795786 -0.669986 1.8305 39 39 36
0.78226 -0.650759 1.77797 38 39 36
0.782578 -0.643364 1.75776 38 39 36
0.791785 -0.643364 1.75776 37 39 36
0.854112 -0.686031 1.87433 38 39 37
0.827439 -0.657055 1.79517 37 39 36
0.883317 -0.693545 1.89486 37 39 36
0.855336 -0.664113 1.81445 36 38 35
0.86484 -0.664113 1.81445 36 38 35
0.963754 -0.732026 2 36 38 35
0.89826 -0.674943 1.84404 36 37 35
0.916166 -0.681074 1.86079 35 37 35
0.893258 -0.657055 1.79517 36 38 36
1.00566 -0.732026 2 37 39 36
0.936895 -0.674943 1.84404 36 38 36
0.962103 -0.686031 1.87433 36 38 36
1.00418 -0.708802 1.93655 37 39 36
1.00609 -0.70305 1.92083 38 39 37
0.97553 -0.674943 1.84404 38 40 37
0.959077 -0.657055 1.79517 37 39 36
0.994848 -0.674943 1.84404 35 37 35
1.04634 -0.70305 1.92083 35 37 34
1.01416 -0.674943 1.84404 35 37 34
1.05204 -0.693545 1.89486 35 38 34
1.12089 -0.732026 2 35 38 34
1.18246 -0.76509 2.09033 35 38 35
1.21358 -0.778022 2.12567 35 37 35
1.15232 -0.732026 2 34 37 35
1.10166 -0.693545 1.89486 36 37 36
1.09955 -0.686031 1.87433 37 38 36
1.13028 -0.698963 1.90967 37 38 36
1.13144 -0.693545 1.89486 37 38 36
1.14136 -0.693545 1.89486 37 38 37
1.13882 -0.686031 1.87433 37 38 37
1.22564 -0.732026 2 38 39 37
1.23612 -0.732026 2 38 39 37
1.11892 -0.657055 1.79517 36 39 37
-0.492772 -0.282855 0.784 41 40 36
-0.501924 -0.290529 0.805271 40 40 35
-0.485589 -0.283456 0.785666 39 39 36
-0.487296 -0.286884 0.795167 38 38 36
-0.483131 -0.286884 0.795167 37 37 36
-0.495628 -0.296864 0.822829 36 36 34
-0.486317 -0.293842 0.814453 36 36 32
-0.482051 -0.293842 0.814453 37 37 31
-0.516339 -0.317553 0.880174 37 38 31
-0.486153 -0.301682 0.836183 37 38 30
-0.482558 -0.302173 0.837546 37 38 29
-0.496267 -0.313609 0.869241 37 38 28
-0.516875 -0.329656 0.91372 37 38 29
-0.526566 -0.338976 0.939552 37 38 28
-0.45684 -0.296864 0.822829 37 37 29
-0.486998 -0.319475 0.885502 37 37 30
-0.48236 -0.319475 0.885502 37 36 29
-0.455355 -0.304517 0.844042 37 36 29
-0.473084 -0.319475 0.885502 37 36 28
-0.453754 -0.309456 0.85773 38 37 28
-0.466363 -0.321235 0.89038 39 37 29
-0.45917 -0.319475 0.885502 38 36 27
-0.454532 -0.319475 0.885502 38 35 28
-0.428829 -0.304517 0.844042 37 35 31
-0.442577 -0.317553 0.880174 37 36 31
-0.456504 -0.330994 0.917429 38 37 33
-0.465165 -0.340862 0.944781 39 39 35
-0.459001 -0.339961 0.942284 40 39 35
-0.449704 -0.336696 0.933233 40 39 35
-0.447827 -0.338976 0.939552 39 38 35
-0.441491 -0.337892 0.936549 38 38 34
-0.427672 -0.330994 0.917429 39 38 34
-0.460926 -0.360784 1 39 39 35
-0.455688 -0.360784 1 39 39 34
-0.45045 -0.360784 1 39 38 34
-0.415487 -0.336696 0.933233 39 38 34
-0.410599 -0.336696 0.933233 40 39 34
-0.421568 -0.349855 0.969708 39 38 34
-0.44251 -0.371713 1.03029 38 37 33
-0.394374 -0.335368 0.929553 38 37 34
-0.433051 -0.372862 1.03348 39 37 34
-0.455039 -0.396753 1.0997 39 37 35
-0.437329 -0.3862 1.07045 39 37 34
-0.431722 -0.3862 1.07045 39 38 35
-0.42775 -0.387682 1.07455 39 38 35
-0.419063 -0.384873 1.06677 39 38 36
-0.413475 -0.384873 1.06677 38 38 35
-0.409295 -0.3862 1.07045 38 38 34
-0.405237 -0.387682 1.07455 38 38 34
-0.415764 -0.403355 1.118 36 36 31
-0.381215 -0.375121 1.03974 36 35 30
-0.390019 -0.389346 1.07917 37 37 33
-0.372339 -0.377162 1.0454 38 38 34
-0.382634 -0.393376 1.09033 38 38 34
-0.421186 -0.439571 1.21838 38 38 34
-0.420039 -0.445118 1.23375 38 38 33
-0.403883 -0.434685 1.20483 38 37 33
-0.392688 -0.429344 1.19003 36 37 33
-0.403408 -0.44818 1.24224 36 36 33
-0.396902 -0.44818 1.24224 37 37 35
-0.399623 -0.458773 1.2716 38 38 36
-0.383889 -0.44818 1.24224 38 38 36
-0.371244 -0.440891 1.22203 37 38 35
-0.394936 -0.477256 1.32283 37 37 35
-0.371412 -0.456843 1.26625 37 37 34
-0.381079 -0.477256 1.32283 37 37 34
-0.37415 -0.477256 1.32283 37 37 34
-0.359542 -0.467276 1.29517 38 38 34
-0.383944 -0.508585 1.40967 38 38 34
-0.400691 -0.541176 1.5 38 38 34
-0.348444 -0.480023 1.3305 38 38 35
-0.384978 -0.541176 1.5 38 38 34
-0.364834 -0.523543 1.45113 38 37 34
-0.381296 -0.55881 1.54887 38 38 36
-0.361408 -0.541176 1.5 39 38 36
-0.367155 -0.561999 1.55772 38 38 35
-0.358996 -0.561999 1.55772 38 38 35
-0.350837 -0.561999 1.55772 37 38 34
-0.302336 -0.495838 1.37433 37 37 34
-0.38045 -0.639165 1.7716 37 38 34
-0.340596 -0.586515 1.62567 37 38 34
-0.335905 -0.593268 1.64438 37 37 33
-0.346768 -0.628572 1.74224 37 35 31
-0.311073 -0.579108 1.60514 36 35 30
-0.310066 -0.593268 1.64438 36 35 29
-0.306058 -0.60233 1.6695 38 37 32
-0.324619 -0.657648 1.82283 38 39 35
-0.301141 -0.628572 1.74224 38 39 34
-0.290593 -0.62551 1.73375 37 38 33
-0.276817 -0.615077 1.70483 38 39 35
-0.267887 -0.615077 1.70483 39 39 36
-0.264639 -0.628572 1.74224 38 38 35
-0.254812 -0.626845 1.73745 38 38 34
-0.241098 -0.615077 1.70483 37 37 34
-0.232169 -0.615077 1.70483 37 37 33
-0.236641 -0.652001 1.80718 38 38 34
-0.21431 -0.615077 1.70483 38 39 35
-0.214917 -0.643639 1.784 38 38 34
-0.19645 -0.615077 1.70483 37 37 33
-0.185679 -0.609034 1.68808 37 38 34
-0.185586 -0.639165 1.7716 38 39 35
-0.176306 -0.639165 1.7716 38 39 35
-0.162354 -0.621283 1.72203 37 38 34
-0.156516 -0.634173 1.75776 37 38 34
-0.147309 -0.634173 1.75776 37 38 35
-0.138102 -0.634173 1.75776 37 38 36
-0.127757 -0.628572 1.74224 38 38 36
-0.116084 -0.615077 1.70483 37 38 36
-0.109506 -0.628572 1.74224 38 38 36
-0.0982252 -0.615077 1.70483 37 38 35
-0.0940272 -0.647668 1.79517 37 38 35
-0.0851906 -0.652001 1.80718 37 37 34
-0.0733849 -0.631853 1.75133 37 37 34
-0.0644476 -0.634173 1.75776 37 37 34
-0.0547529 -0.628572 1.74224 38 37 34
-0.0463964 -0.639165 1.7716 38 37 34
-0.0366925 -0.631853 1.75133 38 38 35
-0.0284408 -0.653009 1.80997 38 38 35
-0.0182008 -0.626845 1.73745 38 38 35
-0.00927928 -0.639165 1.7716 38 38 35
0 -0.615077 1.70483 37 38 34
0.00910042 -0.626845 1.73745 37 38 34
0.018251 -0.628572 1.74224 37 38 35
0.0270268 -0.620544 1.71999 38 38 36
0.0368272 -0.634173 1.75776 38 38 36
0.046034 -0.634173 1.75776 37 37 35
0.0552408 -0.634173 1.75776 38 38 35
0.062507 -0.615077 1.70483 39 39 36
0.0736544 -0.634173 1.75776 39 39 36
0.0810805 -0.620544 1.71999 39 39 36
0.0901967 -0.621283 1.72203 39 38 36
0.100904 -0.631853 1.75133 38 37 36
0.108405 -0.622252 1.72472 38 37 35
0.121475 -0.643639 1.784 37 36 35
0.128895 -0.634173 1.75776 37 36 34
0.138102 -0.634173 1.75776 38 37 35
0.149508 -0.643639 1.784 38 38 36
0.157748 -0.639165 1.7716 39 38 36
0.168196 -0.643639 1.784 39 38 35
0.166146 -0.60233 1.6695 38 38 35
0.178591 -0.615077 1.70483 39 38 35
0.194276 -0.637235 1.76625 39 38 35
0.200209 -0.626845 1.73745 39 38 35
0.217709 -0.652001 1.80718 38 38 35
0.21431 -0.615077 1.70483 38 38 35
0.221046 -0.609034 1.68808 38 37 34
0.234511 -0.621283 1.72203 38 37 35
0.25054 -0.639165 1.7716 38 37 35
0.247857 -0.609736 1.69003 38 37 35
0.270983 -0.643639 1.784 38 38 35
0.286428 -0.657648 1.82283 38 38 35
0.274097 -0.609034 1.68808 37 37 34
0.279824 -0.60233 1.6695 36 36 34
0.300314 -0.626845 1.73745 37 37 35
0.306304 -0.620544 1.71999 38 38 35
0.327048 -0.643639 1.784 37 37 35
0.331445 -0.634173 1.75776 38 38 35
0.350228 -0.652001 1.80718 38 38 35
0.355081 -0.643639 1.784 38 38 36
0.359065 -0.634173 1.75776 37 37 35
0.368272 -0.634173 1.75776 37 37 36
0.377479 -0.634173 1.75776 38 37 36
0.38973 -0.639165 1.7716 37 37 36
0.399009 -0.639165 1.7716 39 38 37
0.389041 -0.609034 1.68808 39 39 37
0.432298 -0.661713 1.8341 38 37 36
0.421963 -0.631853 1.75133 38 37 35
0.439179 -0.643639 1.784 39 38 36
0.432944 -0.621283 1.72203 39 39 36
0.457867 -0.643639 1.784 39 38 35
0.46034 -0.634173 1.75776 38 38 35
0.479539 -0.647668 1.79517 38 37 35
0.516095 -0.683637 1.89486 37 37 34
0.498344 -0.647668 1.79517 37 37 34
0.507747 -0.647668 1.79517 37 37 34
0.51715 -0.647668 1.79517 38 38 35
0.519639 -0.639165 1.7716 38 38 35
0.518724 -0.626845 1.73745 37 38 35
0.538198 -0.639165 1.7716 36 38 35
0.563309 -0.657648 1.82283 37 38 35
0.564163 -0.647668 1.79517 37 39 36
0.566036 -0.639165 1.7716 36 38 35
0.586869 -0.652001 1.80718 37 39 36
0.587902 -0.642782 1.78162 37 39 36
0.6058 -0.652001 1.80718 37 39 36
0.611177 -0.647668 1.79517 37 38 35
0.615898 -0.642782 1.78162 36 37 34
0.657764 -0.67623 1.87433 36 37 34
0.630991 -0.639165 1.7716 36 38 34
0.653128 -0.652001 1.80718 37 38 35
0.687217 -0.67623 1.87433 37 39 35
0.656839 -0.637235 1.76625 37 38 34
0.671888 -0.642782 1.78162 37 38 35
0.692058 -0.653009 1.80997 38 39 35
0.690552 -0.642782 1.78162 37 38 36
0.736303 -0.67623 1.87433 37 38 36
0.738669 -0.669477 1.85562 38 38 37
0.748389 -0.669477 1.85562 38 38 37
0.765756 -0.67623 1.87433 37 38 35
0.723574 -0.630892 1.74867 37 39 35
0.772697 -0.665301 1.84404 37 38 35
0.787266 -0.669477 1.85562 38 39 35
0.771023 -0.647668 1.79517 37 38 35
0.7514 -0.62358 1.7284 38 39 35
0.773371 -0.634173 1.75776 38 39 35
0.799231 -0.647668 1.79517 38 39 36
0.844295 -0.67623 1.87433 37 38 36
0.859201 -0.680259 1.8855 37 39 36
0.810198 -0.634173 1.75776 37 39 36
0.853312 -0.660415 1.8305 36 38 35
0.909595 -0.696153 1.92955 36 38 35
0.893382 -0.67623 1.87433 36 38 35
0.896673 -0.671344 1.86079 36 38 36
0.874453 -0.647668 1.79517 36 37 35
0.907919 -0.665301 1.84404 35 37 35
0.925912 -0.671344 1.86079 36 38 36
0.970234 -0.696153 1.92955 37 40 37
0.912064 -0.647668 1.79517 36 39 36
0.946554 -0.665301 1.84404 36 38 36
0.971921 -0.67623 1.87433 37 40 37
0.981738 -0.67623 1.87433 38 40 38
1.02447 -0.698676 1.93655 38 40 37
0.973856 -0.657648 1.82283 37 39 36
1.03628 -0.693007 1.92083 36 38 35
1.04025 -0.688977 1.90967 37 38 35
1.09994 -0.721569 2 36 38 35
1.11041 -0.721569 2 36 38 35
1.07026 -0.688977 1.90967 36 38 35
1.13136 -0.721569 2 35 38 35
1.09664 -0.693007 1.92083 34 37 34
1.05024 -0.657648 1.82283 34 36 34
1.16279 -0.721569 2 36 38 36
1.17327 -0.721569 2 37 39 37
1.12151 -0.683637 1.89486 37 38 36
1.19422 -0.721569 2 36 37 35
1.129 -0.67623 1.87433 37 38 36
1.09072 -0.647668 1.79517 37 38 36
1.10012 -0.647668 1.79517 38 39 37
1.31379 -0.766907 2.12567 38 39 37
1.14939 -0.665301 1.84404 36 39 37
-0.492772 -0.278755 0.784 40 39 36
-0.501924 -0.286319 0.805271 39 39 35
-0.516811 -0.297309 0.836183 37 38 35
-0.493488 -0.286319 0.805271 37 38 36
-0.508051 -0.297309 0.836183 37 38 36
-0.485052 -0.286319 0.805271 37 37 35
-0.491318 -0.292561 0.822829 37 37 33
-0.499564 -0.300104 0.844042 38 38 33
-0.503173 -0.304971 0.85773 39 39 33
-0.49488 -0.302647 0.851194 39 40 33
-0.486301 -0.300104 0.844042 38 38 30
-0.478171 -0.297794 0.837546 37 38 29
-0.488593 -0.307102 0.863725 37 38 29
-0.46115 -0.292561 0.822829 37 38 28
-0.491636 -0.314845 0.885502 37 37 29
-0.489681 -0.316579 0.89038 37 37 30
-0.479458 -0.312951 0.880174 37 37 30
-0.462739 -0.304971 0.85773 37 37 30
-0.461449 -0.307102 0.863725 38 37 29
-0.481229 -0.323437 0.909666 39 37 30
-0.463808 -0.314845 0.885502 38 36 29
-0.461699 -0.316579 0.89038 37 35 27
-0.482276 -0.334063 0.939552 37 35 28
-0.46217 -0.323437 0.909666 37 35 30
-0.442577 -0.312951 0.880174 38 36 31
-0.470114 -0.335922 0.944781 39 38 34
-0.462591 -0.334063 0.939552 40 39 35
-0.487115 -0.355556 1 40 39 35
-0.467943 -0.345274 0.971083 40 38 34
-0.476639 -0.355556 1 40 38 34
-0.445371 -0.335922 0.944781 39 37 34
-0.466164 -0.355556 1 38 37 33
-0.433064 -0.334063 0.939552 39 38 34
-0.442511 -0.345274 0.971083 39 39 34
-0.45045 -0.355556 1 40 39 34
-0.459372 -0.366864 1.0318 41 39 35
-0.453303 -0.366326 1.03029 41 39 34
-0.421568 -0.344785 0.969708 40 39 34
-0.44251 -0.366326 1.03029 39 37 34
-0.452588 -0.379295 1.06677 38 36 32
-0.431717 -0.366326 1.03029 38 36 33
-0.413786 -0.355556 1 38 37 34
-0.435825 -0.379295 1.06677 38 37 34
-0.448158 -0.395093 1.1112 38 37 34
-0.426115 -0.380603 1.07045 38 37 34
-0.392835 -0.355556 1 39 38 35
-0.428348 -0.392938 1.10514 38 38 34
-0.414624 -0.385559 1.08438 37 37 32
-0.424513 -0.400237 1.12567 37 37 33
-0.399609 -0.382064 1.07455 37 37 32
-0.366646 -0.355556 1 37 37 32
-0.440331 -0.4332 1.21838 38 38 34
-0.370323 -0.369684 1.03974 39 39 34
-0.378715 -0.383704 1.07917 39 39 35
-0.376923 -0.387674 1.09033 39 39 35
-0.400776 -0.41855 1.17717 39 39 35
-0.377345 -0.400237 1.12567 38 38 34
-0.374326 -0.403337 1.13439 37 37 33
-0.368384 -0.403337 1.13439 36 37 34
-0.389278 -0.4332 1.21838 37 37 35
-0.384046 -0.434501 1.22203 37 38 36
-0.372329 -0.428385 1.20483 38 38 36
-0.371244 -0.434501 1.22203 38 38 36
-0.393463 -0.468584 1.31789 37 37 35
-0.39423 -0.477881 1.34404 36 37 34
-0.395916 -0.488652 1.37433 36 36 33
-0.37415 -0.470339 1.32283 37 37 34
-0.376323 -0.481997 1.35562 38 38 35
-0.360293 -0.470339 1.32283 39 39 35
-0.387636 -0.515956 1.45113 39 39 35
-0.377719 -0.512812 1.44228 39 38 35
-0.361794 -0.501214 1.40967 38 38 35
-0.377121 -0.533333 1.5 38 38 35
-0.383473 -0.553855 1.55772 39 38 35
-0.361408 -0.533333 1.5 39 38 35
-0.32877 -0.495951 1.39486 38 37 35
-0.358996 -0.553855 1.55772 38 38 35
-0.370357 -0.58467 1.64438 38 38 34
-0.368957 -0.596327 1.67717 37 38 34
-0.344703 -0.570715 1.60514 37 38 34
-0.314268 -0.533333 1.5 37 38 34
-0.324864 -0.565452 1.59033 37 37 33
-0.31948 -0.570715 1.60514 37 36 31
-0.315052 -0.578015 1.62567 36 35 30
-0.321464 -0.606163 1.70483 37 35 30
-0.312535 -0.606163 1.70483 38 38 32
-0.310267 -0.619462 1.74224 38 38 34
-0.294676 -0.606163 1.70483 38 39 34
-0.285746 -0.606163 1.70483 38 38 34
-0.288691 -0.632165 1.77797 38 39 35
-0.271012 -0.613234 1.72472 39 39 35
-0.250447 -0.586242 1.64881 37 38 34
-0.254812 -0.61776 1.73745 37 37 34
-0.245188 -0.616444 1.73375 37 37 34
-0.245847 -0.641874 1.80527 37 38 34
-0.219176 -0.59513 1.6738 38 38 34
-0.212449 -0.6009 1.69003 38 39 35
-0.207206 -0.611551 1.71999 38 39 34
-0.19452 -0.600207 1.68808 37 37 33
-0.189188 -0.611551 1.71999 37 37 33
-0.185586 -0.629902 1.7716 38 38 34
-0.174929 -0.624982 1.75776 37 38 34
-0.163807 -0.61776 1.73745 37 37 34
-0.164198 -0.655659 1.84404 37 38 34
-0.141469 -0.600207 1.68808 37 38 35
-0.133943 -0.606163 1.70483 38 38 35
-0.126275 -0.612279 1.72203 38 38 36
-0.121475 -0.634311 1.784 38 38 36
-0.108236 -0.612279 1.72203 37 38 35
-0.0982252 -0.606163 1.70483 37 37 34
-0.092068 -0.624982 1.75776 37 37 34
-0.0821294 -0.619462 1.74224 37 37 33
-0.07401 -0.628 1.76625 37 37 33
-0.065819 -0.638282 1.79517 37 37 33
-0.054118 -0.612279 1.72203 38 37 34
-0.0446478 -0.606163 1.70483 38 37 34
-0.0360787 -0.612279 1.72203 38 38 35
-0.0273012 -0.61776 1.73745 38 39 35
-0.0176837 -0.600207 1.68808 38 38 35
-0.00867357 -0.588785 1.65596 38 38 34
0 -0.612279 1.72203 38 38 34
0.00892957 -0.606163 1.70483 37 38 34
0.0178591 -0.606163 1.70483 38 38 35
0.0283969 -0.642552 1.80718 38 38 35
0.0360787 -0.612279 1.72203 38 38 35
0.046034 -0.624982 1.75776 37 37 34
0.0535774 -0.606163 1.70483 38 38 35
0.0637029 -0.61776 1.73745 39 39 36
0.0721573 -0.612279 1.72203 39 39 37
0.0835135 -0.629902 1.7716 40 39 37
0.0910042 -0.61776 1.73745 39 38 36
0.0971141 -0.599306 1.68555 38 37 36
0.108405 -0.613234 1.72472 38 37 35
0.117116 -0.611551 1.71999 37 36 35
0.130819 -0.634311 1.784 37 37 35
0.135506 -0.613234 1.72472 39 38 36
0.145607 -0.61776 1.73745 39 39 36
0.154707 -0.61776 1.73745 39 39 36
0.163807 -0.61776 1.73745 39 38 36
0.166146 -0.593601 1.6695 39 38 36
0.178591 -0.606163 1.70483 39 38 35
0.17998 -0.581787 1.63628 38 37 35
0.200209 -0.61776 1.73745 38 37 35
0.203362 -0.600207 1.68808 38 37 35
0.21841 -0.61776 1.73745 38 37 35
0.221046 -0.600207 1.68808 38 37 34
0.238501 -0.622696 1.75133 38 38 34
0.245711 -0.61776 1.73745 39 38 35
0.256847 -0.622696 1.75133 38 38 35
0.280103 -0.655659 1.84404 38 38 35
0.265255 -0.600207 1.68808 37 37 34
0.285411 -0.624982 1.75776 37 36 34
0.288629 -0.612279 1.72203 37 37 35
0.307949 -0.633466 1.78162 37 37 34
0.306669 -0.612279 1.72203 36 36 33
0.318515 -0.61776 1.73745 35 35 32
0.342783 -0.646362 1.81789 36 36 33
0.340652 -0.624982 1.75776 38 38 35
0.339324 -0.606163 1.70483 38 38 36
0.351349 -0.611551 1.71999 37 37 35
0.364017 -0.61776 1.73745 37 37 35
0.362515 -0.600207 1.68808 38 37 36
0.378826 -0.612279 1.72203 38 37 36
0.401802 -0.634311 1.784 39 38 37
0.421173 -0.649781 1.82751 39 39 38
0.414306 -0.624982 1.75776 40 39 38
0.414905 -0.612279 1.72203 38 38 36
0.441928 -0.638282 1.79517 37 37 35
0.43682 -0.61776 1.73745 38 38 36
0.454685 -0.629902 1.7716 39 39 36
0.442092 -0.600207 1.68808 39 39 36
0.476555 -0.634311 1.784 38 38 35
0.4859 -0.634311 1.784 38 37 35
0.482322 -0.61776 1.73745 37 37 34
0.497167 -0.624982 1.75776 38 38 35
0.51715 -0.638282 1.79517 39 39 36
0.509623 -0.61776 1.73745 38 39 35
0.528919 -0.629902 1.7716 37 39 35
0.538198 -0.629902 1.7716 36 38 35
0.558472 -0.642552 1.80718 36 38 35
0.564163 -0.638282 1.79517 36 38 35
0.589182 -0.655659 1.84404 35 37 34
0.564226 -0.61776 1.73745 36 38 35
0.588686 -0.634311 1.784 37 39 36
0.571492 -0.606163 1.70483 38 40 37
0.627816 -0.655659 1.84404 38 39 36
0.634037 -0.652123 1.8341 36 37 34
0.611408 -0.619462 1.74224 35 36 33
0.634561 -0.633466 1.78162 36 38 34
0.61614 -0.606163 1.70483 37 38 35
0.647588 -0.628 1.76625 37 39 35
0.67206 -0.642552 1.80718 37 39 35
0.671888 -0.633466 1.78162 38 39 35
0.68122 -0.633466 1.78162 38 39 35
0.684593 -0.628 1.76625 36 37 35
0.699884 -0.633466 1.78162 36 37 35
0.725618 -0.648117 1.82283 37 38 36
0.729979 -0.643545 1.80997 37 38 36
0.721598 -0.628 1.76625 38 39 36
0.754261 -0.648117 1.82283 38 39 36
0.724241 -0.614542 1.7284 38 39 36
0.807293 -0.676558 1.90282 38 39 36
0.792015 -0.655659 1.84404 37 39 35
0.780426 -0.638282 1.79517 37 39 35
0.789828 -0.638282 1.79517 37 38 35
0.799231 -0.638282 1.79517 37 39 36
0.857126 -0.676558 1.90282 37 38 35
0.810198 -0.632165 1.77797 37 38 36
0.873392 -0.673729 1.89486 36 38 35
0.794731 -0.606163 1.70483 36 37 35
0.846245 -0.638282 1.79517 36 38 35
0.844414 -0.629902 1.7716 36 38 35
0.903199 -0.66643 1.87433 36 37 35
0.89826 -0.655659 1.84404 36 37 35
0.916166 -0.661615 1.86079 35 37 35
0.925912 -0.661615 1.86079 36 38 36
1.00566 -0.711111 2 38 40 37
0.983895 -0.688551 1.93655 37 39 36
0.955151 -0.661615 1.86079 36 38 36
1.00055 -0.686063 1.92955 38 40 37
0.954761 -0.648117 1.82283 38 40 37
0.97553 -0.655659 1.84404 38 40 37
0.985189 -0.655659 1.84404 37 39 36
1.03628 -0.682963 1.92083 36 38 35
1.04634 -0.682963 1.92083 37 39 36
0.987286 -0.638282 1.79517 37 39 36
1.11041 -0.711111 2 37 38 35
1.07026 -0.678992 1.90967 36 38 34
1.18246 -0.74323 2.09033 35 37 34
1.08181 -0.673729 1.89486 34 36 34
1.0343 -0.638282 1.79517 35 37 35
1.16279 -0.711111 2 37 39 37
1.17327 -0.711111 2 37 38 37
1.12151 -0.673729 1.89486 36 37 35
1.14695 -0.682963 1.92083 36 37 35
1.20469 -0.711111 2 37 38 36
1.13882 -0.66643 1.87433 37 38 37
1.01481 -0.588785 1.65596 38 39 37
1.23612 -0.711111 2 37 38 36
1.32492 -0.755792 2.12567 36 37 36
-0.484978 -0.270312 0.771599 40 39 36
-0.472311 -0.265464 0.757762 37 37 34
-0.516811 -0.292937 0.836183 36 36 33
-0.512431 -0.292937 0.836183 38 38 36
-0.494849 -0.285325 0.814453 39 39 37
-0.495628 -0.288259 0.822829 39 38 36
-0.474801 -0.278568 0.795167 38 38 34
-0.52095 -0.308349 0.880174 39 39 34
-0.487198 -0.290946 0.830499 39 40 34
-0.517663 -0.311924 0.89038 39 39 32
-0.478498 -0.290946 0.830499 38 39 31
-0.458955 -0.281623 0.803887 37 38 29
-0.473785 -0.293415 0.837546 37 38 29
-0.48071 -0.300486 0.85773 37 38 30
-0.482608 -0.304518 0.869241 38 38 31
-0.489681 -0.311924 0.89038 38 38 31
-0.467232 -0.300486 0.85773 39 38 31
-0.480354 -0.311924 0.89038 38 37 31
-0.478085 -0.313495 0.894863 38 37 30
-0.456925 -0.302586 0.863725 38 37 30
-0.478588 -0.320101 0.91372 38 36 28
-0.461699 -0.311924 0.89038 37 35 28
-0.482276 -0.32915 0.939552 37 35 28
-0.477355 -0.32915 0.939552 38 36 30
-0.473807 -0.330107 0.942284 38 37 31
-0.454659 -0.320101 0.91372 40 38 34
-0.447876 -0.31868 0.909666 41 39 35
-0.443112 -0.31868 0.909666 39 38 34
-0.452749 -0.32915 0.939552 38 37 33
-0.476639 -0.350327 1 40 38 35
-0.442906 -0.32915 0.939552 40 38 34
-0.452684 -0.340196 0.971083 39 37 34
-0.447597 -0.340196 0.971083 39 38 34
-0.443083 -0.340636 0.972338 39 39 34
-0.463476 -0.360457 1.02892 40 39 34
-0.415487 -0.326937 0.933233 40 39 34
-0.413379 -0.32915 0.939552 40 38 33
-0.434737 -0.350327 1 40 38 33
-0.443877 -0.362054 1.03348 40 38 34
-0.466559 -0.385253 1.0997 39 36 33
-0.419024 -0.350327 1 39 37 34
-0.427638 -0.362054 1.03348 39 37 34
-0.408548 -0.350327 1 40 38 35
-0.448158 -0.389283 1.1112 40 38 35
-0.442338 -0.389283 1.1112 38 37 34
-0.423934 -0.378061 1.07917 38 38 34
-0.430698 -0.389283 1.1112 38 37 34
-0.424877 -0.389283 1.1112 37 37 32
-0.42162 -0.391664 1.118 38 38 33
-0.399609 -0.376445 1.07455 38 38 33
-0.397585 -0.379889 1.08438 37 37 32
-0.404053 -0.391664 1.118 38 38 33
-0.400929 -0.394351 1.12567 39 39 34
-0.422815 -0.422085 1.20483 39 39 35
-0.411387 -0.416899 1.19003 39 39 35
-0.400776 -0.412395 1.17717 39 39 35
-0.427498 -0.446764 1.27528 39 39 35
-0.364674 -0.387159 1.10514 38 39 35
-0.371631 -0.400909 1.14438 38 38 35
-0.376113 -0.412395 1.17717 37 38 35
-0.422389 -0.470854 1.34404 38 38 36
-0.377645 -0.428111 1.22203 39 39 37
-0.384677 -0.443601 1.26625 39 40 38
-0.40127 -0.470854 1.34404 38 38 36
-0.353397 -0.422085 1.20483 38 38 35
-0.357862 -0.435189 1.24224 38 38 36
-0.38015 -0.470854 1.34404 39 39 36
-0.344849 -0.435189 1.24224 39 39 36
-0.344883 -0.443601 1.26625 39 39 36
-0.387636 -0.508368 1.45113 39 39 36
-0.392835 -0.52549 1.5 39 39 36
-0.384978 -0.52549 1.5 39 38 35
-0.364834 -0.508368 1.45113 39 38 35
-0.358832 -0.510644 1.45762 40 39 35
-0.361408 -0.52549 1.5 39 38 35
-0.367155 -0.54571 1.55772 39 38 35
-0.345695 -0.52549 1.5 38 37 34
-0.324839 -0.505271 1.44228 38 38 35
-0.357626 -0.569514 1.62567 38 39 35
-0.358525 -0.584871 1.6695 38 38 35
-0.324508 -0.542612 1.54887 37 38 34
-0.316395 -0.542612 1.54887 38 38 34
-0.367031 -0.646017 1.84404 39 38 34
-0.357372 -0.646017 1.84404 38 37 33
-0.321464 -0.597249 1.70483 37 36 31
-0.306058 -0.584871 1.6695 37 37 32
-0.331379 -0.651885 1.86079 37 37 33
-0.289894 -0.587558 1.67717 38 38 33
-0.28111 -0.587558 1.67717 38 38 34
-0.285411 -0.615791 1.75776 38 38 34
-0.267887 -0.597249 1.70483 38 38 35
-0.26157 -0.603275 1.72203 38 38 34
-0.24286 -0.580127 1.65596 37 37 33
-0.241098 -0.597249 1.70483 37 37 33
-0.238501 -0.613539 1.75133 37 38 34
-0.230972 -0.617936 1.76388 38 38 34
-0.216215 -0.602558 1.71999 38 39 35
-0.207206 -0.602558 1.71999 37 38 33
-0.19645 -0.597249 1.70483 36 37 32
-0.184108 -0.586378 1.6738 37 37 33
-0.173471 -0.580127 1.65596 38 38 35
-0.174929 -0.615791 1.75776 37 38 34
-0.162161 -0.602558 1.71999 36 37 33
-0.151803 -0.597249 1.70483 36 37 33
-0.146008 -0.610353 1.74224 37 38 34
-0.138102 -0.615791 1.75776 38 38 35
-0.128895 -0.615791 1.75776 38 39 35
-0.117256 -0.603275 1.72203 37 38 35
-0.109205 -0.608676 1.73745 37 37 34
-0.0990984 -0.602558 1.71999 37 37 34
-0.0927928 -0.620639 1.7716 37 37 34
-0.0846245 -0.628895 1.79517 37 37 34
-0.0721573 -0.603275 1.72203 38 37 34
-0.065819 -0.628895 1.79517 38 37 34
-0.0535774 -0.597249 1.70483 38 38 34
-0.0450983 -0.603275 1.72203 38 38 35
-0.0357183 -0.597249 1.70483 39 38 35
-0.027059 -0.603275 1.72203 38 38 34
-0.0180393 -0.603275 1.72203 37 37 34
-0.00867357 -0.580127 1.65596 38 38 35
0 -0.624983 1.784 39 38 35
0.00892957 -0.597249 1.70483 38 38 35
0.0180179 -0.602558 1.71999 38 38 35
0.0273765 -0.610353 1.74224 38 38 35
0.0371171 -0.620639 1.7716 38 38 36
0.0437225 -0.584871 1.6695 38 38 35
0.0546025 -0.608676 1.73745 39 38 36
0.062507 -0.597249 1.70483 39 38 36
0.0742342 -0.620639 1.7716 39 38 36
0.081177 -0.603275 1.72203 39 38 36
0.0901967 -0.603275 1.72203 38 38 35
0.0992163 -0.603275 1.72203 38 37 35
0.108236 -0.603275 1.72203 38 37 35
0.123053 -0.633103 1.80718 38 37 36
0.126125 -0.602558 1.71999 38 38 36
0.135295 -0.603275 1.72203 39 38 36
0.147309 -0.615791 1.75776 39 39 36
0.151803 -0.597249 1.70483 39 39 36
0.160732 -0.597249 1.70483 39 38 36
0.167742 -0.590492 1.68555 39 38 36
0.190952 -0.638586 1.82283 39 38 35
0.189413 -0.603275 1.72203 39 38 35
0.198433 -0.603275 1.72203 38 38 35
0.212494 -0.617936 1.76388 37 37 34
0.21841 -0.608676 1.73745 37 37 34
0.225492 -0.603275 1.72203 38 37 34
0.236611 -0.608676 1.73745 38 38 35
0.243531 -0.603275 1.72203 38 38 35
0.250028 -0.597249 1.70483 38 38 34
0.258957 -0.597249 1.70483 37 36 33
0.276204 -0.615791 1.75776 36 36 32
0.271778 -0.586378 1.6738 37 37 34
0.282939 -0.591381 1.68808 38 38 35
0.300314 -0.608676 1.73745 37 37 34
0.313031 -0.615791 1.75776 36 36 32
0.306846 -0.586378 1.6738 36 36 32
0.321464 -0.597249 1.70483 36 36 33
0.330394 -0.597249 1.70483 38 38 35
0.34234 -0.602558 1.71999 39 39 36
0.359065 -0.615791 1.75776 38 37 35
0.373769 -0.624983 1.784 37 36 34
0.373117 -0.608676 1.73745 38 36 35
0.382217 -0.608676 1.73745 38 37 36
0.399009 -0.620639 1.7716 39 38 37
0.408288 -0.620639 1.7716 39 39 38
0.423122 -0.628895 1.79517 40 39 38
0.429834 -0.624983 1.784 39 38 37
0.434226 -0.617936 1.76388 38 37 35
0.451331 -0.628895 1.79517 38 38 36
0.441964 -0.603275 1.72203 39 39 36
0.476088 -0.636857 1.81789 39 39 37
0.471182 -0.617936 1.76388 39 38 36
0.460306 -0.592063 1.69003 38 38 36
0.495244 -0.624983 1.784 38 38 36
0.514175 -0.636857 1.81789 38 38 36
0.500523 -0.608676 1.73745 38 38 35
0.515581 -0.615791 1.75776 38 38 35
0.532621 -0.624983 1.784 37 38 35
0.541243 -0.624151 1.78162 36 38 35
0.543201 -0.615791 1.75776 36 38 35
0.556757 -0.620639 1.7716 36 38 35
0.555125 -0.608676 1.73745 37 39 36
0.575315 -0.620639 1.7716 38 39 36
0.568239 -0.603275 1.72203 38 40 37
0.593874 -0.620639 1.7716 39 41 37
0.616216 -0.634081 1.80997 38 39 36
0.620579 -0.628895 1.79517 36 38 34
0.63969 -0.638586 1.82283 37 38 35
0.667582 -0.656629 1.87433 38 39 36
0.635269 -0.615791 1.75776 38 39 35
0.684019 -0.653574 1.86561 37 39 35
0.67206 -0.633103 1.80718 37 39 35
0.687428 -0.638586 1.82283 38 40 36
0.709511 -0.650072 1.85562 38 39 35
0.719231 -0.650072 1.85562 37 38 35
0.72895 -0.650072 1.85562 37 38 36
0.696097 -0.612605 1.74867 37 38 36
0.752421 -0.653574 1.86561 37 38 36
0.721598 -0.618765 1.76625 38 39 36
0.767827 -0.650072 1.85562 38 39 36
0.79007 -0.660542 1.8855 38 39 36
0.741893 -0.612605 1.74867 37 39 35
0.754957 -0.615791 1.75776 37 38 34
0.806705 -0.650072 1.85562 37 38 35
0.796341 -0.634081 1.80997 36 38 35
0.826143 -0.650072 1.85562 37 38 34
0.821094 -0.638586 1.82283 36 38 35
0.810198 -0.622869 1.77797 36 38 35
0.849967 -0.646017 1.84404 36 37 34
0.887026 -0.666609 1.90282 36 37 35
0.883564 -0.656629 1.87433 36 38 35
0.886926 -0.651885 1.86079 35 36 34
0.903199 -0.656629 1.87433 34 36 34
0.883847 -0.635651 1.81445 35 37 35
0.907919 -0.646017 1.84404 36 37 35
0.963609 -0.678425 1.93655 37 39 37
0.857238 -0.597249 1.70483 39 41 39
0.912064 -0.628895 1.79517 37 39 36
1.02661 -0.700654 2 35 37 35
0.945213 -0.638586 1.82283 36 38 36
0.954761 -0.638586 1.82283 37 39 36
1.01615 -0.672919 1.92083 37 39 36
0.985189 -0.646017 1.84404 37 38 36
1.07899 -0.700654 2 37 38 36
1.04025 -0.669007 1.90967 37 39 36
1.16905 -0.744678 2.12567 38 39 36
1.01205 -0.638586 1.82283 37 39 36
1.00609 -0.628895 1.79517 36 38 35
1.13136 -0.700654 2 35 38 35
1.09027 -0.669007 1.90967 35 37 35
1.09174 -0.663821 1.89486 36 38 36
1.10166 -0.663821 1.89486 36 38 36
1.17327 -0.700654 2 36 38 36
1.25812 -0.744678 2.12567 36 37 35
1.14695 -0.672919 1.92083 36 36 35
1.20469 -0.700654 2 37 37 36
1.13882 -0.656629 1.87433 37 38 36
1.22564 -0.700654 2 36 37 36
1.15845 -0.656629 1.87433 36 37 35
1.06262 -0.597249 1.70483 36 37 36
-0.472239 -0.259283 0.751332 37 37 33
-0.488665 -0.270557 0.784 37 37 33
-0.497706 -0.277898 0.805271 37 37 34
-0.512431 -0.288565 0.836183 38 38 36
-0.53478 -0.303746 0.880174 39 38 36
-0.516651 -0.296001 0.85773 38 38 35
-0.528741 -0.305585 0.885502 38 38 34
-0.507666 -0.296001 0.85773 39 39 33
-0.516339 -0.303746 0.880174 39 39 32
-0.462306 -0.274411 0.795167 38 38 30
-0.512999 -0.307268 0.89038 38 39 31
-0.489695 -0.296001 0.85773 38 39 31
-0.454745 -0.27742 0.803887 38 39 31
-0.48071 -0.296001 0.85773 38 39 31
-0.488678 -0.303746 0.880174 38 38 31
-0.484068 -0.303746 0.880174 38 38 31
-0.48236 -0.305585 0.885502 39 38 32
-0.474848 -0.303746 0.880174 39 38 31
-0.470238 -0.303746 0.880174 39 38 31
-0.468446 -0.305585 0.885502 39 38 31
-0.478588 -0.315323 0.91372 39 37 31
-0.489908 -0.326042 0.944781 38 36 29
-0.451797 -0.303746 0.880174 38 35 28
-0.46423 -0.315323 0.91372 39 37 31
-0.475063 -0.326042 0.944781 39 37 32
-0.482517 -0.334644 0.969708 40 38 35
-0.447876 -0.313924 0.909666 40 38 34
-0.487115 -0.345098 1 39 37 33
-0.454065 -0.32518 0.942284 39 37 33
-0.476639 -0.345098 1 41 40 36
-0.445371 -0.326042 0.944781 40 38 35
-0.466164 -0.345098 1 38 37 33
-0.448707 -0.335949 0.973489 39 38 34
-0.442511 -0.335119 0.971083 39 39 34
-0.409759 -0.313924 0.909666 40 39 34
-0.457528 -0.354644 1.02766 40 39 34
-0.426647 -0.334644 0.969708 39 37 33
-0.434737 -0.345098 1 39 37 32
-0.429499 -0.345098 1 39 37 33
-0.424261 -0.345098 1 39 36 33
-0.419024 -0.345098 1 39 36 33
-0.413786 -0.345098 1 40 38 34
-0.435825 -0.368139 1.06677 40 39 35
-0.435239 -0.372418 1.07917 41 40 37
-0.398072 -0.345098 1 39 38 35
-0.392835 -0.345098 1 37 37 33
-0.418282 -0.372418 1.07917 36 36 32
-0.422559 -0.381381 1.10514 36 36 32
-0.405237 -0.370826 1.07455 38 38 34
-0.42186 -0.391474 1.13439 39 39 34
-0.409908 -0.385818 1.118 38 38 33
-0.421367 -0.402351 1.1659 38 38 34
-0.384367 -0.372418 1.07917 38 38 34
-0.389956 -0.383473 1.1112 38 38 33
-0.376923 -0.376272 1.09033 38 38 33
-0.373542 -0.378635 1.09718 38 38 34
-0.398921 -0.410677 1.19003 39 39 34
-0.381444 -0.398919 1.15596 39 39 35
-0.391261 -0.415785 1.20483 38 38 35
-0.399807 -0.431832 1.25133 37 37 35
-0.37864 -0.415785 1.20483 38 38 36
-0.377645 -0.421722 1.22203 39 39 36
-0.386302 -0.438826 1.2716 38 39 36
-0.40127 -0.463826 1.34404 37 38 35
-0.39423 -0.463826 1.34404 39 39 36
-0.40183 -0.481364 1.39486 40 40 37
-0.335321 -0.40913 1.18555 40 39 36
-0.367222 -0.456506 1.32283 39 39 35
-0.369223 -0.46782 1.35562 39 39 36
-0.353364 -0.456506 1.32283 39 39 36
-0.359924 -0.47428 1.37433 39 39 35
-0.357994 -0.481364 1.39486 40 39 35
-0.334506 -0.459152 1.3305 40 38 35
-0.383473 -0.537565 1.55772 41 39 36
-0.320569 -0.459152 1.3305 40 39 36
-0.339948 -0.497729 1.44228 40 39 36
-0.321464 -0.481364 1.39486 39 37 35
-0.361517 -0.55393 1.60514 38 38 34
-0.329981 -0.517647 1.5 38 38 35
-0.358525 -0.576142 1.6695 37 38 34
-0.344518 -0.567474 1.64438 38 38 35
-0.327888 -0.55393 1.60514 39 39 35
-0.332291 -0.576142 1.6695 40 38 35
-0.347901 -0.619509 1.79517 39 38 35
-0.328517 -0.601243 1.74224 39 37 33
-0.317836 -0.598314 1.73375 39 38 34
-0.297313 -0.576142 1.6695 38 38 34
-0.294676 -0.588334 1.70483 38 38 34
-0.28111 -0.578788 1.67717 38 38 34
-0.273126 -0.580491 1.68211 38 38 34
-0.262335 -0.576142 1.6695 39 39 35
-0.269099 -0.611375 1.7716 39 39 35
-0.256847 -0.604381 1.75133 38 38 34
-0.243241 -0.593564 1.71999 37 37 34
-0.230153 -0.583226 1.69003 37 38 34
-0.228668 -0.602642 1.74629 38 38 34
-0.223165 -0.612645 1.77528 38 38 34
-0.20931 -0.599591 1.73745 36 37 33
-0.200209 -0.599591 1.73745 36 37 32
-0.185679 -0.582554 1.68808 37 38 34
-0.176837 -0.582554 1.68808 38 39 35
-0.171374 -0.594271 1.72203 38 39 35
-0.160732 -0.588334 1.70483 37 37 34
-0.144753 -0.561014 1.62567 36 37 33
-0.142873 -0.588334 1.70483 37 37 34
-0.139189 -0.611375 1.7716 37 37 34
-0.123786 -0.582554 1.68808 37 37 34
-0.118305 -0.599591 1.73745 37 38 34
-0.107155 -0.588334 1.70483 37 37 34
-0.100105 -0.599591 1.73745 37 37 34
-0.0867357 -0.571468 1.65596 37 38 34
-0.0835135 -0.611375 1.7716 38 38 34
-0.0707347 -0.582554 1.68808 38 37 34
-0.0637029 -0.599591 1.73745 38 37 34
-0.0535774 -0.588334 1.70483 38 38 34
-0.0470136 -0.619509 1.79517 38 38 34
-0.0360787 -0.594271 1.72203 38 38 34
-0.0275194 -0.604381 1.75133 37 37 34
-0.0182008 -0.599591 1.73745 38 38 34
-0.00885203 -0.583226 1.69003 39 38 35
0 -0.599591 1.73745 38 38 35
0.00910042 -0.599591 1.73745 38 38 34
0.0182008 -0.599591 1.73745 39 38 35
0.027059 -0.594271 1.72203 39 38 35
0.0368272 -0.6066 1.75776 39 38 35
0.0455021 -0.599591 1.73745 39 38 35
0.0520414 -0.571468 1.65596 39 38 35
0.0637029 -0.599591 1.73745 39 38 36
0.0733849 -0.604381 1.75133 39 38 35
0.0819037 -0.599591 1.73745 38 37 35
0.0900894 -0.593564 1.71999 37 36 34
0.0990984 -0.593564 1.71999 37 36 34
0.108236 -0.594271 1.72203 38 37 35
0.118305 -0.599591 1.73745 39 38 36
0.131638 -0.619509 1.79517 38 38 36
0.136506 -0.599591 1.73745 38 38 36
0.141257 -0.581679 1.68555 38 38 35
0.154707 -0.599591 1.73745 39 38 35
0.162354 -0.594271 1.72203 39 38 36
0.177304 -0.614835 1.78162 39 38 36
0.183462 -0.604381 1.75133 39 38 35
0.187521 -0.588334 1.70483 38 38 35
0.200761 -0.601243 1.74224 38 37 35
0.207452 -0.594271 1.72203 37 37 34
0.212204 -0.582554 1.68808 38 37 34
0.231982 -0.611375 1.7716 38 37 34
0.232169 -0.588334 1.70483 38 38 34
0.23671 -0.577626 1.6738 38 37 34
0.247571 -0.582554 1.68808 37 37 33
0.258957 -0.588334 1.70483 36 36 32
0.275194 -0.604381 1.75133 36 36 32
0.276817 -0.588334 1.70483 37 37 34
0.294618 -0.6066 1.75776 38 38 35
0.297649 -0.594271 1.72203 38 38 35
0.306669 -0.594271 1.72203 38 38 35
0.315688 -0.594271 1.72203 38 38 35
0.330232 -0.604381 1.75133 38 38 35
0.333728 -0.594271 1.72203 38 38 35
0.345816 -0.599591 1.73745 38 38 35
0.361892 -0.611375 1.7716 38 37 34
0.353673 -0.582554 1.68808 37 37 35
0.383113 -0.615655 1.784 38 36 35
0.371357 -0.582554 1.68808 37 36 35
0.399009 -0.611375 1.7716 39 38 37
0.403617 -0.604381 1.75133 39 39 37
0.393503 -0.576142 1.6695 40 39 38
0.418619 -0.599591 1.73745 39 38 36
0.426808 -0.598314 1.73375 38 37 35
0.448523 -0.615655 1.784 38 38 36
0.441438 -0.593564 1.71999 38 38 36
0.467211 -0.615655 1.784 38 38 36
0.473243 -0.611375 1.7716 38 38 36
0.488941 -0.619509 1.79517 38 38 36
0.501678 -0.623653 1.80718 38 38 36
0.514175 -0.627352 1.81789 38 38 36
0.51036 -0.611375 1.7716 38 38 35
0.519639 -0.611375 1.7716 38 38 35
0.499721 -0.577626 1.6738 36 37 34
0.541965 -0.615655 1.784 37 38 35
0.558472 -0.623653 1.80718 37 38 35
0.552408 -0.6066 1.75776 37 39 36
0.566036 -0.611375 1.7716 37 39 36
0.568733 -0.604381 1.75133 38 39 36
0.584594 -0.611375 1.7716 38 39 36
0.582427 -0.599591 1.73745 39 40 37
0.598442 -0.6066 1.75776 38 39 35
