ply
format ascii 1.0
element vertex 1364
property float x
property float y
property float z
property uchar red
property uchar green
property uchar blue
end_header
-0.174513 0.391978 1.6659 36 37 35
-0.165349 0.39094 1.66149 34 35 33
-0.158124 0.394628 1.67717 31 32 30
-0.151803 0.401137 1.70483 34 34 32
-0.139611 0.391978 1.6659 35 36 34
-0.136882 0.409938 1.74224 37 37 35
-0.119848 0.384561 1.63439 37 38 36
-0.114385 0.395266 1.67988 37 37 35
-0.103758 0.388419 1.65078 36 37 34
-0.0951111 0.388419 1.65078 35 36 33
-0.0872567 0.391978 1.6659 35 35 33
-0.078531 0.391978 1.6659 35 36 34
-0.0719495 0.404017 1.71707 37 38 35
-0.060715 0.389637 1.65596 36 37 35
-0.0518788 0.388419 1.65078 35 36 34
-0.0443005 0.398017 1.69157 35 36 34
-0.0351955 0.395266 1.67988 35 36 34
-0.026177 0.391978 1.6659 36 37 34
-0.0175977 0.395266 1.67988 36 37 34
-0.00872567 0.391978 1.6659 37 37 34
0 0.389637 1.65596 36 37 34
0.00864646 0.388419 1.65078 36 37 34
0.0172929 0.388419 1.65078 35 37 33
0.0263966 0.395266 1.67988 35 37 33
0.0349027 0.391978 1.6659 36 37 34
0.0433679 0.389637 1.65596 35 37 33
0.0532 0.398311 1.69282 35 36 32
0.0610797 0.391978 1.6659 34 36 31
0.0708809 0.398017 1.69157 33 34 30
0.079741 0.398017 1.69157 34 35 31
0.0872567 0.391978 1.6659 35 36 33
0.0957282 0.39094 1.66149 34 35 33
0.103167 0.386207 1.64138 34 35 32
0.113434 0.391978 1.6659 34 35 33
0.122423 0.392824 1.6695 34 35 33
0.130885 0.391978 1.6659 35 36 34
0.141762 0.398017 1.69157 35 35 33
0.146153 0.386207 1.64138 35 36 34
0.164641 0.410892 1.74629 35 36 34
0.16252 0.384251 1.63307 35 36 35
0.174513 0.391978 1.6659 35 36 34
0.187521 0.401137 1.70483 35 36 33
0.193263 0.394628 1.67717 34 36 33
0.207012 0.404324 1.71838 35 36 33
0.209416 0.391978 1.6659 35 36 33
0.221503 0.398017 1.69157 35 36 33
0.232169 0.401137 1.70483 34 35 32
0.237186 0.394628 1.67717 35 36 33
0.248266 0.398311 1.69282 35 36 33
0.241566 0.374196 1.59033 34 36 33
0.270015 0.404324 1.71838 34 35 32
0.26804 0.388419 1.65078 35 36 33
0.280545 0.393836 1.6738 35 36 34
0.289894 0.394628 1.67717 35 36 33
0.303605 0.401137 1.70483 35 36 34
0.307464 0.394628 1.67717 34 35 33
0.321464 0.401137 1.70483 33 35 32
0.32285 0.391978 1.6659 34 36 33
0.351077 0.415031 1.76388 34 36 34
0.337212 0.388419 1.65078 34 36 34
0.365869 0.410892 1.74629 35 36 35
0.371689 0.407248 1.7308 34 36 34
0.371785 0.397654 1.69003 34 36 34
0.393309 0.410892 1.74629 34 36 34
0.398886 0.407248 1.7308 34 35 33
0.415749 0.415031 1.76388 33 35 33
0.41076 0.401137 1.70483 32 35 32
0.413547 0.395266 1.67988 32 35 31
0.417723 0.39094 1.66149 32 34 32
0.441025 0.404324 1.71838 31 34 31
0.457336 0.410892 1.74629 30 33 31
0.474226 0.417713 1.77528 31 34 33
0.464337 0.401137 1.70483 32 34 34
0.477027 0.404324 1.71838 32 35 34
0.493923 0.410892 1.74629 31 35 34
0.499457 0.407941 1.73375 31 34 34
0.520719 0.417713 1.77528 31 34 33
0.505026 0.398017 1.69157 30 34 33
0.509511 0.394628 1.67717 32 35 34
0.548615 0.417713 1.77528 34 37 35
0.548803 0.410892 1.74629 34 37 35
0.544704 0.401137 1.70483 35 37 36
0.558031 0.404324 1.71838 35 38 37
0.585809 0.417713 1.77528 34 36 35
0.612616 0.430002 1.82751 31 35 34
0.590267 0.407941 1.73375 31 35 35
0.603684 0.410892 1.74629 31 35 35
0.616856 0.413591 1.75776 34 37 37
0.612608 0.404703 1.71999 36 39 39
0.652439 0.42477 1.80527 39 43 42
0.630626 0.404703 1.71999 40 43 42
0.639036 0.404324 1.71838 38 41 40
0.642929 0.401137 1.70483 36 39 38
0.651858 0.401137 1.70483 34 37 36
0.678811 0.412078 1.75133 35 38 37
0.650518 0.389637 1.65596 35 37 37
0.699717 0.413591 1.75776 34 37 37
0.699239 0.407941 1.73375 33 36 36
0.733412 0.422392 1.79517 32 36 36
0.718933 0.408812 1.73745 32 36 36
0.75725 0.425218 1.80718 32 35 36
0.723295 0.401137 1.70483 33 36 36
0.766226 0.419765 1.784 33 37 37
0.797349 0.431552 1.8341 34 38 38
0.795113 0.425218 1.80718 35 38 39
0.782578 0.413591 1.75776 35 39 39
0.808634 0.422392 1.79517 35 38 39
0.835776 0.431552 1.8341 35 39 39
0.827439 0.422392 1.79517 36 40 41
0.830529 0.419206 1.78162 36 40 40
0.828612 0.413591 1.75776 35 39 39
0.884459 0.436615 1.85562 35 38 38
0.894179 0.436615 1.85562 35 38 38
0.903898 0.436615 1.85562 35 39 39
0.875386 0.418345 1.77797 36 40 39
0.970862 0.459088 1.95113 35 39 39
0.927237 0.433892 1.84404 35 39 39
0.897372 0.415588 1.76625 34 38 39
0.921467 0.422392 1.79517 35 38 39
0.956213 0.433892 1.84404 34 38 39
0.915917 0.411451 1.74867 34 38 38
0.929887 0.413591 1.75776 33 37 38
0.969381 0.42693 1.81445 34 37 38
1.04785 0.457008 1.94228 34 37 39
1.02709 0.443647 1.8855 34 37 38
0.997892 0.42693 1.81445 36 39 41
1.07518 0.455659 1.93655 38 41 42
1.05046 0.44102 1.87433 37 40 41
1.08658 0.451961 1.92083 35 39 39
1.0249 0.422392 1.79517 34 38 38
1.15232 0.470588 2 34 37 38
1.11676 0.451961 1.92083 34 38 39
1.09955 0.44102 1.87433 33 38 39
1.07888 0.428901 1.82283 34 39 39
1.08843 0.428901 1.82283 34 39 39
1.08131 0.422392 1.79517 34 39 39
1.03583 0.401137 1.70483 34 39 39
1.13007 0.433892 1.84404 34 39 39
1.0864 0.413591 1.75776 35 39 39
1.14939 0.433892 1.84404 36 41 41
-0.707521 0.270748 1.12567 35 36 33
-0.694664 0.268062 1.1145 35 36 33
-0.688827 0.268062 1.1145 35 36 33
-0.645258 0.253254 1.05293 35 36 34
-0.710571 0.281292 1.1695 36 36 34
-0.671314 0.268062 1.1145 36 37 34
-0.672145 0.270748 1.12567 35 37 35
-0.654098 0.265811 1.10514 35 37 35
-0.617683 0.253254 1.05293 35 37 34
-0.647964 0.268062 1.1145 34 37 34
-0.704084 0.293927 1.22203 35 37 34
-0.676852 0.285151 1.18555 36 38 35
-0.716295 0.304562 1.26625 36 37 35
-0.664433 0.285151 1.18555 36 36 34
-0.734443 0.318171 1.32283 36 36 33
-0.683192 0.298787 1.24224 35 36 33
-0.676685 0.298787 1.24224 36 37 33
-0.698734 0.311517 1.29517 36 37 34
-0.753121 0.339057 1.40967 36 38 34
-0.685166 0.311517 1.29517 35 37 32
-0.631067 0.28979 1.20483 35 36 31
-0.644152 0.298787 1.24224 35 36 31
-0.695843 0.326057 1.35562 35 36 31
-0.658031 0.311517 1.29517 35 36 31
-0.669013 0.320015 1.3305 35 36 31
-0.674541 0.326057 1.35562 35 36 31
-0.714466 0.349029 1.45113 34 35 31
-0.679459 0.335496 1.39486 34 35 31
-0.722816 0.360784 1.5 34 35 31
-0.765072 0.386072 1.60514 35 36 32
-0.72708 0.370977 1.54238 35 36 32
-0.748257 0.386072 1.60514 35 36 33
-0.691389 0.360784 1.5 35 36 33
-0.807297 0.42611 1.7716 35 36 32
-0.675676 0.360784 1.5 35 36 32
-0.667819 0.360784 1.5 35 36 33
-0.734539 0.401553 1.6695 35 36 33
-0.706737 0.39101 1.62567 35 36 33
-0.706262 0.395512 1.64438 35 36 32
-0.751621 0.42611 1.7716 34 35 32
-0.702774 0.403398 1.67717 35 36 32
-0.690816 0.401553 1.6695 36 37 34
-0.70832 0.417007 1.73375 36 37 34
-0.663197 0.395512 1.64438 35 36 33
-0.654584 0.395512 1.64438 36 37 34
-0.681077 0.417007 1.73375 37 38 35
-0.641844 0.398296 1.65596 37 37 35
-0.668619 0.420595 1.74867 36 37 34
-0.648644 0.413696 1.71999 35 36 33
-0.644753 0.417007 1.73375 35 36 33
-0.640271 0.420023 1.74629 36 36 33
-0.621035 0.413309 1.71838 35 36 33
-0.621977 0.420023 1.74629 35 37 33
-0.593627 0.406862 1.69157 37 38 34
-0.594033 0.413309 1.71838 37 38 35
-0.580422 0.410051 1.70483 37 38 35
-0.551229 0.395512 1.64438 36 37 34
-0.553435 0.403398 1.67717 37 38 34
-0.553633 0.410051 1.70483 37 37 34
-0.56357 0.424254 1.76388 36 36 33
-0.552408 0.422782 1.75776 36 37 34
-0.53103 0.413309 1.71838 37 37 34
-0.517915 0.410051 1.70483 37 37 35
-0.51351 0.413696 1.71999 37 38 35
-0.508538 0.417007 1.73375 37 38 35
-0.52006 0.434209 1.80527 37 38 35
-0.493923 0.420023 1.74629 36 37 35
-0.48796 0.422782 1.75776 36 37 34
-0.461066 0.407163 1.69282 36 37 34
-0.469547 0.422782 1.75776 36 37 34
-0.443333 0.407163 1.69282 36 37 34
-0.44497 0.417007 1.73375 36 36 34
-0.435889 0.417007 1.73375 36 36 34
-0.423024 0.413309 1.71838 36 36 34
-0.420749 0.420023 1.74629 36 36 33
-0.398705 0.406862 1.69157 36 36 33
-0.382913 0.399627 1.66149 36 36 33
-0.383971 0.410051 1.70483 36 36 33
-0.381403 0.417007 1.73375 37 37 34
-0.369367 0.413696 1.71999 37 37 34
-0.357183 0.410051 1.70483 36 37 34
-0.348253 0.410051 1.70483 35 36 33
-0.347576 0.420023 1.74629 35 35 31
-0.319919 0.397051 1.65078 35 35 31
-0.324018 0.413309 1.71838 35 36 32
-0.312535 0.410051 1.70483 36 37 33
-0.306017 0.413309 1.71838 36 37 34
-0.294676 0.410051 1.70483 35 36 31
-0.285746 0.410051 1.70483 35 35 30
-0.276817 0.410051 1.70483 34 35 30
-0.26354 0.403398 1.67717 35 35 32
-0.253044 0.400688 1.6659 36 37 34
-0.248083 0.406862 1.69157 36 37 34
-0.232125 0.39479 1.64138 36 37 34
-0.228402 0.403398 1.67717 35 36 34
-0.223239 0.410051 1.70483 35 36 33
-0.206333 0.39479 1.64138 36 37 35
-0.206855 0.412996 1.71707 38 39 37
-0.183257 0.382512 1.59033 37 38 36
-0.189011 0.413309 1.71838 35 37 34
-0.178591 0.410051 1.70483 35 36 34
-0.164798 0.398296 1.65596 34 34 32
-0.159482 0.406862 1.69157 33 33 31
-0.151803 0.410051 1.70483 33 34 31
-0.146348 0.420023 1.74629 34 35 33
-0.130885 0.400688 1.6659 35 36 34
-0.127134 0.417007 1.73375 36 37 35
-0.109538 0.386928 1.60869 37 37 35
-0.106224 0.406491 1.69003 36 37 35
-0.0974612 0.406862 1.69157 35 36 33
-0.0851491 0.39101 1.62567 34 35 32
-0.0803661 0.410051 1.70483 34 35 32
-0.0714365 0.410051 1.70483 36 37 35
-0.0634591 0.416298 1.7308 36 37 35
-0.052354 0.400688 1.6659 35 37 35
-0.0449684 0.412996 1.71707 35 36 34
-0.0346943 0.398296 1.65596 35 37 34
-0.0263966 0.40405 1.67988 36 37 34
-0.0182934 0.420023 1.74629 36 37 34
-0.00878468 0.403398 1.67717 36 37 34
0 0.406862 1.69157 36 37 34
0.00886666 0.407163 1.69282 36 37 34
0.0181312 0.416298 1.7308 35 37 33
0.026177 0.400688 1.6659 35 36 33
0.0357183 0.410051 1.70483 35 36 33
0.0443333 0.407163 1.69282 35 36 32
0.0520414 0.398296 1.65596 35 36 32
0.062507 0.410051 1.70483 35 36 32
0.0684846 0.393107 1.63439 33 35 30
0.0778182 0.397051 1.65078 33 34 30
0.0892957 0.410051 1.70483 34 35 32
0.0982252 0.410051 1.70483 35 36 33
0.107155 0.410051 1.70483 35 36 33
0.117007 0.413309 1.71838 35 36 33
0.122159 0.400688 1.6659 35 36 34
0.135008 0.413309 1.71838 36 37 35
0.144008 0.413309 1.71838 36 36 34
0.149581 0.40405 1.67988 36 36 34
0.157062 0.400688 1.6659 35 36 34
0.168467 0.407163 1.69282 35 36 34
0.171944 0.39479 1.64138 34 35 33
0.187521 0.410051 1.70483 34 35 32
0.193263 0.403398 1.67717 35 36 33
0.203782 0.406862 1.69157 36 37 34
0.210832 0.403398 1.67717 35 36 34
0.229328 0.421235 1.75133 35 35 32
0.230363 0.406862 1.69157 34 35 32
0.239223 0.406862 1.69157 34 35 32
0.248266 0.407163 1.69282 34 36 33
0.256709 0.406491 1.69003 34 36 32
0.267887 0.410051 1.70483 34 36 33
0.276817 0.410051 1.70483 35 36 34
0.276687 0.397051 1.65078 34 36 33
0.289894 0.403398 1.67717 33 35 32
0.301244 0.406862 1.69157 34 35 33
0.322238 0.422782 1.75776 32 34 31
0.329282 0.420023 1.74629 32 34 31
0.335427 0.416298 1.7308 34 36 34
0.336684 0.406862 1.69157 34 36 34
0.351349 0.413696 1.71999 35 37 35
0.349027 0.400688 1.6659 35 36 34
0.369021 0.413309 1.71838 34 36 34
0.372125 0.406862 1.69157 34 36 33
0.383971 0.410051 1.70483 33 35 33
0.389489 0.406491 1.69003 34 35 33
0.395311 0.403398 1.67717 34 36 34
0.407565 0.406862 1.69157 33 35 33
0.416425 0.406862 1.69157 32 35 32
0.428619 0.410051 1.70483 32 35 32
0.441025 0.413309 1.71838 31 34 32
0.457336 0.420023 1.74629 31 34 32
0.455408 0.410051 1.70483 31 34 33
0.464337 0.410051 1.70483 31 34 34
0.481295 0.417007 1.73375 31 35 34
0.490376 0.417007 1.73375 31 35 34
0.487306 0.406862 1.69157 31 35 34
0.512217 0.420023 1.74629 32 35 34
0.513029 0.413309 1.71838 31 35 34
0.522029 0.413309 1.71838 32 35 34
0.52227 0.406491 1.69003 35 37 36
0.531122 0.406491 1.69003 35 37 36
0.539352 0.406023 1.68808 34 37 35
0.579883 0.429494 1.78567 34 36 35
0.567563 0.413696 1.71999 32 35 34
0.595107 0.426995 1.77528 30 34 33
0.617743 0.436417 1.81445 30 34 34
0.584234 0.406491 1.69003 31 35 34
0.626648 0.429494 1.78567 33 36 36
0.607211 0.410051 1.70483 35 39 38
0.626591 0.417007 1.73375 38 41 40
0.661895 0.434209 1.80527 37 41 40
0.655959 0.424254 1.76388 36 39 38
0.642929 0.410051 1.70483 36 38 38
0.682128 0.429093 1.784 34 37 36
0.691473 0.429093 1.784 35 37 37
0.697391 0.426995 1.77528 34 37 37
0.68468 0.413696 1.71999 33 37 36
0.700732 0.417897 1.73745 31 35 35
0.723784 0.42611 1.7716 32 35 36
0.742815 0.431779 1.79517 31 35 36
0.75725 0.434668 1.80718 31 35 36
0.737134 0.417897 1.73745 32 36 37
0.776181 0.434668 1.80718 32 37 37
0.797349 0.441142 1.8341 33 37 38
0.78387 0.428521 1.78162 33 37 38
0.759013 0.410051 1.70483 35 39 39
0.767943 0.410051 1.70483 34 38 39
0.818037 0.431779 1.79517 35 39 39
0.840189 0.438432 1.82283 36 39 40
0.819405 0.422782 1.75776 36 40 40
0.853223 0.435339 1.80997 35 39 40
0.868832 0.438432 1.82283 34 38 38
0.894179 0.446318 1.85562 34 38 38
0.887927 0.438432 1.82283 34 38 38
0.891144 0.435339 1.80997 35 39 39
0.893258 0.431779 1.79517 36 41 41
0.948084 0.453506 1.8855 37 41 41
0.936895 0.443534 1.84404 36 40 40
0.939602 0.440277 1.8305 35 39 39
0.884027 0.410051 1.70483 33 37 37
0.931262 0.427641 1.77797 32 36 37
0.991555 0.45082 1.87433 32 35 36
1.00137 0.45082 1.87433 34 36 38
1.04785 0.467164 1.94228 35 38 38
0.957507 0.422782 1.75776 35 38 39
1.0682 0.467164 1.94228 36 39 40
1.03312 0.447563 1.86079 37 40 41
0.992883 0.42611 1.7716 37 40 41
1.05262 0.447563 1.86079 35 39 39
1.10162 0.464102 1.92955 33 37 37
1.15232 0.481046 2 34 37 38
0.991182 0.410051 1.70483 32 37 38
1.12682 0.462004 1.92083 33 38 39
1.13689 0.462004 1.92083 34 38 39
1.10109 0.443534 1.84404 34 39 39
1.0269 0.410051 1.70483 34 39 39
1.13882 0.45082 1.87433 34 39 39
1.14863 0.45082 1.87433 34 39 39
1.10952 0.431779 1.79517 35 39 39
1.2466 0.481046 2 35 40 40
-0.716033 0.279962 1.13921 35 36 33
-0.701625 0.276634 1.12567 36 37 34
-0.704099 0.279962 1.13921 36 37 35
-0.682989 0.27389 1.1145 36 37 34
-0.683937 0.276634 1.12567 36 36 34
-0.696288 0.284079 1.15596 36 37 34
-0.690233 0.284079 1.15596 36 37 35
-0.723287 0.300317 1.22203 34 36 34
-0.678123 0.284079 1.15596 34 36 34
-0.654457 0.276634 1.12567 33 36 34
-0.74622 0.318289 1.29517 35 36 34
-0.709218 0.305282 1.24224 35 37 35
-0.732653 0.318289 1.29517 36 38 35
-0.696205 0.305282 1.24224 36 37 34
-0.689698 0.305282 1.24224 37 37 34
-0.652014 0.29135 1.18555 36 37 34
-0.676685 0.305282 1.24224 36 36 33
-0.713657 0.325087 1.32283 36 37 34
-0.663672 0.305282 1.24224 36 38 34
-0.745738 0.346428 1.40967 35 37 33
-0.678382 0.318289 1.29517 34 36 31
-0.656604 0.311183 1.26625 34 36 31
-0.664814 0.318289 1.29517 34 36 31
-0.624109 0.301881 1.2284 34 36 31
-0.71882 0.351315 1.42955 34 36 31
-0.694071 0.34279 1.39486 35 36 31
-0.766946 0.382811 1.55772 34 35 31
-0.669459 0.337745 1.37433 33 34 30
-0.699264 0.356616 1.45113 34 35 31
-0.691664 0.356616 1.45113 33 34 31
-0.687125 0.358213 1.45762 34 35 31
-0.748257 0.394465 1.60514 35 36 33
-0.733027 0.390827 1.59033 35 36 33
-0.702844 0.379042 1.54238 35 36 33
-0.701674 0.382811 1.55772 36 36 33
-0.686686 0.379042 1.54238 35 36 32
-0.70622 0.394465 1.60514 34 35 31
-0.753725 0.426072 1.73375 34 35 32
-0.732224 0.418965 1.70483 34 35 32
-0.739164 0.428158 1.74224 34 35 32
-0.699561 0.410283 1.6695 34 35 32
-0.742815 0.441165 1.79517 35 36 32
-0.67181 0.40411 1.64438 35 36 33
-0.731787 0.445905 1.81445 35 36 33
-0.705225 0.435373 1.7716 36 37 34
-0.669717 0.418965 1.70483 36 37 34
-0.714745 0.453176 1.84404 36 37 34
-0.686399 0.441165 1.79517 36 37 34
-0.658564 0.429154 1.74629 36 37 34
-0.633999 0.418965 1.70483 35 36 33
-0.644476 0.431973 1.75776 35 36 32
-0.629659 0.428158 1.74224 35 36 33
-0.626062 0.431973 1.75776 36 37 34
-0.607395 0.425348 1.7308 37 38 35
-0.600627 0.426981 1.73745 37 38 35
-0.590267 0.426072 1.73375 37 38 34
-0.58708 0.430393 1.75133 36 37 33
-0.585809 0.436278 1.77528 35 36 32
-0.562067 0.425348 1.7308 35 36 32
-0.56357 0.433477 1.76388 36 36 34
-0.54003 0.422294 1.71838 37 37 34
-0.545093 0.433477 1.76388 36 36 34
-0.539316 0.436278 1.77528 36 37 34
-0.538972 0.443648 1.80527 36 37 34
-0.508538 0.426072 1.73375 36 37 34
-0.52006 0.443648 1.80527 36 37 34
-0.482197 0.418965 1.70483 35 36 33
-0.465588 0.412167 1.67717 36 37 34
-0.460726 0.415706 1.69157 36 37 34
-0.455408 0.418965 1.70483 36 37 34
-0.470136 0.441165 1.79517 36 37 35
-0.434145 0.415706 1.69157 36 36 34
-0.425285 0.415706 1.69157 36 36 33
-0.41969 0.418965 1.70483 36 35 33
-0.41076 0.418965 1.70483 35 35 32
-0.40183 0.418965 1.70483 36 35 33
-0.392901 0.418965 1.70483 36 36 33
-0.395892 0.431973 1.75776 37 36 33
-0.38327 0.428158 1.74224 37 37 34
-0.366112 0.418965 1.70483 36 37 33
-0.360358 0.42269 1.71999 36 37 33
-0.337212 0.405683 1.65078 36 36 33
-0.339324 0.418965 1.70483 35 35 32
-0.333331 0.42269 1.71999 35 35 32
-0.329282 0.429154 1.74629 35 36 32
-0.312535 0.418965 1.70483 36 36 32
-0.301244 0.415706 1.69157 35 36 32
-0.287947 0.409399 1.6659 35 36 31
-0.285746 0.418965 1.70483 36 36 32
-0.281033 0.425348 1.7308 35 35 32
-0.272431 0.426072 1.73375 35 35 31
-0.258957 0.418965 1.70483 36 36 33
-0.242101 0.405683 1.65078 36 37 34
-0.235593 0.409399 1.6659 35 36 33
-0.232169 0.418965 1.70483 34 35 32
-0.227026 0.426072 1.73375 34 35 32
-0.208862 0.408315 1.66149 34 36 33
-0.210375 0.429154 1.74629 35 37 34
-0.191965 0.409399 1.6659 36 37 35
-0.184478 0.412167 1.67717 36 37 35
-0.177202 0.415706 1.69157 36 37 35
-0.168342 0.415706 1.69157 36 37 35
-0.15475 0.403372 1.64138 35 36 34
-0.14934 0.412167 1.67717 35 35 34
-0.144008 0.422294 1.71838 35 35 34
-0.133943 0.418965 1.70483 35 36 34
-0.125014 0.418965 1.70483 35 36 34
-0.116084 0.418965 1.70483 36 37 34
-0.106321 0.415706 1.69157 37 37 35
-0.0959824 0.409399 1.6659 36 36 34
-0.0878468 0.412167 1.67717 34 35 32
-0.0790621 0.412167 1.67717 35 36 34
-0.0708163 0.415328 1.69003 36 37 35
-0.0629558 0.421974 1.71707 36 37 35
-0.0531122 0.415328 1.69003 36 38 35
-0.0425745 0.39951 1.62567 36 38 35
-0.0351387 0.412167 1.67717 36 38 35
-0.026177 0.409399 1.6659 36 37 34
-0.0177333 0.416014 1.69282 36 36 33
-0.00872567 0.409399 1.6659 36 36 33
0 0.415706 1.69157 36 37 34
0.00906559 0.425348 1.7308 36 37 34
0.0177202 0.415706 1.69157 35 36 33
0.0255447 0.39951 1.62567 35 36 33
0.0357183 0.418965 1.70483 35 37 33
0.0443333 0.416014 1.69282 35 37 33
0.0510894 0.39951 1.62567 35 37 33
0.0614928 0.412167 1.67717 34 36 31
0.0691717 0.405683 1.65078 33 35 30
0.0787006 0.410283 1.6695 34 35 31
0.0867357 0.406954 1.65596 34 35 32
0.0959824 0.409399 1.6659 35 36 34
0.106321 0.415706 1.69157 36 37 34
0.116084 0.418965 1.70483 35 36 33
0.125912 0.421974 1.71707 34 35 32
0.138102 0.431973 1.75776 34 36 33
0.145049 0.425348 1.7308 35 36 34
0.150622 0.415706 1.69157 35 36 34
0.158124 0.412167 1.67717 35 36 34
0.17101 0.422294 1.71838 35 36 34
0.175694 0.412167 1.67717 35 36 33
0.188867 0.421974 1.71707 35 36 34
0.193575 0.412833 1.67988 36 37 34
0.20538 0.418965 1.70483 35 36 34
0.207515 0.405683 1.65078 35 35 33
0.218142 0.409399 1.6659 34 35 31
0.237815 0.429154 1.74629 34 34 31
0.237569 0.412833 1.67988 34 35 32
0.248083 0.415706 1.69157 34 36 33
0.258957 0.418965 1.70483 34 36 33
0.261077 0.408315 1.66149 33 35 32
0.274413 0.415328 1.69003 33 35 32
0.288016 0.422294 1.71838 33 35 31
0.287947 0.409399 1.6659 35 36 34
0.300969 0.415328 1.69003 36 37 35
0.305398 0.409399 1.6659 34 35 33
0.324322 0.42269 1.71999 31 33 30
0.327824 0.415706 1.69157 33 35 32
0.351953 0.434559 1.76828 34 36 34
0.348253 0.418965 1.70483 35 36 34
0.357183 0.418965 1.70483 34 36 34
0.377479 0.431973 1.75776 33 35 33
0.371785 0.415328 1.69003 33 35 33
0.391318 0.426981 1.73745 33 35 33
0.399565 0.426072 1.73375 33 35 32
0.408646 0.426072 1.73375 33 35 33
0.407194 0.415328 1.69003 32 35 32
0.41969 0.418965 1.70483 32 35 32
0.432024 0.422294 1.71838 33 35 33
0.423677 0.405683 1.65078 32 35 33
0.446478 0.418965 1.70483 32 35 34
0.462345 0.425348 1.7308 31 34 34
0.460726 0.415706 1.69157 31 34 33
0.469586 0.415706 1.69157 30 34 34
0.493923 0.429154 1.74629 30 34 33
0.495028 0.422294 1.71838 32 35 34
0.504028 0.422294 1.71838 34 36 36
0.51351 0.42269 1.71999 32 35 34
0.522029 0.422294 1.71838 30 34 32
0.526844 0.418965 1.70483 33 36 35
0.548803 0.429154 1.74629 34 37 35
0.55795 0.429154 1.74629 34 36 35
0.572809 0.433477 1.76388 34 36 34
0.562563 0.418965 1.70483 32 35 33
0.576572 0.42269 1.71999 29 34 33
0.594537 0.429154 1.74629 30 34 34
0.605426 0.430393 1.75133 31 35 35
0.633528 0.443648 1.80527 33 36 36
0.636001 0.43883 1.78567 34 38 37
0.639072 0.434559 1.76828 36 40 39
0.649549 0.435373 1.7716 37 40 40
0.644753 0.426072 1.73375 37 40 39
0.676996 0.441165 1.79517 36 39 39
0.66433 0.426981 1.73745 35 38 37
0.671996 0.426072 1.73375 34 37 37
0.686004 0.429154 1.74629 34 37 37
0.702153 0.433477 1.76388 33 37 37
0.714504 0.435373 1.7716 32 36 36
0.733412 0.441165 1.79517 32 36 36
0.738194 0.438421 1.784 31 35 36
0.761741 0.44675 1.81789 31 35 36
0.76162 0.441165 1.79517 32 36 37
0.752196 0.430393 1.75133 33 38 38
0.77018 0.435373 1.7716 33 37 38
0.766541 0.428158 1.74224 32 37 38
0.793202 0.437837 1.78162 33 37 38
0.767943 0.418965 1.70483 34 38 38
0.804859 0.434059 1.76625 34 38 39
0.827439 0.441165 1.79517 35 38 39
0.849737 0.447963 1.82283 35 39 39
0.869284 0.453176 1.84404 35 38 39
0.855647 0.441165 1.79517 34 37 38
0.851116 0.434059 1.76625 34 37 38
0.881663 0.444803 1.80997 33 37 38
0.883856 0.441165 1.79517 32 37 37
0.884699 0.436938 1.77797 37 41 41
0.895851 0.437837 1.78162 41 44 44
0.912064 0.441165 1.79517 40 43 44
0.929065 0.444803 1.80997 37 41 42
0.94919 0.449848 1.8305 36 40 40
0.950373 0.445905 1.81445 36 39 40
0.949675 0.441165 1.79517 34 38 39
0.949887 0.436938 1.77797 34 37 38
0.978885 0.445905 1.81445 34 38 39
1.01363 0.457292 1.86079 35 38 38
0.997892 0.445905 1.81445 36 39 39
1.04064 0.460621 1.87433 36 39 39
0.992883 0.435373 1.7716 35 39 39
1.04314 0.453176 1.84404 34 38 38
1.04069 0.447963 1.82283 34 38 38
1.02072 0.435373 1.7716 35 38 39
1.11676 0.472048 1.92083 34 38 39
1.12682 0.472048 1.92083 33 38 39
1.13689 0.472048 1.92083 34 38 39
1.14028 0.469303 1.90967 34 38 39
1.20469 0.491503 2 34 39 39
1.06799 0.431973 1.75776 33 38 38
1.16121 0.465666 1.89486 34 39 39
1.18029 0.469303 1.90967 35 39 39
1.14939 0.453176 1.84404 35 39 40
-0.664812 0.265466 1.05772 35 37 33
-0.701625 0.28252 1.12567 36 37 34
-0.688827 0.279717 1.1145 36 37 34
-0.645258 0.264265 1.05293 36 37 33
-0.683937 0.28252 1.12567 35 36 33
-0.665675 0.277368 1.10514 35 36 34
-0.741751 0.311777 1.24224 35 36 34
-0.735245 0.311777 1.24224 34 36 34
-0.706795 0.302389 1.20483 34 36 34
-0.672069 0.290123 1.15596 33 35 33
-0.673817 0.293522 1.1695 34 36 33
-0.642665 0.28252 1.12567 34 36 34
-0.601575 0.266905 1.06345 36 37 34
-0.696205 0.311777 1.24224 36 37 34
-0.731703 0.330766 1.31789 38 37 35
-0.626529 0.285919 1.13921 37 38 35
-0.705517 0.325062 1.29517 37 37 34
-0.670179 0.311777 1.24224 36 37 33
-0.724245 0.340233 1.35562 36 37 34
-0.699799 0.332004 1.32283 36 38 33
-0.710044 0.340233 1.35562 35 37 33
-0.702943 0.340233 1.35562 35 36 32
-0.715989 0.350083 1.39486 35 36 31
-0.658031 0.325062 1.29517 34 36 31
-0.754243 0.376471 1.5 34 36 31
-0.701436 0.353798 1.40967 35 36 32
-0.667441 0.340233 1.35562 35 36 32
-0.702558 0.361985 1.44228 33 34 30
-0.746367 0.388737 1.54887 33 34 30
-0.691664 0.364204 1.45113 33 34 30
-0.775165 0.412708 1.64438 35 36 33
-0.748257 0.402858 1.60514 37 38 35
-0.733027 0.399143 1.59033 37 38 35
-0.724697 0.399143 1.59033 36 37 34
-0.767943 0.42788 1.70483 35 36 32
-0.723767 0.40801 1.62567 34 35 31
-0.699707 0.399143 1.59033 34 35 31
-0.714875 0.412708 1.64438 34 35 32
-0.71705 0.419012 1.6695 34 35 32
-0.739164 0.437268 1.74224 35 36 32
-0.702774 0.420937 1.67717 34 35 32
-0.717401 0.435137 1.73375 34 35 32
-0.723784 0.444637 1.7716 35 36 33
-0.702662 0.437268 1.74224 36 37 34
-0.690158 0.435137 1.73375 36 37 34
-0.678976 0.433795 1.7284 36 36 34
-0.677778 0.438881 1.74867 36 37 34
-0.672096 0.441164 1.75776 36 37 34
-0.662889 0.441164 1.75776 36 37 34
-0.639036 0.431279 1.71838 35 36 33
-0.654707 0.448167 1.78567 35 36 33
-0.6416 0.44556 1.77528 36 37 34
-0.602487 0.424551 1.69157 36 37 34
-0.626648 0.448167 1.78567 37 38 35
-0.598329 0.434398 1.7308 36 37 34
-0.604406 0.44556 1.77528 36 37 32
-0.571492 0.42788 1.70483 35 36 31
-0.562563 0.42788 1.70483 34 35 30
-0.579883 0.448167 1.78567 35 35 32
-0.573566 0.450552 1.79517 36 36 33
-0.552408 0.441164 1.75776 36 37 34
-0.53103 0.431279 1.71838 36 36 34
-0.5267 0.435137 1.73375 36 37 34
-0.504566 0.424164 1.69003 36 36 34
-0.515581 0.441164 1.75776 36 36 34
-0.506374 0.441164 1.75776 36 36 33
-0.478446 0.424551 1.69157 36 36 34
-0.477027 0.431279 1.71838 36 37 34
-0.464337 0.42788 1.70483 36 37 34
-0.451865 0.424551 1.69157 36 37 35
-0.446478 0.42788 1.70483 36 37 34
-0.444214 0.434398 1.7308 36 36 33
-0.444572 0.443805 1.76828 36 35 32
-0.416425 0.424551 1.69157 36 35 32
-0.414023 0.431279 1.71838 36 35 32
-0.405023 0.431279 1.71838 36 36 33
-0.396393 0.431683 1.71999 36 36 33
-0.380985 0.424551 1.69157 37 37 33
-0.38327 0.437268 1.74224 37 37 34
-0.369021 0.431279 1.71838 37 36 33
-0.357183 0.42788 1.70483 36 36 33
-0.362643 0.44556 1.77528 36 36 33
-0.327292 0.412708 1.64438 35 36 32
-0.327525 0.424164 1.69003 35 36 32
-0.318964 0.424551 1.69157 35 36 32
-0.30459 0.417002 1.66149 36 36 33
-0.306017 0.431279 1.71838 35 36 32
-0.289894 0.420937 1.67717 35 35 31
-0.283265 0.424164 1.69003 36 36 32
-0.274413 0.424164 1.69003 36 36 33
-0.267887 0.42788 1.70483 36 36 32
-0.258957 0.42788 1.70483 35 35 32
-0.250028 0.42788 1.70483 35 36 33
-0.235593 0.418109 1.6659 35 36 32
-0.236107 0.435137 1.73375 35 36 33
-0.219972 0.421617 1.67988 34 36 33
-0.205454 0.410199 1.63439 34 35 33
-0.20538 0.42788 1.70483 34 35 33
-0.189485 0.412708 1.64438 35 36 34
-0.182754 0.417002 1.66149 35 36 34
-0.174513 0.418109 1.6659 37 38 36
-0.166909 0.420937 1.67717 38 39 37
-0.159482 0.424551 1.69157 36 37 36
-0.147944 0.417002 1.66149 36 37 35
-0.138343 0.414314 1.65078 35 36 35
-0.135008 0.431279 1.71838 35 36 34
-0.124041 0.424551 1.69157 35 36 34
-0.115181 0.424551 1.69157 35 36 34
-0.106224 0.424164 1.69003 36 37 35
-0.0974612 0.424551 1.69157 37 37 35
-0.0892957 0.42788 1.70483 36 37 35
-0.0778182 0.414314 1.65078 37 38 35
-0.0702774 0.420937 1.67717 36 37 35
-0.0619642 0.424164 1.69003 34 36 33
-0.0518788 0.414314 1.65078 35 37 34
-0.0446478 0.42788 1.70483 36 38 35
-0.0345858 0.414314 1.65078 36 38 35
-0.026354 0.420937 1.67717 36 37 34
-0.0177202 0.424551 1.69157 36 36 33
-0.00864646 0.414314 1.65078 35 36 33
0 0.431279 1.71838 36 36 33
0.00867357 0.415613 1.65596 35 36 32
0.0171944 0.411955 1.64138 35 36 33
0.0265803 0.424551 1.69157 35 36 33
0.0340596 0.40801 1.62567 35 37 33
0.0436283 0.418109 1.6659 36 37 34
0.0518788 0.414314 1.65078 35 37 33
0.060918 0.417002 1.66149 35 36 32
0.0739109 0.4427 1.76388 34 36 31
0.079741 0.424551 1.69157 35 36 32
0.0899368 0.430952 1.71707 35 36 33
0.0941664 0.410199 1.63439 35 36 33
0.105416 0.420937 1.67717 35 36 33
0.116084 0.42788 1.70483 34 35 33
0.123928 0.424164 1.69003 34 35 32
0.129697 0.414314 1.65078 33 34 31
0.145049 0.434398 1.7308 35 35 33
0.151803 0.42788 1.70483 35 36 33
0.158124 0.420937 1.67717 34 36 33
0.165349 0.417002 1.66149 35 36 34
0.18251 0.437268 1.74224 35 36 34
0.187521 0.42788 1.70483 36 37 34
0.193263 0.420937 1.67717 36 37 34
0.202374 0.421617 1.67988 35 36 33
0.209416 0.418109 1.6659 34 35 32
0.218142 0.418109 1.6659 34 35 31
0.234013 0.431279 1.71838 34 35 32
0.237569 0.421617 1.67988 35 36 33
0.250028 0.42788 1.70483 34 36 33
0.258957 0.42788 1.70483 34 36 33
0.265561 0.424164 1.69003 33 35 32
0.276817 0.42788 1.70483 33 35 32
0.283265 0.424164 1.69003 34 36 33
0.299165 0.434398 1.7308 35 36 34
0.298679 0.420937 1.67717 36 37 35
0.310104 0.424551 1.69157 35 36 34
0.318964 0.424551 1.69157 33 35 32
0.330394 0.42788 1.70483 33 34 32
0.339324 0.42788 1.70483 34 35 33
0.3394 0.417002 1.66149 35 36 34
0.357183 0.42788 1.70483 34 36 34
0.350984 0.410199 1.63439 33 35 33
0.384162 0.438285 1.74629 33 35 33
0.387385 0.431683 1.71999 34 35 34
0.382913 0.417002 1.66149 34 35 33
0.40183 0.42788 1.70483 34 36 33
0.414411 0.431683 1.71999 33 35 33
0.426808 0.435137 1.73375 32 35 32
0.435889 0.435137 1.73375 33 35 33
0.44497 0.435137 1.73375 32 35 33
0.446478 0.42788 1.70483 32 35 33
0.448742 0.421617 1.67988 31 34 34
0.464337 0.42788 1.70483 30 34 34
0.477027 0.431279 1.71838 31 35 34
0.486027 0.431279 1.71838 31 35 34
0.491126 0.42788 1.70483 30 34 34
0.504028 0.431279 1.71838 32 35 35
0.517619 0.435137 1.73375 32 35 34
0.509511 0.420937 1.67717 32 35 34
0.546453 0.443805 1.76828 32 35 34
0.544862 0.435137 1.73375 33 36 34
0.544704 0.42788 1.70483 34 36 34
0.57651 0.44556 1.77528 34 36 34
0.582048 0.4427 1.76388 32 36 34
0.571492 0.42788 1.70483 31 35 34
0.604406 0.44556 1.77528 30 35 34
0.617295 0.448167 1.78567 32 36 35
0.612831 0.438285 1.74629 33 37 36
0.623772 0.43955 1.75133 33 37 36
0.632945 0.43955 1.75133 35 38 37
0.637029 0.436066 1.73745 36 40 39
0.644753 0.435137 1.73375 37 40 40
0.653834 0.435137 1.73375 37 40 39
0.698765 0.458669 1.82751 35 38 37
0.708337 0.458669 1.82751 34 37 37
0.692915 0.4427 1.76388 34 38 37
0.714607 0.450552 1.79517 34 37 37
0.719505 0.447749 1.784 33 37 37
0.715503 0.43955 1.75133 32 37 37
0.724676 0.43955 1.75133 31 36 36
0.742342 0.444637 1.7716 31 36 37
0.751621 0.444637 1.7716 32 37 37
0.739613 0.432197 1.72203 32 37 38
0.792451 0.457494 1.82283 32 37 38
0.773371 0.441164 1.75776 31 36 37
0.775666 0.437268 1.74224 32 37 38
0.791785 0.441164 1.75776 34 38 38
0.804859 0.443294 1.76625 34 37 38
0.85991 0.468232 1.86561 34 38 38
0.836842 0.450552 1.79517 34 38 38
0.846245 0.450552 1.79517 34 37 38
0.830419 0.437268 1.74224 33 36 37
0.888602 0.462818 1.84404 34 37 37
0.903898 0.465723 1.85562 33 37 38
0.907919 0.462818 1.84404 32 37 37
0.942866 0.475573 1.89486 37 41 42
0.927237 0.462818 1.84404 40 44 44
0.930015 0.459419 1.8305 41 44 44
0.946554 0.462818 1.84404 38 42 42
0.94919 0.459419 1.8305 36 41 41
0.971933 0.465723 1.85562 36 39 40
0.984391 0.467022 1.86079 35 38 39
0.977953 0.459419 1.8305 34 38 38
0.978885 0.455392 1.81445 34 38 39
0.944427 0.435137 1.73375 35 38 39
0.953508 0.435137 1.73375 35 39 38
1.04064 0.470421 1.87433 35 38 38
1.03348 0.462818 1.84404 35 39 39
1.01549 0.450552 1.79517 35 38 39
1.14184 0.501961 2 35 38 39
1.06246 0.462818 1.84404 35 38 39
1.07212 0.462818 1.84404 34 38 39
1.08178 0.462818 1.84404 34 39 39
1.13689 0.482091 1.92083 34 39 39
1.30001 0.546427 2.17717 34 39 39
1.08131 0.450552 1.79517 34 39 39
1.21517 0.501961 2 34 39 39
1.10012 0.450552 1.79517 34 39 39
1.3011 0.528348 2.10514 35 39 39
1.2466 0.501961 2 35 39 39
-0.672814 0.274258 1.07045 35 36 32
-0.694664 0.285545 1.1145 35 36 32
-0.722822 0.299637 1.1695 35 36 32
-0.793707 0.331834 1.29517 35 36 32
-0.683937 0.288406 1.12567 35 36 32
-0.71411 0.303748 1.18555 35 36 34
-0.707901 0.303748 1.18555 35 37 34
-0.701691 0.303748 1.18555 34 37 34
-0.776015 0.338921 1.32283 34 37 34
-0.700484 0.308689 1.20483 34 36 34
-0.683062 0.303748 1.18555 34 36 33
-0.687863 0.308689 1.20483 35 37 34
-0.565682 0.256209 1 36 38 35
-0.684882 0.313096 1.22203 36 37 34
-0.658223 0.303748 1.18555 37 37 34
-0.745546 0.347321 1.35562 36 36 34
-0.669148 0.314727 1.2284 36 36 33
-0.698734 0.331834 1.29517 36 37 33
-0.745213 0.357377 1.39486 35 37 34
-0.685166 0.331834 1.29517 36 38 34
-0.710044 0.347321 1.35562 36 38 34
-0.702943 0.347321 1.35562 36 38 34
-0.695843 0.347321 1.35562 36 37 34
-0.675981 0.340886 1.3305 35 36 32
-0.651247 0.331834 1.29517 34 36 31
-0.746386 0.384314 1.5 36 37 34
-0.686765 0.357377 1.39486 37 38 35
-0.730673 0.384314 1.5 35 36 33
-0.722816 0.384314 1.5 34 35 32
-0.671902 0.361169 1.40967 35 36 32
-0.679895 0.369526 1.44228 36 37 34
-0.726151 0.399101 1.55772 37 38 35
-0.713917 0.396836 1.54887 37 38 35
-0.749327 0.421306 1.64438 35 36 33
-0.752028 0.427742 1.6695 35 35 32
-0.732101 0.421306 1.64438 35 36 32
-0.690957 0.402363 1.57045 35 36 32
-0.725794 0.427742 1.6695 34 35 31
-0.760901 0.4539 1.7716 34 35 31
-0.735563 0.444203 1.73375 34 36 32
-0.760299 0.464879 1.81445 35 37 34
-0.680423 0.421306 1.64438 36 37 34
-0.70832 0.444203 1.73375 36 37 34
-0.687577 0.436794 1.70483 36 37 34
-0.734062 0.47246 1.84404 36 37 34
-0.705204 0.459938 1.79517 36 36 34
-0.668496 0.441889 1.72472 36 36 34
-0.682128 0.457077 1.784 36 37 34
-0.673413 0.457504 1.78567 37 37 35
-0.639635 0.440677 1.71999 36 37 34
-0.64672 0.451923 1.76388 35 36 33
-0.644752 0.457077 1.784 36 37 33
-0.612034 0.440264 1.71838 36 37 34
-0.614599 0.448707 1.75133 35 36 32
-0.594033 0.440264 1.71838 34 35 30
-0.604406 0.454843 1.77528 35 36 31
-0.581186 0.444203 1.73375 35 36 32
-0.576244 0.447416 1.74629 35 36 32
-0.567097 0.447416 1.74629 35 36 32
-0.556655 0.446377 1.74224 36 37 34
-0.548803 0.447416 1.74629 37 37 35
-0.535781 0.444203 1.73375 37 37 35
-0.517915 0.436794 1.70483 37 38 36
-0.500727 0.429707 1.67717 36 36 34
-0.517376 0.451923 1.76388 35 36 33
-0.499457 0.444203 1.73375 36 36 33
-0.47342 0.428844 1.6738 36 37 34
-0.484776 0.447416 1.74629 36 37 34
-0.461066 0.433717 1.69282 36 37 34
-0.466483 0.447416 1.74629 36 36 34
-0.46034 0.450355 1.75776 36 36 34
-0.441025 0.440264 1.71838 35 35 32
-0.435889 0.444203 1.73375 35 34 31
-0.43272 0.450355 1.75776 35 35 32
-0.427733 0.454843 1.77528 36 35 32
-0.40183 0.436794 1.70483 36 36 33
-0.389845 0.433396 1.69157 37 36 34
-0.37421 0.42569 1.66149 37 37 34
-0.38327 0.446377 1.74224 38 37 34
-0.375016 0.447416 1.74629 37 37 34
-0.36002 0.440264 1.71838 37 37 34
-0.345229 0.433001 1.69003 36 36 33
-0.34234 0.440677 1.71999 36 36 33
-0.321995 0.42569 1.66149 35 36 32
-0.321464 0.436794 1.70483 35 36 32
-0.312535 0.436794 1.70483 36 36 33
-0.306669 0.441201 1.72203 36 37 33
-0.299674 0.444203 1.73375 36 36 32
-0.288286 0.440677 1.71999 36 36 32
-0.279277 0.440677 1.71999 37 37 33
-0.26177 0.42682 1.6659 37 37 33
-0.256943 0.433396 1.69157 36 36 33
-0.252014 0.440264 1.71838 36 37 34
-0.237186 0.429707 1.67717 36 37 34
-0.228402 0.429707 1.67717 36 37 34
-0.223239 0.436794 1.70483 35 37 34
-0.21431 0.436794 1.70483 35 37 34
-0.213867 0.454843 1.77528 35 36 34
-0.187328 0.41651 1.62567 35 37 35
-0.186062 0.433396 1.69157 35 36 34
-0.177202 0.433396 1.69157 36 37 35
-0.169662 0.436794 1.70483 35 37 35
-0.163459 0.444203 1.73375 35 36 34
-0.156516 0.450355 1.75776 35 36 34
-0.141762 0.433396 1.69157 35 36 35
-0.130885 0.42682 1.6659 35 36 34
-0.117964 0.412162 1.60869 35 36 34
-0.114385 0.430401 1.67988 35 36 34
-0.107155 0.436794 1.70483 35 36 33
-0.0951111 0.422946 1.65078 36 36 34
-0.0861295 0.421306 1.64438 36 37 34
-0.077375 0.420537 1.64138 36 37 35
-0.0696205 0.42569 1.66149 35 37 34
-0.0599241 0.418745 1.63439 35 36 34
-0.0531606 0.433396 1.69157 35 37 34
-0.0454051 0.444203 1.73375 36 37 35
-0.0349027 0.42682 1.6659 36 38 35
-0.026177 0.42682 1.6659 36 37 34
-0.0170298 0.41651 1.62567 36 36 33
-0.00879887 0.430401 1.67988 35 36 33
0 0.433717 1.69282 36 36 33
0.00879887 0.430401 1.67988 35 36 32
0.0181312 0.443448 1.7308 35 36 32
0.0267887 0.436794 1.70483 34 36 32
0.0357183 0.436794 1.70483 34 36 32
0.0439943 0.430401 1.67988 35 36 32
0.0518788 0.422946 1.65078 34 36 31
0.0620207 0.433396 1.69157 35 36 31
0.0708163 0.433001 1.69003 35 36 31
0.0770452 0.418745 1.63439 36 37 32
0.0892957 0.436794 1.70483 36 37 33
0.0959824 0.42682 1.6659 35 36 32
0.102179 0.41651 1.62567 34 35 31
0.118053 0.444203 1.73375 34 35 32
0.126125 0.440677 1.71999 34 35 32
0.132902 0.433396 1.69157 34 35 32
0.145049 0.443448 1.7308 35 36 34
0.148336 0.42682 1.6659 35 36 33
0.157062 0.42682 1.6659 34 35 32
0.17254 0.444203 1.73375 34 35 32
0.18001 0.440264 1.71838 34 35 32
0.185893 0.433001 1.69003 35 36 33
0.190222 0.422946 1.65078 35 36 34
0.20069 0.42682 1.6659 34 35 31
0.208166 0.424272 1.65596 33 34 30
0.218142 0.42682 1.6659 34 35 32
0.222575 0.418745 1.63439 34 35 33
0.243014 0.440264 1.71838 35 36 33
0.248083 0.433396 1.69157 35 36 34
0.253044 0.42682 1.6659 34 36 34
0.272431 0.444203 1.73375 34 36 33
0.281512 0.444203 1.73375 34 35 32
0.290099 0.443448 1.7308 34 36 33
0.292384 0.433396 1.69157 34 36 34
0.298679 0.429707 1.67717 34 36 34
0.312535 0.436794 1.70483 35 36 34
0.324018 0.440264 1.71838 35 36 34
0.325033 0.429707 1.67717 34 35 34
0.325302 0.418745 1.63439 34 35 33
0.348253 0.436794 1.70483 34 35 34
0.350681 0.428844 1.6738 34 36 34
0.371689 0.443448 1.7308 34 36 34
0.361744 0.421306 1.64438 34 36 34
0.394444 0.448707 1.75133 34 36 34
0.41372 0.459938 1.79517 33 35 33
0.40183 0.436794 1.70483 33 36 33
0.393787 0.418745 1.63439 33 36 33
0.42342 0.440677 1.71999 32 35 33
0.432024 0.440264 1.71838 32 35 32
0.430449 0.429707 1.67717 31 35 32
0.450025 0.440264 1.71838 31 34 32
0.459026 0.440264 1.71838 30 34 33
0.460726 0.433396 1.69157 30 34 34
0.469158 0.433001 1.69003 31 34 35
0.490376 0.444203 1.73375 31 35 35
0.491126 0.436794 1.70483 31 35 35
0.495714 0.433001 1.69003 32 36 35
0.500727 0.429707 1.67717 33 37 35
0.539316 0.454843 1.77528 33 37 35
0.541214 0.448707 1.75133 33 36 35
0.557913 0.454843 1.77528 33 36 35
0.583899 0.468225 1.82751 34 36 34
0.553633 0.436794 1.70483 34 36 34
0.577906 0.448707 1.75133 33 36 34
0.576032 0.440264 1.71838 32 36 35
0.585581 0.440677 1.71999 32 36 35
0.620579 0.459938 1.79517 33 36 36
0.626063 0.457077 1.784 33 36 36
0.642984 0.462527 1.80527 31 35 35
0.648788 0.459938 1.79517 34 38 37
0.64672 0.451923 1.76388 36 39 39
0.671351 0.462527 1.80527 36 40 39
0.642929 0.436794 1.70483 36 39 39
0.66433 0.445151 1.73745 34 38 37
0.691473 0.457077 1.784 32 36 36
0.705204 0.459938 1.79517 33 37 37
0.685495 0.441201 1.72203 34 38 38
0.687577 0.436794 1.70483 34 38 38
0.738319 0.463015 1.80718 34 37 38
0.718933 0.445151 1.73745 32 37 37
0.742342 0.4539 1.7716 32 36 37
0.755874 0.456468 1.78162 32 36 37
0.776181 0.463015 1.80718 32 37 38
0.764164 0.450355 1.75776 31 36 37
0.741598 0.431853 1.68555 30 36 37
0.793202 0.456468 1.78162 33 37 38
0.798018 0.4539 1.7716 35 39 39
0.835776 0.469912 1.8341 35 39 39
0.834262 0.463731 1.80997 35 38 38
0.828823 0.455531 1.77797 33 37 37
0.846245 0.459938 1.79517 31 36 36
0.841864 0.452529 1.76625 32 36 36
0.888602 0.47246 1.84404 33 36 37
0.851803 0.448025 1.74867 32 37 37
0.869618 0.452529 1.76625 32 36 37
0.870121 0.448025 1.74867 36 40 40
0.933056 0.475426 1.85562 38 42 42
0.95796 0.483083 1.8855 38 43 42
0.902266 0.450355 1.75776 36 41 40
0.94919 0.468991 1.8305 35 40 39
0.908103 0.444203 1.73375 35 39 39
0.997463 0.483083 1.8855 34 38 38
0.977953 0.468991 1.8305 34 38 38
1.04785 0.497631 1.94228 35 38 39
1.02101 0.480222 1.87433 35 39 39
0.974324 0.4539 1.7716 35 39 38
1.07518 0.496162 1.93655 33 37 37
1.08141 0.494369 1.92955 33 37 37
1.05262 0.476752 1.86079 34 38 38
1.14184 0.512418 2 35 39 39
1.09174 0.485481 1.89486 35 39 39
1.08186 0.476752 1.86079 35 39 40
1.0531 0.459938 1.79517 35 39 40
1.07888 0.467025 1.82283 35 40 40
1.19422 0.512418 2 35 40 40
1.20469 0.512418 2 34 39 39
1.21517 0.512418 2 34 39 39
1.281 0.535563 2.09033 34 39 38
1.23612 0.512418 2 34 38 38
1.2466 0.512418 2 35 39 39
-0.707521 0.294292 1.12567 34 36 32
-0.662847 0.278026 1.06345 35 36 32
-0.732739 0.309947 1.18555 35 36 31
-0.651706 0.278026 1.06345 34 36 31
-0.639743 0.275276 1.05293 35 36 33
-0.671314 0.291372 1.1145 36 37 34
-0.672145 0.294292 1.12567 35 37 35
-0.713105 0.314989 1.20483 35 37 35
-0.742824 0.331046 1.26625 35 37 35
-0.689272 0.309947 1.18555 35 37 35
-0.683062 0.309947 1.18555 35 37 34
-0.755229 0.345838 1.32283 36 38 35
-0.64443 0.297832 1.13921 36 38 35
-0.64785 0.302211 1.15596 36 37 33
-0.734443 0.345838 1.32283 36 36 32
-0.745546 0.354409 1.35562 34 35 31
-0.676685 0.324768 1.24224 35 35 31
-0.713657 0.345838 1.32283 36 37 33
-0.724245 0.354409 1.35562 35 37 34
-0.665378 0.328827 1.25776 36 38 34
-0.710044 0.354409 1.35562 36 38 34
-0.702943 0.354409 1.35562 37 38 35
-0.695843 0.354409 1.35562 36 38 34
-0.716203 0.36854 1.40967 36 37 33
-0.754243 0.392157 1.5 35 37 33
-0.683856 0.359303 1.37433 36 37 33
-0.686765 0.36467 1.39486 36 38 34
-0.730673 0.392157 1.5 36 37 34
-0.722816 0.392157 1.5 36 37 34
-0.738255 0.404935 1.54887 35 36 33
-0.679895 0.377068 1.44228 35 37 33
-0.672341 0.377068 1.44228 36 37 34
-0.75794 0.429904 1.64438 36 37 34
-0.683532 0.392157 1.5 35 36 33
-0.701674 0.407246 1.55772 35 36 33
-0.732101 0.429904 1.64438 36 37 34
-0.750084 0.445708 1.70483 35 36 33
-0.729128 0.438476 1.67717 34 35 31
-0.689405 0.419644 1.60514 34 35 31
-0.660879 0.407246 1.55772 34 36 32
-0.726482 0.453268 1.73375 36 37 34
-0.763038 0.482102 1.84404 37 38 35
-0.696506 0.445708 1.70483 36 37 34
-0.731787 0.474367 1.81445 36 37 34
-0.667636 0.438476 1.67717 36 37 34
-0.69051 0.459546 1.75776 36 37 34
-0.681303 0.459546 1.75776 36 37 34
-0.682766 0.466841 1.78567 36 36 34
-0.648036 0.449249 1.71838 36 37 34
-0.639036 0.449249 1.71838 37 37 34
-0.638784 0.455487 1.74224 36 37 34
-0.645354 0.466841 1.78567 35 36 33
-0.626062 0.459546 1.75776 35 36 32
-0.612831 0.456547 1.74629 34 35 31
-0.609765 0.461146 1.76388 34 35 30
-0.585033 0.449249 1.71838 35 36 31
-0.571492 0.445708 1.70483 36 37 33
-0.576244 0.456547 1.74629 36 37 33
-0.558031 0.449249 1.71838 36 37 33
-0.549546 0.44967 1.71999 36 37 34
-0.548803 0.456547 1.74629 36 37 34
-0.535781 0.453268 1.73375 36 36 34
-0.5267 0.453268 1.73375 35 36 33
-0.527929 0.462296 1.76828 35 35 32
-0.495714 0.441838 1.69003 35 36 32
-0.495028 0.449249 1.71838 36 36 33
-0.47801 0.441838 1.69003 36 36 34
-0.464653 0.437595 1.6738 36 36 33
-0.460726 0.442241 1.69157 35 35 32
-0.472357 0.462296 1.76828 34 35 31
-0.446478 0.445708 1.70483 34 35 31
-0.434145 0.442241 1.69157 34 34 31
-0.432024 0.449249 1.71838 35 35 32
-0.416046 0.441838 1.69003 36 36 33
-0.423513 0.459546 1.75776 36 35 33
-0.398705 0.442241 1.69157 36 36 33
-0.376666 0.42729 1.63439 37 36 34
-0.387022 0.449249 1.71838 37 37 34
-0.380755 0.452497 1.7308 38 37 34
-0.353131 0.429904 1.64438 37 37 33
-0.349027 0.435531 1.6659 36 36 33
-0.356722 0.456547 1.74629 36 36 32
-0.345079 0.453268 1.73375 35 36 32
-0.327525 0.441838 1.69003 35 35 32
-0.318673 0.441838 1.69003 35 36 32
-0.309821 0.441838 1.69003 35 36 33
-0.29284 0.429904 1.64438 36 37 33
-0.294676 0.445708 1.70483 37 37 33
-0.29354 0.457865 1.75133 37 37 33
-0.261206 0.420573 1.60869 37 38 34
-0.258389 0.429904 1.64438 37 37 34
-0.261015 0.449249 1.71838 36 36 33
-0.250028 0.445708 1.70483 36 37 34
-0.235593 0.435531 1.6659 36 37 34
-0.228402 0.438476 1.67717 35 37 34
-0.223239 0.445708 1.70483 35 37 34
-0.210832 0.438476 1.67717 35 37 34
-0.203597 0.441838 1.69003 35 37 35
-0.198011 0.449249 1.71838 35 37 35
-0.181576 0.431577 1.65078 35 36 35
-0.18001 0.449249 1.71838 36 38 36
-0.169662 0.445708 1.70483 35 36 34
-0.160732 0.445708 1.70483 34 35 33
-0.150485 0.441838 1.69003 33 34 32
-0.144008 0.449249 1.71838 35 36 34
-0.135008 0.449249 1.71838 35 36 34
-0.125014 0.445708 1.70483 35 36 34
-0.113434 0.435531 1.6659 35 36 34
-0.102179 0.425011 1.62567 35 36 34
-0.0990055 0.449249 1.71838 35 35 33
-0.0870257 0.434377 1.66149 35 36 34
-0.0778182 0.431577 1.65078 36 36 35
-0.0708163 0.441838 1.69003 35 36 34
-0.0619642 0.441838 1.69003 35 36 34
-0.054003 0.449249 1.71838 35 37 34
-0.0457336 0.456547 1.74629 35 37 34
-0.0351387 0.438476 1.67717 36 38 35
-0.025661 0.426946 1.63307 36 37 35
-0.0175694 0.438476 1.67717 36 37 34
-0.00899368 0.448908 1.71707 36 37 34
0 0.442241 1.69157 36 36 34
0.00851491 0.425011 1.62567 35 36 32
0.0173471 0.43293 1.65596 34 36 32
0.026354 0.438476 1.67717 34 36 32
0.036002 0.449249 1.71838 34 36 32
0.0432323 0.431577 1.65078 35 36 32
0.0531122 0.441838 1.69003 35 36 32
0.0613693 0.437595 1.6738 35 37 32
0.0731738 0.456547 1.74629 35 37 32
0.0803661 0.445708 1.70483 36 37 33
0.0886011 0.442241 1.69157 36 37 33
0.0959824 0.435531 1.6659 35 36 32
0.103758 0.431577 1.65078 34 35 31
0.115181 0.442241 1.69157 34 35 31
0.12105 0.431577 1.65078 34 35 31
0.135008 0.449249 1.71838 35 36 33
0.138343 0.431577 1.65078 35 36 34
0.14553 0.42729 1.63439 35 36 34
0.160732 0.445708 1.70483 34 35 33
0.169662 0.445708 1.70483 34 35 32
0.171212 0.42729 1.63439 34 35 32
0.180872 0.429904 1.64438 34 35 31
0.201228 0.456547 1.74629 33 34 31
0.202048 0.438476 1.67717 33 34 30
0.208862 0.434377 1.66149 34 35 31
0.221503 0.442241 1.69157 35 36 33
0.228402 0.438476 1.67717 35 36 33
0.237569 0.439184 1.67988 35 36 33
0.239696 0.42729 1.63439 35 36 33
0.256943 0.442241 1.69157 35 36 34
0.270015 0.449249 1.71838 34 36 33
0.279277 0.44967 1.71999 34 36 33
0.288016 0.449249 1.71838 34 36 33
0.31029 0.469325 1.79517 34 35 33
0.306017 0.449249 1.71838 34 36 34
0.32336 0.461146 1.76388 35 36 34
0.318673 0.441838 1.69003 35 36 34
0.321995 0.434377 1.66149 35 36 34
0.348578 0.457865 1.75133 34 35 33
0.35416 0.453268 1.73375 33 35 32
0.371171 0.463163 1.7716 33 35 33
0.350984 0.42729 1.63439 34 35 34
0.378376 0.44967 1.71999 34 36 34
0.387385 0.44967 1.71999 34 36 34
0.411146 0.466405 1.784 33 36 33
0.391615 0.434377 1.66149 33 36 34
0.417727 0.453268 1.73375 33 36 34
0.410106 0.435531 1.6659 33 35 33
0.435889 0.453268 1.73375 32 35 33
0.44497 0.453268 1.73375 31 35 32
0.450025 0.449249 1.71838 30 34 32
0.448019 0.438476 1.67717 29 33 33
0.460306 0.441838 1.69003 30 34 34
0.481295 0.453268 1.73375 30 34 34
0.486027 0.449249 1.71838 30 34 34
0.52006 0.471966 1.80527 31 36 35
0.513695 0.457865 1.75133 33 37 36
0.522868 0.457865 1.75133 35 39 37
0.535854 0.461146 1.76388 35 39 37
0.535781 0.453268 1.73375 34 38 36
0.554332 0.461146 1.76388 33 36 34
0.556655 0.455487 1.74224 34 36 35
0.572809 0.461146 1.76388 34 36 35
0.562563 0.445708 1.70483 34 37 35
0.582427 0.454236 1.73745 33 36 35
0.590267 0.453268 1.73375 32 36 35
0.609765 0.461146 1.76388 34 36 36
0.619004 0.461146 1.76388 34 37 36
0.623772 0.457865 1.75133 32 36 35
0.644752 0.466405 1.784 33 36 36
0.64672 0.461146 1.76388 34 37 36
0.655959 0.461146 1.76388 36 39 38
0.653834 0.453268 1.73375 37 40 39
0.677387 0.463163 1.7716 35 38 37
0.691473 0.466405 1.784 32 36 36
0.687984 0.457865 1.75133 33 37 37
0.699717 0.459546 1.75776 34 38 38
0.687577 0.445708 1.70483 35 38 39
0.72885 0.466405 1.784 34 38 39
0.727337 0.459546 1.75776 33 37 38
0.720715 0.44967 1.71999 32 37 37
0.755874 0.465784 1.78162 31 36 37
0.754957 0.459546 1.75776 31 36 37
0.830202 0.499259 1.90967 31 36 37
0.801999 0.476557 1.82283 31 36 37
0.811546 0.476557 1.82283 34 38 39
0.791785 0.459546 1.75776 35 39 40
0.845582 0.485128 1.85562 37 40 41
0.806007 0.457168 1.74867 36 39 40
0.843742 0.473195 1.80997 34 37 37
0.846245 0.469325 1.79517 32 36 36
0.884459 0.485128 1.85562 32 36 36
0.894179 0.485128 1.85562 32 36 37
0.881663 0.473195 1.80997 32 37 37
0.883856 0.469325 1.79517 33 37 38
0.910839 0.478562 1.8305 34 38 39
0.910104 0.473195 1.80997 36 40 40
0.930015 0.478562 1.8305 37 41 41
0.939602 0.478562 1.8305 36 40 40
0.956213 0.482102 1.84404 35 39 39
0.958778 0.478562 1.8305 34 38 38
0.929887 0.459546 1.75776 32 37 37
0.959077 0.469325 1.79517 33 37 38
0.978885 0.474367 1.81445 35 38 39
1.05802 0.507787 1.94228 35 39 39
0.974324 0.463163 1.7716 36 40 39
1.03312 0.486481 1.86079 34 38 38
1.12089 0.522876 2 32 37 37
1.03114 0.476557 1.82283 34 38 38
1.01144 0.463163 1.7716 35 39 39
1.05024 0.476557 1.82283 35 39 39
1.16279 0.522876 2 36 40 40
1.12682 0.502179 1.92083 36 40 40
1.13028 0.499259 1.90967 35 40 40
1.24816 0.546493 2.09033 34 40 40
1.129 0.490022 1.87433 34 40 39
1.00613 0.43293 1.65596 34 40 40
1.22564 0.522876 2 35 40 39
1.33251 0.563649 2.15596 35 39 39
1.3438 0.563649 2.15596 35 38 39
-0.726561 0.308256 1.15596 37 38 35
-0.694664 0.2972 1.1145 37 38 35
-0.704099 0.303789 1.13921 37 38 35
-0.708397 0.308256 1.15596 36 38 34
-0.742489 0.325876 1.22203 37 37 34
-0.725727 0.321289 1.20483 35 37 34
-0.719416 0.321289 1.20483 34 37 34
-0.674265 0.303789 1.13921 35 37 35
-0.759788 0.345378 1.29517 36 38 35
-0.722231 0.331263 1.24224 35 37 35
-0.648561 0.300178 1.12567 35 37 35
-0.687863 0.321289 1.20483 36 38 35
-0.732653 0.345378 1.29517 36 38 35
-0.709662 0.337667 1.26625 36 37 34
-0.719085 0.345378 1.29517 36 36 32
-0.801646 0.388699 1.45762 34 35 31
-0.676685 0.331263 1.24224 35 35 31
-0.752519 0.371963 1.39486 35 36 32
-0.69195 0.345378 1.29517 35 37 33
-0.649845 0.327573 1.2284 35 37 34
-0.738354 0.375911 1.40967 36 38 34
-0.747885 0.384609 1.44228 36 37 34
-0.74033 0.384609 1.44228 35 37 32
-0.675981 0.3548 1.3305 35 36 32
