ply
format ascii 1.0
element vertex 1323
property float x
property float y
property float z
property uchar red
property uchar green
property uchar blue
end_header
0.516739 -0.371048 1.7308 37 38 35
0.539316 -0.380583 1.77528 37 38 35
0.543201 -0.376827 1.75776 37 38 35
0.561177 -0.382809 1.78567 37 38 35
0.539974 -0.362307 1.69003 36 38 34
0.567097 -0.374369 1.74629 36 37 34
0.592371 -0.384846 1.79517 36 38 34
0.595107 -0.380583 1.77528 37 39 35
0.585033 -0.368384 1.71838 36 38 35
0.609765 -0.37814 1.76388 36 38 35
0.608429 -0.37168 1.73375 36 38 35
0.61751 -0.37168 1.73375 36 38 35
0.621035 -0.368384 1.71838 36 38 35
0.640271 -0.374369 1.74629 36 38 36
0.667593 -0.384846 1.79517 36 38 36
0.676996 -0.384846 1.79517 36 38 36
0.678794 -0.380583 1.77528 36 38 35
0.683676 -0.37814 1.76388 36 38 35
0.705204 -0.384846 1.79517 38 39 37
0.714607 -0.384846 1.79517 38 39 36
0.731787 -0.388981 1.81445 37 38 35
0.733412 -0.384846 1.79517 35 37 33
0.705436 -0.365481 1.70483 36 38 34
0.739109 -0.37814 1.76388 38 39 35
0.76162 -0.384846 1.79517 37 39 35
0.776181 -0.387421 1.80718 36 38 34
0.761369 -0.375449 1.75133 36 38 34
0.779459 -0.379794 1.7716 35 37 34
0.804578 -0.387421 1.80718 36 37 35
0.803603 -0.382452 1.784 36 38 35
0.811865 -0.381943 1.78162 35 37 35
0.803043 -0.373499 1.74224 35 37 34
0.854989 -0.393192 1.8341 36 38 34
0.859285 -0.390776 1.82283 36 38 35
0.855647 -0.384846 1.79517 36 38 34
0.858524 -0.381943 1.78162 35 37 33
0.851803 -0.374878 1.74867 35 38 34
0.891144 -0.38802 1.80997 36 38 35
0.870121 -0.374878 1.74867 35 38 34
0.910104 -0.38802 1.80997 34 37 34
0.936895 -0.395324 1.84404 35 38 34
0.912637 -0.381159 1.77797 35 38 35
0.921949 -0.381159 1.77797 35 38 35
0.965871 -0.395324 1.84404 35 38 35
1.00242 -0.406219 1.89486 35 38 35
0.969381 -0.388981 1.81445 35 38 35
0.987541 -0.392421 1.8305 36 39 35
1.00451 -0.395324 1.84404 36 39 35
1.0682 -0.416385 1.94228 35 38 35
0.996688 -0.384846 1.79517 35 38 35
1.05046 -0.401818 1.87433 36 38 35
1.08658 -0.411786 1.92083 36 37 34
1.14184 -0.428758 2 36 37 34
1.0038 -0.373499 1.74224 36 36 34
1.12183 -0.413656 1.92955 36 38 35
1.0531 -0.384846 1.79517 36 38 36
1.13689 -0.411786 1.92083 37 39 37
1.14028 -0.409392 1.90967 37 38 37
1.08131 -0.384846 1.79517 36 38 36
1.16028 -0.409392 1.90967 35 37 35
1.14863 -0.401818 1.87433 34 36 35
1.18029 -0.409392 1.90967 34 36 34
1.16827 -0.401818 1.87433 35 37 35
-0.488979 -0.162712 0.777965 36 37 35
-0.538358 -0.180648 0.863725 36 37 35
-0.517654 -0.175173 0.837546 36 38 36
-0.496367 -0.169405 0.80997 37 38 36
-0.516475 -0.177788 0.850047 37 37 35
-0.543811 -0.188825 0.90282 37 37 35
-0.524888 -0.183854 0.87905 37 37 35
-0.514479 -0.181802 0.869241 37 37 35
-0.540191 -0.192593 0.920833 37 36 35
-0.511075 -0.183854 0.87905 37 36 35
-0.532352 -0.193248 0.923969 37 36 35
-0.510895 -0.187161 0.894863 37 37 35
-0.522673 -0.193248 0.923969 37 37 35
-0.490015 -0.182867 0.874334 37 37 35
-0.529072 -0.199305 0.952929 38 38 35
-0.511225 -0.194416 0.929553 37 37 35
-0.530867 -0.203827 0.974549 36 37 34
-0.487065 -0.188825 0.90282 36 37 34
-0.480294 -0.188026 0.898997 37 37 34
-0.488796 -0.193248 0.923969 37 37 34
-0.472879 -0.188825 0.90282 36 36 33
-0.504795 -0.203606 0.973489 36 36 33
-0.486135 -0.19808 0.947071 36 36 34
-0.469438 -0.193248 0.923969 37 37 34
-0.477274 -0.198521 0.949179 36 37 34
-0.497591 -0.20915 1 36 37 34
-0.504884 -0.214473 1.02545 36 37 35
-0.487115 -0.20915 1 37 37 35
-0.495812 -0.215198 1.02892 37 37 35
-0.476639 -0.20915 1 38 38 35
-0.484441 -0.214936 1.02766 38 37 35
-0.478522 -0.214695 1.02651 38 37 34
-0.475586 -0.215802 1.0318 37 37 34
-0.484602 -0.222421 1.06345 37 36 34
-0.464096 -0.215486 1.03029 37 37 34
-0.473462 -0.222421 1.06345 37 36 34
-0.467892 -0.222421 1.06345 38 37 35
-0.447906 -0.215486 1.03029 38 38 35
-0.47021 -0.228975 1.09479 38 37 35
-0.466559 -0.230002 1.0997 38 37 35
-0.460799 -0.230002 1.0997 38 37 35
-0.455039 -0.230002 1.0997 37 36 35
-0.465422 -0.238266 1.13921 37 36 35
-0.469379 -0.243413 1.16382 37 36 35
-0.470564 -0.247238 1.18211 36 36 34
-0.447521 -0.238266 1.13921 37 37 35
-0.436305 -0.235433 1.12567 37 37 35
-0.430409 -0.235433 1.12567 37 37 34
-0.435937 -0.241769 1.15596 37 37 35
-0.469521 -0.264062 1.26255 37 37 35
-0.441747 -0.251991 1.20483 37 37 35
-0.435436 -0.251991 1.20483 37 37 35
-0.445687 -0.261716 1.25133 37 37 35
-0.471668 -0.281107 1.34404 37 37 35
-0.447732 -0.270885 1.29517 37 37 35
-0.467901 -0.287442 1.37433 37 37 35
-0.450548 -0.281107 1.34404 37 38 35
-0.443508 -0.281107 1.34404 37 37 35
-0.412943 -0.265955 1.2716 37 37 35
-0.413813 -0.270885 1.29517 37 37 35
-0.471402 -0.313726 1.5 37 37 35
-0.42471 -0.287442 1.37433 37 38 35
-0.442814 -0.304862 1.45762 36 37 34
-0.435179 -0.304862 1.45762 37 37 35
-0.413478 -0.294832 1.40967 38 38 35
-0.432118 -0.313726 1.5 37 38 35
-0.436248 -0.322589 1.54238 37 37 34
-0.387218 -0.291736 1.39486 38 39 36
-0.408548 -0.313726 1.5 39 39 36
-0.400691 -0.313726 1.5 38 39 36
-0.403933 -0.322589 1.54238 37 37 35
-0.405296 -0.330283 1.57917 36 37 34
-0.438023 -0.36439 1.74224 36 37 35
-0.410992 -0.349177 1.6695 37 38 35
-0.41076 -0.356566 1.70483 37 38 36
-0.40183 -0.356566 1.70483 37 38 36
-0.392901 -0.356566 1.70483 36 37 35
-0.377741 -0.350781 1.67717 37 37 35
-0.375042 -0.356566 1.70483 37 38 35
-0.360172 -0.350781 1.67717 38 39 36
-0.352421 -0.351813 1.68211 38 39 36
-0.341036 -0.349177 1.6695 37 38 35
-0.336377 -0.35347 1.69003 36 37 34
-0.325033 -0.350781 1.67717 35 36 33
-0.324018 -0.359399 1.71838 36 37 34
-0.315018 -0.359399 1.71838 36 37 35
-0.29398 -0.345262 1.65078 36 37 35
-0.299165 -0.361998 1.7308 37 37 35
-0.292695 -0.365238 1.74629 37 37 35
-0.26804 -0.345262 1.65078 37 38 36
-0.259394 -0.345262 1.65078 37 38 36
-0.253044 -0.348424 1.6659 37 38 36
-0.245971 -0.350781 1.67717 37 38 36
-0.235593 -0.348424 1.6659 37 38 36
-0.234013 -0.359399 1.71838 37 38 36
-0.219617 -0.350781 1.67717 37 38 36
-0.21431 -0.356566 1.70483 37 38 35
-0.203782 -0.353793 1.69157 37 38 35
-0.199443 -0.361998 1.7308 37 38 35
-0.184478 -0.350781 1.67717 37 38 36
-0.175694 -0.350781 1.67717 37 38 36
-0.165349 -0.347502 1.66149 37 38 36
-0.156646 -0.347502 1.66149 37 38 35
-0.153901 -0.361496 1.7284 37 38 35
-0.147309 -0.367637 1.75776 37 38 35
-0.130538 -0.347502 1.66149 37 38 35
-0.126125 -0.359736 1.71999 37 38 35
-0.115076 -0.35347 1.69003 38 38 35
-0.108006 -0.359399 1.71838 37 38 35
-0.0973724 -0.35347 1.69003 37 38 35
-0.0872567 -0.348424 1.6659 35 36 33
-0.0817293 -0.362614 1.73375 34 34 30
-0.0731738 -0.365238 1.74629 35 36 32
-0.0614928 -0.350781 1.67717 37 37 34
-0.0552408 -0.367637 1.75776 37 38 34
-0.0443005 -0.353793 1.69157 37 38 34
-0.0348103 -0.347502 1.66149 37 38 34
-0.0263011 -0.350076 1.6738 36 37 34
-0.0177041 -0.35347 1.69003 37 37 34
-0.00892957 -0.356566 1.70483 37 38 34
0 -0.343924 1.64438 37 38 35
0.00900894 -0.359736 1.71999 38 39 36
0.0173471 -0.346344 1.65596 37 38 36
0.0261077 -0.347502 1.66149 37 37 35
0.0357183 -0.356566 1.70483 37 37 34
0.0443005 -0.353793 1.69157 39 39 36
0.0527081 -0.350781 1.67717 39 39 36
0.0599241 -0.341832 1.63439 39 39 36
0.0702774 -0.350781 1.67717 38 39 36
0.079741 -0.353793 1.69157 37 38 35
0.0892957 -0.356566 1.70483 37 37 34
0.0982252 -0.356566 1.70483 36 37 33
0.108972 -0.362614 1.73375 36 37 34
0.118907 -0.365238 1.74629 37 38 35
0.122986 -0.350781 1.67717 37 38 34
0.131983 -0.351347 1.67988 36 37 34
0.144143 -0.359736 1.71999 36 37 34
0.14553 -0.341832 1.63439 37 37 34
0.155033 -0.343924 1.64438 37 38 35
0.166909 -0.350781 1.67717 38 38 35
0.175694 -0.350781 1.67717 37 38 35
0.185893 -0.35347 1.69003 37 37 35
0.194745 -0.35347 1.69003 37 38 35
0.207206 -0.359736 1.71999 36 37 34
0.200777 -0.334051 1.59718 36 37 35
0.221301 -0.35347 1.69003 37 38 35
0.224808 -0.345262 1.65078 38 38 35
0.241098 -0.356566 1.70483 37 38 34
0.247571 -0.353063 1.68808 37 38 34
0.258957 -0.356566 1.70483 37 38 35
0.270015 -0.359399 1.71838 37 38 35
0.276817 -0.356566 1.70483 37 38 35
0.283265 -0.35347 1.69003 37 38 35
0.282499 -0.341832 1.63439 37 38 35
0.298079 -0.350076 1.6738 37 38 35
0.317296 -0.361998 1.7308 38 39 36
0.324322 -0.359736 1.71999 38 39 36
0.327525 -0.35347 1.69003 37 38 35
0.333818 -0.350781 1.67717 37 38 35
0.348253 -0.356566 1.70483 37 38 35
0.351387 -0.350781 1.67717 37 38 35
0.353131 -0.343924 1.64438 37 38 34
0.378376 -0.359736 1.71999 37 37 34
0.377741 -0.350781 1.67717 36 37 34
0.392901 -0.356566 1.70483 37 38 35
0.391615 -0.347502 1.66149 38 39 36
0.407565 -0.353793 1.69157 37 38 35
0.41288 -0.350781 1.67717 37 39 35
0.418832 -0.348424 1.6659 37 38 35
0.44497 -0.362614 1.73375 37 38 35
0.442602 -0.35347 1.69003 37 38 35
0.466483 -0.365238 1.74629 37 39 35
0.468465 -0.359736 1.71999 37 39 35
0.473267 -0.356566 1.70483 37 39 35
0.489542 -0.361998 1.7308 37 39 35
0.51142 -0.3713 1.77528 37 39 35
0.500056 -0.356566 1.70483 37 38 35
0.526615 -0.368917 1.76388 36 37 34
0.522519 -0.359736 1.71999 36 38 34
0.551309 -0.373124 1.784 36 38 35
0.535774 -0.356566 1.70483 37 38 34
0.57053 -0.373473 1.78567 36 38 34
0.57651 -0.3713 1.77528 36 38 34
0.5835 -0.369837 1.76828 36 38 34
0.591287 -0.368917 1.76388 37 39 35
0.600526 -0.368917 1.76388 36 38 35
0.613704 -0.3713 1.77528 36 38 35
0.619004 -0.368917 1.76388 37 39 35
0.632301 -0.3713 1.77528 36 38 35
0.626591 -0.362614 1.73375 36 37 35
0.630626 -0.359736 1.71999 36 38 35
0.66406 -0.373473 1.78567 36 38 36
0.653834 -0.362614 1.73375 36 38 35
0.669638 -0.366292 1.75133 36 38 35
0.670854 -0.361998 1.7308 36 38 35
0.71278 -0.379493 1.81445 38 39 37
0.697157 -0.366292 1.75133 37 39 36
0.737053 -0.382224 1.82751 37 38 35
0.72885 -0.373124 1.784 36 37 33
0.733063 -0.370531 1.7716 36 37 34
0.76577 -0.382224 1.82751 37 39 35
0.76162 -0.37546 1.79517 38 39 36
0.780784 -0.380213 1.81789 37 38 35
0.780426 -0.37546 1.79517 36 38 34
0.784915 -0.373124 1.784 36 38 35
0.794259 -0.373124 1.784 36 38 35
0.782636 -0.363389 1.73745 36 38 35
0.824782 -0.378556 1.80997 35 37 35
0.810198 -0.367637 1.75776 35 37 34
0.825856 -0.370531 1.7716 35 37 34
0.835135 -0.370531 1.7716 35 37 34
0.874202 -0.383602 1.8341 36 38 34
0.87838 -0.381245 1.82283 35 37 34
0.881663 -0.378556 1.80997 35 38 34
0.883856 -0.37546 1.79517 35 38 35
0.878869 -0.369412 1.76625 35 38 35
0.948084 -0.394353 1.8855 35 37 34
0.942775 -0.388103 1.85562 35 38 35
0.972641 -0.396311 1.89486 35 38 35
1.00716 -0.406229 1.94228 35 38 35
0.92068 -0.367637 1.75776 36 39 35
0.940575 -0.371862 1.77797 35 38 35
0.926265 -0.362614 1.73375 35 39 35
1.04475 -0.40503 1.93655 37 40 36
0.977883 -0.37546 1.79517 36 39 36
0.966714 -0.367637 1.75776 36 39 35
1.04064 -0.392018 1.87433 36 39 35
1.08141 -0.403567 1.92955 37 39 36
1.06028 -0.392018 1.87433 36 37 34
1.09664 -0.401743 1.92083 35 36 34
1.0343 -0.37546 1.79517 35 36 34
1.05491 -0.379493 1.81445 35 37 35
1.0531 -0.37546 1.79517 36 38 35
1.04856 -0.370531 1.7716 36 38 36
1.10109 -0.385682 1.84404 36 38 36
1.20469 -0.418301 2 36 38 36
1.16028 -0.399407 1.90967 35 38 36
1.22564 -0.418301 2 35 37 35
1.15845 -0.392018 1.87433 34 36 35
1.2466 -0.418301 2 34 36 35
-0.53051 -0.172118 0.844042 35 36 34
-0.529833 -0.173343 0.850047 36 37 35
-0.521668 -0.172118 0.844042 37 37 35
-0.548392 -0.182482 0.894863 37 37 35
-0.528137 -0.177257 0.869241 37 37 35
-0.541508 -0.183325 0.898997 36 36 34
-0.5412 -0.184828 0.906367 36 36 34
-0.546871 -0.188417 0.923969 37 36 34
-0.495143 -0.172118 0.844042 37 36 35
-0.508334 -0.178296 0.874334 37 36 35
-0.497642 -0.176132 0.863725 37 36 34
-0.529167 -0.189008 0.926867 37 36 35
-0.497263 -0.179257 0.87905 37 37 34
-0.509817 -0.1855 0.909666 38 38 35
-0.503221 -0.184828 0.906367 39 39 36
-0.49442 -0.183325 0.898997 38 38 35
-0.515899 -0.193128 0.947071 36 36 33
-0.52629 -0.198931 0.975527 36 36 33
-0.508144 -0.193955 0.951125 37 37 34
-0.502132 -0.193558 0.949179 37 37 34
-0.488189 -0.190065 0.93205 37 37 34
-0.530763 -0.208728 1.02357 37 37 34
-0.513304 -0.203922 1 36 36 34
-0.495135 -0.198732 0.974549 37 37 34
-0.489498 -0.198515 0.973489 37 37 35
-0.486282 -0.199287 0.977273 37 37 35
-0.492353 -0.203922 1 36 37 34
-0.499513 -0.209112 1.02545 38 38 35
-0.467943 -0.198025 0.971083 38 38 35
-0.476639 -0.203922 1 37 37 34
-0.471402 -0.203922 1 37 37 34
-0.452684 -0.198025 0.971083 37 37 34
-0.460926 -0.203922 1 37 37 34
-0.470181 -0.210407 1.0318 37 37 34
-0.477679 -0.216248 1.06045 37 37 34
-0.472125 -0.216248 1.06045 38 37 35
-0.469351 -0.217537 1.06677 38 38 35
-0.448564 -0.210407 1.0318 38 37 35
-0.486234 -0.230859 1.1321 37 37 34
-0.480305 -0.230859 1.1321 37 37 35
-0.463079 -0.225361 1.10514 37 36 35
-0.442936 -0.218287 1.07045 37 36 35
-0.439007 -0.219125 1.07455 37 36 36
-0.472877 -0.239096 1.17249 36 36 35
-0.460155 -0.235725 1.15596 35 35 33
-0.450627 -0.233922 1.14712 36 36 34
-0.448046 -0.235725 1.15596 36 37 34
-0.460679 -0.245691 1.20483 37 38 35
-0.454368 -0.245691 1.20483 38 38 36
-0.46535 -0.255174 1.25133 37 38 35
-0.461153 -0.256485 1.25776 37 37 35
-0.452241 -0.255174 1.25133 37 37 35
-0.4613 -0.264113 1.29517 37 37 35
-0.428851 -0.249199 1.22203 37 37 35
-0.455589 -0.268747 1.31789 37 37 35
-0.440948 -0.264113 1.29517 37 38 35
-0.434165 -0.264113 1.29517 38 38 36
-0.427381 -0.264113 1.29517 37 37 35
-0.45778 -0.287461 1.40967 36 36 34
-0.422651 -0.269753 1.32283 37 37 35
-0.446522 -0.289739 1.42083 37 37 35
-0.43908 -0.289739 1.42083 37 37 35
-0.442814 -0.29724 1.45762 36 37 35
-0.416442 -0.284443 1.39486 37 37 35
-0.454311 -0.315849 1.54887 37 37 35
-0.462406 -0.327322 1.60514 36 36 33
-0.424261 -0.305882 1.5 36 36 33
-0.463459 -0.340447 1.6695 38 38 35
-0.437184 -0.327322 1.60514 39 39 36
-0.400691 -0.305882 1.5 38 38 35
-0.439234 -0.342011 1.67717 37 37 34
-0.411962 -0.327322 1.60514 36 37 34
-0.403554 -0.327322 1.60514 37 38 35
-0.379697 -0.314524 1.54238 38 38 36
-0.361408 -0.305882 1.5 38 38 36
-0.40183 -0.347652 1.70483 37 37 35
-0.392901 -0.347652 1.70483 36 36 34
-0.390484 -0.353549 1.73375 37 37 34
-0.381403 -0.353549 1.73375 37 37 35
-0.375526 -0.356591 1.74867 37 38 35
-0.353142 -0.343719 1.68555 37 38 35
-0.341914 -0.341324 1.6738 37 38 35
-0.321756 -0.329654 1.61657 37 37 35
-0.32438 -0.341324 1.6738 36 37 34
-0.318673 -0.344634 1.69003 36 37 34
-0.312535 -0.347652 1.70483 36 37 34
-0.29284 -0.335325 1.64438 36 37 34
-0.289894 -0.342011 1.67717 36 37 35
-0.278482 -0.338814 1.66149 37 37 35
-0.281512 -0.353549 1.73375 37 37 35
-0.265803 -0.344948 1.69157 37 37 35
-0.250747 -0.33663 1.65078 37 38 36
-0.247857 -0.344634 1.69003 37 38 36
-0.239223 -0.344948 1.69157 37 38 36
-0.232169 -0.347652 1.70483 36 37 35
-0.225013 -0.350414 1.71838 37 37 36
-0.210832 -0.342011 1.67717 37 38 36
-0.202048 -0.342011 1.67717 36 37 35
-0.198197 -0.350743 1.71999 36 37 35
-0.180872 -0.335325 1.64438 36 37 35
-0.175977 -0.342564 1.67988 36 37 35
-0.165788 -0.339714 1.6659 37 38 35
-0.160732 -0.347652 1.70483 37 38 36
-0.146153 -0.334713 1.64138 37 38 35
-0.139241 -0.338814 1.66149 37 38 35
-0.130538 -0.338814 1.66149 38 38 36
-0.123928 -0.344634 1.69003 38 38 35
-0.114201 -0.342011 1.67717 37 38 35
-0.103758 -0.33663 1.65078 37 38 35
-0.0966315 -0.342011 1.67717 37 37 34
-0.0914672 -0.356107 1.74629 36 36 33
-0.0803661 -0.347652 1.70483 36 37 34
-0.0684846 -0.333287 1.63439 37 38 35
-0.0630035 -0.350414 1.71838 37 37 34
-0.0518788 -0.33663 1.65078 36 37 34
-0.0443005 -0.344948 1.69157 37 37 34
-0.0365869 -0.356107 1.74629 37 37 34
-0.0274402 -0.356107 1.74629 36 37 33
-0.0174051 -0.338814 1.66149 36 36 33
-0.00872567 -0.339714 1.6659 36 37 34
0 -0.333287 1.63439 37 38 35
0.00900894 -0.350743 1.71999 37 38 35
0.0177041 -0.344634 1.69003 37 38 35
0.0261077 -0.338814 1.66149 37 37 34
0.0354081 -0.344634 1.69003 37 37 34
0.0446478 -0.347652 1.70483 38 39 36
0.0510894 -0.331508 1.62567 39 39 36
0.0619642 -0.344634 1.69003 38 39 36
0.0696205 -0.338814 1.66149 37 38 35
0.0803661 -0.347652 1.70483 38 38 35
0.0885203 -0.344634 1.69003 37 38 35
0.0957282 -0.338814 1.66149 36 37 34
0.108107 -0.350743 1.71999 36 37 33
0.115076 -0.344634 1.69003 36 37 34
0.128895 -0.358446 1.75776 37 38 35
0.134905 -0.350148 1.71707 37 38 34
0.140782 -0.342564 1.67988 36 37 34
0.151803 -0.347652 1.70483 36 37 34
0.152411 -0.329654 1.61657 37 37 34
0.17101 -0.350414 1.71838 37 38 35
0.18001 -0.350414 1.71838 37 38 35
0.187521 -0.347652 1.70483 38 38 35
0.19645 -0.347652 1.70483 38 39 36
0.207206 -0.350743 1.71999 36 37 35
0.210832 -0.342011 1.67717 36 37 34
0.216839 -0.337686 1.65596 37 38 35
0.223937 -0.335325 1.64438 38 39 35
0.247674 -0.357134 1.75133 37 38 35
0.244319 -0.339714 1.6659 37 38 35
0.258957 -0.347652 1.70483 37 38 35
0.272431 -0.353549 1.73375 37 38 35
0.271778 -0.341324 1.6738 37 38 35
0.297554 -0.362018 1.77528 38 39 36
0.27942 -0.329654 1.61657 37 38 36
0.298079 -0.341324 1.6738 38 39 36
0.309821 -0.344634 1.69003 38 39 37
0.315613 -0.341324 1.6738 39 40 37
0.321995 -0.338814 1.66149 38 39 36
0.339324 -0.347652 1.70483 38 39 35
0.3394 -0.338814 1.66149 38 39 36
0.360358 -0.350743 1.71999 38 39 36
0.366112 -0.347652 1.70483 37 38 35
0.365508 -0.338814 1.66149 36 37 34
0.380199 -0.344237 1.68808 36 37 34
0.409136 -0.362018 1.77528 36 37 34
0.405402 -0.350743 1.71999 37 38 35
0.41076 -0.347652 1.70483 38 39 35
0.41288 -0.342011 1.67717 38 39 35
0.435889 -0.353549 1.73375 38 39 35
0.441438 -0.350743 1.71999 37 38 35
0.45328 -0.352948 1.7308 37 38 35
0.443831 -0.338814 1.66149 37 38 35
0.486354 -0.364136 1.78567 37 38 35
0.484776 -0.356107 1.74629 37 38 34
0.482197 -0.347652 1.70483 36 38 34
0.508137 -0.359694 1.76388 37 38 35
0.508538 -0.353549 1.73375 37 38 35
0.51351 -0.350743 1.71999 37 38 35
0.517915 -0.347652 1.70483 36 38 35
0.531528 -0.350743 1.71999 37 38 35
0.544862 -0.353549 1.73375 37 38 35
0.553943 -0.353549 1.73375 37 39 35
0.582969 -0.366073 1.79517 36 38 35
0.562563 -0.347652 1.70483 37 39 35
0.581186 -0.353549 1.73375 37 39 35
0.585033 -0.350414 1.71838 36 38 35
0.599348 -0.353549 1.73375 36 38 35
0.623003 -0.362018 1.77528 36 38 35
0.607211 -0.347652 1.70483 37 39 36
0.626591 -0.353549 1.73375 36 38 36
0.637029 -0.354304 1.73745 36 38 35
0.644753 -0.353549 1.73375 35 37 35
0.653834 -0.353549 1.73375 36 37 35
0.667711 -0.356107 1.74629 36 38 35
0.65505 -0.344634 1.69003 36 38 36
0.663903 -0.344634 1.69003 37 38 36
0.718629 -0.368134 1.80527 36 37 34
0.704298 -0.356107 1.74629 36 37 33
0.703534 -0.35116 1.72203 35 36 32
0.72987 -0.359694 1.76388 36 38 34
0.747538 -0.363796 1.784 37 39 35
0.766716 -0.368522 1.80718 37 39 35
0.771023 -0.366073 1.79517 36 38 34
0.761369 -0.357134 1.75133 36 38 34
0.784915 -0.363796 1.784 36 38 35
0.775666 -0.35528 1.74224 36 38 35
0.830649 -0.37604 1.84404 36 38 35
0.811865 -0.363312 1.78162 36 38 35
0.821197 -0.363312 1.78162 35 38 35
0.812168 -0.35528 1.74224 35 37 34
0.859285 -0.371714 1.82283 35 37 34
0.889225 -0.380439 1.86561 35 37 34
0.831104 -0.351708 1.72472 35 37 33
0.908768 -0.380439 1.86561 35 37 34
0.907919 -0.37604 1.84404 35 37 34
0.858205 -0.351708 1.72472 34 37 34
0.912358 -0.370006 1.81445 34 37 34
0.930015 -0.373278 1.8305 35 38 35
0.889941 -0.353549 1.73375 36 39 36
0.977711 -0.384494 1.8855 35 38 36
0.940272 -0.366073 1.79517 36 39 35
0.949675 -0.366073 1.79517 34 37 34
0.969381 -0.370006 1.81445 34 37 34
1.01721 -0.384494 1.8855 35 38 35
1.03219 -0.386403 1.89486 36 39 36
0.987286 -0.366073 1.79517 37 39 36
1.0713 -0.393478 1.92955 36 39 36
1.08533 -0.394904 1.93655 34 36 33
1.06028 -0.382217 1.87433 32 34 30
1.01144 -0.361267 1.7716 32 34 31
0.982252 -0.347652 1.70483 34 36 33
1.10166 -0.386403 1.89486 35 37 35
1.0916 -0.379455 1.86079 35 37 35
1.06251 -0.366073 1.79517 35 38 36
1.19422 -0.407843 2 36 38 36
1.04943 -0.35528 1.74224 35 38 36
1.12041 -0.37604 1.84404 35 37 36
1.10012 -0.366073 1.79517 35 37 35
1.05369 -0.347652 1.70483 35 37 36
1.11892 -0.366073 1.79517 35 37 36
-0.553221 -0.174884 0.880174 37 38 35
-0.52204 -0.166414 0.837546 37 38 35
-0.553079 -0.177803 0.894863 37 37 35
-0.535811 -0.173724 0.874334 37 37 34
-0.531232 -0.173724 0.874334 37 37 35
-0.539018 -0.177803 0.894863 36 36 34
-0.500106 -0.166414 0.837546 36 36 34
-0.495719 -0.166414 0.837546 37 36 35
-0.524956 -0.177803 0.894863 37 37 35
-0.522673 -0.178624 0.898997 38 37 36
-0.534022 -0.184162 0.926867 37 37 35
-0.515438 -0.179384 0.90282 36 36 34
-0.522673 -0.183586 0.923969 37 36 34
-0.517833 -0.183586 0.923969 38 38 35
-0.468617 -0.167705 0.844042 39 39 36
-0.509748 -0.184162 0.926867 38 39 36
-0.501606 -0.182963 0.920833 36 37 34
-0.513125 -0.188982 0.951125 35 36 32
-0.508144 -0.188982 0.951125 36 36 33
-0.49175 -0.184696 0.929553 37 37 34
-0.486881 -0.184696 0.929553 37 37 34
-0.504795 -0.193425 0.973489 37 37 35
-0.526368 -0.20375 1.02545 37 37 34
-0.469438 -0.183586 0.923969 36 36 34
-0.502828 -0.198693 1 37 37 34
-0.473271 -0.188982 0.951125 37 37 35
-0.467331 -0.188595 0.949179 37 37 35
-0.500029 -0.20396 1.02651 38 38 35
-0.467943 -0.192947 0.971083 38 38 35
-0.476639 -0.198693 1 37 37 34
-0.484441 -0.204189 1.02766 37 37 34
-0.494343 -0.210703 1.06045 37 37 34
-0.502564 -0.216642 1.09033 37 37 34
-0.483234 -0.210703 1.06045 37 36 34
-0.463476 -0.204438 1.02892 37 37 34
-0.458699 -0.204712 1.03029 38 37 35
-0.453968 -0.205012 1.0318 38 37 35
-0.492164 -0.224939 1.1321 37 37 35
-0.474655 -0.219583 1.10514 37 37 35
-0.483322 -0.226353 1.13921 37 37 35
-0.445611 -0.2113 1.06345 37 36 35
-0.45729 -0.219583 1.10514 37 36 35
-0.465422 -0.226353 1.13921 38 37 36
-0.462644 -0.227924 1.14712 37 37 35
-0.470564 -0.234876 1.18211 36 36 34
-0.442201 -0.223662 1.12567 36 37 34
-0.456268 -0.233895 1.17717 37 37 35
-0.450102 -0.233895 1.17717 37 38 35
-0.448786 -0.23645 1.19003 37 38 36
-0.467741 -0.249908 1.25776 37 37 35
-0.452349 -0.245137 1.23375 37 37 35
-0.440331 -0.242083 1.21838 36 37 35
-0.435252 -0.242809 1.22203 37 37 35
-0.446245 -0.252658 1.2716 37 37 35
-0.4751 -0.27307 1.37433 37 37 35
-0.483732 -0.282309 1.42083 37 37 35
-0.450548 -0.267051 1.34404 37 37 35
-0.412916 -0.248631 1.25133 37 37 35
-0.461406 -0.282309 1.42083 37 37 35
-0.450396 -0.28009 1.40967 37 37 35
-0.458083 -0.289619 1.45762 37 37 35
-0.451986 -0.290607 1.46259 37 37 35
-0.423748 -0.277149 1.39486 37 38 35
-0.420862 -0.28009 1.40967 38 38 36
-0.425639 -0.288328 1.45113 37 37 35
-0.432118 -0.298039 1.5 36 36 33
-0.424261 -0.298039 1.5 36 36 34
-0.441482 -0.315988 1.59033 38 37 35
-0.42186 -0.30775 1.54887 38 38 36
-0.400691 -0.298039 1.5 37 36 34
-0.446478 -0.338738 1.70483 36 36 34
-0.397522 -0.30775 1.54887 36 36 34
-0.389409 -0.30775 1.54887 37 37 35
-0.404809 -0.326727 1.64438 38 38 36
-0.391686 -0.323008 1.62567 38 38 36
-0.378332 -0.318929 1.60514 37 37 35
-0.386526 -0.333242 1.67717 37 37 35
-0.370357 -0.326727 1.64438 37 37 35
-0.386686 -0.349255 1.75776 37 37 35
-0.357304 -0.330589 1.66382 37 37 35
-0.338256 -0.320789 1.6145 37 37 34
-0.338269 -0.329027 1.65596 37 37 35
-0.339324 -0.338738 1.70483 37 37 35
-0.325033 -0.333242 1.67717 37 37 34
-0.316248 -0.333242 1.67717 36 37 35
-0.307464 -0.333242 1.67717 36 37 34
-0.294901 -0.329027 1.65596 36 37 34
-0.292117 -0.335797 1.69003 36 37 35
-0.283265 -0.335797 1.69003 36 37 35
-0.276817 -0.338738 1.70483 36 36 34
-0.259394 -0.327999 1.65078 36 36 34
-0.256943 -0.336103 1.69157 37 37 35
-0.242101 -0.327999 1.65078 37 38 36
-0.241098 -0.338738 1.70483 37 37 36
-0.230153 -0.335797 1.69003 36 37 35
-0.217564 -0.330127 1.66149 36 37 35
-0.217945 -0.344484 1.73375 36 37 35
-0.201642 -0.332573 1.6738 36 37 35
-0.193263 -0.333242 1.67717 36 37 34
-0.189011 -0.341429 1.71838 35 36 33
-0.174513 -0.331003 1.6659 36 37 34
-0.17101 -0.341429 1.71838 36 37 35
-0.155636 -0.327999 1.65078 36 37 35
-0.14553 -0.324741 1.63439 37 38 35
-0.145296 -0.344484 1.73375 38 39 36
-0.129697 -0.327999 1.65078 39 39 37
-0.126125 -0.341749 1.71999 38 38 36
-0.111968 -0.326727 1.64438 37 37 34
-0.109761 -0.346976 1.74629 37 37 34
-0.0957282 -0.330127 1.66149 37 37 34
-0.0876704 -0.332573 1.6738 37 38 35
-0.079741 -0.336103 1.69157 38 39 36
-0.0691717 -0.327999 1.65078 37 38 35
-0.0619642 -0.335797 1.69003 36 37 34
-0.054003 -0.341429 1.71838 36 37 34
-0.0442602 -0.335797 1.69003 36 37 34
-0.0344518 -0.326727 1.64438 37 37 34
-0.0255447 -0.323008 1.62567 37 38 34
-0.0170298 -0.323008 1.62567 37 37 34
-0.00892957 -0.338738 1.70483 36 37 33
0 -0.336352 1.69282 36 37 34
0.00900894 -0.341749 1.71999 36 37 34
0.0174051 -0.330127 1.66149 36 37 34
0.0265561 -0.335797 1.69003 37 37 34
0.0344518 -0.326727 1.64438 37 38 35
0.0438352 -0.332573 1.6738 38 39 36
0.0535774 -0.338738 1.70483 39 39 36
0.060918 -0.330127 1.66149 37 38 35
0.0736544 -0.349255 1.75776 37 38 35
0.0762055 -0.321201 1.61657 38 38 35
0.0908103 -0.344484 1.73375 37 38 35
0.0957282 -0.330127 1.66149 37 37 34
0.104431 -0.330127 1.66149 36 37 34
0.116084 -0.338738 1.70483 36 37 34
0.125014 -0.338738 1.70483 36 38 34
0.130538 -0.330127 1.66149 37 39 35
0.137807 -0.326727 1.64438 37 38 35
0.14904 -0.332573 1.6738 36 37 33
0.160732 -0.338738 1.70483 37 37 34
0.168342 -0.336103 1.69157 38 38 35
0.174051 -0.330127 1.66149 37 38 35
0.184108 -0.332573 1.6738 38 38 35
0.198197 -0.341749 1.71999 38 38 35
0.203597 -0.335797 1.69003 37 38 35
0.206711 -0.326727 1.64438 36 37 34
0.230972 -0.350471 1.76388 36 37 34
0.237815 -0.346976 1.74629 37 38 35
0.241098 -0.338738 1.70483 37 39 35
0.243672 -0.330127 1.66149 37 39 35
0.258957 -0.338738 1.70483 38 39 36
0.260207 -0.329027 1.65596 38 39 36
0.274413 -0.335797 1.69003 37 39 35
0.28111 -0.333242 1.67717 38 39 36
0.289312 -0.332573 1.6738 38 39 36
0.300969 -0.335797 1.69003 38 39 36
0.29962 -0.324741 1.63439 38 39 37
0.313292 -0.330127 1.66149 38 39 37
0.316742 -0.324741 1.63439 38 39 36
0.336377 -0.335797 1.69003 38 39 36
0.353558 -0.343898 1.7308 38 39 36
0.360358 -0.341749 1.71999 38 39 36
0.375016 -0.346976 1.74629 37 38 35
0.368216 -0.332573 1.6738 36 38 35
0.383971 -0.338738 1.70483 36 37 34
0.389489 -0.335797 1.69003 36 37 34
0.391615 -0.330127 1.66149 36 37 34
0.420749 -0.346976 1.74629 37 38 35
0.42342 -0.341749 1.71999 38 39 35
0.428619 -0.338738 1.70483 38 39 35
0.452704 -0.350471 1.76388 37 38 35
0.467648 -0.354799 1.78567 37 38 35
0.459026 -0.341429 1.71838 37 38 35
0.471411 -0.343898 1.7308 37 38 34
0.484776 -0.346976 1.74629 37 38 34
0.482197 -0.338738 1.70483 36 38 34
0.482187 -0.332573 1.6738 36 38 34
0.504028 -0.341429 1.71838 37 38 35
0.51351 -0.341749 1.71999 37 38 35
0.517915 -0.338738 1.70483 36 38 34
0.526844 -0.338738 1.70483 37 39 35
0.531122 -0.335797 1.69003 37 39 35
0.553943 -0.344484 1.73375 38 40 36
0.567097 -0.346976 1.74629 38 40 36
0.576244 -0.346976 1.74629 37 39 35
0.591287 -0.350471 1.76388 37 39 35
0.585033 -0.341429 1.71838 36 38 35
0.603684 -0.346976 1.74629 36 38 35
0.598281 -0.338738 1.70483 37 38 35
0.628243 -0.350471 1.76388 37 39 36
0.631124 -0.346976 1.74629 37 39 36
0.630626 -0.341749 1.71999 37 38 36
0.66344 -0.354468 1.784 35 37 34
0.637346 -0.335797 1.69003 35 37 35
0.705086 -0.366398 1.84404 36 38 35
0.676858 -0.346976 1.74629 37 39 36
0.697391 -0.352735 1.77528 37 39 36
0.723654 -0.361203 1.81789 36 37 35
0.67642 -0.333242 1.67717 35 36 32
0.760223 -0.369726 1.86079 36 37 33
0.756198 -0.363113 1.82751 37 39 35
0.75725 -0.359073 1.80718 37 38 35
0.782356 -0.366398 1.84404 36 38 34
0.746234 -0.345219 1.73745 36 38 34
0.785647 -0.359073 1.80718 36 38 35
0.78387 -0.353996 1.78162 36 38 35
0.799231 -0.356687 1.79517 36 37 35
0.818871 -0.361203 1.81789 35 38 35
0.785935 -0.34269 1.72472 36 38 35
0.821197 -0.353996 1.78162 36 38 35
0.854989 -0.364422 1.8341 36 39 35
0.83986 -0.353996 1.78162 36 38 35
0.855647 -0.356687 1.79517 35 38 34
0.839545 -0.34617 1.74224 35 37 34
0.881663 -0.359628 1.80997 34 37 33
0.901251 -0.363707 1.8305 34 37 34
0.870121 -0.347448 1.74867 34 37 34
0.927237 -0.366398 1.84404 34 37 34
0.903324 -0.353269 1.77797 35 38 35
0.931366 -0.360519 1.81445 35 38 35
0.977711 -0.374636 1.8855 35 38 35
0.987587 -0.374636 1.8855 35 38 35
0.991555 -0.372417 1.87433 34 37 34
1.00734 -0.374636 1.8855 34 37 34
1.04475 -0.384778 1.93655 35 38 35
0.988388 -0.360519 1.81445 36 39 36
1.03082 -0.372417 1.87433 37 40 37
0.996688 -0.356687 1.79517 35 39 35
1.05046 -0.372417 1.87433 33 36 32
1.06028 -0.372417 1.87433 31 34 30
1.03591 -0.360519 1.81445 31 34 30
1.1067 -0.381656 1.92083 33 35 33
0.991182 -0.338738 1.70483 35 37 35
1.0531 -0.356687 1.79517 35 37 35
1.13689 -0.381656 1.92083 35 37 35
1.14695 -0.381656 1.92083 35 37 36
1.09797 -0.362183 1.82283 35 37 36
1.16707 -0.381656 1.92083 35 37 36
1.27416 -0.413116 2.07917 35 37 35
1.29195 -0.415334 2.09033 35 37 36
1.19029 -0.379437 1.90967 35 37 36
-0.526427 -0.162035 0.837546 38 38 35
-0.557766 -0.173124 0.894863 38 38 35
-0.533834 -0.1671 0.863725 37 38 34
-0.542655 -0.171313 0.885502 37 37 34
-0.524786 -0.1671 0.863725 37 37 35
-0.541508 -0.173924 0.898997 37 37 35
-0.503985 -0.163292 0.844042 37 36 34
-0.52699 -0.172256 0.89038 37 37 35
-0.488415 -0.161073 0.832572 38 38 36
-0.531233 -0.176772 0.91372 38 38 36
-0.503754 -0.169152 0.874334 37 37 35
-0.540701 -0.183224 0.947071 37 36 34
-0.520899 -0.178148 0.920833 37 37 34
-0.519457 -0.179315 0.926867 37 37 34
-0.501252 -0.174663 0.90282 37 37 34
-0.498473 -0.175349 0.906367 36 36 33
-0.489711 -0.173924 0.898997 35 35 32
-0.512075 -0.183632 0.949179 36 36 33
-0.52118 -0.188729 0.975527 36 36 33
-0.503162 -0.184009 0.951125 36 36 33
-0.483956 -0.178755 0.923969 35 36 32
-0.505344 -0.18854 0.974549 36 36 34
-0.500742 -0.188729 0.975527 37 37 35
-0.481175 -0.183224 0.947071 37 37 35
-0.515134 -0.198199 1.02447 37 37 35
-0.497591 -0.193464 1 37 37 35
-0.468289 -0.184009 0.951125 37 37 35
-0.474201 -0.188335 0.973489 37 37 35
-0.495207 -0.198816 1.02766 37 37 35
-0.489824 -0.198816 1.02766 37 37 34
-0.484441 -0.198816 1.02766 37 37 34
-0.480285 -0.199325 1.03029 37 37 34
-0.475586 -0.199617 1.0318 37 37 34
-0.481989 -0.20463 1.05772 37 37 34
-0.493147 -0.211802 1.09479 37 37 34
-0.504024 -0.21902 1.1321 37 37 34
-0.483839 -0.212752 1.0997 37 37 34
-0.465363 -0.207093 1.07045 37 36 34
-0.459756 -0.207093 1.07045 37 37 35
-0.486677 -0.221926 1.14712 37 37 35
-0.49533 -0.228695 1.18211 38 37 36
-0.471389 -0.220396 1.13921 37 37 36
-0.465422 -0.220396 1.13921 38 37 36
-0.459455 -0.220396 1.13921 37 36 35
-0.460155 -0.223636 1.15596 36 36 34
-0.442201 -0.217776 1.12567 37 37 35
-0.466989 -0.233092 1.20483 38 38 36
-0.465857 -0.235712 1.21838 38 38 35
-0.443936 -0.22774 1.17717 37 37 35
-0.458811 -0.238686 1.23375 37 37 35
-0.441747 -0.233092 1.20483 38 38 36
-0.468084 -0.250568 1.29517 38 38 36
-0.429125 -0.233092 1.20483 37 37 35
-0.462492 -0.254965 1.31789 37 37 35
-0.439585 -0.246009 1.2716 37 37 35
-0.432925 -0.246009 1.2716 37 37 35
-0.460703 -0.265884 1.37433 37 37 35
-0.458278 -0.268683 1.3888 37 37 35
-0.403408 -0.240328 1.24224 38 38 35
-0.445666 -0.269856 1.39486 37 37 34
-0.431909 -0.265884 1.37433 37 37 34
-0.448441 -0.280741 1.45113 37 37 34
-0.440841 -0.280741 1.45113 37 37 34
-0.447832 -0.290196 1.5 38 38 35
-0.403115 -0.265884 1.37433 38 38 35
-0.432118 -0.290196 1.5 37 37 35
-0.446653 -0.305512 1.57917 37 37 35
-0.429972 -0.299652 1.54887 38 38 36
-0.424268 -0.301362 1.55772 39 38 36
-0.400691 -0.290196 1.5 37 37 35
-0.420369 -0.310536 1.60514 36 36 34
-0.411962 -0.310536 1.60514 37 37 34
-0.456179 -0.351031 1.81445 37 37 35
-0.391503 -0.307673 1.59033 37 37 35
-0.404095 -0.324472 1.67717 37 37 35
-0.414306 -0.340064 1.75776 37 37 35
-0.384758 -0.322988 1.6695 37 37 35
-0.370357 -0.318129 1.64438 38 38 35
-0.384685 -0.338304 1.74867 37 37 35
-0.374145 -0.33706 1.74224 37 37 34
-0.350681 -0.323821 1.6738 36 36 34
-0.341914 -0.323821 1.6738 37 37 34
-0.336377 -0.32696 1.69003 37 37 35
-0.327525 -0.32696 1.69003 37 38 35
-0.308181 -0.316195 1.63439 37 38 35
-0.309821 -0.32696 1.69003 37 38 35
-0.310989 -0.337845 1.74629 37 37 35
-0.292117 -0.32696 1.69003 37 37 35
-0.28111 -0.324472 1.67717 37 37 35
-0.274413 -0.32696 1.69003 36 36 34
-0.26354 -0.324472 1.67717 35 36 34
-0.254244 -0.323821 1.6738 37 37 35
-0.243672 -0.321439 1.66149 37 38 36
-0.239223 -0.327258 1.69157 37 38 36
-0.227943 -0.323821 1.6738 37 38 36
-0.223239 -0.329824 1.70483 37 37 36
-0.216012 -0.332444 1.71838 37 38 36
-0.199492 -0.320368 1.65596 36 37 35
-0.191456 -0.321439 1.66149 36 37 35
-0.183239 -0.322293 1.6659 37 38 35
-0.174051 -0.321439 1.66149 38 39 36
-0.165788 -0.322293 1.6659 37 38 35
-0.159482 -0.327258 1.69157 36 37 34
-0.148336 -0.322293 1.6659 36 37 34
-0.139241 -0.321439 1.66149 37 38 35
-0.135008 -0.332444 1.71838 37 38 35
-0.119209 -0.314508 1.62567 38 38 35
-0.110075 -0.312749 1.61657 37 37 35
-0.103167 -0.317548 1.64138 37 37 34
-0.0941664 -0.316195 1.63439 36 37 34
-0.0892957 -0.329824 1.70483 36 37 34
-0.0775166 -0.318129 1.64438 37 38 35
-0.072004 -0.332444 1.71838 37 38 35
-0.0630626 -0.332756 1.71999 37 37 34
-0.0518788 -0.319367 1.65078 37 37 34
-0.0439234 -0.324472 1.67717 37 37 34
-0.0351387 -0.324472 1.67717 37 37 34
-0.0263011 -0.323821 1.6738 37 38 34
-0.0188054 -0.3473 1.79517 37 38 34
-0.00892957 -0.329824 1.70483 36 37 34
0 -0.340064 1.75776 36 37 34
0.00867357 -0.320368 1.65596 36 37 34
0.0174051 -0.321439 1.66149 36 37 34
0.0267887 -0.329824 1.70483 37 37 34
0.036002 -0.332444 1.71838 37 38 35
0.0435128 -0.321439 1.66149 38 38 35
0.0527081 -0.324472 1.67717 38 39 36
0.0605252 -0.319367 1.65078 37 37 35
0.0708809 -0.327258 1.69157 36 37 34
0.0810045 -0.332444 1.71838 37 37 34
0.0870257 -0.321439 1.66149 37 37 34
0.0966315 -0.324472 1.67717 37 38 34
0.104431 -0.321439 1.66149 37 38 35
0.111968 -0.318129 1.64438 36 37 34
0.121836 -0.321439 1.66149 36 37 34
0.128409 -0.316195 1.63439 38 39 36
0.140555 -0.324472 1.67717 39 40 37
0.154377 -0.335418 1.73375 38 39 36
0.156646 -0.321439 1.66149 38 38 35
0.17117 -0.332756 1.71999 37 37 34
0.175694 -0.324472 1.67717 37 37 34
0.182145 -0.320368 1.65596 38 38 35
0.187328 -0.314508 1.62567 38 38 36
0.200159 -0.321439 1.66149 38 39 36
0.207515 -0.319367 1.65078 37 38 35
0.225224 -0.332756 1.71999 36 37 34
0.232169 -0.329824 1.70483 36 37 35
0.23671 -0.323821 1.6738 37 38 35
0.247571 -0.326583 1.68808 37 38 35
0.258957 -0.329824 1.70483 38 39 36
0.260207 -0.320368 1.65596 39 40 36
0.271778 -0.323821 1.6738 38 39 36
0.28111 -0.324472 1.67717 37 38 35
0.280992 -0.314508 1.62567 37 38 36
0.306304 -0.332756 1.71999 38 38 36
0.306846 -0.323821 1.6738 38 39 36
0.324018 -0.332444 1.71838 38 39 36
0.330394 -0.329824 1.70483 37 38 35
0.330698 -0.321439 1.66149 36 37 34
0.35416 -0.335418 1.73375 37 38 35
0.357183 -0.329824 1.70483 37 38 35
0.359448 -0.323821 1.6738 37 38 35
0.375042 -0.329824 1.70483 37 38 35
0.390484 -0.335418 1.73375 37 38 35
0.405099 -0.340064 1.75776 37 38 35
0.387583 -0.318129 1.64438 37 38 35
0.407194 -0.32696 1.69003 37 38 34
0.41288 -0.324472 1.67717 38 38 35
0.441926 -0.340064 1.75776 37 38 35
0.437549 -0.329824 1.70483 38 39 35
0.442602 -0.32696 1.69003 38 39 35
0.443831 -0.321439 1.66149 37 38 35
0.460306 -0.32696 1.69003 37 38 34
0.477474 -0.332756 1.71999 37 38 34
0.474373 -0.324472 1.67717 36 38 34
0.495028 -0.332444 1.71838 37 39 35
0.495714 -0.32696 1.69003 38 39 36
0.517619 -0.335418 1.73375 37 38 35
0.542471 -0.345462 1.78567 35 37 33
0.548615 -0.343453 1.77528 36 38 34
0.540537 -0.332756 1.71999 37 39 35
0.549546 -0.332756 1.71999 38 40 36
0.568733 -0.33882 1.75133 38 40 36
0.562563 -0.329824 1.70483 37 39 35
0.58539 -0.337845 1.74629 36 38 34
0.604406 -0.343453 1.77528 36 38 34
0.624072 -0.349255 1.80527 36 38 35
0.579313 -0.319367 1.65078 37 38 35
0.612608 -0.332756 1.71999 37 39 36
0.61614 -0.329824 1.70483 37 39 36
0.64672 -0.341248 1.76388 37 39 36
0.682846 -0.355235 1.83618 36 38 35
0.648644 -0.332756 1.71999 36 38 35
0.674437 -0.341248 1.76388 36 38 36
0.666037 -0.332444 1.71838 37 39 36
0.692915 -0.341248 1.76388 37 38 36
0.702153 -0.341248 1.76388 36 38 35
0.711392 -0.341248 1.76388 36 37 34
0.709832 -0.336134 1.73745 36 37 34
0.724676 -0.33882 1.75133 36 37 34
0.747538 -0.34514 1.784 36 37 34
0.748348 -0.341248 1.76388 35 37 34
0.746234 -0.336134 1.73745 35 37 34
0.805517 -0.358466 1.85288 36 38 35
0.811332 -0.356756 1.84404 36 38 35
0.799231 -0.3473 1.79517 36 38 35
0.808634 -0.3473 1.79517 35 37 34
0.835776 -0.354832 1.8341 36 38 35
0.845382 -0.354832 1.8341 37 39 36
0.843742 -0.350164 1.80997 37 39 36
0.859285 -0.352652 1.82283 37 39 36
0.841864 -0.341706 1.76625 37 39 35
0.858524 -0.34468 1.78162 36 38 34
0.89826 -0.356756 1.84404 35 37 34
0.907919 -0.356756 1.84404 35 37 34
0.942866 -0.366588 1.89486 35 38 35
0.910104 -0.350164 1.80997 34 38 34
0.95796 -0.364777 1.8855 34 38 34
0.897598 -0.338304 1.74867 35 38 35
0.921949 -0.343972 1.77797 35 38 35
0.992491 -0.366588 1.89486 36 38 36
0.959877 -0.351031 1.81445 35 38 35
0.939093 -0.340064 1.75776 35 38 35
0.96848 -0.3473 1.79517 34 37 35
1.02101 -0.362616 1.87433 34 37 35
1.0682 -0.375762 1.94228 35 37 35
1.04684 -0.364777 1.8855 34 38 35
1.0169 -0.351031 1.81445 34 37 34
0.985552 -0.33706 1.74224 34 36 34
1.07009 -0.362616 1.87433 35 37 35
0.998913 -0.335418 1.73375 36 38 36
1.08973 -0.362616 1.87433 35 37 35
1.17327 -0.386928 2 35 37 35
1.09143 -0.356756 1.84404 35 37 36
1.14028 -0.369452 1.90967 35 37 36
1.15701 -0.371612 1.92083 35 37 36
1.03583 -0.329824 1.70483 36 38 36
1.11707 -0.352652 1.82283 36 38 36
1.12662 -0.352652 1.82283 36 38 36
1.18106 -0.366588 1.89486 35 36 35
-0.517177 -0.154885 0.822829 40 39 36
-0.526089 -0.158878 0.844042 39 39 36
-0.517654 -0.157656 0.837546 38 38 35
-0.548392 -0.168445 0.894863 37 37 34
-0.512827 -0.158878 0.844042 37 37 35
-0.520262 -0.162583 0.863725 38 38 36
-0.543169 -0.171231 0.909666 37 37 35
-0.517493 -0.164581 0.874334 36 36 34
-0.527381 -0.169223 0.898997 37 37 35
-0.550622 -0.178272 0.947071 38 38 36
-0.489761 -0.160009 0.850047 38 38 36
-0.540701 -0.178272 0.947071 36 36 34
-0.508546 -0.169223 0.898997 36 36 33
-0.514168 -0.172692 0.917429 36 36 32
-0.512994 -0.173924 0.923969 36 36 33
-0.522018 -0.178669 0.949179 35 36 32
-0.503314 -0.173924 0.923969 35 36 32
-0.52629 -0.183629 0.975527 36 36 33
-0.49196 -0.173333 0.920833 36 37 34
-0.515553 -0.183444 0.974549 36 37 34
-0.509894 -0.183245 0.973489 36 37 33
-0.518542 -0.188235 1 37 37 34
-0.499696 -0.183245 0.973489 37 38 35
-0.482246 -0.178669 0.949179 37 37 35
-0.515134 -0.192842 1.02447 37 37 34
-0.497591 -0.188235 1 37 37 35
-0.492353 -0.188235 1 37 37 35
-0.514013 -0.19863 1.05522 37 37 35
-0.481877 -0.188235 1 37 37 35
-0.464508 -0.183444 0.974549 38 37 35
-0.485033 -0.193679 1.02892 38 37 35
-0.493069 -0.199099 1.05772 38 37 34
-0.488788 -0.199614 1.06045 37 37 34
-0.503598 -0.208026 1.10514 37 37 34
-0.476449 -0.199099 1.05772 37 37 34
-0.473462 -0.200179 1.06345 37 37 34
-0.486232 -0.208026 1.10514 37 37 35
-0.478079 -0.207002 1.0997 36 36 34
-0.444674 -0.194886 1.03533 37 37 35
-0.466559 -0.207002 1.0997 37 36 35
-0.450263 -0.202269 1.07455 37 37 35
-0.468445 -0.2131 1.1321 37 36 35
-0.465422 -0.214439 1.13921 37 36 35
-0.46621 -0.217592 1.15596 36 36 35
-0.464115 -0.219464 1.1659 37 36 35
-0.48466 -0.232235 1.23375 37 37 35
-0.462334 -0.224531 1.19282 38 38 36
-0.455019 -0.224006 1.19003 38 38 36
-0.459475 -0.229341 1.21838 37 37 35
-0.453094 -0.229341 1.21838 37 37 35
-0.466226 -0.23936 1.2716 38 38 36
-0.440331 -0.229341 1.21838 39 38 36
-0.445687 -0.235545 1.25133 38 37 35
-0.454516 -0.243796 1.29517 38 37 35
-0.432579 -0.235545 1.25133 37 37 35
-0.472826 -0.261421 1.3888 38 38 35
-0.434165 -0.243796 1.29517 38 38 35
-0.443508 -0.252996 1.34404 37 37 35
-0.420597 -0.243796 1.29517 36 36 34
-0.413813 -0.243796 1.29517 36 36 33
-0.458083 -0.274376 1.45762 37 37 34
-0.435629 -0.265349 1.40967 37 38 35
-0.428245 -0.265349 1.40967 37 37 34
-0.447832 -0.282353 1.5 37 37 34
-0.439975 -0.282353 1.5 38 38 35
-0.473712 -0.309531 1.64438 38 38 35
-0.440586 -0.293217 1.55772 37 37 34
-0.416405 -0.282353 1.5 37 37 34
-0.447873 -0.309531 1.64438 38 37 35
-0.424822 -0.299357 1.59033 38 37 35
-0.430648 -0.309531 1.64438 37 37 34
-0.437549 -0.32091 1.70483 37 37 34
-0.413422 -0.309531 1.64438 37 37 34
-0.395147 -0.302143 1.60514 36 36 34
-0.404095 -0.315703 1.67717 37 36 34
-0.378332 -0.302143 1.60514 37 36 34
-0.37897 -0.309531 1.64438 38 37 35
-0.378853 -0.316632 1.68211 38 38 36
-0.375042 -0.32091 1.70483 37 38 35
-0.366112 -0.32091 1.70483 36 37 34
-0.348103 -0.312752 1.66149 36 36 34
-0.345544 -0.318413 1.69157 36 36 34
-0.333147 -0.315069 1.6738 37 37 34
-0.335998 -0.326353 1.73375 37 38 35
-0.330232 -0.329662 1.75133 38 38 35
-0.315313 -0.323762 1.71999 38 38 35
-0.29398 -0.310736 1.65078 37 38 35
-0.299674 -0.326353 1.73375 37 37 35
-0.280545 -0.315069 1.6738 37 37 35
-0.278804 -0.323214 1.71707 36 37 35
-0.265561 -0.318123 1.69003 36 37 34
-0.249776 -0.309531 1.64438 37 37 35
-0.250028 -0.32091 1.70483 37 38 36
-0.241098 -0.32091 1.70483 38 38 36
-0.238501 -0.329662 1.75133 37 38 36
-0.219617 -0.315703 1.67717 36 37 35
-0.208862 -0.312752 1.66149 36 37 36
-0.201642 -0.315069 1.6738 37 38 36
-0.198197 -0.323762 1.71999 37 38 36
-0.187521 -0.32091 1.70483 37 38 36
-0.18001 -0.323459 1.71838 37 38 36
-0.168189 -0.318123 1.69003 37 38 35
-0.163181 -0.325798 1.7308 36 36 34
-0.150622 -0.318413 1.69157 35 36 33
-0.137556 -0.308966 1.64138 36 37 34
-0.129697 -0.310736 1.65078 36 36 34
-0.122159 -0.313582 1.6659 36 37 34
-0.118907 -0.328714 1.74629 37 38 35
-0.108006 -0.323459 1.71838 37 38 35
-0.0947425 -0.309531 1.64438 36 37 34
-0.0886666 -0.318649 1.69282 36 37 34
-0.0790621 -0.315703 1.67717 36 37 34
-0.0696205 -0.312752 1.66149 37 37 34
-0.062507 -0.32091 1.70483 36 37 34
-0.0527081 -0.315703 1.67717 36 37 34
-0.0443005 -0.318413 1.69157 36 37 34
-0.0338691 -0.304296 1.61657 36 37 34
-0.0261077 -0.312752 1.66149 37 37 34
-0.0175694 -0.315703 1.67717 37 37 34
-0.00878468 -0.315703 1.67717 36 37 33
0 -0.328714 1.74629 36 37 34
0.00870257 -0.312752 1.66149 36 37 34
0.0180179 -0.323762 1.71999 36 37 34
0.026354 -0.315703 1.67717 37 37 34
0.0354081 -0.318123 1.69003 37 37 34
0.0430648 -0.309531 1.64438 37 37 34
0.0535774 -0.32091 1.70483 37 37 34
0.0596043 -0.306008 1.62567 37 37 34
0.0714365 -0.32091 1.70483 36 37 34
0.0803661 -0.32091 1.70483 37 37 34
0.0878468 -0.315703 1.67717 37 37 34
0.0973724 -0.318123 1.69003 36 37 34
0.106224 -0.318123 1.69003 36 37 34
0.113133 -0.312752 1.66149 36 37 34
0.119848 -0.307649 1.63439 36 38 34
0.130885 -0.313582 1.6659 38 39 36
0.141633 -0.318123 1.69003 38 40 36
0.146153 -0.308966 1.64138 38 39 36
0.162161 -0.323762 1.71999 38 38 35
0.164283 -0.310736 1.65078 37 37 34
0.171212 -0.307649 1.63439 37 37 34
0.185893 -0.318123 1.69003 38 38 35
0.198011 -0.323459 1.71838 39 39 36
0.20931 -0.32705 1.73745 39 40 37
0.208862 -0.312752 1.66149 38 39 36
0.221301 -0.318123 1.69003 36 37 35
0.230153 -0.318123 1.69003 36 37 34
0.239223 -0.318413 1.69157 36 37 34
0.243672 -0.312752 1.66149 37 38 35
0.254756 -0.315703 1.67717 38 39 36
0.270268 -0.323762 1.71999 38 39 36
0.274413 -0.318123 1.69003 38 40 36
0.295644 -0.332025 1.76388 38 39 36
0.294676 -0.32091 1.70483 37 38 35
0.310989 -0.328714 1.74629 37 38 35
0.306846 -0.315069 1.6738 36 36 34
0.310066 -0.309531 1.64438 36 37 34
0.318679 -0.309531 1.64438 36 37 35
0.327292 -0.309531 1.64438 36 37 34
0.333863 -0.307649 1.63439 36 38 34
0.354081 -0.318123 1.69003 37 38 35
0.373117 -0.32705 1.73745 36 37 34
0.368216 -0.315069 1.6738 36 37 34
0.387385 -0.323762 1.71999 37 37 35
0.398886 -0.325798 1.7308 37 38 35
0.418435 -0.33417 1.77528 37 38 35
0.424988 -0.332025 1.76388 37 38 35
0.437032 -0.33417 1.77528 37 38 34
0.439043 -0.328714 1.74629 37 38 34
0.441025 -0.323459 1.71838 38 39 35
0.45328 -0.325798 1.7308 38 39 35
0.451865 -0.318413 1.69157 38 38 35
0.480421 -0.332025 1.76388 37 38 35
0.456486 -0.309531 1.64438 37 38 34
0.474373 -0.315703 1.67717 37 38 35
0.483157 -0.315703 1.67717 38 39 35
0.508538 -0.326353 1.73375 38 39 36
0.513029 -0.323459 1.71838 37 38 35
0.5267 -0.326353 1.73375 35 37 33
0.517255 -0.315069 1.6738 36 38 34
0.544862 -0.326353 1.73375 36 38 34
0.56357 -0.332025 1.76388 37 39 35
0.563024 -0.326353 1.73375 37 39 35
0.582048 -0.332025 1.76388 37 39 35
0.608239 -0.341544 1.81445 36 38 35
0.604406 -0.33417 1.77528 35 37 34
0.575894 -0.313582 1.6659 36 38 35
0.608429 -0.326353 1.73375 36 38 35
0.61751 -0.326353 1.73375 36 38 35
0.626591 -0.326353 1.73375 37 38 35
0.619642 -0.318123 1.69003 37 38 35
0.633999 -0.32091 1.70483 36 38 35
0.669496 -0.33417 1.77528 37 38 35
0.686399 -0.337914 1.79517 36 38 35
0.65505 -0.318123 1.69003 37 38 35
0.700817 -0.335812 1.784 36 37 35
0.672755 -0.318123 1.69003 36 37 35
0.70633 -0.329662 1.75133 36 37 35
0.703534 -0.324148 1.72203 36 37 34
0.766697 -0.348778 1.85288 36 37 34
0.743884 -0.33417 1.77528 35 37 34
0.730593 -0.324148 1.72203 35 37 34
0.746234 -0.32705 1.73745 35 37 34
0.790306 -0.342192 1.81789 36 38 34
0.815222 -0.348778 1.85288 36 38 35
0.799231 -0.337914 1.79517 36 38 35
0.788888 -0.329662 1.75133 36 38 35
0.840308 -0.347114 1.84404 37 39 36
0.854042 -0.348778 1.85288 37 39 36
0.812168 -0.327951 1.74224 38 40 36
0.821294 -0.327951 1.74224 37 39 36
0.862703 -0.3407 1.80997 37 39 35
0.872183 -0.3407 1.80997 36 38 35
0.874453 -0.337914 1.79517 36 37 34
0.875386 -0.334676 1.77797 36 37 35
0.893258 -0.337914 1.79517 36 38 35
0.927237 -0.347114 1.84404 35 38 35
0.921862 -0.341544 1.81445 34 37 34
0.952495 -0.349292 1.85562 34 37 34
0.956213 -0.347114 1.84404 35 38 35
0.987587 -0.354918 1.8855 36 39 36
0.968366 -0.344564 1.8305 36 39 36
0.969381 -0.341544 1.81445 35 38 35
0.955765 -0.333478 1.7716 34 37 34
0.997129 -0.344564 1.8305 34 37 35
0.987286 -0.337914 1.79517 34 37 34
1.03312 -0.350267 1.86079 35 38 35
1.04287 -0.350267 1.86079 36 39 36
1.08026 -0.359466 1.90967 37 39 36
1.10162 -0.36321 1.92955 36 38 36
1.06246 -0.347114 1.84404 35 37 35
1.05491 -0.341544 1.81445 35 37 35
1.17327 -0.376471 2 35 37 35
1.14619 -0.364527 1.93655 35 37 36
1.15633 -0.364527 1.93655 35 37 36
1.24713 -0.389731 2.07045 35 37 36
1.21517 -0.376471 2 36 38 36
1.17029 -0.359466 1.90967 36 38 37
1.13973 -0.347114 1.84404 36 37 36
1.19029 -0.359466 1.90967 34 36 35
-0.53051 -0.154465 0.844042 39 38 34
-0.530548 -0.155774 0.851194 38 38 35
-0.553079 -0.163766 0.894863 37 38 34
-0.542655 -0.162053 0.885502 37 37 34
-0.488429 -0.147117 0.803887 37 37 35
-0.55261 -0.167895 0.917429 37 37 35
-0.522073 -0.160009 0.874334 36 37 35
-0.542999 -0.167895 0.917429 36 36 34
-0.542031 -0.169092 0.923969 36 36 34
-0.537191 -0.169092 0.923969 37 37 35
-0.534022 -0.169623 0.926867 37 37 35
-0.525722 -0.168518 0.920833 37 36 34
-0.506208 -0.163766 0.894863 36 36 33
-0.517833 -0.169092 0.923969 36 36 33
-0.496834 -0.163766 0.894863 37 37 34
-0.508154 -0.169092 0.923969 36 36 33
-0.501606 -0.168518 0.920833 36 36 33
-0.512075 -0.173706 0.949179 37 37 34
-0.508144 -0.174062 0.951125 37 38 35
-0.503162 -0.174062 0.951125 37 37 34
-0.510449 -0.178349 0.974549 36 37 34
-0.491096 -0.17332 0.947071 37 38 35
-0.486135 -0.17332 0.947071 38 39 36
-0.508066 -0.183007 1 37 38 35
-0.502828 -0.183007 1 36 36 34
-0.510782 -0.187858 1.02651 37 37 34
-0.504884 -0.187664 1.02545 37 37 35
-0.474201 -0.178155 0.973489 37 37 35
-0.494652 -0.187858 1.02651 37 37 35
-0.463455 -0.177944 0.972338 38 38 35
-0.485033 -0.188299 1.02892 38 38 35
-0.466164 -0.183007 1 38 38 35
-0.488788 -0.194069 1.06045 37 37 34
-0.469492 -0.18855 1.03029 37 37 34
-0.480525 -0.195225 1.06677 37 37 34
-0.489598 -0.201252 1.0997 37 37 35
-0.495265 -0.206004 1.12567 37 37 35
-0.447906 -0.18855 1.03029 37 37 35
-0.472319 -0.201252 1.0997 37 37 35
-0.480305 -0.207181 1.1321 37 36 35
-0.499821 -0.218294 1.19282 37 36 35
-0.474661 -0.20993 1.14712 37 36 35
-0.472265 -0.211548 1.15596 37 37 35
-0.470221 -0.213368 1.1659 38 37 36
-0.456636 -0.20993 1.14712 38 37 36
-0.409482 -0.190762 1.04238 38 37 35
-0.439685 -0.2076 1.13439 39 38 36
-0.465857 -0.222971 1.21838 38 38 36
-0.443936 -0.21543 1.17717 37 37 35
-0.474255 -0.233384 1.27528 37 37 35
-0.474867 -0.237024 1.29517 38 37 36
-0.435436 -0.220492 1.20483 38 37 35
-0.4613 -0.237024 1.29517 37 36 34
-0.462492 -0.241183 1.31789 37 37 34
-0.447732 -0.237024 1.29517 38 37 35
-0.472826 -0.25416 1.3888 38 38 35
-0.517035 -0.282265 1.54238 38 38 35
-0.453504 -0.251512 1.37433 37 37 35
-0.420597 -0.237024 1.29517 37 36 34
-0.508121 -0.291042 1.59033 37 37 34
