ply
format ascii 1.0
element vertex 1368
property float x
property float y
property float z
property uchar red
property uchar green
property uchar blue
end_header
-0.71705 0.541224 1.6695 35 36 32
-0.773356 0.59093 1.82283 34 35 31
-0.714365 0.552678 1.70483 34 35 31
-0.750795 0.588215 1.81445 35 36 32
-0.727879 0.577572 1.78162 35 36 33
-0.724009 0.581963 1.79517 36 37 34
-0.691632 0.563252 1.73745 36 37 34
-0.69051 0.569837 1.75776 36 37 34
-0.718172 0.600673 1.85288 35 36 34
-0.672096 0.569837 1.75776 36 37 35
-0.676996 0.581963 1.79517 35 36 34
-0.658829 0.574322 1.7716 35 36 34
-0.631377 0.558254 1.72203 35 36 34
-0.64027 0.574322 1.7716 34 36 33
-0.656793 0.597807 1.84404 35 36 34
-0.616856 0.569837 1.75776 35 36 34
-0.589351 0.552678 1.70483 34 36 34
-0.598442 0.569837 1.75776 34 36 33
-0.582427 0.563252 1.73745 34 36 33
-0.592371 0.581963 1.79517 35 36 33
-0.564226 0.563252 1.73745 35 36 33
-0.566036 0.574322 1.7716 35 36 33
-0.564163 0.581963 1.79517 36 37 34
-0.569864 0.597807 1.84404 36 36 34
-0.517915 0.552678 1.70483 36 36 34
-0.54274 0.58933 1.81789 35 36 32
-0.495143 0.547248 1.68808 35 36 33
-0.51715 0.581963 1.79517 36 37 34
-0.514175 0.58933 1.81789 37 37 34
-0.473267 0.552678 1.70483 37 37 34
-0.4859 0.578342 1.784 36 36 34
-0.459456 0.557591 1.71999 36 36 34
-0.455021 0.563252 1.73745 35 36 34
-0.449483 0.567752 1.75133 35 36 34
-0.43682 0.563252 1.73745 36 37 35
-0.436126 0.574322 1.7716 36 37 35
-0.426847 0.574322 1.7716 36 37 34
-0.415749 0.571821 1.76388 37 37 35
-0.392901 0.552678 1.70483 36 36 33
-0.399009 0.574322 1.7716 34 34 31
-0.386686 0.569837 1.75776 35 34 31
-0.366112 0.552678 1.70483 35 35 31
-0.364017 0.563252 1.73745 35 35 32
-0.348253 0.552678 1.70483 35 36 33
-0.34234 0.557591 1.71999 35 35 33
-0.336715 0.563252 1.73745 34 34 31
-0.321464 0.552678 1.70483 34 35 31
-0.299967 0.530453 1.63628 34 35 31
-0.306304 0.557591 1.71999 35 35 32
-0.289312 0.542618 1.6738 34 35 32
-0.288629 0.558254 1.72203 35 36 33
-0.287658 0.574322 1.7716 36 38 35
-0.282082 0.581963 1.79517 36 38 35
-0.26602 0.567752 1.75133 35 36 33
-0.25779 0.569837 1.75776 34 35 31
-0.25054 0.574322 1.7716 33 34 30
-0.234233 0.557591 1.71999 35 35 32
-0.225224 0.557591 1.71999 36 37 34
-0.21841 0.563252 1.73745 36 37 33
-0.207452 0.558254 1.72203 35 36 32
-0.20255 0.569837 1.75776 35 36 32
-0.189188 0.557591 1.71999 36 37 33
-0.180179 0.557591 1.71999 35 36 32
-0.169662 0.552678 1.70483 34 35 31
-0.162354 0.558254 1.72203 35 36 31
-0.146814 0.534515 1.64881 35 36 32
-0.142873 0.552678 1.70483 35 36 32
-0.138583 0.571821 1.76388 35 36 32
-0.12143 0.536833 1.65596 35 36 32
-0.111416 0.530453 1.63628 35 35 32
-0.107155 0.552678 1.70483 35 36 32
-0.10343 0.581963 1.79517 35 36 33
-0.0884184 0.547248 1.68808 36 36 33
-0.0828612 0.569837 1.75776 35 36 33
-0.0701363 0.542618 1.6738 35 36 33
-0.0612116 0.541224 1.6695 35 36 33
-0.054118 0.558254 1.72203 36 36 33
-0.0442092 0.547248 1.68808 36 36 33
-0.0342819 0.530453 1.63628 35 36 32
-0.0278957 0.575515 1.77528 35 36 32
-0.0182008 0.563252 1.73745 35 36 32
-0.00892957 0.552678 1.70483 35 36 33
0 0.563252 1.73745 35 36 33
0.00892957 0.552678 1.70483 35 36 34
0.0185586 0.574322 1.7716 35 36 34
0.0260207 0.536833 1.65596 35 36 34
0.0338691 0.524065 1.61657 35 35 33
0.0442602 0.547879 1.69003 34 35 32
0.0531122 0.547879 1.69003 35 36 33
0.0619642 0.547879 1.69003 35 36 33
0.0702774 0.54371 1.67717 35 36 33
0.0796683 0.547879 1.69003 34 35 31
0.0901967 0.558254 1.72203 34 35 32
0.0990984 0.557591 1.71999 35 35 32
0.106102 0.547248 1.68808 34 36 32
0.119251 0.567752 1.75133 35 36 32
0.125014 0.552678 1.70483 34 35 32
0.13278 0.547879 1.69003 33 35 31
0.140273 0.542618 1.6738 34 36 33
0.154377 0.562052 1.73375 35 36 33
0.162161 0.557591 1.71999 34 35 33
0.166146 0.541224 1.6695 34 35 32
0.178591 0.552678 1.70483 34 35 32
0.185893 0.547879 1.69003 35 36 33
0.192875 0.542618 1.6738 35 36 34
0.199492 0.536833 1.65596 35 36 33
0.21431 0.552678 1.70483 34 35 32
0.223239 0.552678 1.70483 34 35 31
0.232169 0.552678 1.70483 34 35 32
0.243241 0.557591 1.71999 35 35 33
0.250028 0.552678 1.70483 34 35 33
0.261259 0.557591 1.71999 35 36 34
0.273012 0.563252 1.73745 34 35 33
0.279277 0.557591 1.71999 33 34 32
0.290593 0.562052 1.73375 33 34 32
0.294676 0.552678 1.70483 32 34 31
0.300622 0.547248 1.68808 32 34 31
0.327048 0.578342 1.784 33 34 32
0.318306 0.547248 1.68808 32 34 32
0.333331 0.557591 1.71999 32 34 32
0.342747 0.558254 1.72203 31 34 31
0.36973 0.586761 1.80997 30 33 31
0.365019 0.564804 1.74224 31 34 32
0.373117 0.563252 1.73745 34 35 34
0.392457 0.578342 1.784 34 36 34
0.387846 0.558254 1.72203 32 34 33
0.392901 0.552678 1.70483 30 33 32
0.393503 0.541224 1.6695 30 33 33
0.429262 0.577572 1.78162 31 35 34
0.41969 0.552678 1.70483 31 35 34
0.43682 0.563252 1.73745 33 36 36
0.449483 0.567752 1.75133 35 38 37
0.461943 0.571821 1.76388 35 37 37
0.455408 0.552678 1.70483 34 36 35
0.469023 0.558254 1.72203 33 35 34
0.48796 0.569837 1.75776 33 35 34
0.482197 0.552678 1.70483 34 36 35
0.520609 0.585856 1.80718 35 36 36
0.505889 0.559125 1.72472 34 36 36
0.535955 0.581963 1.79517 34 36 36
0.549006 0.585856 1.80718 35 36 37
0.547477 0.574322 1.7716 35 37 37
0.564163 0.581963 1.79517 33 35 36
0.566036 0.574322 1.7716 30 34 35
0.578571 0.577572 1.78162 30 34 35
0.592371 0.581963 1.79517 33 36 37
0.589235 0.569837 1.75776 34 37 38
0.586278 0.558254 1.72203 35 38 39
0.607649 0.569837 1.75776 36 39 39
0.634197 0.585856 1.80718 36 39 40
0.614294 0.559125 1.72472 35 38 39
0.648788 0.581963 1.79517 34 37 38
0.668332 0.59093 1.82283 35 37 38
0.656839 0.572588 1.76625 34 37 38
0.635656 0.546426 1.68555 34 37 38
0.696975 0.59093 1.82283 33 36 37
0.719231 0.601559 1.85562 34 37 38
0.693844 0.572588 1.76625 35 38 39
0.714607 0.581963 1.79517 34 38 39
0.748389 0.601559 1.85562 34 38 38
0.758108 0.601559 1.85562 34 38 39
0.723574 0.566889 1.74867 34 38 40
0.767022 0.593417 1.8305 34 38 40
0.76162 0.581963 1.79517 34 38 40
0.763635 0.576386 1.77797 34 38 40
0.772947 0.576386 1.77797 34 38 40
0.750084 0.552678 1.70483 34 38 40
0.839449 0.611248 1.8855 35 39 40
0.849325 0.611248 1.8855 37 40 42
0.800991 0.569837 1.75776 37 40 42
0.895249 0.629655 1.94228 35 39 40
0.845832 0.588215 1.81445 34 38 39
0.883564 0.607627 1.87433 35 38 40
0.898704 0.611248 1.8855 34 38 39
0.874344 0.588215 1.81445 34 38 39
0.939914 0.625528 1.92955 33 37 38
0.950021 0.625528 1.92955 33 37 38
0.910839 0.593417 1.8305 33 37 38
0.970234 0.625528 1.92955 33 37 39
0.921862 0.588215 1.81445 33 37 39
0.980239 0.619081 1.90967 34 38 40
0.852682 0.533081 1.64438 35 39 41
0.974644 0.603237 1.86079 35 39 41
0.984391 0.603237 1.86079 34 39 40
0.973856 0.59093 1.82283 34 38 40
1.03628 0.622701 1.92083 33 37 39
1.05109 0.625528 1.92955 32 37 39
1.0564 0.622701 1.92083 33 37 39
1.11041 0.648366 2 34 38 39
1.00609 0.581963 1.79517 34 39 40
1.04314 0.597807 1.84404 34 38 39
1.09027 0.619081 1.90967 33 38 38
1.15232 0.648366 2 34 38 39
1.11027 0.619081 1.90967 34 39 40
1.22626 0.677651 2.09033 34 38 39
1.25812 0.689105 2.12567 34 38 39
1.11918 0.607627 1.87433 33 38 38
1.129 0.607627 1.87433 33 38 38
1.15129 0.614282 1.89486 34 38 38
1.22564 0.648366 2 34 38 38
1.02348 0.536833 1.65596 34 38 39
1.16827 0.607627 1.87433 34 38 39
-0.739894 0.387774 1.17717 37 37 32
-0.688829 0.364045 1.10514 36 37 32
-0.727562 0.387774 1.17717 36 36 31
-0.770784 0.414322 1.25776 35 36 31
-0.764197 0.414322 1.25776 34 36 32
-0.739923 0.40465 1.2284 35 36 32
-0.702899 0.387774 1.17717 35 36 32
-0.645337 0.359169 1.09033 34 35 32
-0.737845 0.414322 1.25776 35 36 33
-0.799031 0.452722 1.37433 35 36 33
-0.791833 0.452722 1.37433 35 36 34
-0.759608 0.438282 1.3305 36 37 34
-0.777436 0.452722 1.37433 36 37 34
-0.781743 0.459484 1.39486 36 36 34
-0.763039 0.452722 1.37433 35 36 33
-0.824953 0.494118 1.5 35 36 34
-0.778722 0.470912 1.42955 36 37 34
-0.741444 0.452722 1.37433 35 37 32
-0.770548 0.475105 1.44228 36 37 33
-0.830793 0.517324 1.57045 36 37 33
-0.785669 0.494118 1.5 36 37 34
-0.814342 0.517324 1.57045 36 37 34
-0.806117 0.517324 1.57045 36 37 34
-0.866168 0.561592 1.70483 35 36 32
-0.789665 0.517324 1.57045 35 35 32
-0.791335 0.523875 1.59033 35 36 32
-0.839379 0.561592 1.70483 35 36 33
-0.923016 0.62419 1.89486 36 36 33
-0.82152 0.561592 1.70483 36 37 34
-0.789295 0.545492 1.65596 36 37 34
-0.749686 0.523875 1.59033 36 36 34
-0.771948 0.545492 1.65596 34 35 32
-0.763274 0.545492 1.65596 34 35 31
-0.793917 0.573914 1.74224 34 35 31
-0.86021 0.629066 1.90967 34 35 31
-0.759013 0.561592 1.70483 35 35 32
-0.82466 0.617428 1.87433 35 36 33
-0.801673 0.607449 1.84404 35 36 33
-0.71705 0.549953 1.6695 35 36 33
-0.708305 0.549953 1.6695 35 36 33
-0.726482 0.571118 1.73375 35 36 33
-0.74894 0.596225 1.80997 36 37 34
-0.711788 0.573914 1.74224 36 37 34
-0.708924 0.579027 1.75776 36 37 34
-0.730103 0.604173 1.8341 36 37 34
-0.700817 0.58767 1.784 35 36 34
-0.695801 0.591349 1.79517 35 36 33
-0.719601 0.619954 1.882 34 35 32
-0.676996 0.591349 1.79517 33 34 32
-0.68207 0.604173 1.8341 35 36 34
-0.672463 0.604173 1.8341 36 38 35
-0.660477 0.602003 1.82751 35 36 34
-0.656793 0.607449 1.84404 35 36 34
-0.629982 0.591349 1.79517 35 36 34
-0.595298 0.567258 1.72203 35 37 35
-0.591527 0.572337 1.73745 35 37 34
-0.582427 0.572337 1.73745 35 37 34
-0.577906 0.576909 1.75133 35 37 34
-0.54737 0.555239 1.68555 35 37 34
-0.589182 0.607449 1.84404 35 36 33
-0.54118 0.567258 1.72203 36 36 33
-0.536925 0.572337 1.73745 36 36 33
-0.529278 0.573914 1.74224 36 36 33
-0.522868 0.576909 1.75133 35 36 33
-0.517376 0.581044 1.76388 36 36 34
-0.520609 0.595306 1.80718 36 37 34
-0.482197 0.561592 1.70483 37 37 35
-0.486175 0.576909 1.75133 36 36 34
-0.445665 0.539008 1.63628 35 36 33
-0.475921 0.586888 1.78162 35 35 33
-0.461943 0.581044 1.76388 35 35 32
-0.449483 0.576909 1.75133 35 36 33
-0.43682 0.572337 1.73745 35 36 34
-0.41969 0.561592 1.70483 35 36 34
-0.426847 0.583586 1.7716 35 36 34
-0.40183 0.561592 1.70483 36 37 34
-0.392901 0.561592 1.70483 37 37 34
-0.394444 0.576909 1.75133 36 36 33
-0.378826 0.567258 1.72203 36 35 33
-0.362515 0.556075 1.68808 36 36 33
-0.378625 0.595306 1.80718 37 37 34
-0.351349 0.566584 1.71999 37 37 35
-0.33599 0.556075 1.68808 36 37 34
-0.337643 0.573914 1.74224 36 37 34
-0.327615 0.572337 1.73745 36 37 34
-0.324775 0.583586 1.7716 36 36 34
-0.313031 0.579027 1.75776 36 36 33
-0.306216 0.583586 1.7716 34 35 31
-0.291213 0.572337 1.73745 34 35 31
-0.285411 0.579027 1.75776 35 36 33
-0.273012 0.572337 1.73745 35 37 34
-0.266997 0.579027 1.75776 35 36 33
-0.25982 0.583586 1.7716 35 36 32
-0.243531 0.567258 1.72203 35 36 33
-0.229888 0.556075 1.68808 36 37 34
-0.23017 0.579027 1.75776 36 37 34
-0.220963 0.579027 1.75776 36 37 34
-0.20931 0.572337 1.73745 35 37 32
-0.19645 0.561592 1.70483 35 36 32
-0.194865 0.583586 1.7716 35 36 32
-0.180393 0.567258 1.72203 35 36 32
-0.167995 0.556075 1.68808 35 36 32
-0.157807 0.55137 1.6738 35 36 33
-0.151803 0.561592 1.70483 35 35 32
-0.148468 0.583586 1.7716 34 35 32
-0.135295 0.567258 1.72203 35 36 32
-0.127406 0.572337 1.73745 35 36 33
-0.119688 0.579027 1.75776 35 36 32
-0.105943 0.555239 1.68555 34 35 32
-0.10343 0.591349 1.79517 36 36 33
-0.0892957 0.561592 1.70483 36 37 34
-0.0825581 0.576909 1.75133 35 36 33
-0.0714365 0.561592 1.70483 34 35 31
-0.0618929 0.556075 1.68808 35 36 33
-0.052467 0.549953 1.6695 36 36 33
-0.0433679 0.545492 1.65596 36 36 33
-0.0364017 0.572337 1.73745 35 36 32
-0.0258389 0.54168 1.64438 35 36 31
-0.0180393 0.567258 1.72203 34 35 31
-0.00927928 0.583586 1.7716 34 35 31
0 0.571118 1.73375 34 35 32
0.00884184 0.556075 1.68808 35 36 33
0.0177041 0.556716 1.69003 34 35 33
0.0270268 0.566584 1.71999 34 35 33
0.0364017 0.572337 1.73745 34 35 33
0.0438352 0.55137 1.6738 35 36 33
0.0540537 0.566584 1.71999 35 36 34
0.0635672 0.571118 1.73375 35 37 34
0.0739109 0.581044 1.76388 36 37 34
0.0795765 0.556075 1.68808 35 36 32
0.0876704 0.55137 1.6738 35 36 32
0.0947425 0.54168 1.64438 35 36 32
0.110077 0.576909 1.75133 35 36 33
0.117256 0.567258 1.72203 36 37 34
0.125014 0.561592 1.70483 35 36 34
0.133943 0.561592 1.70483 35 36 33
0.144143 0.566584 1.71999 35 36 34
0.151803 0.561592 1.70483 34 35 33
0.159337 0.556716 1.69003 34 35 32
0.168189 0.556716 1.69003 34 35 32
0.184136 0.579027 1.75776 34 35 32
0.193343 0.579027 1.75776 34 35 32
0.205573 0.58767 1.784 35 36 33
0.20538 0.561592 1.70483 35 36 33
0.228522 0.598836 1.81789 35 35 32
0.22751 0.572337 1.73745 35 36 33
0.230153 0.556716 1.69003 35 36 33
0.234186 0.545492 1.65596 35 35 33
0.254812 0.572337 1.73745 34 35 33
0.270983 0.58767 1.784 33 34 32
0.267887 0.561592 1.70483 33 34 31
0.282113 0.572337 1.73745 34 35 33
0.285746 0.561592 1.70483 34 35 34
0.303824 0.579027 1.75776 33 34 32
0.291396 0.539008 1.63628 32 34 31
0.318515 0.572337 1.73745 33 35 33
0.338498 0.591349 1.79517 34 36 34
0.32438 0.55137 1.6738 34 36 34
0.34234 0.566584 1.71999 32 34 32
0.359065 0.579027 1.75776 30 33 31
0.364017 0.572337 1.73745 30 33 31
0.373117 0.572337 1.73745 32 35 34
0.371357 0.556075 1.68808 33 35 34
0.391318 0.572337 1.73745 31 34 33
0.41372 0.591349 1.79517 30 33 32
0.410647 0.573914 1.74224 31 34 34
0.41076 0.561592 1.70483 33 36 35
0.42772 0.572337 1.73745 34 37 36
0.43682 0.572337 1.73745 35 38 37
0.441438 0.566584 1.71999 35 38 37
0.456274 0.573914 1.74224 34 37 37
0.4654 0.573914 1.74224 34 36 36
0.502253 0.607449 1.84404 33 35 35
0.491802 0.583586 1.7716 34 36 36
0.477459 0.556075 1.68808 35 37 36
0.491126 0.561592 1.70483 34 36 36
0.52258 0.586888 1.78162 34 36 36
0.514121 0.567258 1.72203 34 36 36
0.533994 0.579027 1.75776 34 36 36
0.547477 0.583586 1.7716 34 36 37
0.576397 0.604173 1.8341 34 35 36
0.5502 0.567258 1.72203 31 34 35
0.591951 0.600461 1.82283 30 34 35
0.587902 0.586888 1.78162 32 35 37
0.584031 0.573914 1.74224 34 37 38
0.587193 0.568143 1.72472 34 37 38
0.602282 0.573914 1.74224 35 38 39
0.634197 0.595306 1.80718 35 38 39
0.634561 0.586888 1.78162 35 38 39
0.662857 0.604173 1.8341 35 37 38
0.638784 0.573914 1.74224 36 38 39
0.656839 0.581823 1.76625 35 38 39
0.687428 0.600461 1.82283 34 37 38
0.696975 0.600461 1.82283 34 37 38
0.651979 0.554105 1.68211 34 38 39
0.720496 0.604173 1.8341 35 38 39
0.678647 0.561592 1.70483 34 37 39
0.743721 0.607449 1.84404 34 38 39
0.727879 0.586888 1.78162 34 38 40
0.763038 0.607449 1.84404 34 38 40
0.752218 0.591349 1.79517 34 38 40
0.782356 0.607449 1.84404 34 38 40
0.742347 0.569355 1.7284 34 38 40
0.760211 0.576032 1.74867 34 38 40
0.76937 0.576032 1.74867 33 38 39
0.820991 0.607449 1.84404 34 38 39
0.817321 0.597702 1.81445 34 39 40
0.776872 0.561592 1.70483 34 38 40
0.849967 0.607449 1.84404 34 38 39
0.853312 0.602988 1.8305 34 38 39
0.838136 0.585683 1.77797 35 39 40
0.886926 0.612966 1.86079 34 38 39
0.86505 0.591349 1.79517 34 38 39
0.906419 0.612966 1.86079 33 37 38
0.872252 0.583586 1.7716 32 37 38
0.966462 0.639811 1.94228 33 37 38
0.935659 0.612966 1.86079 33 37 39
0.980341 0.635618 1.92955 33 37 39
0.909369 0.583586 1.7716 34 38 40
0.964898 0.612966 1.86079 35 39 40
0.954761 0.600461 1.82283 35 39 41
0.97553 0.607449 1.84404 34 39 40
0.985189 0.607449 1.84404 34 39 40
0.96848 0.591349 1.79517 34 38 40
1.01363 0.612966 1.86079 34 38 40
1.09994 0.658824 2 34 39 40
1.06646 0.632745 1.92083 34 38 39
1.12089 0.658824 2 34 38 39
1.01549 0.591349 1.79517 34 38 38
1.09664 0.632745 1.92083 33 38 39
1.09174 0.62419 1.89486 33 38 38
1.10166 0.62419 1.89486 33 38 39
1.06933 0.600461 1.82283 34 38 39
1.04037 0.579027 1.75776 34 38 39
1.11918 0.617428 1.87433 34 39 40
1.20469 0.658824 2 34 39 39
1.21517 0.658824 2 34 38 39
1.0772 0.579027 1.75776 34 38 39
1.23612 0.658824 2 34 38 39
1.2466 0.658824 2 32 36 39
-0.716033 0.381225 1.13921 36 37 31
-0.750969 0.403186 1.20483 36 37 31
-0.777372 0.420898 1.25776 35 36 31
-0.770784 0.420898 1.25776 34 35 30
-0.835024 0.459908 1.37433 34 36 31
-0.861086 0.478386 1.42955 35 36 32
-0.853599 0.478386 1.42955 34 36 32
-0.813428 0.459908 1.37433 34 36 32
-0.737845 0.420898 1.25776 35 36 33
-0.753004 0.433415 1.29517 35 36 34
-0.74622 0.433415 1.29517 35 36 34
-0.804806 0.471731 1.40967 36 37 34
-0.848523 0.501961 1.5 36 37 35
-0.696205 0.415703 1.24224 36 37 34
-0.74622 0.449771 1.34404 35 36 34
-0.824953 0.501961 1.5 36 37 35
-0.817096 0.501961 1.5 36 37 34
-0.80924 0.501961 1.5 35 36 32
-0.734245 0.459908 1.37433 35 36 32
-0.876031 0.554151 1.65596 35 36 32
-0.738354 0.471731 1.40967 35 36 32
-0.824655 0.53219 1.59033 35 36 33
-0.875097 0.570506 1.70483 35 36 32
-0.841336 0.554151 1.65596 35 35 32
-0.789665 0.525535 1.57045 35 36 33
-0.893258 0.600736 1.79517 36 36 33
-0.821984 0.558683 1.6695 35 36 33
-0.806642 0.554151 1.65596 35 36 33
-0.82152 0.570506 1.70483 35 35 32
-0.812591 0.570506 1.70483 35 35 33
-0.780621 0.554151 1.65596 35 36 33
-0.771948 0.554151 1.65596 34 35 31
-0.749312 0.544014 1.62567 34 35 32
-0.776872 0.570506 1.70483 35 36 34
-0.808634 0.600736 1.79517 35 36 33
-0.775666 0.583023 1.74224 35 36 32
-0.72858 0.554151 1.65596 35 36 33
-0.801673 0.617091 1.84404 35 36 33
-0.771023 0.600736 1.79517 36 36 34
-0.723295 0.570506 1.70483 36 37 34
-0.732733 0.585175 1.74867 36 37 34
-0.771965 0.62431 1.86561 36 37 34
-0.768889 0.629795 1.882 36 37 34
-0.714504 0.592849 1.7716 35 36 33
-0.705225 0.592849 1.7716 35 36 34
-0.705204 0.600736 1.79517 35 36 33
-0.695801 0.600736 1.79517 35 35 33
-0.705086 0.617091 1.84404 34 35 32
-0.681525 0.604755 1.80718 34 35 33
-0.67206 0.604755 1.80718 36 37 34
-0.649549 0.592849 1.7716 35 37 34
-0.644752 0.596999 1.784 34 36 34
-0.607211 0.570506 1.70483 35 36 34
-0.626063 0.596999 1.784 34 36 33
-0.607649 0.588218 1.75776 35 36 34
-0.598442 0.588218 1.75776 35 37 34
-0.601774 0.600736 1.79517 35 37 34
-0.587902 0.596204 1.78162 36 37 34
-0.579342 0.596999 1.784 36 37 34
-0.566036 0.592849 1.7716 35 36 32
-0.576397 0.613763 1.8341 35 35 32
-0.547477 0.592849 1.7716 35 35 32
-0.533994 0.588218 1.75776 36 35 32
-0.535955 0.600736 1.79517 35 36 33
-0.530075 0.604755 1.80718 36 36 33
-0.51036 0.592849 1.7716 36 37 34
-0.491422 0.581422 1.73745 36 36 33
-0.491802 0.592849 1.7716 35 35 32
-0.496475 0.609992 1.82283 35 36 33
-0.469547 0.588218 1.75776 35 35 33
-0.450983 0.576263 1.72203 35 35 32
-0.454685 0.592849 1.7716 35 35 33
-0.44031 0.586067 1.75133 34 36 33
-0.423924 0.576263 1.72203 34 35 32
-0.414905 0.576263 1.72203 35 36 33
-0.423122 0.600736 1.79517 36 37 34
-0.401521 0.583023 1.74224 37 37 34
-0.387385 0.575577 1.71999 37 37 34
-0.38973 0.592849 1.7716 36 36 34
-0.362515 0.564901 1.68808 36 36 33
-0.386349 0.617091 1.84404 36 37 34
-0.348253 0.570506 1.70483 38 38 35
-0.345816 0.581422 1.73745 38 38 35
-0.327148 0.564901 1.68808 37 38 35
-0.334054 0.592849 1.7716 37 37 34
-0.312535 0.570506 1.70483 36 37 34
-0.303605 0.570506 1.70483 35 36 33
-0.294676 0.570506 1.70483 34 35 31
-0.294618 0.588218 1.75776 34 35 32
-0.287658 0.592849 1.7716 34 36 33
-0.265561 0.565553 1.69003 35 36 33
-0.266997 0.588218 1.75776 36 37 34
-0.252551 0.576263 1.72203 37 38 35
-0.243531 0.576263 1.72203 37 38 35
-0.244471 0.600736 1.79517 36 37 34
-0.220714 0.564052 1.68555 36 37 34
-0.209868 0.558683 1.6695 36 37 33
-0.20538 0.570506 1.70483 36 37 33
-0.204144 0.592849 1.7716 35 36 32
-0.189188 0.575577 1.71999 35 36 32
-0.173471 0.554151 1.65596 35 36 32
-0.169662 0.570506 1.70483 35 36 32
-0.159337 0.565553 1.69003 35 36 32
-0.148657 0.558683 1.6695 34 35 31
-0.141633 0.565553 1.69003 34 35 32
-0.131506 0.560122 1.6738 35 36 33
-0.127406 0.581422 1.73745 35 36 32
-0.112756 0.554151 1.65596 34 35 32
-0.102179 0.544014 1.62567 35 36 32
-0.0990984 0.575577 1.71999 36 37 34
-0.0892957 0.570506 1.70483 36 37 34
-0.0835135 0.592849 1.7716 36 36 33
-0.0728033 0.581422 1.73745 35 36 32
-0.0631377 0.576263 1.72203 36 36 33
-0.054118 0.576263 1.72203 36 36 33
-0.0455021 0.581422 1.73745 36 37 33
-0.0373271 0.596204 1.78162 36 37 33
-0.0267887 0.570506 1.70483 36 37 33
-0.018251 0.583023 1.74224 34 36 32
-0.00857048 0.547564 1.63628 34 35 30
0 0.581422 1.73745 34 35 32
0.00901967 0.576263 1.72203 35 36 33
0.0176837 0.564901 1.68808 35 36 33
0.0265561 0.565553 1.69003 35 36 33
0.0366925 0.586067 1.75133 35 36 33
0.0454051 0.580183 1.73375 36 37 34
0.0535774 0.570506 1.70483 35 37 34
0.0642118 0.586067 1.75133 36 37 34
0.0728033 0.581422 1.73745 35 36 33
0.0795765 0.564901 1.68808 35 36 32
0.0884184 0.564901 1.68808 35 36 32
0.101627 0.590267 1.76388 35 36 32
0.106224 0.565553 1.69003 35 36 34
0.111968 0.550278 1.64438 36 37 34
0.121836 0.556003 1.66149 35 36 34
0.131168 0.558683 1.6695 35 36 34
0.144315 0.576263 1.72203 35 36 33
0.151803 0.570506 1.70483 34 35 33
0.163807 0.581422 1.73745 34 35 32
0.167995 0.564901 1.68808 34 35 32
0.172259 0.550278 1.64438 33 35 31
0.191109 0.581422 1.73745 33 34 31
0.198197 0.575577 1.71999 35 36 32
0.217709 0.604755 1.80718 36 37 34
0.216215 0.575577 1.71999 35 36 33
0.225492 0.576263 1.72203 36 36 34
0.229888 0.564901 1.68808 35 36 34
0.252294 0.596999 1.784 35 36 33
0.25779 0.588218 1.75776 33 34 31
0.26602 0.586067 1.75133 32 33 30
0.282082 0.600736 1.79517 33 35 32
0.289671 0.596999 1.784 34 36 34
0.288629 0.576263 1.72203 34 35 34
0.302713 0.586067 1.75133 33 35 33
0.309414 0.581422 1.73745 33 35 34
0.315313 0.575577 1.71999 34 35 34
0.336392 0.596999 1.784 35 36 35
0.333728 0.576263 1.72203 36 38 36
0.339324 0.570506 1.70483 35 37 35
0.351767 0.576263 1.72203 32 35 33
0.368272 0.588218 1.75776 31 34 33
0.369806 0.576263 1.72203 32 34 34
0.386686 0.588218 1.75776 32 34 34
0.391318 0.581422 1.73745 32 35 34
0.389041 0.564901 1.68808 33 36 35
0.414306 0.588218 1.75776 34 37 37
0.414905 0.576263 1.72203 35 38 37
0.423924 0.576263 1.72203 35 38 38
0.416331 0.554151 1.65596 36 39 38
0.454685 0.592849 1.7716 35 38 38
0.485251 0.62005 1.85288 34 37 37
0.460003 0.576263 1.72203 34 37 36
0.499544 0.613763 1.8341 34 36 36
0.494585 0.596204 1.78162 35 37 37
0.515571 0.609992 1.82283 35 37 37
0.51036 0.592849 1.7716 34 35 36
0.505101 0.576263 1.72203 33 35 35
0.508985 0.570506 1.70483 33 35 35
0.533994 0.588218 1.75776 33 35 36
0.53299 0.577161 1.72472 33 35 36
0.564163 0.600736 1.79517 33 35 36
0.566036 0.592849 1.7716 31 34 35
0.59561 0.613763 1.8341 30 34 35
0.592371 0.600736 1.79517 32 35 36
0.593874 0.592849 1.7716 33 36 37
0.603153 0.592849 1.7716 34 37 38
0.647947 0.627228 1.87433 35 37 39
0.625229 0.596204 1.78162 35 38 39
0.634561 0.596204 1.78162 35 37 39
0.629659 0.583023 1.74224 34 37 38
0.680353 0.620964 1.85562 35 37 39
0.662557 0.596204 1.78162 35 38 39
0.682578 0.605689 1.80997 35 38 39
0.686399 0.600736 1.79517 35 38 39
0.706523 0.609992 1.82283 35 38 39
0.705204 0.600736 1.79517 35 39 40
0.696097 0.585175 1.74867 34 38 39
0.735166 0.609992 1.82283 33 37 39
0.733412 0.600736 1.79517 33 38 39
0.74894 0.605689 1.80997 33 38 40
0.746543 0.596204 1.78162 33 38 40
0.745751 0.588218 1.75776 32 37 39
0.751052 0.585175 1.74867 33 38 40
0.78881 0.607189 1.81445 34 39 41
0.789828 0.600736 1.79517 34 39 40
0.826143 0.620964 1.85562 34 38 40
0.800885 0.594979 1.77797 34 38 40
0.776872 0.570506 1.70483 34 38 39
0.810198 0.588218 1.75776 34 38 39
0.819405 0.588218 1.75776 34 38 39
0.855336 0.607189 1.81445 35 39 40
0.872488 0.612559 1.8305 34 38 39
0.888602 0.617091 1.84404 34 38 39
0.883847 0.607189 1.81445 34 38 39
0.883856 0.600736 1.79517 33 37 39
0.893258 0.600736 1.79517 33 37 39
0.965849 0.642789 1.92083 34 38 39
0.980341 0.645707 1.92955 34 38 39
0.990448 0.645707 1.92955 34 38 40
0.956213 0.617091 1.84404 34 38 40
0.940272 0.600736 1.79517 35 39 40
0.984391 0.622696 1.86079 34 38 40
1.02622 0.642789 1.92083 34 38 40
0.994848 0.617091 1.84404 34 39 40
0.992951 0.609992 1.82283 35 39 41
1.0025 0.609992 1.82283 35 39 40
1.06026 0.639051 1.90967 34 39 39
1.12089 0.669281 2 34 38 38
1.04314 0.617091 1.84404 33 38 38
0.973323 0.570506 1.70483 33 38 38
1.15232 0.669281 2 32 37 38
1.10166 0.634098 1.89486 32 37 38
1.17327 0.669281 2 33 37 38
1.12151 0.634098 1.89486 34 38 39
1.19422 0.669281 2 35 39 40
1.14136 0.634098 1.89486 36 40 41
1.21517 0.669281 2 35 39 40
1.13007 0.617091 1.84404 34 38 39
1.33251 0.721471 2.15596 33 37 38
1.2466 0.669281 2 31 36 38
-0.75728 0.409486 1.20483 35 35 29
-0.774284 0.422198 1.24224 35 35 30
-0.683041 0.375602 1.10514 35 36 31
-0.793707 0.440188 1.29517 35 36 31
-0.786923 0.440188 1.29517 34 36 31
-0.827825 0.467094 1.37433 34 36 32
-0.802539 0.456798 1.34404 34 36 32
-0.813428 0.467094 1.37433 35 36 32
-0.80623 0.467094 1.37433 35 36 33
-0.753004 0.440188 1.29517 35 36 33
-0.724669 0.427475 1.25776 35 36 33
-0.739437 0.440188 1.29517 37 37 35
-0.808673 0.485861 1.42955 37 38 36
-0.696205 0.422198 1.24224 36 37 34
-0.793697 0.485861 1.42955 35 36 33
-0.755841 0.467094 1.37433 35 36 33
-0.785657 0.490188 1.44228 35 36 33
-0.857974 0.540506 1.59033 35 36 32
-0.69195 0.440188 1.29517 34 36 31
-0.727047 0.467094 1.37433 34 35 31
-0.703982 0.456798 1.34404 34 35 30
-0.858684 0.562809 1.65596 35 36 32
-0.85001 0.562809 1.65596 36 36 33
-0.866168 0.57942 1.70483 36 37 34
-0.789665 0.533747 1.57045 36 37 34
-0.791335 0.540506 1.59033 36 36 33
-0.839379 0.57942 1.70483 35 35 32
-0.730673 0.509804 1.5 35 35 31
-0.722816 0.509804 1.5 34 35 31
-0.79575 0.567412 1.6695 36 36 33
-0.828612 0.597409 1.75776 36 36 34
-0.825856 0.602112 1.7716 36 36 34
-0.749312 0.552514 1.62567 36 36 34
-0.754601 0.562809 1.65596 36 36 34
-0.767943 0.57942 1.70483 37 37 34
-0.811546 0.619524 1.82283 36 37 34
-0.833692 0.644006 1.89486 35 36 33
-0.792451 0.619524 1.82283 36 37 34
-0.799208 0.632426 1.86079 37 37 35
-0.848523 0.679739 2 36 36 34
-0.714365 0.57942 1.70483 35 35 32
-0.767827 0.630667 1.85562 35 36 33
-0.72885 0.606327 1.784 36 36 34
-0.724009 0.610122 1.79517 35 36 33
-0.730103 0.623353 1.8341 35 36 33
-0.732878 0.634065 1.86561 35 36 33
-0.681303 0.597409 1.75776 35 36 34
-0.675342 0.600294 1.76625 35 36 34
-0.681525 0.614204 1.80718 35 36 34
-0.653683 0.597409 1.75776 35 36 33
-0.644476 0.597409 1.75776 34 35 33
-0.654137 0.615153 1.80997 34 36 33
-0.630991 0.602112 1.7716 35 36 34
-0.626063 0.606327 1.784 35 36 34
-0.620579 0.610122 1.79517 35 37 34
-0.62443 0.623353 1.8341 35 37 34
-0.601774 0.610122 1.79517 35 37 34
-0.562563 0.57942 1.70483 36 38 34
-0.570822 0.597409 1.75776 36 37 34
-0.589182 0.626733 1.84404 35 36 32
-0.550387 0.595224 1.75133 34 34 30
-0.536925 0.590506 1.73745 34 34 31
-0.527824 0.590506 1.73745 35 35 31
-0.522868 0.595224 1.75133 35 35 32
-0.509623 0.590506 1.73745 35 35 32
-0.51036 0.602112 1.7716 36 36 33
-0.521571 0.626733 1.84404 36 36 33
-0.478042 0.585267 1.72203 35 36 33
-0.478754 0.597409 1.75776 36 36 34
-0.460003 0.585267 1.72203 36 36 34
-0.46034 0.597409 1.75776 36 36 34
-0.451133 0.597409 1.75776 36 36 34
-0.441926 0.597409 1.75776 35 36 33
-0.423924 0.585267 1.72203 35 35 32
-0.432525 0.610122 1.79517 35 35 33
-0.405885 0.585267 1.72203 35 35 33
-0.381637 0.562809 1.65596 36 36 33
-0.387846 0.585267 1.72203 36 36 34
-0.399914 0.617846 1.81789 36 36 34
-0.366112 0.57942 1.70483 36 36 34
-0.364017 0.590506 1.73745 35 36 33
-0.348253 0.57942 1.70483 36 36 33
-0.339324 0.57942 1.70483 36 36 33
-0.337643 0.592133 1.74224 36 37 34
-0.328517 0.592133 1.74224 36 36 33
-0.319392 0.592133 1.74224 36 36 33
-0.303605 0.57942 1.70483 35 36 33
-0.287586 0.56548 1.66382 36 36 33
-0.285746 0.57942 1.70483 36 37 34
-0.27961 0.585267 1.72203 35 36 34
-0.277538 0.600294 1.76625 35 36 34
-0.258957 0.57942 1.70483 36 37 35
-0.24286 0.562809 1.65596 37 38 36
-0.248584 0.597409 1.75776 37 38 35
-0.241261 0.602112 1.7716 36 37 34
-0.218613 0.567412 1.6695 36 37 34
-0.216472 0.585267 1.72203 36 37 33
-0.20538 0.57942 1.70483 35 36 32
-0.20255 0.597409 1.75776 35 36 32
-0.193343 0.597409 1.75776 35 36 32
-0.180393 0.585267 1.72203 35 37 33
-0.174929 0.597409 1.75776 35 36 33
-0.160732 0.57942 1.70483 35 36 33
-0.153334 0.585267 1.72203 35 36 33
-0.145607 0.590506 1.73745 35 36 33
-0.131506 0.568874 1.6738 35 36 33
-0.12991 0.602112 1.7716 34 36 32
-0.111416 0.55612 1.63628 33 34 30
-0.109205 0.590506 1.73745 33 34 30
-0.0971141 0.572866 1.68555 35 36 32
-0.0867357 0.562809 1.65596 36 37 34
-0.0835135 0.602112 1.7716 35 36 32
-0.0693886 0.562809 1.65596 34 34 30
-0.062507 0.57942 1.70483 35 35 31
-0.054118 0.585267 1.72203 35 35 31
-0.0455021 0.590506 1.73745 36 36 32
-0.0364017 0.590506 1.73745 36 36 33
-0.0265255 0.573728 1.68808 36 36 32
-0.0176837 0.573728 1.68808 35 36 31
-0.00874451 0.567412 1.6695 35 35 31
0 0.56105 1.65078 35 36 32
0.00892957 0.57942 1.70483 35 36 33
0.0185586 0.602112 1.7716 35 35 32
0.0280327 0.606327 1.784 35 36 32
0.0353673 0.573728 1.68808 35 36 33
0.0430648 0.558876 1.64438 35 36 33
0.0546025 0.590506 1.73745 35 36 33
0.0618929 0.573728 1.68808 35 36 33
0.0728033 0.590506 1.73745 35 36 32
0.0795765 0.573728 1.68808 35 36 32
0.0885203 0.574389 1.69003 34 35 32
0.0964374 0.568874 1.6738 34 36 32
0.110077 0.595224 1.75133 35 36 33
0.117256 0.585267 1.72203 34 36 33
0.129344 0.59949 1.76388 34 35 32
0.132628 0.573728 1.68808 34 35 32
0.144315 0.585267 1.72203 34 35 32
0.150311 0.573728 1.68808 34 35 32
0.160732 0.57942 1.70483 34 35 32
0.17117 0.584571 1.71999 34 35 32
0.178591 0.57942 1.70483 33 35 31
0.192636 0.595224 1.75133 34 35 32
0.20686 0.610122 1.79517 35 36 33
0.20931 0.590506 1.73745 35 36 33
0.224261 0.606327 1.784 34 35 32
0.238044 0.617846 1.81789 35 36 33
0.234511 0.585267 1.72203 35 36 34
0.236102 0.567412 1.6695 34 34 31
0.254812 0.590506 1.73745 32 33 29
0.256028 0.572866 1.68555 32 34 30
0.260207 0.562809 1.65596 33 35 32
0.274097 0.573728 1.68808 33 35 32
0.288629 0.585267 1.72203 32 34 33
0.294676 0.57942 1.70483 33 35 34
0.303605 0.57942 1.70483 33 35 34
0.324775 0.602112 1.7716 32 34 33
0.330232 0.595224 1.75133 32 34 33
0.347901 0.610122 1.79517 34 36 35
0.339324 0.57942 1.70483 35 37 36
0.348253 0.57942 1.70483 34 36 34
0.360787 0.585267 1.72203 32 34 33
0.373117 0.590506 1.73745 32 34 34
0.375042 0.57942 1.70483 31 34 34
0.395892 0.597409 1.75776 33 35 35
0.396865 0.585267 1.72203 35 38 38
0.40183 0.57942 1.70483 36 39 39
0.432525 0.610122 1.79517 36 39 38
0.42772 0.590506 1.73745 36 39 38
0.43682 0.590506 1.73745 37 39 39
0.451133 0.597409 1.75776 35 38 38
0.463964 0.602112 1.7716 34 37 36
0.469547 0.597409 1.75776 33 35 35
0.485253 0.605519 1.78162 32 34 34
0.48796 0.597409 1.75776 34 35 36
0.482197 0.57942 1.70483 35 36 37
0.480948 0.567412 1.6695 34 36 36
0.500056 0.57942 1.70483 34 35 36
0.524787 0.597409 1.75776 33 35 36
0.541243 0.605519 1.78162 33 35 36
0.550575 0.605519 1.78162 34 36 37
0.556757 0.602112 1.7716 35 37 38
0.556655 0.592133 1.74224 33 36 37
0.56578 0.592133 1.74224 31 35 36
0.584594 0.602112 1.7716 32 35 36
0.601774 0.610122 1.79517 32 35 37
0.606566 0.605519 1.78162 34 37 38
0.595298 0.585267 1.72203 34 37 39
0.60526 0.58618 1.72472 34 37 38
0.670314 0.639635 1.882 34 37 38
0.654137 0.615153 1.80997 34 37 38
0.638784 0.592133 1.74224 35 37 39
0.67788 0.619524 1.82283 35 38 39
0.671888 0.605519 1.78162 34 37 38
0.692058 0.615153 1.80997 35 38 39
0.701539 0.615153 1.80997 35 38 39
0.698447 0.604276 1.77797 34 37 39
0.709216 0.605519 1.78162 32 36 38
0.712347 0.600294 1.76625 30 36 38
0.726384 0.604276 1.77797 31 36 39
0.74894 0.615153 1.80997 32 37 39
0.767022 0.62213 1.8305 33 38 40
0.77661 0.62213 1.8305 33 38 40
0.732224 0.57942 1.70483 33 38 40
0.78881 0.616677 1.81445 34 39 41
0.829573 0.640824 1.8855 36 41 42
0.791573 0.604276 1.77797 35 40 41
0.787688 0.594319 1.74867 35 39 41
0.818037 0.610122 1.79517 34 39 40
0.863929 0.637029 1.87433 34 38 39
0.853312 0.62213 1.8305 36 40 41
0.87718 0.632426 1.86079 37 41 42
0.837819 0.597409 1.75776 36 40 41
0.90858 0.640824 1.8855 35 39 40
0.856232 0.597409 1.75776 34 39 40
0.950021 0.655796 1.92955 34 38 40
0.881531 0.602112 1.7716 35 39 40
0.902661 0.610122 1.79517 35 39 41
0.970236 0.649037 1.90967 35 39 41
1.02661 0.679739 2 35 39 41
0.865706 0.567412 1.6695 35 39 41
1.04756 0.679739 2 35 39 41
0.921674 0.592133 1.74224 34 39 40
1.06851 0.679739 2 34 38 40
0.939925 0.592133 1.74224 34 39 40
1.00451 0.626733 1.84404 35 39 41
1.09994 0.679739 2 34 39 40
1.06646 0.652832 1.92083 33 38 38
1.06196 0.644006 1.89486 33 38 38
1.03114 0.619524 1.82283 32 37 37
1.04069 0.619524 1.82283 32 37 37
1.15232 0.679739 2 32 37 38
1.16279 0.679739 2 32 37 38
1.03116 0.597409 1.75776 33 37 39
1.18374 0.679739 2 34 38 39
1.19422 0.679739 2 34 38 39
1.11075 0.626733 1.84404 35 39 40
1.21517 0.679739 2 35 39 40
1.22564 0.679739 2 34 38 39
1.23612 0.679739 2 33 37 39
1.2466 0.679739 2 31 36 38
-0.739894 0.406239 1.17717 36 35 29
-0.829297 0.459152 1.3305 36 36 30
-0.744659 0.415785 1.20483 36 36 31
-0.793707 0.44696 1.29517 36 37 32
-0.856491 0.486473 1.40967 35 36 32
-0.780139 0.44696 1.29517 34 35 31
-0.895663 0.517647 1.5 34 35 32
-0.713105 0.415785 1.20483 35 36 33
-0.788459 0.463826 1.34404 35 36 33
-0.799031 0.47428 1.37433 35 35 32
-0.74622 0.44696 1.29517 35 36 33
-0.739437 0.44696 1.29517 37 38 35
-0.899623 0.548821 1.59033 37 38 36
-0.813275 0.500781 1.45113 35 36 34
-0.719085 0.44696 1.29517 34 35 33
-0.874634 0.548821 1.59033 34 35 32
-0.817096 0.517647 1.5 34 36 33
-0.80924 0.517647 1.5 35 36 32
-0.718061 0.463826 1.34404 35 36 32
-0.860006 0.561014 1.62567 35 36 32
-0.867357 0.571468 1.65596 34 35 31
-0.814342 0.541958 1.57045 35 35 31
-0.834461 0.561014 1.62567 35 36 32
-0.726308 0.493336 1.42955 36 37 34
-0.789665 0.541958 1.57045 36 37 34
-0.893258 0.619509 1.79517 35 36 33
-0.815316 0.571468 1.65596 34 35 31
-0.806642 0.571468 1.65596 35 35 31
-0.783371 0.561014 1.62567 36 36 33
-0.714959 0.517647 1.5 37 37 34
-0.846245 0.619509 1.79517 37 37 34
-0.794731 0.588334 1.70483 36 36 34
-0.827439 0.619509 1.79517 36 36 34
-0.863467 0.653913 1.89486 36 37 34
-0.784792 0.601243 1.74224 37 37 34
-0.820991 0.636375 1.84404 37 38 35
-0.789828 0.619509 1.79517 37 37 34
-0.741154 0.588334 1.70483 37 37 34
-0.8202 0.659022 1.90967 36 36 34
-0.739164 0.601243 1.74224 35 36 33
-0.75842 0.624617 1.80997 35 35 33
-0.754261 0.629055 1.82283 35 36 33
-0.762193 0.64382 1.86561 35 36 33
-0.708924 0.6066 1.75776 35 36 33
-0.730103 0.632943 1.8341 35 35 33
-0.720496 0.632943 1.8341 35 36 33
-0.695801 0.619509 1.79517 35 36 34
-0.686399 0.619509 1.79517 36 36 34
-0.676996 0.619509 1.79517 35 36 34
-0.667593 0.619509 1.79517 34 35 32
-0.668332 0.629055 1.82283 35 36 33
-0.666451 0.636375 1.84404 36 37 34
-0.634561 0.614835 1.78162 36 37 34
-0.625229 0.614835 1.78162 35 37 34
-0.628436 0.627352 1.81789 35 36 33
-0.587193 0.595198 1.72472 35 36 33
-0.601774 0.619509 1.79517 35 37 34
-0.580028 0.6066 1.75776 36 38 35
-0.582969 0.619509 1.79517 36 37 34
-0.582404 0.629055 1.82283 35 35 32
-0.547529 0.601243 1.74224 34 34 30
-0.541214 0.604381 1.75133 34 35 31
-0.545358 0.619509 1.79517 35 35 32
-0.514121 0.594271 1.72203 35 36 33
-0.533219 0.627352 1.81789 35 36 33
-0.506374 0.6066 1.75776 36 36 33
-0.507747 0.619509 1.79517 36 36 33
-0.506023 0.629055 1.82283 36 36 34
-0.478754 0.6066 1.75776 36 36 34
-0.486928 0.629055 1.82283 37 37 35
-0.458656 0.604381 1.75133 36 37 34
-0.463816 0.623653 1.80718 37 37 34
-0.438023 0.601243 1.74224 35 36 33
-0.416046 0.583226 1.69003 34 35 32
-0.419772 0.601243 1.74224 35 35 32
-0.423122 0.619509 1.79517 34 34 32
-0.408288 0.611375 1.7716 35 35 33
-0.387846 0.594271 1.72203 36 36 34
-0.378826 0.594271 1.72203 36 36 34
-0.369806 0.594271 1.72203 36 36 34
-0.368272 0.6066 1.75776 35 35 32
-0.348253 0.588334 1.70483 34 35 31
-0.349858 0.6066 1.75776 35 35 32
-0.340652 0.6066 1.75776 36 36 33
-0.340763 0.623653 1.80718 36 36 33
-0.309464 0.582554 1.68808 36 36 33
-0.303605 0.588334 1.70483 35 36 33
-0.303824 0.6066 1.75776 36 36 33
-0.290593 0.598314 1.73375 35 36 33
-0.274097 0.582554 1.68808 35 36 33
-0.273012 0.599591 1.73745 35 36 33
-0.258957 0.588334 1.70483 35 36 34
-0.244846 0.576142 1.6695 36 37 35
-0.248584 0.6066 1.75776 36 37 35
-0.234511 0.594271 1.72203 36 37 34
-0.223239 0.588334 1.70483 36 37 34
-0.212204 0.582554 1.68808 36 37 33
-0.211756 0.6066 1.75776 35 36 33
-0.19645 0.588334 1.70483 35 36 33
-0.191635 0.601243 1.74224 35 36 33
-0.188054 0.619509 1.79517 35 37 33
-0.173384 0.601243 1.74224 36 37 34
-0.160732 0.588334 1.70483 35 37 34
-0.153334 0.594271 1.72203 36 37 34
-0.144315 0.594271 1.72203 35 37 34
-0.133943 0.588334 1.70483 34 36 33
-0.122423 0.576142 1.6695 34 35 32
-0.120631 0.611375 1.7716 33 34 30
-0.102179 0.561014 1.62567 33 34 31
-0.100105 0.599591 1.73745 34 35 32
-0.0912549 0.601243 1.74224 34 35 32
-0.0789033 0.577626 1.6738 35 35 31
-0.0707347 0.582554 1.68808 35 35 31
-0.0618929 0.582554 1.68808 35 35 31
-0.054118 0.594271 1.72203 35 35 31
-0.0446478 0.588334 1.70483 35 35 31
-0.0346943 0.571468 1.65596 35 35 31
-0.0262335 0.576142 1.6695 35 36 32
-0.0178591 0.588334 1.70483 35 36 32
-0.00901967 0.594271 1.72203 35 35 31
0 0.582554 1.68808 35 35 32
0.00892957 0.588334 1.70483 35 36 33
0.0185586 0.611375 1.7716 35 36 32
0.0264857 0.581679 1.68555 35 35 32
0.0368272 0.6066 1.75776 35 36 32
0.0455021 0.599591 1.73745 35 36 32
0.0520414 0.571468 1.65596 34 35 32
0.0637029 0.599591 1.73745 35 36 32
0.0707347 0.582554 1.68808 35 36 32
0.0789033 0.577626 1.6738 35 36 33
0.0876704 0.577626 1.6738 35 36 33
0.0990984 0.593564 1.71999 34 35 31
0.108107 0.593564 1.71999 34 35 32
0.118305 0.599591 1.73745 34 35 32
0.128424 0.604381 1.75133 34 35 32
0.133943 0.588334 1.70483 34 35 32
0.142873 0.588334 1.70483 34 35 32
0.153334 0.594271 1.72203 34 35 32
0.166299 0.608713 1.76388 34 35 33
0.175538 0.608713 1.76388 34 35 33
0.173471 0.571468 1.65596 34 35 32
0.189413 0.594271 1.72203 35 36 34
0.204144 0.611375 1.7716 35 36 33
0.207452 0.594271 1.72203 34 35 32
0.209868 0.576142 1.6695 34 35 32
0.22751 0.599591 1.73745 35 35 32
0.229888 0.582554 1.68808 34 35 32
0.233175 0.569 1.64881 33 34 31
0.250028 0.588334 1.70483 32 34 30
0.263912 0.599591 1.73745 33 34 31
0.27059 0.594271 1.72203 32 34 32
0.276817 0.588334 1.70483 32 34 32
0.288629 0.594271 1.72203 32 34 33
0.306216 0.611375 1.7716 32 35 34
0.303605 0.588334 1.70483 32 34 34
0.318515 0.599591 1.73745 30 33 32
0.340763 0.623653 1.80718 30 34 32
0.327148 0.582554 1.68808 31 34 32
0.346768 0.601243 1.74224 32 35 33
0.360316 0.608713 1.76388 33 35 34
0.364017 0.599591 1.73745 32 35 34
0.370383 0.595198 1.72472 32 34 34
0.382217 0.599591 1.73745 32 34 35
0.391318 0.599591 1.73745 33 36 36
0.405099 0.6066 1.75776 36 38 39
0.410647 0.601243 1.74224 37 39 39
0.425558 0.609529 1.76625 36 38 39
0.428898 0.601243 1.74224 35 38 38
0.419736 0.576142 1.6695 35 38 38
0.457867 0.615655 1.784 35 37 37
0.462563 0.609529 1.76625 34 36 37
0.469547 0.6066 1.75776 33 35 35
0.478754 0.6066 1.75776 32 34 35
0.478042 0.594271 1.72203 32 34 35
0.511144 0.623653 1.80718 34 35 36
0.506374 0.6066 1.75776 35 37 37
0.526552 0.619509 1.79517 34 36 37
0.528919 0.611375 1.7716 34 36 37
0.523957 0.595198 1.72472 34 36 37
0.545824 0.609529 1.76625 34 36 37
0.559907 0.614835 1.78162 34 36 37
0.561615 0.6066 1.75776 34 37 38
0.578571 0.614835 1.78162 33 36 37
0.587902 0.614835 1.78162 33 36 37
0.584031 0.601243 1.74224 33 36 38
0.620594 0.629055 1.82283 34 37 38
0.575173 0.57418 1.66382 34 37 38
0.613664 0.603462 1.74867 33 36 38
0.644657 0.624617 1.80997 34 37 38
0.670634 0.640369 1.85562 34 37 39
0.668332 0.629055 1.82283 36 38 39
0.662557 0.614835 1.78162 36 38 40
0.682578 0.624617 1.80997 35 38 39
0.692058 0.624617 1.80997 34 36 38
0.719231 0.640369 1.85562 33 36 38
0.724404 0.636375 1.84404 31 35 37
0.734062 0.636375 1.84404 29 35 37
0.729979 0.624617 1.80997 27 34 36
0.733412 0.619509 1.79517 29 35 38
0.723574 0.603462 1.74867 32 37 39
0.793992 0.653913 1.89486 34 39 41
0.733294 0.596468 1.7284 34 39 42
0.758603 0.609529 1.76625 34 39 41
0.795786 0.631702 1.8305 34 40 41
0.82466 0.646829 1.87433 35 40 42
0.807817 0.626164 1.81445 35 39 41
0.844295 0.646829 1.87433 35 39 40
0.847941 0.642155 1.86079 35 39 41
0.895249 0.670278 1.94228 35 39 41
0.878953 0.650683 1.8855 37 41 42
0.883564 0.646829 1.87433 37 41 42
0.893382 0.646829 1.87433 36 40 42
0.903199 0.646829 1.87433 35 39 41
0.883847 0.626164 1.81445 35 39 41
0.922834 0.646829 1.87433 35 39 41
0.995181 0.690196 2 35 40 42
0.902661 0.619509 1.79517 36 40 42
0.90009 0.611375 1.7716 35 40 42
0.946554 0.636375 1.84404 35 39 41
1.00055 0.665885 1.92955 34 39 40
1.00024 0.659022 1.90967 35 39 40
1.05803 0.690196 2 34 38 40
1.06851 0.690196 2 34 38 39
1.02227 0.653913 1.89486 34 38 40
0.957507 0.6066 1.75776 35 39 41
1.05026 0.659022 1.90967 34 38 40
0.996688 0.619509 1.79517 34 38 39
1.03348 0.636375 1.84404 33 38 38
1.13136 0.690196 2 34 38 39
1.08181 0.653913 1.89486 33 38 38
1.09174 0.653913 1.89486 33 37 38
1.11027 0.659022 1.90967 33 38 39
1.06933 0.629055 1.82283 34 38 39
1.12151 0.653913 1.89486 34 39 40
1.13144 0.653913 1.89486 34 38 39
1.20469 0.690196 2 33 38 39
1.03583 0.588334 1.70483 33 37 39
1.22564 0.690196 2 32 37 38
1.0864 0.6066 1.75776 31 37 38
1.11892 0.619509 1.79517 31 36 38
-0.780791 0.435189 1.24224 36 36 30
-0.807275 0.453732 1.29517 36 36 30
-0.744659 0.422085 1.20483 35 36 30
-0.793707 0.453732 1.29517 35 36 31
-0.911376 0.52549 1.5 35 36 31
-0.757609 0.440628 1.25776 35 36 32
-0.741751 0.435189 1.24224 35 35 32
-0.735245 0.435189 1.24224 35 36 33
-0.80623 0.481466 1.37433 35 36 33
-0.872093 0.52549 1.5 35 36 33
-0.77438 0.470854 1.34404 35 35 33
-0.739437 0.453732 1.29517 37 37 35
-0.848523 0.52549 1.5 38 39 37
-0.770238 0.481466 1.37433 37 37 36
-0.83281 0.52549 1.5 36 37 35
-0.824953 0.52549 1.5 35 36 34
-0.767888 0.493844 1.40967 35 36 33
-0.771234 0.500811 1.42955 35 36 33
-0.69195 0.453732 1.29517 36 37 34
-0.745738 0.493844 1.40967 35 36 33
-0.785669 0.52549 1.5 35 36 32
-0.858684 0.580127 1.65596 35 35 32
-0.816325 0.557137 1.59033 34 35 31
-0.797891 0.55017 1.57045 35 36 32
-0.754243 0.52549 1.5 35 36 33
-0.781439 0.55017 1.57045 34 35 31
-0.865439 0.615791 1.75776 34 35 31
-0.764988 0.55017 1.57045 36 36 33
-0.86505 0.628895 1.79517 36 37 34
-0.812591 0.597249 1.70483 37 37 35
-0.749686 0.557137 1.59033 37 37 34
-0.819405 0.615791 1.75776 35 35 33
-0.873392 0.663821 1.89486 35 35 32
-0.830642 0.638586 1.82283 35 36 33
-0.808634 0.628895 1.79517 36 36 34
-0.811546 0.638586 1.82283 36 37 34
-0.779459 0.620639 1.7716 36 37 34
-0.792451 0.638586 1.82283 35 36 33
-0.760901 0.620639 1.7716 35 35 32
-0.76162 0.628895 1.79517 35 36 33
-0.714365 0.597249 1.70483 36 36 33
-0.78736 0.666609 1.90282 36 36 34
-0.75338 0.646017 1.84404 36 36 34
-0.739709 0.642533 1.8341 35 36 33
-0.725618 0.638586 1.82283 34 35 32
-0.720496 0.642533 1.8341 34 35 32
-0.695801 0.628895 1.79517 34 34 32
-0.672096 0.615791 1.75776 35 36 34
-0.662889 0.615791 1.75776 36 36 34
-0.662557 0.624151 1.78162 35 36 33
-0.644476 0.615791 1.75776 35 36 33
-0.61614 0.597249 1.70483 36 37 34
-0.629085 0.618765 1.76625 36 37 34
-0.643643 0.642533 1.8341 36 36 34
-0.620579 0.628895 1.79517 35 36 32
-0.62443 0.642533 1.8341 34 35 32
-0.593874 0.620639 1.7716 35 36 33
-0.580028 0.615791 1.75776 35 36 33
-0.586869 0.633103 1.80718 35 36 33
-0.580827 0.636857 1.81789 35 35 32
-0.572856 0.638586 1.82283 34 34 30
-0.547477 0.620639 1.7716 35 35 31
-0.527824 0.608676 1.73745 36 35 32
-0.535955 0.628895 1.79517 36 36 33
-0.534666 0.638586 1.82283 36 36 34
-0.496082 0.603275 1.72203 37 37 34
-0.511144 0.633103 1.80718 36 37 34
-0.501678 0.633103 1.80718 36 36 34
-0.495131 0.636857 1.81789 35 36 33
-0.460003 0.603275 1.72203 36 36 34
-0.470136 0.628895 1.79517 36 36 34
-0.457867 0.624983 1.784 36 37 34
-0.433619 0.604216 1.72472 36 36 34
-0.428898 0.610353 1.74224 35 36 33
-0.419772 0.610353 1.74224 35 36 33
-0.409519 0.608676 1.73745 34 34 32
-0.396865 0.603275 1.72203 34 34 32
-0.395892 0.615791 1.75776 35 35 34
-0.378826 0.603275 1.72203 36 36 34
-0.382603 0.624151 1.78162 36 36 34
-0.368272 0.615791 1.75776 36 36 33
-0.361892 0.620639 1.7716 35 36 32
-0.346768 0.610353 1.74224 35 35 32
-0.326656 0.590492 1.68555 36 36 33
-0.334054 0.620639 1.7716 36 36 33
-0.322238 0.615791 1.75776 35 36 33
-0.303605 0.597249 1.70483 35 35 32
-0.31029 0.628895 1.79517 35 36 32
-0.293093 0.612605 1.74867 34 35 31
-0.282113 0.608676 1.73745 34 35 32
-0.260207 0.580127 1.65596 34 35 31
-0.266997 0.615791 1.75776 34 35 32
-0.252945 0.604216 1.72472 35 35 33
-0.246388 0.610353 1.74224 35 35 33
-0.244471 0.628895 1.79517 35 36 32
-0.225492 0.603275 1.72203 37 37 34
-0.21431 0.597249 1.70483 37 37 34
-0.211756 0.615791 1.75776 36 37 33
-0.20255 0.615791 1.75776 35 36 32
-0.191635 0.610353 1.74224 35 36 32
-0.185586 0.620639 1.7716 35 36 33
-0.172908 0.608676 1.73745 35 36 33
-0.165722 0.615791 1.75776 35 36 33
-0.155133 0.610353 1.74224 35 37 34
-0.144315 0.603275 1.72203 36 37 34
-0.132628 0.591381 1.68808 35 36 34
-0.130645 0.624151 1.78162 35 36 33
-0.117439 0.604216 1.72472 34 36 33
-0.104577 0.58288 1.66382 35 36 34
-0.0982252 0.597249 1.70483 34 35 32
-0.0910042 0.608676 1.73745 34 35 31
-0.0835135 0.620639 1.7716 34 35 30
-0.0699561 0.584871 1.6695 35 35 30
-0.0604527 0.577621 1.64881 35 35 31
-0.0518166 0.577621 1.64881 35 35 31
-0.046034 0.615791 1.75776 36 36 32
-0.0360787 0.603275 1.72203 35 36 32
-0.0273765 0.610353 1.74224 35 36 32
-0.0176837 0.591381 1.68808 36 36 32
-0.00910042 0.608676 1.73745 35 35 31
0 0.608676 1.73745 34 34 30
0.00892957 0.597249 1.70483 35 35 32
0.018251 0.610353 1.74224 35 35 32
0.0286428 0.638586 1.82283 35 36 32
0.0350681 0.586378 1.6738 36 36 33
0.0442092 0.591381 1.68808 35 36 32
0.053051 0.591381 1.68808 34 35 31
0.062507 0.597249 1.70483 34 35 32
0.0736544 0.615791 1.75776 35 36 32
0.0780621 0.580127 1.65596 35 36 32
0.0851491 0.569514 1.62567 35 36 32
0.0961896 0.584871 1.6695 34 35 32
0.104083 0.580127 1.65596 34 35 32
0.121475 0.624983 1.784 34 35 32
0.127757 0.610353 1.74224 33 35 32
0.136506 0.608676 1.73745 33 34 31
0.150444 0.628895 1.79517 32 34 31
0.150311 0.591381 1.68808 33 35 32
0.160732 0.597249 1.70483 34 36 33
0.171374 0.603275 1.72203 34 35 32
0.176837 0.591381 1.68808 33 35 31
0.187521 0.597249 1.70483 34 35 32
0.20255 0.615791 1.75776 34 34 31
0.207452 0.603275 1.72203 34 35 32
0.222703 0.620639 1.7716 34 35 31
0.231982 0.620639 1.7716 34 35 32
0.24295 0.624983 1.784 34 34 31
0.23873 0.591381 1.68808 34 35 32
0.25779 0.615791 1.75776 34 35 32
0.263912 0.608676 1.73745 33 34 32
0.267887 0.597249 1.70483 32 33 32
0.276817 0.597249 1.70483 31 32 32
0.285746 0.597249 1.70483 31 33 33
0.280992 0.569514 1.62567 31 34 33
0.315495 0.620639 1.7716 31 34 33
0.306058 0.584871 1.6695 31 33 32
0.324708 0.603275 1.72203 31 33 32
0.333728 0.603275 1.72203 30 33 31
0.346768 0.610353 1.74224 30 33 31
0.366706 0.628895 1.79517 32 34 33
0.378625 0.633103 1.80718 32 34 34
0.369806 0.603275 1.72203 32 34 34
0.38973 0.620639 1.7716 33 35 35
0.401267 0.624151 1.78162 35 38 37
0.389041 0.591381 1.68808 37 40 40
0.410647 0.610353 1.74224 35 38 38
0.414905 0.603275 1.72203 34 37 37
0.41969 0.597249 1.70483 33 35 36
0.441926 0.615791 1.75776 33 36 36
0.460733 0.628895 1.79517 34 36 37
0.446478 0.597249 1.70483 34 37 37
0.469547 0.615791 1.75776 35 37 37
0.464337 0.597249 1.70483 34 37 37
0.48796 0.615791 1.75776 33 36 36
0.511144 0.633103 1.80718 32 35 36
0.508819 0.618765 1.76625 33 35 36
0.515581 0.615791 1.75776 34 36 37
0.520153 0.610353 1.74224 33 36 37
0.549006 0.633103 1.80718 33 36 37
0.550575 0.624151 1.78162 33 36 37
0.576397 0.642533 1.8341 34 36 37
0.561615 0.615791 1.75776 34 36 37
0.59561 0.642533 1.8341 32 36 37
0.592371 0.628895 1.79517 33 36 37
0.614823 0.642533 1.8341 34 37 38
0.611177 0.628895 1.79517 35 38 39
0.624731 0.633103 1.80718 35 39 40
0.625229 0.624151 1.78162 35 38 40
0.607211 0.597249 1.70483 35 38 39
0.670634 0.650072 1.85562 36 38 40
0.663618 0.634081 1.80997 36 38 40
0.656839 0.618765 1.76625 36 38 40
0.682578 0.634081 1.80997 35 38 39
0.686399 0.628895 1.79517 34 37 39
0.701539 0.634081 1.80997 33 36 38
0.711019 0.634081 1.80997 31 36 38
0.720499 0.634081 1.80997 30 35 38
0.717072 0.622869 1.77797 28 35 37
0.770318 0.660542 1.8855 29 35 38
0.784068 0.663821 1.89486 33 38 40
0.767022 0.641273 1.8305 35 40 42
0.782356 0.646017 1.84404 35 39 42
0.796985 0.650072 1.85562 35 40 42
0.780426 0.628895 1.79517 35 40 42
0.789828 0.628895 1.79517 36 41 42
0.843617 0.663821 1.89486 35 39 41
