ply
format ascii 1.0
element vertex 1363
property float x
property float y
property float z
property uchar red
property uchar green
property uchar blue
end_header
0.874646 0.248155 1.75776 35 39 38
0.91657 0.257341 1.82283 35 39 39
0.919584 0.255525 1.80997 35 39 38
0.957627 0.263381 1.86561 33 37 37
0.94919 0.258423 1.8305 32 36 36
0.965871 0.260335 1.84404 32 36 36
0.997463 0.266188 1.8855 31 35 35
0.969381 0.256158 1.81445 31 35 35
0.976466 0.255525 1.80997 34 37 37
1.00451 0.260335 1.84404 35 38 38
1.01416 0.260335 1.84404 35 39 39
1.04064 0.264612 1.87433 35 39 39
0.99645 0.251007 1.77797 34 39 39
1.06028 0.264612 1.87433 34 39 39
1.03591 0.256158 1.81445 34 39 39
1.11576 0.273395 1.93655 34 39 39
1.0437 0.253435 1.79517 35 40 40
1.0916 0.2627 1.86079 36 41 40
1.04037 0.248155 1.75776 36 40 40
1.14028 0.2696 1.90967 36 40 40
1.08131 0.253435 1.79517 35 39 39
1.21517 0.282353 2 34 39 38
1.06768 0.245963 1.74224 35 39 39
1.23612 0.282353 2 35 39 39
1.14939 0.260335 1.84404 35 39 39
-0.719286 0.167544 1.14438 35 35 31
-0.688829 0.161798 1.10514 36 36 33
-0.678123 0.160633 1.09718 37 36 33
-0.695177 0.16608 1.13439 36 36 33
-0.689235 0.16608 1.13439 36 35 32
-0.631786 0.153561 1.04887 36 36 33
-0.677352 0.16608 1.13439 36 37 34
-0.641816 0.15876 1.08438 37 37 35
-0.671334 0.167544 1.14438 37 38 35
-0.604498 0.152223 1.03974 38 39 36
-0.648561 0.164803 1.12567 37 38 35
-0.598823 0.153561 1.04887 38 38 36
-0.641702 0.16608 1.13439 37 38 35
-0.619368 0.161798 1.10514 36 37 34
-0.653573 0.172344 1.17717 36 36 33
-0.641211 0.170695 1.1659 36 36 33
-0.623381 0.167544 1.14438 35 36 32
-0.617387 0.167544 1.14438 35 36 32
-0.650924 0.178377 1.21838 36 37 33
-0.589589 0.163168 1.1145 37 38 35
-0.646213 0.180627 1.23375 37 38 34
-0.648868 0.183202 1.25133 37 38 34
-0.654606 0.186708 1.27528 37 38 34
-0.626827 0.180627 1.23375 36 37 33
-0.605824 0.176394 1.20483 36 37 33
-0.549906 0.161798 1.10514 36 37 33
-0.657873 0.195624 1.33618 36 37 33
-0.64437 0.193669 1.32283 36 37 33
-0.647663 0.196775 1.34404 36 37 33
-0.606094 0.186169 1.2716 36 37 34
-0.647863 0.20121 1.37433 36 37 33
-0.647408 0.203328 1.3888 36 37 33
-0.649752 0.206382 1.40967 36 37 33
-0.626268 0.20121 1.37433 36 37 33
-0.675676 0.219608 1.5 35 36 32
-0.648951 0.213403 1.45762 35 37 32
-0.659962 0.219608 1.5 36 37 33
-0.652106 0.219608 1.5 36 37 33
-0.66524 0.226763 1.54887 35 36 32
-0.674718 0.232833 1.59033 35 36 31
-0.649015 0.226763 1.54887 35 37 33
-0.620679 0.219608 1.5 36 37 34
-0.636402 0.228058 1.55772 35 36 33
-0.641398 0.232833 1.59033 35 36 32
-0.654584 0.240746 1.64438 36 37 33
-0.695946 0.259371 1.7716 37 38 35
-0.581395 0.219608 1.5 37 38 34
-0.621588 0.238006 1.62567 37 38 34
-0.642929 0.249596 1.70483 36 38 34
-0.623712 0.245547 1.67717 36 37 33
-0.62507 0.249596 1.70483 36 37 32
-0.648788 0.262822 1.79517 36 37 33
-0.667582 0.274412 1.87433 36 37 33
-0.651195 0.271672 1.85562 36 38 34
-0.569983 0.241394 1.64881 36 38 34
-0.600526 0.258242 1.76388 35 37 33
-0.595107 0.25991 1.77528 35 37 33
-0.567032 0.251579 1.71838 34 36 32
-0.562067 0.253399 1.7308 35 37 32
-0.549031 0.251579 1.71838 35 36 32
-0.547529 0.255073 1.74224 35 37 32
-0.53103 0.251579 1.71838 36 38 33
-0.537191 0.258886 1.76828 36 37 33
-0.508985 0.249596 1.70483 37 38 33
-0.488637 0.243897 1.6659 36 37 33
-0.514413 0.261431 1.78567 35 36 32
-0.49576 0.256617 1.75279 35 36 32
-0.473267 0.249596 1.70483 35 36 32
-0.471411 0.253399 1.7308 35 37 32
-0.469547 0.257346 1.75776 36 37 33
-0.450025 0.251579 1.71838 36 38 34
-0.452704 0.258242 1.76388 36 37 32
-0.422346 0.245943 1.67988 35 37 32
-0.426083 0.253399 1.7308 35 37 33
-0.417017 0.253399 1.7308 36 37 34
-0.40183 0.249596 1.70483 36 38 34
-0.396022 0.251579 1.71838 36 38 34
-0.380637 0.247429 1.69003 37 38 34
-0.378021 0.251579 1.71838 37 38 34
-0.381241 0.25991 1.77528 37 37 33
-0.351387 0.245547 1.67717 36 37 33
-0.35416 0.25383 1.73375 36 37 33
-0.34234 0.251815 1.71999 36 36 32
-0.330394 0.249596 1.70483 35 35 31
-0.318673 0.247429 1.69003 35 36 32
-0.309821 0.247429 1.69003 36 37 33
-0.306017 0.251579 1.71838 36 37 34
-0.294676 0.249596 1.70483 36 37 34
-0.285746 0.249596 1.70483 36 37 34
-0.274413 0.247429 1.69003 36 37 34
-0.261077 0.243251 1.66149 37 37 34
-0.250747 0.241683 1.65078 37 38 35
-0.248083 0.247655 1.69157 37 38 35
-0.241098 0.249596 1.70483 37 38 35
-0.230153 0.247429 1.69003 38 39 36
-0.223239 0.249596 1.70483 38 39 36
-0.206711 0.240746 1.64438 37 38 35
-0.208864 0.25383 1.73375 36 36 33
-0.189485 0.240746 1.64438 36 36 33
-0.185893 0.247429 1.69003 36 36 33
-0.180179 0.251815 1.71999 36 37 34
-0.166909 0.245547 1.67717 37 38 35
-0.157062 0.243897 1.6659 36 38 35
-0.150485 0.247429 1.69003 36 37 34
-0.139241 0.243251 1.66149 36 37 34
-0.130538 0.243251 1.66149 37 38 35
-0.125014 0.249596 1.70483 37 38 35
-0.115076 0.247429 1.69003 37 38 35
-0.102179 0.238006 1.62567 36 37 34
-0.0966315 0.245547 1.67717 36 37 34
-0.0870257 0.243251 1.66149 36 37 35
-0.0783231 0.243251 1.66149 36 37 35
-0.0689036 0.240746 1.64438 36 37 34
-0.0610797 0.243897 1.6659 36 37 33
-0.0531606 0.247655 1.69157 36 37 34
-0.0428029 0.239283 1.63439 36 37 33
-0.0348103 0.243251 1.66149 36 37 34
-0.0261077 0.243251 1.66149 36 37 34
-0.0178591 0.249596 1.70483 37 38 34
-0.00842601 0.235521 1.60869 36 37 34
0 0.232833 1.59033 35 36 32
0.00851491 0.238006 1.62567 35 36 32
0.0172929 0.241683 1.65078 35 36 32
0.0261077 0.243251 1.66149 36 37 33
0.0338691 0.236675 1.61657 36 36 33
0.0439234 0.245547 1.67717 35 36 33
0.0527081 0.245547 1.67717 35 35 32
0.0614928 0.245547 1.67717 35 35 33
0.0691717 0.241683 1.65078 36 37 34
0.0810805 0.251815 1.71999 36 37 34
0.0886011 0.247655 1.69157 35 36 32
0.0966315 0.245547 1.67717 35 36 32
0.106321 0.247655 1.69157 36 36 32
0.111764 0.240307 1.64138 36 36 32
0.120361 0.240307 1.64138 36 36 32
0.131168 0.244424 1.6695 36 36 33
0.138343 0.241683 1.65078 36 36 33
0.146153 0.240307 1.64138 36 37 34
0.15838 0.245943 1.67988 37 37 34
0.174434 0.256617 1.75279 37 37 34
0.171944 0.240307 1.64138 37 38 34
0.180542 0.240307 1.64138 37 38 35
0.198011 0.251579 1.71838 37 38 35
0.197736 0.240307 1.64138 37 38 35
0.210832 0.245547 1.67717 37 37 35
0.216162 0.241683 1.65078 36 37 34
0.222575 0.239283 1.63439 37 37 34
0.235593 0.243897 1.6659 36 37 34
0.250028 0.249596 1.70483 36 37 34
0.242385 0.233623 1.59573 36 36 34
0.259394 0.241683 1.65078 36 36 34
0.266514 0.240307 1.64138 36 36 34
0.283265 0.247429 1.69003 36 37 34
0.297017 0.251579 1.71838 37 37 35
0.295887 0.243251 1.66149 36 37 34
0.309821 0.247429 1.69003 35 36 34
0.318964 0.247655 1.69157 35 36 34
0.330394 0.249596 1.70483 35 36 34
0.344492 0.253399 1.7308 36 36 34
0.340301 0.243897 1.6659 36 36 35
0.357183 0.249596 1.70483 36 36 35
0.363264 0.247655 1.69157 36 36 34
0.372125 0.247655 1.69157 35 36 34
0.380637 0.247429 1.69003 35 35 33
0.396393 0.251815 1.71999 35 36 33
0.414306 0.257346 1.75776 34 35 33
0.41076 0.249596 1.70483 35 35 33
0.429896 0.255666 1.74629 35 35 33
0.428619 0.249596 1.70483 34 35 33
0.44497 0.25383 1.73375 33 34 31
0.435128 0.243251 1.66149 33 34 32
0.447119 0.245053 1.6738 32 34 32
0.451026 0.242441 1.65596 34 35 33
0.461236 0.243251 1.66149 34 35 33
0.465099 0.240746 1.64438 33 35 32
0.486862 0.247429 1.69003 33 35 32
0.507673 0.253399 1.7308 33 35 32
0.524787 0.257346 1.75776 33 35 32
0.542471 0.261431 1.78567 32 34 32
0.53103 0.251579 1.71838 33 35 32
0.535774 0.249596 1.70483 33 35 33
0.544704 0.249596 1.70483 33 35 34
0.579883 0.261431 1.78567 33 35 34
0.571132 0.253399 1.7308 33 35 34
0.580198 0.253399 1.7308 32 35 34
0.594537 0.255666 1.74629 31 34 33
0.603684 0.255666 1.74629 31 34 33
0.602577 0.251389 1.71707 32 34 33
0.612034 0.251579 1.71838 32 35 34
0.639072 0.258886 1.76828 32 35 34
0.650899 0.25991 1.77528 32 35 34
0.655959 0.258242 1.76388 31 34 34
0.665198 0.258242 1.76388 32 35 34
0.646198 0.247429 1.69003 31 34 34
0.666662 0.251815 1.71999 32 35 34
0.69051 0.257346 1.75776 32 35 35
0.703905 0.258886 1.76828 31 35 35
0.699239 0.25383 1.73375 30 35 34
0.723784 0.259371 1.7716 30 35 34
0.738194 0.261187 1.784 30 35 35
0.726482 0.25383 1.73375 31 35 35
0.740885 0.255666 1.74629 31 35 35
0.732224 0.249596 1.70483 32 36 35
0.808955 0.27243 1.86079 35 39 38
0.799828 0.266149 1.81789 36 40 39
0.799231 0.262822 1.79517 37 41 40
0.798018 0.259371 1.7716 35 39 38
0.800991 0.257346 1.75776 34 37 37
0.837915 0.266149 1.81789 33 37 36
0.836842 0.262822 1.79517 33 37 36
0.83986 0.260839 1.78162 34 37 37
0.849192 0.260839 1.78162 33 36 36
0.837238 0.254372 1.73745 32 36 36
0.856232 0.257346 1.75776 32 36 36
0.903022 0.268521 1.8341 34 38 37
0.893258 0.262822 1.79517 35 39 39
0.91657 0.266872 1.82283 35 39 39
0.903324 0.260303 1.77797 35 39 39
0.929065 0.264989 1.80997 35 39 38
0.962214 0.271672 1.85562 33 37 37
0.965871 0.269977 1.84404 32 36 36
1.00663 0.278583 1.90282 31 35 35
1.01659 0.278583 1.90282 32 36 36
1.01721 0.276047 1.8855 34 38 38
0.997129 0.267995 1.8305 35 39 39
1.03697 0.276047 1.8855 36 40 40
0.987138 0.260303 1.77797 36 40 40
1.00609 0.262822 1.79517 36 40 40
1.01549 0.262822 1.79517 36 40 40
1.03591 0.265645 1.81445 36 40 40
1.05024 0.266872 1.82283 36 40 40
1.1259 0.283521 1.93655 36 40 40
1.08178 0.269977 1.84404 36 40 40
1.04856 0.259371 1.7716 36 40 40
1.08843 0.266872 1.82283 36 40 40
1.15701 0.28122 1.92083 36 40 40
1.15129 0.277418 1.89486 35 39 39
1.22564 0.29281 2 34 38 38
1.05369 0.249596 1.70483 34 38 38
1.11892 0.262822 1.79517 35 39 39
-0.659255 0.159045 1.04887 35 35 31
-0.713292 0.173528 1.14438 36 35 32
-0.591867 0.145208 0.957621 36 36 33
-0.642774 0.159045 1.04887 36 36 33
-0.607584 0.151634 1 36 36 32
-0.653175 0.16443 1.08438 36 36 32
-0.624215 0.158518 1.0454 35 36 33
-0.645337 0.165332 1.09033 35 35 32
-0.665469 0.172011 1.13439 35 35 32
-0.606034 0.15806 1.04238 36 36 34
-0.604317 0.159045 1.04887 37 37 34
-0.596837 0.158518 1.0454 37 38 35
-0.616783 0.165332 1.09033 37 37 34
-0.666946 0.180449 1.19003 36 36 33
-0.668931 0.182694 1.20483 35 36 32
-0.654479 0.180449 1.19003 35 36 32
-0.672062 0.187078 1.23375 35 35 32
-0.635076 0.178499 1.17717 36 36 32
-0.601393 0.170689 1.12567 36 36 33
-0.652675 0.187078 1.23375 37 37 34
-0.646213 0.187078 1.23375 37 37 34
-0.648868 0.189744 1.25133 37 38 34
-0.67648 0.199838 1.31789 37 38 34
-0.635759 0.189744 1.25133 37 37 34
-0.629205 0.189744 1.25133 36 37 34
-0.644463 0.196391 1.29517 36 37 34
-0.616097 0.189744 1.25133 36 37 34
-0.630895 0.196391 1.29517 36 36 33
-0.647663 0.203802 1.34404 35 36 32
-0.640623 0.203802 1.34404 35 36 31
-0.633583 0.203802 1.34404 34 36 31
-0.614354 0.199838 1.31789 35 36 31
-0.671856 0.221025 1.45762 35 36 31
-0.642368 0.213753 1.40967 35 37 32
-0.628317 0.211509 1.39486 35 37 32
-0.646059 0.22004 1.45113 36 37 33
-0.659962 0.227451 1.5 36 37 33
-0.673353 0.234862 1.54887 36 37 33
-0.689405 0.243393 1.60514 34 36 31
-0.657128 0.234862 1.54887 34 36 31
-0.67259 0.243393 1.60514 35 37 33
-0.620679 0.227451 1.5 36 37 34
-0.696506 0.258511 1.70483 36 37 34
-0.663197 0.249345 1.64438 36 37 33
-0.693537 0.264182 1.74224 35 36 32
-0.658851 0.254316 1.67717 36 37 33
-0.581395 0.227451 1.5 36 38 34
-0.638349 0.253153 1.6695 35 36 32
-0.676996 0.272208 1.79517 35 36 31
-0.64791 0.264182 1.74224 35 35 30
-0.635672 0.262895 1.73375 35 36 31
-0.574759 0.241149 1.59033 35 36 32
-0.61751 0.262895 1.73375 36 37 33
-0.60526 0.261526 1.72472 36 37 33
-0.589351 0.258511 1.70483 35 36 32
-0.594537 0.264797 1.74629 35 37 33
-0.571492 0.258511 1.70483 36 38 34
-0.577906 0.265561 1.75133 36 38 34
-0.553633 0.258511 1.70483 37 38 35
-0.544704 0.258511 1.70483 35 37 33
-0.539621 0.260367 1.71707 35 36 31
-0.53487 0.262449 1.7308 36 37 32
-0.517915 0.258511 1.70483 36 37 33
-0.513029 0.260564 1.71838 36 38 33
-0.496166 0.2565 1.69157 37 38 34
-0.491126 0.258511 1.70483 36 37 34
-0.469939 0.251939 1.66149 36 37 34
-0.465588 0.254316 1.67717 35 36 32
-0.464337 0.258511 1.70483 34 36 31
-0.466483 0.264797 1.74629 35 37 32
-0.433679 0.2511 1.65596 36 38 33
-0.427558 0.252608 1.6659 35 37 32
-0.439043 0.264797 1.74629 34 37 32
-0.416425 0.2565 1.69157 35 37 33
-0.430236 0.270768 1.78567 36 38 34
-0.40183 0.258511 1.70483 36 38 34
-0.399565 0.262895 1.73375 36 38 34
-0.37421 0.251939 1.66149 37 38 35
-0.372125 0.2565 1.69157 38 39 35
-0.369021 0.260564 1.71838 36 37 33
-0.350681 0.253805 1.6738 35 36 31
-0.348253 0.258511 1.70483 36 37 32
-0.339324 0.258511 1.70483 36 37 33
-0.325033 0.254316 1.67717 36 37 33
-0.318964 0.2565 1.69157 37 37 34
-0.310104 0.2565 1.69157 36 37 34
-0.308755 0.262895 1.73375 36 37 34
-0.289312 0.253805 1.6738 36 37 34
-0.278482 0.251939 1.66149 36 37 34
-0.276817 0.258511 1.70483 36 37 34
-0.255447 0.246506 1.62567 36 37 34
-0.267927 0.267465 1.76388 37 37 34
-0.250028 0.258511 1.70483 37 38 35
-0.241098 0.258511 1.70483 38 39 36
-0.226267 0.251939 1.66149 39 39 36
-0.221301 0.256266 1.69003 37 38 35
-0.208862 0.251939 1.66149 35 36 33
-0.20538 0.258511 1.70483 36 37 33
-0.192875 0.253805 1.6738 36 37 34
-0.182754 0.251939 1.66149 36 36 33
-0.177041 0.256266 1.69003 35 36 32
-0.169662 0.258511 1.70483 36 37 34
-0.160732 0.258511 1.70483 35 37 34
-0.151803 0.258511 1.70483 35 37 34
-0.140555 0.254316 1.67717 35 37 34
-0.130538 0.251939 1.66149 36 37 34
-0.119848 0.247828 1.63439 36 37 34
-0.109538 0.243933 1.60869 36 36 33
-0.107155 0.258511 1.70483 35 36 33
-0.0974612 0.2565 1.69157 36 36 34
-0.0892957 0.258511 1.70483 36 37 35
-0.0758341 0.243933 1.60869 36 37 35
-0.0689036 0.249345 1.64438 36 37 34
-0.058982 0.243933 1.60869 36 37 34
-0.0497921 0.240247 1.58438 36 37 34
-0.0429861 0.248889 1.64138 36 37 34
-0.0357183 0.258511 1.70483 36 37 34
-0.0254018 0.245127 1.61657 36 37 34
-0.0181621 0.262895 1.73375 37 37 34
-0.00908103 0.262895 1.73375 36 37 34
0 0.260564 1.71838 35 36 32
0.00864646 0.250315 1.65078 35 35 31
0.0172929 0.250315 1.65078 34 35 31
0.026354 0.254316 1.67717 35 36 32
0.0344518 0.249345 1.64438 36 36 34
0.0439234 0.254316 1.67717 35 36 33
0.0535774 0.258511 1.70483 35 35 32
0.0605252 0.250315 1.65078 36 37 34
0.0726482 0.262895 1.73375 36 38 35
0.0817293 0.262895 1.73375 36 37 34
0.0892957 0.258511 1.70483 35 36 32
0.0919392 0.241967 1.59573 35 36 32
0.0999582 0.241149 1.59033 35 36 32
0.111288 0.247828 1.63439 35 36 32
0.122159 0.252608 1.6659 36 36 33
0.131983 0.254727 1.67988 36 36 33
0.138343 0.250315 1.65078 36 36 33
0.14699 0.250315 1.65078 36 36 33
0.157062 0.252608 1.6659 36 37 33
0.163918 0.249759 1.64712 36 37 33
0.17489 0.253153 1.6695 37 37 34
0.181576 0.250315 1.65078 37 37 33
0.193575 0.254727 1.67988 36 36 33
0.203782 0.2565 1.69157 36 36 33
0.208166 0.2511 1.65596 36 36 33
0.217564 0.251939 1.66149 36 37 34
0.224808 0.250315 1.65078 36 37 34
0.237186 0.254316 1.67717 36 36 33
0.252014 0.260564 1.71838 36 36 33
0.253591 0.253153 1.6695 36 36 33
0.254242 0.245343 1.618 35 36 33
0.272325 0.254316 1.67717 36 36 34
0.288016 0.260564 1.71838 36 36 34
0.287185 0.251939 1.66149 36 36 34
0.300969 0.256266 1.69003 35 36 34
0.309821 0.256266 1.69003 35 35 33
0.324018 0.260564 1.71838 35 35 32
0.338429 0.264797 1.74629 35 35 33
0.327292 0.249345 1.64438 35 35 33
0.337212 0.250315 1.65078 34 35 33
0.354404 0.2565 1.69157 35 35 33
0.372322 0.262895 1.73375 35 36 34
0.365508 0.251939 1.66149 36 36 34
0.383971 0.258511 1.70483 36 37 35
0.389845 0.2565 1.69157 36 37 34
0.391615 0.251939 1.66149 36 36 34
0.404095 0.254316 1.67717 36 37 34
0.41288 0.254316 1.67717 36 37 35
0.417723 0.251939 1.66149 35 36 34
0.452704 0.267465 1.76388 35 36 34
0.442092 0.255971 1.68808 35 36 34
0.442352 0.2511 1.65596 34 36 33
0.460306 0.256266 1.69003 34 35 33
0.473267 0.258511 1.70483 34 35 33
0.47342 0.253805 1.6738 34 36 33
0.508137 0.267465 1.76388 34 35 33
0.520719 0.269193 1.77528 34 36 33
0.524787 0.266536 1.75776 34 35 32
0.517915 0.258511 1.70483 33 35 32
0.522746 0.2565 1.69157 33 35 33
0.554332 0.267465 1.76388 34 36 34
0.539974 0.256266 1.69003 34 36 34
0.548826 0.256266 1.69003 33 35 34
0.549717 0.252608 1.6659 32 35 34
0.58539 0.264797 1.74629 32 35 34
0.585033 0.260564 1.71838 32 35 34
0.617295 0.270768 1.78567 32 35 34
0.612831 0.264797 1.74629 32 34 33
0.612034 0.260564 1.71838 32 34 33
0.631124 0.264797 1.74629 32 35 34
0.640271 0.264797 1.74629 32 35 34
0.644753 0.262895 1.73375 32 35 34
0.637928 0.2565 1.69157 32 35 35
0.678794 0.269193 1.77528 32 35 34
0.678811 0.265561 1.75133 32 35 34
0.687984 0.265561 1.75133 31 35 35
0.678647 0.258511 1.70483 30 35 34
0.728085 0.273741 1.80527 30 35 34
0.763128 0.283238 1.8679 30 35 34
0.734586 0.269193 1.77528 30 35 34
0.756451 0.273741 1.80527 31 35 35
0.76162 0.272208 1.79517 31 36 35
0.762481 0.269193 1.77528 31 35 35
0.753725 0.262895 1.73375 35 38 37
0.789828 0.272208 1.79517 36 40 39
0.80373 0.273741 1.80527 36 40 38
0.788888 0.265561 1.75133 35 39 38
0.844337 0.28096 1.85288 34 38 37
0.803043 0.264182 1.74224 34 37 36
0.80275 0.261119 1.72203 34 37 36
0.828612 0.266536 1.75776 35 38 38
0.837819 0.266536 1.75776 34 37 37
0.847025 0.266536 1.75776 33 36 36
0.84867 0.264182 1.74224 32 36 36
0.865439 0.266536 1.75776 33 37 37
0.923337 0.281374 1.85562 35 38 38
0.895851 0.270155 1.78162 35 39 38
0.888439 0.265158 1.74867 35 39 39
0.935665 0.276403 1.82283 36 40 40
0.906758 0.265158 1.74867 36 39 39
0.915917 0.265158 1.74867 35 38 38
0.940575 0.2696 1.77797 34 37 38
0.977953 0.277566 1.8305 34 37 37
1.01721 0.285906 1.8855 34 38 38
1.00451 0.279619 1.84404 35 39 39
1.01416 0.279619 1.84404 36 40 40
1.0074 0.275133 1.81445 36 40 41
1.06196 0.287326 1.89486 37 42 42
1.05262 0.282159 1.86079 37 42 42
1.0249 0.272208 1.79517 36 41 41
1.11173 0.292586 1.92955 36 40 40
1.08186 0.282159 1.86079 36 40 40
1.06442 0.275133 1.81445 35 40 40
1.04856 0.268635 1.7716 35 40 40
1.14028 0.28957 1.90967 35 40 40
1.09797 0.276403 1.82283 35 40 39
1.12041 0.279619 1.84404 35 39 39
1.11707 0.276403 1.82283 34 39 38
1.23612 0.303268 2 34 38 38
1.03215 0.2511 1.65596 35 39 39
-0.681574 0.1701 1.08438 36 36 33
-0.651593 0.163984 1.0454 36 36 33
-0.646117 0.163984 1.0454 36 36 33
-0.664535 0.1701 1.08438 37 37 34
-0.607584 0.156863 1 37 37 34
-0.653175 0.1701 1.08438 36 36 32
-0.628713 0.165165 1.05293 35 35 31
-0.616954 0.16351 1.04238 34 34 30
-0.671334 0.179511 1.14438 34 34 31
-0.581395 0.156863 1 35 35 32
-0.671745 0.182887 1.1659 37 37 34
-0.57092 0.156863 1 38 38 35
-0.591362 0.163984 1.0454 37 37 34
-0.614908 0.172107 1.09718 36 36 33
-0.668931 0.188993 1.20483 35 36 32
-0.647407 0.184654 1.17717 36 36 33
-0.629686 0.181327 1.15596 36 37 34
-0.649999 0.188993 1.20483 37 37 34
-0.606052 0.177943 1.13439 37 37 34
-0.652675 0.193529 1.23375 36 36 33
-0.646213 0.193529 1.23375 37 37 34
-0.652202 0.197296 1.25776 38 38 34
-0.633289 0.193529 1.23375 37 38 34
-0.612135 0.188993 1.20483 36 37 34
-0.671871 0.209597 1.33618 36 37 34
-0.581933 0.183451 1.1695 35 36 33
-0.669989 0.213457 1.36079 35 37 33
-0.641966 0.206728 1.31789 35 36 32
-0.602988 0.196287 1.25133 34 36 32
-0.630512 0.207503 1.32283 35 36 32
-0.647863 0.215582 1.37433 34 36 31
-0.647408 0.217851 1.3888 34 36 30
-0.654899 0.222876 1.42083 34 36 31
-0.626268 0.215582 1.37433 35 36 31
-0.675676 0.235294 1.5 35 36 32
-0.648951 0.228646 1.45762 36 37 33
-0.659962 0.235294 1.5 36 37 33
-0.673353 0.242961 1.54887 36 37 34
-0.689405 0.251786 1.60514 35 36 32
-0.636392 0.235294 1.5 34 35 31
-0.628536 0.235294 1.5 35 36 33
-0.640902 0.242961 1.54887 36 37 34
-0.70832 0.271961 1.73375 36 37 34
-0.624677 0.242961 1.54887 36 38 34
-0.638961 0.251786 1.60514 36 37 33
-0.624738 0.249464 1.59033 35 36 32
-0.6087 0.246345 1.57045 35 37 32
-0.651858 0.267425 1.70483 35 36 31
-0.620132 0.257943 1.64438 34 35 30
-0.623712 0.263086 1.67717 34 35 30
-0.62507 0.267425 1.70483 35 36 31
-0.574759 0.249464 1.59033 36 37 33
-0.633258 0.278897 1.77797 36 37 32
-0.591513 0.2644 1.68555 35 36 31
-0.589351 0.267425 1.70483 35 36 31
-0.580422 0.267425 1.70483 35 37 33
-0.576032 0.269549 1.71838 36 38 34
-0.562563 0.267425 1.70483 36 38 34
-0.549327 0.265345 1.69157 36 38 34
-0.532266 0.261318 1.6659 36 37 33
-0.548803 0.273928 1.74629 36 37 32
-0.538404 0.273292 1.74224 36 37 32
-0.513886 0.265345 1.69157 36 37 33
-0.505026 0.265345 1.69157 36 37 33
-0.496533 0.265541 1.69282 36 37 33
-0.483157 0.263086 1.67717 36 37 34
-0.50506 0.280104 1.78567 37 38 34
-0.46246 0.261318 1.6659 36 38 34
-0.47563 0.273928 1.74629 36 37 33
-0.451865 0.265345 1.69157 36 37 33
-0.454051 0.271961 1.73375 36 37 33
-0.44497 0.271961 1.73375 35 37 32
-0.425285 0.265345 1.69157 35 37 32
-0.426808 0.271961 1.73375 35 37 33
-0.414023 0.269549 1.71838 35 38 33
-0.40183 0.267425 1.70483 36 38 34
-0.405099 0.275727 1.75776 36 38 34
-0.383971 0.267425 1.70483 36 37 33
-0.378376 0.269802 1.71999 36 37 33
-0.360172 0.263086 1.67717 36 37 33
-0.357183 0.267425 1.70483 36 37 33
-0.345229 0.265103 1.69003 37 38 34
-0.336684 0.265345 1.69157 36 37 34
-0.316742 0.256374 1.63439 36 37 34
-0.324322 0.269802 1.71999 36 37 34
-0.319392 0.273292 1.74224 36 37 34
-0.301244 0.265345 1.69157 36 37 34
-0.289894 0.263086 1.67717 36 38 34
-0.279221 0.261318 1.6659 36 37 34
-0.26804 0.258946 1.65078 36 37 33
-0.272431 0.271961 1.73375 35 36 33
-0.245551 0.25358 1.61657 36 37 34
-0.247857 0.265103 1.69003 37 38 35
-0.239005 0.265103 1.69003 38 38 35
-0.226267 0.260626 1.66149 37 37 34
-0.221301 0.265103 1.69003 36 36 34
-0.208862 0.260626 1.66149 36 37 34
-0.20538 0.267425 1.70483 36 37 34
-0.199783 0.271961 1.73375 36 37 34
-0.179772 0.256374 1.63439 36 37 33
-0.174051 0.260626 1.66149 36 37 34
-0.163646 0.257943 1.64438 36 37 34
-0.159337 0.265103 1.69003 35 37 34
-0.147944 0.260626 1.66149 35 36 33
-0.140555 0.263086 1.67717 34 36 32
-0.130538 0.260626 1.66149 35 36 32
-0.121836 0.260626 1.66149 35 36 33
-0.115076 0.265103 1.69003 35 36 33
-0.107155 0.267425 1.70483 35 36 33
-0.0990055 0.269549 1.71838 36 36 34
-0.0908103 0.271961 1.73375 36 37 35
-0.0770452 0.256374 1.63439 37 38 35
-0.0696205 0.260626 1.66149 37 38 35
-0.0614928 0.263086 1.67717 36 37 34
-0.0527081 0.263086 1.67717 37 37 34
-0.0450025 0.269549 1.71838 37 37 34
-0.0351387 0.263086 1.67717 36 37 33
-0.026177 0.261318 1.6659 37 37 34
-0.0175977 0.263511 1.67988 37 37 34
-0.00885203 0.265103 1.69003 36 37 33
0 0.261318 1.6659 35 36 32
0.00861295 0.257943 1.64438 34 35 31
0.016852 0.252344 1.60869 35 35 31
0.0267887 0.267425 1.70483 35 35 31
0.0357183 0.267425 1.70483 35 36 32
0.0423364 0.25358 1.61657 36 36 34
0.0518788 0.258946 1.65078 36 37 34
0.0610797 0.261318 1.6659 37 38 35
0.0714365 0.267425 1.70483 37 38 35
0.0803661 0.267425 1.70483 36 37 34
0.0892957 0.267425 1.70483 35 36 33
0.0957282 0.260626 1.66149 35 36 33
0.103758 0.258946 1.65078 36 36 33
0.113133 0.260626 1.66149 35 36 32
0.12105 0.258946 1.65078 35 36 33
0.129697 0.258946 1.65078 36 37 34
0.138343 0.258946 1.65078 36 36 33
0.14553 0.256374 1.63439 35 36 32
0.157062 0.261318 1.6659 35 36 33
0.17088 0.269345 1.71707 36 37 34
0.174513 0.261318 1.6659 36 37 34
0.181576 0.258946 1.65078 36 37 33
0.189139 0.257472 1.64138 35 36 33
0.19087 0.248531 1.58438 36 36 33
0.21431 0.267425 1.70483 36 36 34
0.224842 0.269345 1.71707 36 37 34
0.224808 0.258946 1.65078 35 36 33
0.235593 0.261318 1.6659 35 35 32
0.243672 0.260626 1.66149 36 36 33
0.262902 0.271498 1.7308 36 37 34
0.25278 0.252344 1.60869 36 36 34
0.263962 0.255006 1.62567 36 36 34
0.28111 0.263086 1.67717 36 36 34
0.306852 0.278475 1.77528 35 36 33
0.303605 0.267425 1.70483 35 36 33
0.305398 0.261318 1.6659 35 35 33
0.313292 0.260626 1.66149 35 35 33
0.327824 0.265345 1.69157 35 36 33
0.331575 0.261318 1.6659 34 34 32
0.348253 0.267425 1.70483 33 34 31
0.363241 0.271961 1.73375 34 35 32
0.362933 0.265103 1.69003 35 36 34
0.375042 0.267425 1.70483 36 37 34
0.383971 0.267425 1.70483 37 38 35
0.399565 0.271961 1.73375 36 37 35
0.409519 0.272541 1.73745 36 37 34
0.396196 0.257943 1.64438 36 37 34
0.42342 0.269802 1.71999 36 37 35
0.424898 0.265103 1.69003 36 37 34
0.425005 0.259758 1.65596 35 36 34
0.450447 0.269802 1.71999 35 36 34
0.443831 0.260626 1.66149 34 36 34
0.460306 0.265103 1.69003 34 36 34
0.478042 0.270123 1.72203 34 36 33
0.474373 0.263086 1.67717 34 36 33
0.495492 0.269802 1.71999 34 35 33
0.504501 0.269802 1.71999 34 36 33
0.500727 0.263086 1.67717 34 35 32
0.522029 0.269549 1.71838 33 35 32
0.526844 0.267425 1.70483 33 35 32
0.557913 0.278475 1.77528 34 36 34
0.561615 0.275727 1.75776 33 35 34
0.558031 0.269549 1.71838 32 35 33
0.571132 0.271498 1.7308 32 35 33
0.58539 0.273928 1.74629 33 35 34
0.598442 0.275727 1.75776 33 35 34
0.603684 0.273928 1.74629 32 35 34
0.620548 0.277378 1.76828 32 35 33
0.628243 0.276688 1.76388 32 35 34
0.621617 0.269802 1.71999 33 35 34
0.640271 0.273928 1.74629 32 35 34
0.649417 0.273928 1.74629 33 35 34
0.689193 0.286668 1.82751 32 35 34
0.674437 0.276688 1.76388 31 34 34
0.678811 0.274719 1.75133 31 34 33
0.697391 0.278475 1.77528 31 35 34
0.727481 0.286668 1.82751 31 36 35
0.700732 0.272541 1.73745 31 35 35
0.73754 0.28318 1.80527 30 35 34
0.784068 0.297233 1.89486 30 34 34
0.739109 0.276688 1.76388 31 35 35
0.737134 0.272541 1.73745 32 36 35
0.784914 0.286668 1.82751 32 36 36
0.785647 0.283479 1.80718 34 38 37
0.795113 0.283479 1.80718 35 38 37
0.817492 0.288029 1.83618 35 38 37
0.760398 0.264797 1.68808 35 38 37
0.76924 0.264797 1.68808 35 39 38
0.837915 0.28516 1.81789 34 38 37
0.836842 0.281595 1.79517 33 36 36
0.81177 0.270123 1.72203 34 37 37
0.837819 0.275727 1.75776 35 38 38
0.858524 0.27947 1.78162 34 37 37
0.867856 0.27947 1.78162 33 37 36
0.913617 0.291077 1.85562 33 37 37
0.886519 0.27947 1.78162 35 39 38
0.910104 0.283917 1.80997 34 38 38
0.930015 0.287137 1.8305 35 39 38
0.921467 0.281595 1.79517 36 40 39
0.94919 0.287137 1.8305 36 40 39
0.915917 0.274301 1.74867 36 39 39
0.940575 0.278897 1.77797 35 38 38
0.991372 0.291077 1.85562 34 38 38
0.987541 0.287137 1.8305 34 37 38
0.957507 0.275727 1.75776 34 37 38
1.09994 0.313726 2 36 40 40
0.987138 0.278897 1.77797 37 41 41
1.05046 0.294013 1.87433 38 42 42
1.0264 0.28462 1.81445 37 42 41
1.07009 0.294013 1.87433 36 40 40
1.01275 0.275727 1.75776 35 40 39
1.08186 0.291889 1.86079 35 39 39
1.03928 0.277898 1.7716 35 40 39
1.18374 0.313726 2 35 40 40
1.11109 0.291889 1.86079 35 40 40
1.09797 0.285934 1.82283 35 39 39
1.13882 0.294013 1.87433 35 39 39
1.17713 0.301307 1.92083 35 39 39
1.18719 0.301307 1.92083 35 39 39
1.18106 0.297233 1.89486 35 39 39
-0.628536 0.162092 1 37 38 35
-0.623298 0.162092 1 36 37 34
-0.701119 0.183874 1.13439 35 35 32
-0.708397 0.187371 1.15596 37 37 34
-0.63728 0.170014 1.04887 38 38 35
-0.629691 0.16945 1.0454 36 36 33
-0.622413 0.168961 1.04238 35 35 31
-0.591871 0.162092 1 35 35 32
-0.633075 0.174924 1.07917 36 36 34
-0.633915 0.176734 1.09033 36 36 34
-0.694174 0.195293 1.20483 37 37 34
-0.71441 0.20283 1.25133 37 37 34
-0.653905 0.187371 1.15596 37 37 34
-0.659739 0.190809 1.17717 36 36 33
-0.63537 0.185495 1.14438 35 36 32
-0.654479 0.192894 1.19003 36 37 34
-0.623381 0.185495 1.14438 37 37 34
-0.642013 0.192894 1.19003 37 37 34
-0.650924 0.197488 1.21838 37 37 34
-0.618686 0.189566 1.1695 37 37 34
-0.594168 0.183874 1.13439 36 37 33
-0.648868 0.20283 1.25133 37 38 34
-0.664814 0.209936 1.29517 37 38 34
-0.631139 0.201356 1.24224 36 37 34
-0.639396 0.206115 1.2716 36 37 33
-0.668783 0.217858 1.34404 36 37 34
-0.611619 0.201356 1.24224 36 37 35
-0.641966 0.213619 1.31789 35 36 33
-0.610177 0.205248 1.26625 34 35 31
-0.617328 0.209936 1.29517 35 36 32
-0.647863 0.222768 1.37433 35 37 33
-0.647408 0.225113 1.3888 35 36 32
-0.654899 0.230305 1.42083 35 36 31
-0.647457 0.230305 1.42083 34 36 31
-0.610638 0.219734 1.35562 34 36 31
-0.686686 0.250006 1.54238 35 37 32
-0.685356 0.252492 1.55772 36 37 33
-0.652106 0.243137 1.5 35 37 32
-0.644249 0.243137 1.5 35 36 31
-0.708305 0.270612 1.6695 35 36 32
-0.65272 0.252492 1.55772 36 37 34
-0.620679 0.243137 1.5 36 37 34
-0.636402 0.252492 1.55772 36 37 33
-0.647368 0.260179 1.60514 36 37 34
-0.678647 0.276339 1.70483 36 37 34
-0.705204 0.290981 1.79517 36 37 33
-0.616409 0.25778 1.59033 36 37 33
-0.641282 0.271855 1.67717 36 37 33
-0.668108 0.287161 1.7716 36 37 33
-0.623712 0.271855 1.67717 36 37 32
-0.651883 0.288193 1.77797 36 37 32
-0.642571 0.288193 1.77797 36 36 32
-0.615605 0.280159 1.7284 36 36 32
-0.619834 0.286294 1.76625 35 36 31
-0.598329 0.280548 1.7308 34 35 30
-0.598442 0.284918 1.75776 35 37 33
-0.58539 0.283059 1.74629 36 38 33
-0.562563 0.276339 1.70483 36 37 33
-0.570822 0.284918 1.75776 36 38 33
-0.553001 0.280548 1.7308 36 38 34
-0.535774 0.276339 1.70483 36 37 33
-0.522746 0.274189 1.69157 36 37 32
-0.537191 0.286624 1.76828 36 37 33
-0.508985 0.276339 1.70483 36 37 33
-0.507673 0.280548 1.7308 36 37 33
-0.495028 0.278534 1.71838 37 38 34
-0.478446 0.274189 1.69157 37 39 35
-0.484776 0.283059 1.74629 37 38 35
-0.471411 0.280548 1.7308 36 38 34
-0.455408 0.276339 1.70483 36 38 33
-0.450025 0.278534 1.71838 36 38 34
-0.441438 0.278795 1.71999 36 38 34
-0.416331 0.268417 1.65596 36 38 34
-0.429896 0.283059 1.74629 35 37 33
-0.420749 0.283059 1.74629 35 37 32
-0.398705 0.274189 1.69157 36 38 33
-0.386526 0.271855 1.67717 36 38 34
-0.38982 0.280548 1.7308 36 37 32
-0.366478 0.270029 1.6659 35 36 31
-0.366112 0.276339 1.70483 35 36 31
-0.351387 0.271855 1.67717 36 37 33
-0.348253 0.276339 1.70483 36 37 34
-0.336377 0.27394 1.69003 36 37 34
-0.330394 0.276339 1.70483 36 37 34
-0.313292 0.269314 1.66149 36 38 34
-0.315313 0.278795 1.71999 36 37 34
-0.300969 0.27394 1.69003 36 37 34
-0.294676 0.276339 1.70483 36 38 35
-0.278482 0.269314 1.66149 36 38 35
-0.283548 0.283059 1.74629 36 37 34
-0.265803 0.274189 1.69157 35 36 33
-0.26602 0.283876 1.75133 36 37 34
-0.241163 0.266541 1.64438 38 38 35
-0.243241 0.278795 1.71999 37 38 35
-0.226267 0.269314 1.66149 35 36 33
-0.215324 0.266541 1.64438 36 37 34
-0.210409 0.271309 1.6738 37 38 35
-0.20538 0.276339 1.70483 37 37 35
-0.19645 0.276339 1.70483 36 36 33
-0.189188 0.278795 1.71999 36 36 33
-0.177041 0.27394 1.69003 36 36 33
-0.166909 0.271855 1.67717 35 36 32
-0.160732 0.276339 1.70483 34 35 31
-0.14553 0.26492 1.63439 33 35 31
-0.138343 0.267578 1.65078 33 35 31
-0.133943 0.276339 1.70483 34 35 31
-0.121836 0.269314 1.66149 35 35 32
-0.113434 0.270029 1.6659 35 36 33
-0.106224 0.27394 1.69003 36 37 34
-0.0959824 0.270029 1.6659 36 37 35
-0.0842601 0.260756 1.60869 37 38 35
-0.078531 0.270029 1.6659 37 38 35
-0.0691717 0.267578 1.65078 37 38 35
-0.0610797 0.270029 1.6659 36 37 34
-0.0522154 0.269314 1.66149 36 37 34
-0.0428029 0.26492 1.63439 36 36 33
-0.0354404 0.274189 1.69157 36 36 32
-0.0270015 0.278534 1.71838 36 36 33
-0.0175977 0.272294 1.67988 36 36 33
-0.00856058 0.26492 1.63439 36 36 33
0 0.262033 1.61657 35 36 31
0.00892957 0.276339 1.70483 35 36 32
0.0172929 0.267578 1.65078 36 37 33
0.0249895 0.25778 1.59033 35 36 32
0.0351955 0.272294 1.67988 35 35 32
0.0439234 0.271855 1.67717 35 36 33
0.0535774 0.276339 1.70483 36 36 34
0.0605252 0.267578 1.65078 36 37 34
0.0708809 0.274189 1.69157 35 36 33
0.0778182 0.267578 1.65078 35 36 32
0.0878468 0.271855 1.67717 34 35 31
0.0990055 0.278534 1.71838 35 36 32
0.107155 0.276339 1.70483 35 36 33
0.116084 0.276339 1.70483 35 36 32
0.12105 0.267578 1.65078 34 36 32
0.135134 0.278795 1.71999 35 36 33
0.141762 0.274189 1.69157 35 36 33
0.151803 0.276339 1.70483 35 37 33
0.159482 0.274189 1.69157 35 36 32
0.16102 0.262263 1.618 36 37 33
0.177333 0.274392 1.69282 37 37 34
0.183239 0.270029 1.6659 36 37 33
0.198011 0.278534 1.71838 36 36 32
0.200159 0.269314 1.66149 36 36 33
0.21431 0.276339 1.70483 36 36 34
0.225013 0.278534 1.71838 36 36 33
0.226267 0.269314 1.66149 35 36 32
0.239005 0.27394 1.69003 36 36 33
0.245971 0.271855 1.67717 36 36 33
0.253044 0.270029 1.6659 36 36 33
0.26177 0.270029 1.6659 36 36 33
0.26804 0.267578 1.65078 36 36 33
0.283523 0.274189 1.69157 36 36 33
0.287185 0.269314 1.66149 35 36 33
0.301244 0.274189 1.69157 35 36 33
0.307464 0.271855 1.67717 35 35 33
0.324018 0.278534 1.71838 35 35 32
0.315052 0.263507 1.62567 35 35 32
0.342019 0.278534 1.71838 34 34 31
0.342602 0.271855 1.67717 34 35 32
0.340596 0.263507 1.62567 35 36 34
0.369021 0.278534 1.71838 35 36 34
0.368957 0.271855 1.67717 34 36 33
0.387022 0.278534 1.71838 35 36 33
0.399565 0.281026 1.73375 35 36 33
0.40183 0.276339 1.70483 35 36 34
0.414023 0.278534 1.71838 36 36 34
0.409021 0.269314 1.66149 35 36 33
0.432024 0.278534 1.71838 35 36 33
0.44592 0.281626 1.73745 35 36 33
0.450447 0.278795 1.71999 34 36 33
0.447119 0.271309 1.6738 34 36 33
0.473222 0.281626 1.73745 35 36 34
0.469158 0.27394 1.69003 34 36 33
0.482197 0.276339 1.70483 34 36 33
0.513932 0.289171 1.784 34 36 33
0.509623 0.281626 1.73745 34 36 34
0.505026 0.274189 1.69157 34 36 33
0.513886 0.274189 1.69157 34 35 33
0.535781 0.281026 1.73375 33 35 33
0.540537 0.278795 1.71999 33 35 33
0.549031 0.278534 1.71838 32 34 32
0.553633 0.276339 1.70483 31 33 31
0.577906 0.283876 1.75133 33 35 34
0.58539 0.283059 1.74629 35 36 35
0.571004 0.271855 1.67717 34 36 35
0.599348 0.281026 1.73375 33 36 34
0.616856 0.284918 1.75776 32 35 33
0.636001 0.289441 1.78567 32 35 34
0.626591 0.281026 1.73375 32 35 34
0.635672 0.281026 1.73375 32 35 34
0.660197 0.287758 1.77528 32 35 34
0.676996 0.290981 1.79517 31 34 33
0.690262 0.292619 1.80527 30 33 32
0.688093 0.287758 1.77528 29 32 32
0.686004 0.283059 1.74629 32 35 35
0.695151 0.283059 1.74629 34 37 37
0.715988 0.287758 1.77528 33 37 36
0.715503 0.283876 1.75133 31 36 35
0.711706 0.278795 1.71999 31 35 35
0.747538 0.289171 1.784 32 36 35
0.756882 0.289171 1.784 31 35 35
0.762481 0.287758 1.77528 30 35 34
0.77178 0.287758 1.77528 31 35 35
0.770542 0.283876 1.75133 32 36 36
0.804578 0.292928 1.80718 33 37 36
0.803603 0.289171 1.784 33 37 36
0.800991 0.284918 1.75776 36 39 38
0.816576 0.287161 1.7716 37 40 39
0.819405 0.284918 1.75776 35 38 38
0.851906 0.292928 1.80718 34 37 36
0.871063 0.296224 1.82751 35 37 37
0.870838 0.292928 1.80718 35 37 37
0.874453 0.290981 1.79517 34 37 37
0.883856 0.290981 1.79517 34 38 37
0.886519 0.288786 1.78162 34 38 38
0.927237 0.298903 1.84404 34 38 37
0.931842 0.297291 1.8341 35 39 38
0.906623 0.286294 1.76625 36 40 39
0.94919 0.296708 1.8305 35 39 39
0.992491 0.307141 1.89486 35 38 38
0.959877 0.294107 1.81445 35 38 38
0.985189 0.298903 1.84404 35 38 38
0.978885 0.294107 1.81445 33 37 38
0.997129 0.296708 1.8305 33 37 37
1.01416 0.298903 1.84404 35 39 40
1.07837 0.314828 1.94228 37 41 41
1.05046 0.303814 1.87433 37 41 41
1.08658 0.311351 1.92083 37 41 40
1.0249 0.290981 1.79517 36 40 39
0.998913 0.281026 1.73375 35 39 38
1.12183 0.312764 1.92955 35 39 39
1.12682 0.311351 1.92083 35 40 39
1.09143 0.298903 1.84404 36 40 40
1.14695 0.311351 1.92083 35 39 40
1.06712 0.287161 1.7716 35 39 39
0.987729 0.263507 1.62567 35 39 39
1.17029 0.309541 1.90967 34 38 39
1.23612 0.324183 2 35 39 39
1.2466 0.324183 2 35 39 39
-0.657068 0.174916 1.0454 37 37 34
-0.623298 0.16732 1 37 37 34
-0.61806 0.16732 1 36 36 32
-0.668181 0.182435 1.09033 37 37 34
-0.658855 0.18144 1.08438 37 37 34
-0.653175 0.18144 1.08438 36 37 33
-0.672145 0.188347 1.12567 35 36 32
-0.645337 0.182435 1.09033 36 36 33
-0.660353 0.188347 1.12567 36 37 34
-0.581395 0.16732 1 37 37 34
-0.628204 0.182435 1.09033 37 37 34
-0.659959 0.193415 1.15596 37 37 34
-0.647358 0.191479 1.14438 37 37 34
-0.701302 0.209373 1.25133 36 36 33
-0.629818 0.189806 1.13439 35 36 32
-0.647407 0.196965 1.17717 36 37 34
-0.613185 0.188347 1.12567 37 37 34
-0.623631 0.193415 1.15596 37 37 34
-0.643688 0.201593 1.20483 37 37 35
-0.629547 0.199116 1.19003 37 38 34
-0.594168 0.189806 1.13439 37 37 34
-0.683383 0.22051 1.31789 37 37 34
-0.627275 0.204471 1.22203 37 37 33
-0.635759 0.209373 1.25133 36 37 33
-0.675822 0.224885 1.34404 36 37 34
-0.668783 0.224885 1.34404 36 36 33
-0.676657 0.229954 1.37433 36 37 34
-0.669459 0.229954 1.37433 36 37 34
-0.571288 0.198366 1.18555 35 37 34
-0.630512 0.221336 1.32283 35 37 33
-0.627199 0.222619 1.3305 35 37 34
-0.640665 0.229954 1.37433 35 37 33
-0.668862 0.242803 1.45113 35 37 32
-0.661261 0.242803 1.45113 35 36 32
-0.675676 0.25098 1.5 34 36 31
-0.603537 0.226822 1.35562 35 36 32
-0.70622 0.268572 1.60514 35 37 32
-0.677197 0.260637 1.55772 35 37 33
-0.689405 0.268572 1.60514 35 37 33
-0.660879 0.260637 1.55772 35 37 33
-0.628536 0.25098 1.5 35 37 33
-0.640902 0.259158 1.54887 35 36 32
-0.63279 0.259158 1.54887 34 36 32
-0.647368 0.268572 1.60514 35 36 33
-0.725618 0.304996 1.82283 36 37 34
-0.638618 0.272007 1.62567 37 38 34
-0.675286 0.291512 1.74224 37 38 34
-0.686399 0.300368 1.79517 37 38 35
-0.642929 0.285253 1.70483 37 38 34
-0.644753 0.290092 1.73375 37 37 33
-0.671144 0.30628 1.8305 37 37 32
-0.598476 0.277075 1.65596 35 36 32
-0.644657 0.302845 1.80997 35 36 31
-0.581129 0.277075 1.65596 35 35 31
-0.607649 0.294109 1.75776 35 36 31
-0.589263 0.289598 1.7308 36 37 33
-0.596008 0.29749 1.77797 35 37 33
-0.589236 0.298778 1.78567 35 36 31
-0.562067 0.289598 1.7308 36 38 33
-0.561615 0.294109 1.75776 37 39 35
-0.539621 0.287301 1.71707 37 38 34
-0.530627 0.287301 1.71707 36 37 33
-0.537191 0.29587 1.76828 36 37 33
-0.513029 0.287519 1.71838 36 37 33
-0.504028 0.287519 1.71838 36 37 33
-0.494653 0.287301 1.71707 36 38 34
-0.489542 0.289598 1.7308 37 38 35
-0.48796 0.294109 1.75776 37 38 35
-0.471411 0.289598 1.7308 36 38 34
-0.462345 0.289598 1.7308 36 37 33
-0.464928 0.29704 1.77528 36 38 34
-0.455629 0.29704 1.77528 36 38 34
-0.422346 0.281078 1.67988 36 38 33
-0.416425 0.283034 1.69157 35 37 32
-0.407565 0.283034 1.69157 35 37 32
-0.40183 0.285253 1.70483 35 37 33
-0.37897 0.275139 1.64438 36 38 33
-0.371798 0.276209 1.65078 36 38 34
-0.375042 0.285253 1.70483 35 36 32
-0.354505 0.276209 1.65078 35 36 31
-0.351387 0.280625 1.67717 35 36 32
-0.355894 0.291512 1.74224 36 37 34
-0.342019 0.287519 1.71838 36 37 34
-0.342691 0.29587 1.76828 36 38 34
-0.321464 0.285253 1.70483 36 38 34
-0.315018 0.287519 1.71838 36 37 34
-0.295887 0.278002 1.66149 36 37 34
-0.297017 0.287519 1.71838 36 37 34
-0.283523 0.283034 1.69157 36 37 34
-0.270496 0.27874 1.6659 36 37 34
-0.266 0.283244 1.69282 36 37 33
-0.256709 0.282776 1.69003 37 38 34
-0.245971 0.280625 1.67717 38 38 35
-0.239005 0.282776 1.69003 37 38 35
-0.228402 0.280625 1.67717 36 37 34
-0.223239 0.285253 1.70483 36 37 34
-0.21431 0.285253 1.70483 37 37 35
-0.202374 0.281078 1.67988 37 37 34
-0.19645 0.285253 1.70483 36 37 34
-0.188867 0.287301 1.71707 36 36 32
-0.171212 0.273466 1.63439 35 35 31
-0.160878 0.270485 1.61657 33 34 30
-0.162161 0.287789 1.71999 33 34 30
-0.148336 0.27874 1.6659 33 34 30
-0.147309 0.294109 1.75776 34 35 31
-0.133943 0.285253 1.70483 34 35 32
-0.124133 0.283244 1.69282 34 35 32
-0.117007 0.287519 1.71838 35 36 33
-0.107155 0.285253 1.70483 36 36 34
-0.0951111 0.276209 1.65078 36 37 34
-0.0878468 0.280625 1.67717 36 37 34
-0.0797999 0.283244 1.69282 36 37 34
-0.0687778 0.274636 1.64138 37 38 35
-0.0620207 0.283034 1.69157 37 37 34
-0.0518788 0.276209 1.65078 37 37 34
-0.0446478 0.285253 1.70483 36 37 34
-0.0351387 0.280625 1.67717 36 36 33
-0.0259394 0.276209 1.65078 36 36 33
-0.0172259 0.275139 1.64438 36 37 33
-0.00846727 0.270485 1.61657 37 37 34
0 0.285253 1.70483 36 37 34
0.00878468 0.280625 1.67717 36 37 33
0.0177041 0.282776 1.69003 36 37 33
0.0271968 0.289598 1.7308 36 36 32
0.0349027 0.27874 1.6659 35 36 32
0.0432323 0.276209 1.65078 35 36 32
0.0518788 0.276209 1.65078 36 36 33
0.0630626 0.287789 1.71999 35 36 33
0.0702774 0.280625 1.67717 35 36 32
0.0796683 0.282776 1.69003 34 35 32
0.0861295 0.275139 1.64438 34 35 31
0.0966315 0.280625 1.67717 34 35 31
0.107155 0.285253 1.70483 34 36 33
0.111288 0.273466 1.63439 34 35 32
0.124041 0.283034 1.69157 34 35 32
0.129697 0.276209 1.65078 34 35 32
0.136239 0.272007 1.62567 35 37 33
0.151803 0.285253 1.70483 36 38 34
0.15838 0.281078 1.67988 36 37 34
0.168342 0.283034 1.69157 36 37 34
0.177202 0.283034 1.69157 36 37 34
0.184478 0.280625 1.67717 36 37 33
0.193263 0.280625 1.67717 36 36 33
0.206855 0.287301 1.71707 35 36 32
0.209416 0.27874 1.6659 35 36 32
0.217564 0.278002 1.66149 35 36 33
0.228402 0.280625 1.67717 36 37 34
0.23671 0.280061 1.6738 37 37 34
0.235928 0.269167 1.60869 36 37 34
0.250747 0.276209 1.65078 36 36 33
0.270015 0.287519 1.71838 36 36 33
0.274413 0.282776 1.69003 35 36 32
0.272477 0.272007 1.62567 35 35 32
0.287947 0.27874 1.6659 35 35 32
0.298079 0.280061 1.6738 35 35 32
0.309821 0.282776 1.69003 35 35 32
0.316248 0.280625 1.67717 35 35 32
0.340652 0.294109 1.75776 35 35 32
0.336377 0.282776 1.69003 35 35 32
0.345229 0.282776 1.69003 35 35 33
0.357183 0.285253 1.70483 35 37 34
0.366112 0.285253 1.70483 35 36 34
0.368216 0.280061 1.6738 34 35 33
0.383971 0.285253 1.70483 33 35 31
0.38575 0.280061 1.6738 34 35 32
0.40183 0.285253 1.70483 34 36 32
0.407565 0.283034 1.69157 34 35 32
0.42342 0.287789 1.71999 34 35 32
0.424898 0.282776 1.69003 35 36 33
0.441438 0.287789 1.71999 35 36 34
0.438352 0.280061 1.6738 35 36 33
0.442352 0.277075 1.65596 34 36 33
0.472214 0.290092 1.73375 35 36 33
0.469158 0.282776 1.69003 34 36 33
0.465099 0.275139 1.64438 34 36 33
0.491126 0.285253 1.70483 35 37 34
0.512217 0.29219 1.74629 35 36 34
0.496046 0.278002 1.66149 34 36 33
0.513418 0.282776 1.69003 34 36 33
0.518296 0.280625 1.67717 34 35 33
0.561177 0.298778 1.78567 33 35 33
0.55795 0.29219 1.74629 32 34 32
0.567097 0.29219 1.74629 32 35 33
0.571132 0.289598 1.7308 34 36 34
0.59803 0.298499 1.784 34 36 35
0.585033 0.287519 1.71838 34 36 34
0.609765 0.295133 1.76388 32 35 34
0.619004 0.295133 1.76388 31 35 33
0.623772 0.293033 1.75133 32 35 34
0.663611 0.307231 1.83618 31 35 33
0.630626 0.287789 1.71999 31 35 33
0.639635 0.287789 1.71999 31 34 33
0.669496 0.29704 1.77528 30 33 32
0.674437 0.295133 1.76388 29 32 32
0.688093 0.29704 1.77528 29 32 31
0.701472 0.298778 1.78567 33 36 36
0.697157 0.293033 1.75133 35 38 38
0.714504 0.296424 1.7716 35 38 37
0.70832 0.290092 1.73375 33 37 36
0.724676 0.293033 1.75133 31 36 35
0.752218 0.300368 1.79517 31 36 35
0.76162 0.300368 1.79517 30 35 34
0.725867 0.282776 1.69003 30 34 34
0.780426 0.300368 1.79517 29 34 33
0.78387 0.298102 1.78162 30 35 34
0.767868 0.288581 1.72472 32 36 36
0.808634 0.300368 1.79517 33 37 36
0.812948 0.298499 1.784 36 40 38
0.822292 0.298499 1.784 37 40 39
0.842441 0.302377 1.80718 37 40 38
0.873452 0.310025 1.85288 36 38 38
0.849192 0.298102 1.78162 35 37 37
0.87838 0.304996 1.82283 35 37 37
0.867856 0.298102 1.78162 35 38 38
0.91854 0.312155 1.86561 35 38 38
0.878869 0.295529 1.76625 35 39 38
0.910104 0.302845 1.80997 35 39 38
0.912064 0.300368 1.79517 36 39 39
0.952495 0.310482 1.85562 35 39 38
0.962214 0.310482 1.85562 35 38 38
0.992491 0.317049 1.89486 34 38 38
0.968366 0.30628 1.8305 34 38 38
0.991372 0.310482 1.85562 34 38 38
0.987541 0.30628 1.8305 34 38 38
1.00451 0.308546 1.84404 34 38 38
1.03082 0.313614 1.87433 35 39 40
1.0163 0.30628 1.8305 36 40 40
1.05046 0.313614 1.87433 36 40 39
1.04314 0.308546 1.84404 36 40 39
1.03591 0.303595 1.81445 36 40 39
1.11173 0.322853 1.92955 35 39 38
1.08186 0.311348 1.86079 35 39 39
1.0916 0.311348 1.86079 35 40 39
1.09143 0.308546 1.84404 36 40 40
1.04031 0.291512 1.74224 35 39 39
1.06712 0.296424 1.7716 34 38 38
1.10752 0.304996 1.82283 34 38 38
1.17029 0.319526 1.90967 34 37 38
1.23612 0.334641 2 34 38 39
1.06262 0.285253 1.70483 35 39 39
-0.657068 0.180382 1.0454 35 36 33
-0.679603 0.188136 1.09033 35 35 32
-0.648267 0.180982 1.04887 34 34 30
-0.668181 0.188136 1.09033 36 36 32
-0.607584 0.172549 1 37 36 33
-0.689316 0.197462 1.14438 36 36 32
-0.655136 0.189317 1.09718 35 35 32
-0.704344 0.205339 1.19003 36 36 33
-0.686068 0.201796 1.1695 36 37 34
-0.659527 0.195737 1.13439 36 37 34
-0.636733 0.19069 1.10514 36 36 32
-0.695595 0.21023 1.21838 36 36 32
-0.593329 0.180982 1.04887 36 36 33
-0.64785 0.199459 1.15596 36 36 32
-0.63537 0.197462 1.14438 35 35 31
-0.683192 0.214347 1.24224 36 37 34
-0.623381 0.197462 1.14438 37 37 35
-0.649999 0.207893 1.20483 37 37 34
-0.590425 0.19069 1.10514 37 37 34
-0.644542 0.21023 1.21838 37 37 34
-0.623314 0.205339 1.19003 36 37 33
-0.624756 0.207893 1.20483 36 37 33
-0.664814 0.22348 1.29517 36 36 33
-0.646057 0.219413 1.2716 36 37 33
-0.624632 0.214347 1.24224 36 37 33
-0.632736 0.219413 1.2716 36 37 34
-0.651299 0.228253 1.32283 36 37 34
-0.662862 0.234803 1.36079 37 38 35
-0.66226 0.23714 1.37433 37 38 35
-0.699003 0.253047 1.46652 37 38 35
-0.576069 0.210861 1.22203 37 38 35
-0.616655 0.228253 1.32283 35 37 33
-0.691389 0.258824 1.5 35 37 32
-0.719608 0.272484 1.57917 35 36 32
-0.65366 0.25039 1.45113 35 36 32
-0.648951 0.251511 1.45762 35 36 32
-0.659962 0.258824 1.5 35 37 32
-0.725794 0.288071 1.6695 36 37 33
-0.644249 0.258824 1.5 36 38 34
-0.680998 0.276965 1.60514 36 38 33
-0.689036 0.283737 1.64438 36 37 33
-0.672678 0.280507 1.62567 35 36 32
-0.664163 0.280507 1.62567 33 35 30
-0.714504 0.305688 1.7716 35 36 32
-0.667636 0.289394 1.67717 36 37 33
-0.638618 0.280507 1.62567 36 37 34
-0.650066 0.289394 1.67717 36 38 34
-0.628745 0.283737 1.64438 36 37 33
-0.632497 0.289394 1.67717 36 37 33
-0.623712 0.289394 1.67717 36 37 33
-0.651883 0.306786 1.77797 37 37 33
-0.607926 0.290246 1.68211 36 36 32
-0.634561 0.307417 1.78162 35 35 30
-0.581129 0.285734 1.65596 35 35 30
-0.607649 0.3033 1.75776 35 36 31
-0.602024 0.305116 1.76828 36 37 33
-0.576032 0.296504 1.71838 36 37 33
-0.567032 0.296504 1.71838 36 38 33
-0.570822 0.3033 1.75776 36 38 34
-0.548615 0.296279 1.71707 37 38 34
-0.548803 0.301321 1.74629 37 38 34
-0.519133 0.289862 1.67988 37 38 34
-0.517915 0.294167 1.70483 36 37 34
-0.516739 0.298648 1.7308 36 36 32
-0.511027 0.300621 1.74224 35 36 32
-0.487666 0.292095 1.69282 36 37 34
-0.486027 0.296504 1.71838 37 38 35
-0.477027 0.296504 1.71838 37 38 34
-0.480421 0.304356 1.76388 37 38 34
-0.463133 0.299157 1.73375 36 38 33
-0.46034 0.3033 1.75776 36 38 33
-0.451133 0.3033 1.75776 36 37 33
-0.438023 0.300621 1.74224 35 37 32
-0.428898 0.300621 1.74224 35 37 32
-0.427733 0.306323 1.77528 36 38 33
-0.405023 0.296504 1.71838 36 38 33
-0.383929 0.28745 1.6659 36 37 32
-0.387022 0.296504 1.71838 36 37 32
-0.372125 0.291879 1.69157 36 37 32
-0.363264 0.291879 1.69157 36 36 32
-0.351387 0.289394 1.67717 36 36 32
-0.345229 0.291613 1.69003 36 37 34
-0.344492 0.298648 1.7308 37 38 34
-0.335427 0.298648 1.7308 37 38 34
-0.316248 0.289394 1.67717 37 38 34
-0.312535 0.294167 1.70483 36 37 34
-0.303605 0.294167 1.70483 36 37 34
-0.292384 0.291879 1.69157 36 37 34
-0.283523 0.291879 1.69157 36 37 33
-0.276817 0.294167 1.70483 36 37 33
-0.265803 0.291879 1.69157 35 36 32
-0.256943 0.291879 1.69157 36 36 32
-0.250028 0.294167 1.70483 36 37 34
-0.234969 0.286689 1.66149 36 37 34
-0.224808 0.284841 1.65078 36 36 34
-0.218142 0.28745 1.6659 37 37 35
-0.207515 0.284841 1.65078 38 38 35
-0.20538 0.294167 1.70483 38 38 35
-0.199783 0.299157 1.73375 37 37 34
-0.184478 0.289394 1.67717 36 36 32
-0.172929 0.284841 1.65078 35 35 31
-0.162651 0.282012 1.63439 34 35 30
-0.156646 0.286689 1.66149 33 35 30
-0.14934 0.289394 1.67717 34 35 32
-0.139611 0.28745 1.6659 35 37 34
-0.130538 0.286689 1.66149 35 36 32
-0.124041 0.291879 1.69157 34 35 31
-0.115181 0.291879 1.69157 35 35 32
-0.108107 0.296782 1.71999 35 35 32
-0.0982252 0.294167 1.70483 35 36 33
-0.0856058 0.282012 1.63439 36 36 33
-0.0810045 0.296504 1.71838 37 38 35
-0.0714365 0.294167 1.70483 38 38 36
-0.0599241 0.282012 1.63439 37 38 35
-0.0526022 0.288813 1.6738 37 37 34
-0.0430648 0.283737 1.64438 36 36 33
-0.0357183 0.294167 1.70483 36 36 32
-0.0261077 0.286689 1.66149 36 36 33
-0.0178591 0.294167 1.70483 37 37 34
-0.00886011 0.291879 1.69157 37 37 34
0 0.283737 1.64438 37 38 34
0.00846727 0.278938 1.61657 37 37 34
0.0177041 0.291613 1.69003 36 37 33
0.025278 0.277578 1.60869 35 36 32
0.0351387 0.289394 1.67717 35 35 31
0.0442602 0.291613 1.69003 35 36 33
0.0527081 0.289394 1.67717 36 37 34
0.0601806 0.283219 1.64138 35 36 33
0.0674081 0.277578 1.60869 35 36 32
0.0766342 0.280507 1.62567 35 36 33
0.0892957 0.294167 1.70483 35 36 34
0.0966315 0.289394 1.67717 35 36 34
0.102727 0.282012 1.63439 35 37 34
0.114201 0.289394 1.67717 35 36 33
0.119848 0.282012 1.63439 34 36 33
0.130885 0.28745 1.6659 34 36 33
0.140555 0.289394 1.67717 35 36 33
0.149581 0.289862 1.67988 36 37 34
