ply
format ascii 1.0
element vertex 1364
property float x
property float y
property float z
property uchar red
property uchar green
property uchar blue
end_header
0.550387 0.33882 1.75133 33 36 34
0.553001 0.334848 1.7308 32 35 33
0.57651 0.343453 1.77528 31 35 32
0.572105 0.335418 1.73375 32 35 33
0.601774 0.3473 1.79517 33 36 34
0.600526 0.341248 1.76388 33 36 34
0.589351 0.329824 1.70483 32 36 34
0.616856 0.340064 1.75776 32 36 34
0.607211 0.329824 1.70483 32 36 34
0.626591 0.335418 1.73375 30 34 33
0.62507 0.329824 1.70483 29 34 33
0.611519 0.318129 1.64438 28 34 33
0.672784 0.34514 1.784 30 36 35
0.669638 0.33882 1.75133 32 37 36
0.678811 0.33882 1.75133 32 38 37
0.681077 0.335418 1.73375 34 39 37
0.714607 0.3473 1.79517 33 39 37
0.682228 0.327258 1.69157 33 38 36
0.733412 0.3473 1.79517 34 38 36
0.72987 0.341248 1.76388 34 37 36
0.726482 0.335418 1.73375 33 37 36
0.786107 0.358466 1.85288 34 37 36
0.746234 0.336134 1.73745 33 37 36
0.775571 0.34514 1.784 32 37 35
0.750084 0.329824 1.70483 32 37 35
0.775666 0.33706 1.74224 33 37 36
0.814044 0.349624 1.80718 34 38 36
0.835776 0.354832 1.8341 35 39 37
0.832975 0.349624 1.80718 36 39 38
0.830529 0.34468 1.78162 35 39 37
0.803661 0.329824 1.70483 34 38 36
0.849192 0.34468 1.78162 34 37 37
0.892862 0.358466 1.85288 34 37 37
0.89826 0.356756 1.84404 34 37 37
0.891144 0.350164 1.80997 32 37 36
0.900624 0.350164 1.80997 34 38 37
0.91657 0.352652 1.82283 36 40 39
0.947855 0.360929 1.86561 37 40 40
0.887195 0.334383 1.7284 36 40 40
1.00964 0.376688 1.94707 35 38 39
0.915917 0.338304 1.74867 34 38 38
0.997463 0.364777 1.8855 34 38 39
0.969381 0.351031 1.81445 34 39 39
0.978885 0.351031 1.81445 35 40 40
1.01363 0.359996 1.86079 35 40 40
1.03697 0.364777 1.8855 35 40 40
0.996688 0.3473 1.79517 34 39 39
1.00609 0.3473 1.79517 31 37 37
1.0264 0.351031 1.81445 31 37 37
1.10162 0.373299 1.92955 33 38 38
1.06246 0.356756 1.84404 34 39 39
1.10166 0.366588 1.89486 36 41 40
1.03928 0.342741 1.7716 37 42 41
1.12151 0.366588 1.89486 35 40 40
1.19422 0.386928 2 34 39 38
1.20469 0.386928 2 34 39 38
1.06799 0.340064 1.75776 34 39 38
1.0772 0.340064 1.75776 34 39 39
1.17114 0.366588 1.89486 35 40 39
1.14939 0.356756 1.84404 34 39 39
-0.689616 0.218002 1.09718 36 36 33
-0.688829 0.219583 1.10514 36 36 33
-0.683041 0.219583 1.10514 36 36 33
-0.640642 0.207713 1.0454 36 36 33
-0.742489 0.242809 1.22203 35 36 33
-0.665675 0.219583 1.10514 36 37 34
-0.698319 0.232371 1.1695 35 36 33
-0.692194 0.232371 1.1695 34 35 31
-0.686068 0.232371 1.1695 35 36 33
-0.637895 0.218002 1.09718 36 37 34
-0.659346 0.227381 1.14438 37 37 35
-0.659959 0.229681 1.15596 36 37 34
-0.630452 0.221443 1.1145 36 37 34
-0.614908 0.218002 1.09718 36 36 34
-0.649315 0.232371 1.1695 36 36 33
-0.672081 0.242809 1.22203 36 36 33
-0.694684 0.253389 1.27528 36 37 34
-0.675085 0.248631 1.25133 37 37 34
-0.69195 0.25734 1.29517 36 37 33
-0.661976 0.248631 1.25133 36 36 31
-0.692871 0.262837 1.32283 35 35 30
-0.633676 0.242809 1.22203 34 35 29
-0.679013 0.262837 1.32283 35 36 30
-0.743095 0.290607 1.46259 36 36 31
-0.675822 0.267051 1.34404 36 37 32
-0.644463 0.25734 1.29517 36 37 34
-0.623442 0.251595 1.26625 36 37 34
-0.686669 0.28009 1.40967 39 39 36
-0.647663 0.267051 1.34404 39 40 36
-0.671902 0.28009 1.40967 38 39 35
-0.684063 0.288328 1.45113 37 38 34
-0.60376 0.25734 1.29517 36 37 33
-0.749312 0.323008 1.62567 35 37 32
-0.731442 0.318929 1.60514 35 36 32
-0.65366 0.288328 1.45113 36 37 33
-0.667819 0.298039 1.5 37 38 34
-0.681466 0.30775 1.54887 36 37 34
-0.673353 0.30775 1.54887 36 37 33
-0.689405 0.318929 1.60514 37 37 34
-0.723295 0.338738 1.70483 37 37 34
-0.628536 0.298039 1.5 37 37 33
-0.680423 0.326727 1.64438 37 37 34
-0.655776 0.318929 1.60514 36 37 33
-0.687577 0.338738 1.70483 35 35 31
-0.667636 0.333242 1.67717 35 35 31
-0.681077 0.344484 1.73375 35 36 32
-0.647094 0.331718 1.6695 36 36 33
-0.651858 0.338738 1.70483 36 36 32
-0.632497 0.333242 1.67717 35 35 31
-0.623712 0.333242 1.67717 35 35 31
-0.596043 0.323008 1.62567 34 35 30
-0.621617 0.341749 1.71999 34 35 30
-0.636001 0.354799 1.78567 35 36 32
-0.629982 0.356687 1.79517 36 37 33
-0.589351 0.338738 1.70483 36 37 33
-0.598442 0.349255 1.75776 37 37 33
-0.576032 0.341429 1.71838 37 37 33
-0.574906 0.34617 1.74224 35 36 31
-0.582969 0.356687 1.79517 35 36 31
-0.549031 0.341429 1.71838 36 36 32
-0.54318 0.343421 1.7284 36 37 33
-0.539657 0.346976 1.74629 36 36 32
-0.513886 0.336103 1.69157 35 36 32
-0.524787 0.349255 1.75776 36 37 33
-0.520719 0.352735 1.77528 35 36 33
-0.50307 0.346976 1.74629 35 36 32
-0.486483 0.341749 1.71999 35 36 33
-0.484776 0.346976 1.74629 35 36 33
-0.478754 0.349255 1.75776 35 36 32
-0.459026 0.341429 1.71838 35 36 32
-0.443005 0.336103 1.69157 36 36 34
-0.427558 0.331003 1.6659 36 37 35
-0.439043 0.346976 1.74629 36 36 34
-0.43272 0.349255 1.75776 35 36 33
-0.421963 0.347977 1.75133 36 36 34
-0.398705 0.336103 1.69157 37 37 35
-0.389845 0.336103 1.69157 36 36 34
-0.378351 0.33378 1.67988 36 36 34
-0.378021 0.341429 1.71838 36 36 34
-0.366112 0.338738 1.70483 36 36 34
-0.357183 0.338738 1.70483 36 36 34
-0.353558 0.343898 1.7308 36 36 34
-0.342019 0.341429 1.71838 36 36 34
-0.330394 0.338738 1.70483 35 36 34
-0.316248 0.333242 1.67717 36 36 34
-0.317296 0.343898 1.7308 36 36 34
-0.299162 0.33378 1.67988 36 37 34
-0.294676 0.338738 1.70483 37 37 34
-0.276687 0.327999 1.65078 37 38 35
-0.26804 0.327999 1.65078 37 37 35
-0.259394 0.327999 1.65078 36 37 34
-0.252374 0.330127 1.66149 36 37 34
-0.242101 0.327999 1.65078 36 37 34
-0.229902 0.323008 1.62567 36 37 34
-0.224808 0.327999 1.65078 36 37 34
-0.228668 0.346976 1.74629 36 37 34
-0.212643 0.336103 1.69157 36 37 34
-0.20069 0.331003 1.6659 35 36 33
-0.193263 0.333242 1.67717 36 36 33
-0.186062 0.336103 1.69157 35 36 33
-0.172929 0.327999 1.65078 36 36 33
-0.169662 0.338738 1.70483 35 36 33
-0.157062 0.331003 1.6659 35 36 32
-0.150622 0.336103 1.69157 34 35 32
-0.134816 0.319636 1.60869 34 35 31
-0.130885 0.331003 1.6659 34 35 32
-0.124041 0.336103 1.69157 35 36 34
-0.116918 0.34117 1.71707 35 36 34
-0.105416 0.333242 1.67717 35 37 34
-0.0967876 0.33378 1.67988 36 37 34
-0.0872567 0.331003 1.6659 35 37 34
-0.0803661 0.338738 1.70483 35 36 34
-0.0677382 0.321201 1.61657 35 36 34
-0.062507 0.338738 1.70483 34 35 33
-0.0535774 0.338738 1.70483 35 36 34
-0.0425745 0.323008 1.62567 35 35 33
-0.0342423 0.324741 1.63439 35 36 34
-0.026354 0.333242 1.67717 36 37 35
-0.0169495 0.321484 1.618 36 37 35
-0.00879887 0.33378 1.67988 37 38 35
0 0.327999 1.65078 37 38 36
0.00878468 0.333242 1.67717 38 39 36
0.0177333 0.336352 1.69282 36 37 34
0.026354 0.333242 1.67717 35 36 33
0.0345858 0.327999 1.65078 36 36 33
0.0435128 0.330127 1.66149 34 35 31
0.0510894 0.323008 1.62567 35 35 33
0.0630035 0.341429 1.71838 36 37 34
0.0708809 0.336103 1.69157 36 37 34
0.0770452 0.324741 1.63439 36 37 35
0.0864646 0.327999 1.65078 36 37 35
0.0967876 0.33378 1.67988 37 37 35
0.106321 0.336103 1.69157 37 37 35
0.109069 0.318267 1.6018 37 37 35
0.124133 0.336352 1.69282 36 37 34
0.130885 0.331003 1.6659 36 36 33
0.136859 0.324479 1.63307 35 35 32
0.146153 0.326131 1.64138 34 35 32
0.156124 0.329027 1.65596 34 35 32
0.169662 0.338738 1.70483 35 36 34
0.173471 0.329027 1.65596 34 35 33
0.179772 0.324741 1.63439 34 36 33
0.194922 0.336103 1.69157 34 36 34
0.20069 0.331003 1.6659 34 36 34
0.209416 0.331003 1.6659 34 36 34
0.228668 0.346976 1.74629 34 36 34
0.226867 0.331003 1.6659 35 37 35
0.233454 0.327999 1.65078 34 36 34
0.248083 0.336103 1.69157 34 36 34
0.254756 0.333242 1.67717 35 36 34
0.259394 0.327999 1.65078 35 37 34
0.26978 0.330127 1.66149 35 37 34
0.288016 0.341429 1.71838 35 37 34
0.2926 0.336352 1.69282 34 36 32
0.29106 0.324741 1.63439 34 36 33
0.312535 0.338738 1.70483 34 36 33
0.314124 0.331003 1.6659 35 36 34
0.337643 0.34617 1.74224 35 36 34
0.34176 0.34117 1.71707 35 36 33
0.353558 0.343898 1.7308 35 36 33
0.357183 0.338738 1.70483 35 37 34
0.360754 0.33378 1.67988 35 37 34
0.375042 0.338738 1.70483 35 36 34
0.383971 0.338738 1.70483 34 36 33
0.392901 0.338738 1.70483 34 35 32
0.394517 0.332573 1.6738 33 34 31
0.400318 0.330127 1.66149 34 35 32
0.429896 0.346976 1.74629 34 35 32
0.4256 0.336352 1.69282 34 35 32
0.441025 0.341429 1.71838 34 36 33
0.467211 0.354468 1.784 35 36 33
0.466483 0.346976 1.74629 35 36 33
0.456803 0.333242 1.67717 34 35 33
0.477027 0.341429 1.71838 33 35 32
0.482197 0.338738 1.70483 33 34 32
0.491126 0.338738 1.70483 32 35 32
0.508538 0.344484 1.73375 31 35 32
0.508985 0.338738 1.70483 32 35 32
0.522519 0.341749 1.71999 32 35 33
0.526844 0.338738 1.70483 32 35 33
0.531122 0.335797 1.69003 32 35 34
0.553943 0.344484 1.73375 32 35 33
0.553633 0.338738 1.70483 32 35 33
0.566602 0.34117 1.71707 32 35 34
0.587568 0.348266 1.75279 33 36 34
0.589263 0.343898 1.7308 34 37 35
0.599348 0.344484 1.73375 33 37 35
0.619004 0.350471 1.76388 33 36 34
0.585681 0.326727 1.64438 32 36 35
0.632945 0.347977 1.75133 30 34 34
0.642118 0.347977 1.75133 29 34 33
0.62246 0.332573 1.6738 28 34 33
0.631227 0.332573 1.6738 31 36 35
0.669638 0.347977 1.75133 34 38 37
0.691473 0.354468 1.784 35 39 38
0.692915 0.350471 1.76388 35 39 38
0.714607 0.356687 1.79517 34 38 37
0.704298 0.346976 1.74629 32 37 35
0.725287 0.352735 1.77528 32 36 35
0.734586 0.352735 1.77528 32 36 35
0.748236 0.354799 1.78567 33 37 35
0.748348 0.350471 1.76388 34 37 36
0.757587 0.350471 1.76388 34 37 36
0.755334 0.345219 1.73745 34 37 36
0.784915 0.354468 1.784 34 37 36
0.759013 0.338738 1.70483 33 37 36
0.814044 0.359073 1.80718 35 38 37
0.776872 0.338738 1.70483 35 39 38
0.816576 0.352004 1.7716 36 39 37
0.847436 0.361203 1.81789 35 38 37
0.803661 0.338738 1.70483 35 38 37
0.849192 0.353996 1.78162 34 38 37
0.858524 0.353996 1.78162 35 38 38
0.860367 0.350941 1.76625 35 38 38
0.891144 0.359628 1.80997 34 38 37
0.900624 0.359628 1.80997 34 38 37
0.888121 0.350941 1.76625 36 40 39
0.866168 0.338738 1.70483 37 41 41
0.939602 0.363707 1.8305 36 40 40
0.977711 0.374636 1.8855 35 38 39
0.981738 0.372417 1.87433 35 38 39
0.968366 0.363707 1.8305 36 40 40
1.00734 0.374636 1.8855 35 40 40
0.9483 0.349255 1.75776 35 40 40
1.05109 0.383388 1.92955 35 40 40
1.03082 0.372417 1.87433 34 39 39
0.996688 0.356687 1.79517 34 39 39
1.08533 0.384778 1.93655 31 37 37
1.0264 0.360519 1.81445 31 37 37
1.0249 0.356687 1.79517 32 37 37
0.961896 0.331718 1.6695 34 39 38
1.12183 0.383388 1.92955 35 40 39
1.0531 0.356687 1.79517 35 40 39
1.14205 0.383388 1.92955 34 39 38
1.08843 0.362183 1.82283 34 39 38
1.11075 0.366398 1.84404 34 39 38
1.10752 0.362183 1.82283 34 39 38
1.16121 0.376496 1.89486 34 39 39
1.29195 0.415334 2.09033 34 39 39
1.2466 0.397386 2 34 39 39
-0.700502 0.22727 1.1145 37 37 34
-0.651593 0.213179 1.0454 37 37 34
-0.683041 0.225361 1.10514 37 37 34
-0.695177 0.231326 1.13439 36 37 33
-0.666629 0.223739 1.09718 35 36 32
-0.683294 0.231326 1.13439 35 37 33
-0.655136 0.223739 1.09718 35 36 33
-0.649389 0.223739 1.09718 36 37 34
-0.617683 0.214715 1.05293 36 37 34
-0.612168 0.214715 1.05293 37 38 35
-0.636733 0.225361 1.10514 37 38 35
-0.653352 0.233365 1.14438 36 37 34
-0.707856 0.255174 1.25133 36 37 34
-0.675241 0.245691 1.20483 35 36 33
-0.613579 0.225361 1.10514 36 37 34
-0.66262 0.245691 1.20483 37 37 34
-0.681639 0.255174 1.25133 37 38 34
-0.675085 0.255174 1.25133 36 37 32
-0.624812 0.238487 1.1695 35 36 30
-0.646477 0.249199 1.22203 35 36 31
-0.666038 0.259307 1.2716 35 36 31
-0.644152 0.253319 1.24224 35 36 30
-0.627275 0.249199 1.22203 35 36 31
-0.612135 0.245691 1.20483 36 36 31
-0.684244 0.277495 1.36079 36 36 32
-0.668783 0.274079 1.34404 36 37 33
-0.651299 0.269753 1.32283 36 37 33
-0.630895 0.264113 1.29517 39 40 36
-0.672153 0.284443 1.39486 41 42 38
-0.691664 0.295916 1.45113 38 39 35
-0.684063 0.295916 1.45113 36 37 33
-0.650235 0.284443 1.39486 35 37 31
-0.717992 0.317652 1.55772 35 36 31
-0.661261 0.295916 1.45113 35 37 32
-0.694765 0.314524 1.54238 37 38 34
-0.693515 0.317652 1.55772 37 38 34
-0.685356 0.317652 1.55772 36 37 34
-0.697812 0.327322 1.60514 37 37 34
-0.644249 0.305882 1.5 37 37 34
-0.657128 0.315849 1.54887 37 37 34
-0.699561 0.340447 1.6695 36 36 33
-0.644561 0.317652 1.55772 36 37 33
-0.723784 0.361267 1.7716 36 37 34
-0.687577 0.347652 1.70483 35 36 33
-0.647133 0.331508 1.62567 35 35 32
-0.705204 0.366073 1.79517 36 37 34
-0.681303 0.358446 1.75776 37 38 34
-0.641282 0.342011 1.67717 36 36 32
-0.653834 0.353549 1.73375 34 35 30
-0.642764 0.352458 1.7284 35 36 31
-0.631377 0.35116 1.72203 36 36 32
-0.652439 0.368134 1.80527 36 36 32
-0.61751 0.353549 1.73375 36 36 32
-0.588574 0.342011 1.67717 36 36 32
-0.598329 0.352948 1.7308 36 36 32
-0.594537 0.356107 1.74629 36 36 32
-0.580198 0.352948 1.7308 37 37 33
-0.580028 0.358446 1.75776 36 36 32
-0.549327 0.344948 1.69157 36 36 32
-0.553001 0.352948 1.7308 36 36 31
-0.531606 0.344948 1.69157 35 35 31
-0.53487 0.352948 1.7308 35 35 30
-0.522029 0.350414 1.71838 35 36 31
-0.517619 0.353549 1.73375 36 37 33
-0.484202 0.33663 1.65078 37 38 35
-0.498608 0.352948 1.7308 37 38 35
-0.490376 0.353549 1.73375 37 38 35
-0.48796 0.358446 1.75776 36 37 34
-0.471411 0.352948 1.7308 36 36 34
-0.462345 0.352948 1.7308 35 36 33
-0.46034 0.358446 1.75776 35 36 33
-0.452704 0.359694 1.76388 36 36 35
-0.435148 0.352948 1.7308 36 37 34
-0.428898 0.35528 1.74224 36 36 33
-0.414023 0.350414 1.71838 36 37 34
-0.405023 0.350414 1.71838 36 36 34
-0.405099 0.358446 1.75776 36 36 34
-0.383971 0.347652 1.70483 35 35 33
-0.389 0.360591 1.76828 35 35 34
-0.369021 0.350414 1.71838 35 35 33
-0.36002 0.350414 1.71838 35 35 33
-0.342602 0.342011 1.67717 36 36 35
-0.336684 0.344948 1.69157 37 37 35
-0.330394 0.347652 1.70483 36 36 35
-0.316759 0.342564 1.67988 36 36 34
-0.314779 0.350148 1.71707 36 36 34
-0.305785 0.350148 1.71707 36 37 34
-0.297017 0.350414 1.71838 37 37 35
-0.292695 0.356107 1.74629 38 38 36
-0.281033 0.352948 1.7308 37 37 35
-0.265803 0.344948 1.69157 36 36 34
-0.246932 0.331508 1.62567 36 36 34
-0.250028 0.347652 1.70483 36 36 34
-0.239223 0.344948 1.69157 36 37 34
-0.237263 0.35528 1.74224 36 37 34
-0.221666 0.345203 1.69282 36 37 34
-0.206333 0.334713 1.64138 36 37 34
-0.203782 0.344948 1.69157 36 36 33
-0.194922 0.344948 1.69157 36 36 33
-0.184776 0.342564 1.67988 35 36 33
-0.18001 0.350414 1.71838 35 36 32
-0.165788 0.339714 1.6659 35 36 33
-0.153966 0.333018 1.63307 35 36 33
-0.149581 0.342564 1.67988 35 36 33
-0.139912 0.340447 1.6695 35 35 32
-0.136215 0.353549 1.73375 35 36 34
-0.123184 0.342564 1.67988 36 37 35
-0.115181 0.344948 1.69157 36 37 34
-0.105416 0.342011 1.67717 36 37 35
-0.0951111 0.33663 1.65078 35 37 34
-0.0859722 0.334713 1.64138 35 36 34
-0.0783231 0.338814 1.66149 36 37 35
-0.0714365 0.347652 1.70483 36 38 36
-0.062507 0.347652 1.70483 36 37 35
-0.0508484 0.329944 1.618 36 36 34
-0.0446478 0.347652 1.70483 35 36 34
-0.0349027 0.339714 1.6659 35 36 34
-0.026354 0.342011 1.67717 35 36 34
-0.0171944 0.334713 1.64138 35 36 34
-0.00885203 0.344634 1.69003 36 37 34
0 0.33663 1.65078 36 37 34
0.00892957 0.347652 1.70483 36 37 34
0.0174051 0.338814 1.66149 36 36 34
0.0273765 0.35528 1.74224 36 36 34
0.0346943 0.337686 1.65596 37 37 35
0.0439943 0.342564 1.67988 36 36 34
0.0531606 0.344948 1.69157 36 36 33
0.0588517 0.327322 1.60514 36 36 34
0.0714365 0.347652 1.70483 37 37 35
0.078531 0.339714 1.6659 36 37 34
0.0859722 0.334713 1.64138 36 37 34
0.0966315 0.342011 1.67717 36 37 35
0.107155 0.347652 1.70483 37 37 35
0.112404 0.33663 1.65078 36 37 34
0.118646 0.329944 1.618 35 36 33
0.131506 0.341324 1.6738 34 35 31
0.145049 0.352948 1.7308 34 35 31
0.153901 0.352458 1.7284 33 34 30
0.153268 0.331508 1.62567 33 34 30
0.169662 0.347652 1.70483 34 35 33
0.175977 0.342564 1.67988 35 36 33
0.185893 0.344634 1.69003 35 36 34
0.199443 0.352948 1.7308 35 37 34
0.195843 0.331508 1.62567 34 36 34
0.205454 0.333287 1.63439 34 36 34
0.219617 0.342011 1.67717 34 37 34
0.219076 0.328047 1.60869 35 37 35
0.241098 0.347652 1.70483 35 37 35
0.248083 0.344948 1.69157 35 37 35
0.253044 0.339714 1.6659 34 36 34
0.26354 0.342011 1.67717 34 36 33
0.279016 0.350414 1.71838 35 36 33
0.28111 0.342011 1.67717 35 36 33
0.282499 0.333287 1.63439 35 37 34
0.303605 0.347652 1.70483 36 37 34
0.302626 0.33663 1.65078 36 37 34
0.321464 0.347652 1.70483 35 36 33
0.32285 0.339714 1.6659 35 36 32
0.328566 0.33663 1.65078 35 36 32
0.340301 0.339714 1.6659 35 36 33
0.33704 0.328047 1.60869 35 36 33
0.360754 0.342564 1.67988 35 36 33
0.384162 0.356107 1.74629 34 36 33
0.383971 0.347652 1.70483 34 35 33
0.392901 0.347652 1.70483 32 34 31
0.415749 0.359694 1.76388 34 35 32
0.414023 0.350414 1.71838 35 36 33
0.426083 0.352948 1.7308 34 35 32
0.428619 0.347652 1.70483 33 34 30
0.44497 0.353549 1.73375 34 35 31
0.446478 0.347652 1.70483 35 36 33
0.455408 0.347652 1.70483 35 36 33
0.472214 0.353549 1.73375 34 35 32
0.492823 0.362018 1.77528 33 35 32
0.498898 0.359694 1.76388 33 35 32
0.495492 0.350743 1.71999 32 35 32
0.511027 0.35528 1.74224 31 35 32
0.508985 0.347652 1.70483 32 35 33
0.522519 0.350743 1.71999 33 36 34
0.531528 0.350743 1.71999 32 35 34
0.546025 0.354304 1.73745 31 35 33
0.539974 0.344634 1.69003 32 35 34
0.553633 0.347652 1.70483 32 35 34
0.572105 0.353549 1.73375 32 36 34
0.598589 0.364136 1.78567 32 36 34
0.604406 0.362018 1.77528 33 37 35
0.603684 0.356107 1.74629 34 37 36
0.608429 0.353549 1.73375 34 37 35
0.612034 0.350414 1.71838 33 37 36
0.627929 0.354304 1.73745 32 36 36
0.644476 0.358446 1.75776 32 36 36
0.674765 0.370006 1.81445 32 37 36
0.660465 0.357134 1.75133 33 37 36
0.674437 0.359694 1.76388 34 39 38
0.673431 0.354304 1.73745 36 40 39
0.705204 0.366073 1.79517 35 39 38
0.702153 0.359694 1.76388 34 38 36
0.728085 0.368134 1.80527 33 37 35
0.725287 0.362018 1.77528 32 36 35
0.711706 0.350743 1.71999 32 36 35
0.752218 0.366073 1.79517 33 36 35
0.76162 0.366073 1.79517 33 37 35
0.739613 0.35116 1.72203 33 37 36
0.775571 0.363796 1.784 34 37 36
0.779459 0.361267 1.7716 34 38 36
0.804578 0.368522 1.80718 34 38 36
0.791785 0.358446 1.75776 34 37 36
0.835776 0.374012 1.8341 33 37 36
0.827439 0.366073 1.79517 33 37 36
0.815166 0.356591 1.74867 33 37 36
0.803661 0.347652 1.70483 34 38 37
0.849192 0.363312 1.78162 36 39 39
0.86505 0.366073 1.79517 36 40 39
0.881663 0.369092 1.80997 35 39 38
0.875386 0.362566 1.77797 34 38 37
0.870121 0.356591 1.74867 34 38 37
0.938084 0.380439 1.86561 35 39 38
0.888439 0.356591 1.74867 35 39 39
1.00152 0.397877 1.95113 35 39 39
0.930869 0.366073 1.79517 34 38 38
0.958778 0.373278 1.8305 34 38 38
1.00242 0.386403 1.89486 35 39 39
1.00137 0.382217 1.87433 35 39 39
0.978885 0.370006 1.81445 34 39 39
0.988388 0.370006 1.81445 34 39 39
1.0682 0.396074 1.94228 34 39 39
1.03312 0.379455 1.86079 33 38 38
1.0169 0.370006 1.81445 32 37 37
1.01549 0.366073 1.79517 32 37 37
1.10561 0.394904 1.93655 32 37 37
1.1067 0.391699 1.92083 33 38 37
1.03 0.361267 1.7716 33 38 37
1.06933 0.371714 1.82283 33 38 37
1.12151 0.386403 1.89486 34 39 38
1.10109 0.37604 1.84404 34 39 38
1.20469 0.407843 2 34 39 38
1.16707 0.391699 1.92083 33 38 38
1.17029 0.389422 1.90967 33 39 38
1.18029 0.389422 1.90967 34 39 38
1.09561 0.358446 1.75776 34 39 38
-0.664812 0.221222 1.05772 36 36 33
-0.651593 0.218645 1.0454 36 36 34
-0.695729 0.235433 1.12567 36 36 33
-0.668181 0.228044 1.09033 35 36 32
-0.69531 0.239348 1.14438 35 36 32
-0.665675 0.23114 1.10514 35 36 33
-0.690233 0.241769 1.15596 36 37 34
-0.752623 0.265955 1.2716 37 38 35
-0.653802 0.233098 1.1145 36 37 34
-0.679943 0.244602 1.1695 36 37 35
-0.685645 0.248895 1.19003 37 38 35
-0.667691 0.244602 1.1695 36 37 34
-0.661566 0.244602 1.1695 36 37 33
-0.64785 0.241769 1.15596 35 36 32
-0.63537 0.239348 1.14438 36 37 34
-0.66262 0.251991 1.20483 37 38 35
-0.681639 0.261716 1.25133 36 37 33
-0.649999 0.251991 1.20483 35 36 31
-0.679359 0.265955 1.2716 35 36 31
-0.674645 0.266725 1.27528 35 36 30
-0.650659 0.259814 1.24224 35 35 30
-0.659377 0.265955 1.2716 36 37 32
-0.637646 0.259814 1.24224 36 37 32
-0.698253 0.287442 1.37433 37 37 33
-0.681642 0.283527 1.35562 36 37 33
-0.706993 0.297168 1.42083 35 36 32
-0.651299 0.27667 1.32283 35 37 32
-0.751316 0.322589 1.54238 36 36 32
-0.624112 0.270885 1.29517 36 38 33
-0.69476 0.304862 1.45762 36 37 33
-0.627199 0.278274 1.3305 36 37 32
-0.676462 0.303503 1.45113 35 37 31
-0.733027 0.332619 1.59033 35 36 31
-0.705804 0.323948 1.54887 35 36 32
-0.697691 0.323948 1.54887 36 38 34
-0.693515 0.325797 1.55772 37 38 34
-0.678608 0.322589 1.54238 36 37 33
-0.77018 0.370531 1.7716 35 36 32
-0.720344 0.350781 1.67717 36 37 33
-0.680998 0.335715 1.60514 37 37 33
-0.67259 0.335715 1.60514 36 37 33
-0.672678 0.340009 1.62567 37 37 33
-0.685205 0.350781 1.67717 37 38 35
-0.702662 0.36439 1.74224 38 38 35
-0.638961 0.335715 1.60514 37 37 35
-0.71278 0.379493 1.81445 37 38 35
-0.647094 0.349177 1.6695 37 38 35
-0.705086 0.385682 1.84404 37 38 34
-0.651817 0.361496 1.7284 36 37 34
-0.642764 0.361496 1.7284 37 37 34
-0.649549 0.370531 1.7716 37 37 34
-0.637481 0.368917 1.76388 37 37 33
-0.632301 0.3713 1.77528 36 36 32
-0.598281 0.356566 1.70483 36 35 31
-0.617295 0.373473 1.78567 35 35 30
-0.575382 0.35347 1.69003 36 35 31
-0.584031 0.36439 1.74224 37 37 33
-0.578387 0.366596 1.75279 37 37 33
-0.569206 0.366596 1.75279 37 36 32
-0.553001 0.361998 1.7308 36 35 30
-0.531122 0.35347 1.69003 34 34 29
-0.522746 0.353793 1.69157 34 34 29
-0.522029 0.359399 1.71838 35 35 31
-0.517619 0.362614 1.73375 36 36 32
-0.504028 0.359399 1.71838 36 37 34
-0.479912 0.348424 1.6659 37 38 35
-0.486027 0.359399 1.71838 37 38 35
-0.480476 0.361998 1.7308 36 37 34
-0.468026 0.359399 1.71838 36 37 34
-0.451865 0.353793 1.69157 36 37 34
-0.443005 0.353793 1.69157 35 36 34
-0.444214 0.361998 1.7308 36 37 34
-0.435148 0.361998 1.7308 35 36 34
-0.416425 0.353793 1.69157 35 35 33
-0.413709 0.359127 1.71707 35 36 33
-0.411603 0.365238 1.74629 35 36 34
-0.399565 0.362614 1.73375 35 35 34
-0.383971 0.356566 1.70483 34 34 32
-0.386686 0.367637 1.75776 34 35 32
-0.360172 0.350781 1.67717 34 34 32
-0.36002 0.359399 1.71838 34 34 32
-0.35102 0.359399 1.71838 36 36 34
-0.331575 0.348424 1.6659 36 37 35
-0.32285 0.348424 1.6659 37 37 35
-0.326361 0.361998 1.7308 37 37 35
-0.312535 0.356566 1.70483 36 36 34
-0.299162 0.351347 1.67988 36 37 35
-0.305643 0.369837 1.76828 37 37 34
-0.288016 0.359399 1.71838 37 37 34
-0.276817 0.356566 1.70483 37 37 34
-0.255447 0.340009 1.62567 36 36 34
-0.249776 0.343924 1.64438 36 36 33
-0.248083 0.353793 1.69157 35 35 32
-0.233454 0.345262 1.65078 35 35 32
-0.225513 0.346344 1.65596 35 36 33
-0.228668 0.365238 1.74629 36 36 33
-0.206333 0.343296 1.64138 36 36 33
-0.208509 0.361998 1.7308 36 37 34
-0.193832 0.351813 1.68211 36 36 34
-0.178813 0.340009 1.62567 36 36 33
-0.171074 0.341557 1.63307 36 36 33
-0.17101 0.359399 1.71838 36 37 34
-0.163181 0.361998 1.7308 36 37 34
-0.149581 0.351347 1.67988 36 37 34
-0.139611 0.348424 1.6659 36 36 33
-0.12639 0.336459 1.60869 36 37 34
-0.126918 0.361998 1.7308 36 37 34
-0.117007 0.359399 1.71838 35 36 34
-0.107155 0.356566 1.70483 35 37 34
-0.0959824 0.348424 1.6659 36 37 34
-0.0872567 0.348424 1.6659 36 37 35
-0.0762726 0.338404 1.618 36 38 35
-0.0696205 0.347502 1.66149 36 38 36
-0.0601806 0.343296 1.64138 36 37 35
-0.054003 0.359399 1.71838 36 37 35
-0.0449684 0.359127 1.71707 36 36 35
-0.034978 0.349177 1.6695 35 36 34
-0.026354 0.350781 1.67717 36 36 34
-0.0179874 0.359127 1.71707 36 36 34
-0.00859722 0.343296 1.64138 36 37 34
0 0.353793 1.69157 35 36 33
0.00864646 0.345262 1.65078 35 35 33
0.0177333 0.354054 1.69282 35 36 34
0.025661 0.341557 1.63307 35 36 33
0.0349027 0.348424 1.6659 36 37 34
0.0439234 0.350781 1.67717 37 37 35
0.0515833 0.343296 1.64138 36 36 34
0.0634591 0.361998 1.7308 36 37 34
0.0691717 0.345262 1.65078 36 36 34
0.0790621 0.350781 1.67717 36 36 33
0.0872567 0.348424 1.6659 35 36 33
0.0997215 0.361998 1.7308 36 36 34
0.105416 0.350781 1.67717 36 36 34
0.117007 0.359399 1.71838 35 36 34
0.123184 0.351347 1.67988 35 36 33
0.128409 0.341832 1.63439 34 35 31
0.142873 0.356566 1.70483 34 34 31
0.152893 0.359127 1.71707 33 34 30
0.15838 0.351347 1.67988 33 35 31
0.167178 0.351347 1.67988 34 35 32
0.174513 0.348424 1.6659 34 35 32
0.186062 0.353793 1.69157 34 36 33
0.199443 0.361998 1.7308 34 36 34
0.20538 0.356566 1.70483 35 36 34
0.209416 0.348424 1.6659 34 36 34
0.223239 0.356566 1.70483 34 36 34
0.226867 0.348424 1.6659 34 36 34
0.234186 0.346344 1.65596 34 36 34
0.246368 0.351347 1.67988 35 36 34
0.254756 0.350781 1.67717 35 36 34
0.270015 0.359399 1.71838 35 36 33
0.276817 0.356566 1.70483 35 37 33
0.283523 0.353793 1.69157 35 37 34
0.283708 0.343296 1.64138 36 37 34
0.301244 0.353793 1.69157 36 37 35
0.30459 0.347502 1.66149 36 37 34
0.324018 0.359399 1.71838 35 36 32
0.327824 0.353793 1.69157 34 35 32
0.331575 0.348424 1.6659 35 36 32
0.353558 0.361998 1.7308 35 36 33
0.359747 0.359127 1.71707 35 36 33
0.362933 0.35347 1.69003 34 36 33
0.366478 0.348424 1.6659 34 36 33
0.390484 0.362614 1.73375 34 35 33
0.389489 0.35347 1.69003 33 35 32
0.395311 0.350781 1.67717 35 36 34
0.41076 0.356566 1.70483 36 37 34
0.41969 0.356566 1.70483 34 36 32
0.432024 0.359399 1.71838 34 35 31
0.437549 0.356566 1.70483 33 35 31
0.446478 0.356566 1.70483 34 35 32
0.455408 0.356566 1.70483 35 36 33
0.452533 0.347502 1.66149 34 35 33
0.48796 0.367637 1.75776 34 36 33
0.490376 0.362614 1.73375 34 35 33
0.51142 0.3713 1.77528 32 35 32
0.504028 0.359399 1.71838 32 35 32
0.532621 0.373124 1.784 32 35 33
0.53051 0.365238 1.74629 32 35 33
0.535781 0.362614 1.73375 31 34 33
0.522154 0.347502 1.66149 31 35 34
0.549031 0.359399 1.71838 33 36 35
0.553633 0.356566 1.70483 33 36 34
0.557678 0.35347 1.69003 32 36 34
0.571492 0.356566 1.70483 33 36 34
0.600526 0.368917 1.76388 33 37 35
0.598329 0.361998 1.7308 34 37 36
0.608429 0.362614 1.73375 34 37 36
0.632301 0.3713 1.77528 33 37 36
0.6416 0.3713 1.77528 34 37 37
0.654096 0.373124 1.784 35 39 38
0.655959 0.368917 1.76388 35 39 38
0.653834 0.362614 1.73375 35 39 38
0.651858 0.356566 1.70483 34 38 37
0.671996 0.362614 1.73375 35 39 37
0.687984 0.366292 1.75133 35 39 38
0.710161 0.373124 1.784 34 38 37
0.750476 0.389185 1.86079 34 37 36
0.733412 0.37546 1.79517 33 36 35
0.746996 0.377573 1.80527 33 36 35
0.714365 0.356566 1.70483 33 36 35
0.729724 0.359736 1.71999 33 36 35
0.776181 0.377972 1.80718 32 36 35
0.764164 0.367637 1.75776 34 37 36
0.773371 0.367637 1.75776 35 39 37
0.809349 0.380213 1.81789 35 39 37
0.791785 0.367637 1.75776 33 38 37
0.807297 0.370531 1.7716 31 36 36
0.816576 0.370531 1.7716 31 36 36
0.804002 0.360726 1.72472 32 36 36
0.864596 0.383602 1.8341 34 38 38
0.849192 0.372627 1.78162 36 40 39
0.883809 0.383602 1.8341 36 40 39
0.881663 0.378556 1.80997 35 39 38
0.901251 0.382849 1.8305 34 38 38
0.893258 0.37546 1.79517 34 38 38
0.87928 0.365735 1.74867 34 38 38
0.888439 0.365735 1.74867 34 38 38
0.912637 0.371862 1.77797 34 39 39
0.986692 0.397976 1.90282 34 38 38
0.950373 0.379493 1.81445 33 37 38
0.940575 0.371862 1.77797 33 38 38
1.03461 0.40503 1.93655 33 38 38
1.00388 0.389185 1.86079 32 37 38
0.997129 0.382849 1.8305 34 39 39
1.03082 0.392018 1.87433 33 38 38
1.0074 0.379493 1.81445 33 38 38
1.04287 0.389185 1.86079 33 38 38
1.05262 0.389185 1.86079 33 38 38
1.10162 0.403567 1.92955 34 38 38
1.06246 0.385682 1.84404 33 38 37
1.07212 0.385682 1.84404 33 38 37
1.12682 0.401743 1.92083 33 38 37
1.07888 0.381245 1.82283 34 39 38
1.08843 0.381245 1.82283 34 39 38
1.0269 0.356566 1.70483 34 39 38
1.03583 0.356566 1.70483 34 39 38
1.16121 0.396311 1.89486 33 38 38
1.23612 0.418301 2 34 39 38
1.13617 0.381245 1.82283 34 39 38
-0.661803 0.225726 1.05293 35 35 32
-0.653761 0.224857 1.04887 35 35 32
-0.646117 0.224111 1.0454 35 35 31
-0.689833 0.241319 1.12567 35 36 31
-0.666629 0.235212 1.09718 35 36 32
-0.665675 0.236918 1.10514 37 38 34
-0.707901 0.254157 1.18555 37 38 35
-0.654098 0.236918 1.10514 36 37 34
-0.64831 0.236918 1.10514 35 36 33
-0.609811 0.224857 1.04887 36 37 34
-0.642127 0.238925 1.1145 36 37 34
-0.667691 0.250717 1.1695 36 37 34
-0.691283 0.261979 1.22203 36 37 34
-0.701302 0.268259 1.25133 36 37 34
-0.694747 0.268259 1.25133 37 38 35
-0.712301 0.277657 1.29517 36 37 34
-0.648246 0.255118 1.19003 36 36 32
-0.659279 0.261979 1.22203 36 36 32
-0.676501 0.271457 1.26625 36 36 31
-0.711021 0.288134 1.34404 35 35 30
-0.650659 0.26631 1.24224 34 35 28
-0.659377 0.272604 1.2716 36 36 30
-0.572076 0.238925 1.1145 36 37 32
-0.672085 0.283587 1.32283 37 37 33
-0.754243 0.321569 1.5 37 37 33
-0.683856 0.294628 1.37433 36 37 33
-0.651299 0.283587 1.32283 36 37 33
-0.696357 0.306466 1.42955 36 37 32
-0.722816 0.321569 1.5 35 37 32
-0.677225 0.304597 1.42083 36 37 31
-0.72708 0.330654 1.54238 35 37 31
-0.676462 0.311091 1.45113 35 36 31
-0.642929 0.299029 1.39486 35 36 30
-0.705804 0.332046 1.54887 35 36 31
-0.675676 0.321569 1.5 36 37 33
-0.714627 0.344108 1.60514 37 38 34
-0.681466 0.332046 1.54887 36 37 33
-0.673353 0.332046 1.54887 36 36 32
-0.689405 0.344108 1.60514 35 36 31
-0.680998 0.344108 1.60514 36 36 31
-0.730039 0.373499 1.74224 36 36 32
-0.680423 0.352522 1.64438 37 37 33
-0.655776 0.344108 1.60514 37 38 35
-0.743721 0.395324 1.84404 37 37 35
-0.734062 0.395324 1.84404 36 37 34
-0.724404 0.395324 1.84404 37 37 34
-0.671996 0.37168 1.73375 37 37 34
-0.740457 0.415156 1.93655 37 37 34
-0.676996 0.384846 1.79517 36 37 34
-0.641395 0.369744 1.72472 37 38 34
-0.637029 0.372473 1.73745 38 38 34
-0.611347 0.362638 1.69157 37 37 33
-0.612034 0.368384 1.71838 36 36 31
-0.608429 0.37168 1.73375 35 35 30
-0.617295 0.382809 1.78567 35 34 29
-0.598442 0.376827 1.75776 36 36 32
-0.567047 0.362638 1.69157 38 38 34
-0.580028 0.376827 1.75776 38 38 34
-0.567097 0.374369 1.74629 37 37 34
-0.579728 0.388981 1.81445 36 36 31
-0.544862 0.37168 1.73375 35 34 29
-0.543201 0.376827 1.75776 35 35 30
-0.539316 0.380583 1.77528 36 36 31
-0.51351 0.368729 1.71999 36 36 32
-0.500056 0.365481 1.70483 36 36 32
-0.506374 0.376827 1.75776 36 37 33
-0.482197 0.365481 1.70483 36 37 34
-0.493569 0.381159 1.77797 36 37 34
-0.468026 0.368384 1.71838 36 37 35
-0.451865 0.362638 1.69157 36 37 34
-0.456274 0.373499 1.74224 35 36 33
-0.437549 0.365481 1.70483 35 36 32
-0.428619 0.365481 1.70483 35 36 34
-0.428898 0.373499 1.74224 35 35 33
-0.414023 0.368384 1.71838 34 35 33
-0.405023 0.368384 1.71838 35 36 34
-0.396022 0.368384 1.71838 37 37 35
-0.399838 0.380583 1.77528 36 37 35
-0.378021 0.368384 1.71838 36 36 35
-0.366112 0.365481 1.70483 34 34 32
-0.365869 0.374369 1.74629 34 34 31
-0.348253 0.365481 1.70483 35 35 34
-0.336684 0.362638 1.69157 36 36 34
-0.338429 0.374369 1.74629 37 37 36
-0.314124 0.357135 1.6659 38 38 36
-0.312535 0.365481 1.70483 37 37 35
-0.298679 0.35955 1.67717 37 37 35
-0.299165 0.371048 1.7308 35 35 32
-0.281564 0.360131 1.67988 35 35 32
-0.276817 0.365481 1.70483 36 36 34
-0.267887 0.365481 1.70483 36 36 33
-0.258957 0.365481 1.70483 36 36 33
-0.239696 0.350378 1.63439 35 35 32
-0.237186 0.35955 1.67717 35 36 33
-0.224808 0.353893 1.65078 36 36 33
-0.221503 0.362638 1.69157 36 36 34
-0.207515 0.353893 1.65078 36 36 33
-0.203782 0.362638 1.69157 36 36 34
-0.19645 0.365481 1.70483 37 37 34
-0.178813 0.348509 1.62567 36 36 34
-0.171944 0.351878 1.64138 37 37 34
-0.163347 0.351878 1.64138 37 38 35
-0.15838 0.360131 1.67988 38 38 35
-0.152893 0.368105 1.71707 36 37 34
-0.136239 0.348509 1.62567 35 36 32
-0.135134 0.368729 1.71999 36 37 33
-0.122986 0.35955 1.67717 36 36 33
-0.108288 0.340934 1.59033 36 36 34
-0.103167 0.351878 1.64138 35 36 34
-0.0926861 0.34487 1.60869 36 37 35
-0.0867357 0.355003 1.65596 36 37 34
-0.0803661 0.365481 1.70483 36 37 35
-0.0693886 0.355003 1.65596 36 37 35
-0.0614928 0.35955 1.67717 36 37 35
-0.054003 0.368384 1.71838 37 38 36
-0.0443333 0.362906 1.69282 36 37 35
-0.0333194 0.340934 1.59033 36 36 35
-0.0258389 0.352522 1.64438 36 36 35
-0.0177202 0.362638 1.69157 36 37 35
-0.00867357 0.355003 1.65596 36 36 34
0 0.360131 1.67988 35 35 33
0.00886011 0.362638 1.69157 35 35 33
0.0178591 0.365481 1.70483 36 36 34
0.0254242 0.346865 1.618 35 35 33
0.0346943 0.355003 1.65596 34 34 31
0.0436283 0.357135 1.6659 35 36 32
0.0531606 0.362638 1.69157 35 36 33
0.0596043 0.348509 1.62567 36 36 34
0.0696205 0.35619 1.66149 36 36 34
0.0790621 0.35955 1.67717 36 36 33
0.0874451 0.357906 1.6695 35 35 33
0.0982252 0.365481 1.70483 36 36 34
0.104708 0.357135 1.6659 36 36 34
0.115181 0.362638 1.69157 35 36 34
0.120361 0.351878 1.64138 35 36 33
0.130104 0.355003 1.65596 34 35 32
0.140782 0.360131 1.67988 35 35 33
0.146663 0.353107 1.64712 34 35 32
0.15409 0.350378 1.63439 34 35 32
0.165788 0.357135 1.6659 34 35 32
0.174513 0.357135 1.6659 34 35 32
0.186062 0.362638 1.69157 33 35 31
0.193263 0.35955 1.67717 33 35 32
0.20538 0.365481 1.70483 34 36 33
0.210832 0.35955 1.67717 34 36 34
0.216162 0.353893 1.65078 34 36 33
0.228402 0.35955 1.67717 34 36 34
0.227502 0.34487 1.60869 34 36 34
0.244846 0.357906 1.6695 34 35 33
0.250747 0.353893 1.65078 35 36 34
0.265803 0.362638 1.69157 36 37 34
0.281033 0.371048 1.7308 36 37 34
0.288016 0.368384 1.71838 36 37 34
0.287185 0.35619 1.66149 37 38 34
0.303605 0.365481 1.70483 37 38 35
0.312535 0.365481 1.70483 36 37 34
0.326361 0.371048 1.7308 34 35 32
0.328066 0.362906 1.69282 34 36 32
0.333818 0.35955 1.67717 35 36 33
0.361214 0.379083 1.76828 34 36 31
0.362624 0.371048 1.7308 33 35 31
0.369021 0.368384 1.71838 34 36 32
0.363151 0.353893 1.65078 34 35 32
0.377741 0.35955 1.67717 34 35 33
0.396393 0.368729 1.71999 33 35 32
0.40183 0.365481 1.70483 35 36 34
0.407194 0.362307 1.69003 37 37 35
0.41969 0.365481 1.70483 35 36 33
0.432024 0.368384 1.71838 34 35 32
0.448189 0.374369 1.74629 33 35 31
0.449684 0.368105 1.71707 33 35 31
0.455408 0.365481 1.70483 33 35 32
0.472214 0.37168 1.73375 32 34 31
0.477027 0.368384 1.71838 34 36 33
0.482197 0.365481 1.70483 35 37 35
0.491126 0.365481 1.70483 35 37 35
0.496166 0.362638 1.69157 34 36 34
0.520153 0.373499 1.74224 33 36 34
0.504749 0.35619 1.66149 32 35 34
0.526844 0.365481 1.70483 32 35 34
0.544862 0.37168 1.73375 31 35 33
0.52539 0.352522 1.64438 32 35 34
0.562067 0.371048 1.7308 32 35 34
0.572105 0.37168 1.73375 32 36 34
0.576572 0.368729 1.71999 32 36 34
0.580422 0.365481 1.70483 33 37 35
0.609765 0.37814 1.76388 34 37 36
0.612831 0.374369 1.74629 33 37 36
0.621977 0.374369 1.74629 32 36 35
0.626591 0.37168 1.73375 34 38 36
0.661895 0.387012 1.80527 36 40 39
0.679621 0.39178 1.82751 36 40 39
0.648644 0.368729 1.71999 35 40 38
0.641282 0.35955 1.67717 34 39 37
0.683676 0.37814 1.76388 34 39 37
0.657528 0.358828 1.6738 35 39 37
0.678647 0.365481 1.70483 34 38 36
0.693689 0.368729 1.71999 33 37 36
0.733412 0.384846 1.79517 33 36 35
0.72987 0.37814 1.76388 32 36 35
0.739109 0.37814 1.76388 33 36 35
0.756882 0.382452 1.784 32 36 35
0.787743 0.393192 1.8341 31 36 34
0.780426 0.384846 1.79517 34 38 36
0.795113 0.387421 1.80718 36 39 38
0.871558 0.419673 1.95762 34 38 37
0.791785 0.376827 1.75776 32 36 36
0.793917 0.373499 1.74224 30 35 34
0.821197 0.381943 1.78162 30 36 35
0.812168 0.373499 1.74224 34 38 37
0.851906 0.387421 1.80718 36 40 39
0.862703 0.38802 1.80997 36 40 39
0.87838 0.390776 1.82283 36 40 39
0.874453 0.384846 1.79517 35 39 38
0.891144 0.38802 1.80997 34 38 38
0.928312 0.399949 1.86561 34 38 38
0.927237 0.395324 1.84404 34 38 38
0.903324 0.381159 1.77797 35 39 39
0.912637 0.381159 1.77797 35 39 39
0.896248 0.370533 1.7284 34 38 38
0.996658 0.407925 1.90282 32 37 37
0.929887 0.376827 1.75776 33 37 37
1.06851 0.428758 2 33 37 38
1.00388 0.398915 1.86079 33 38 38
1.02101 0.401818 1.87433 35 40 40
1.00672 0.392421 1.8305 35 40 40
1.11041 0.428758 2 35 40 40
1.04287 0.398915 1.86079 36 41 41
1.04314 0.395324 1.84404 36 41 40
1.01144 0.379794 1.7716 34 38 38
1.1067 0.411786 1.92083 34 38 37
1.12183 0.413656 1.92955 34 38 38
1.17327 0.428758 2 34 38 38
1.12151 0.406219 1.89486 34 39 38
1.01797 0.365481 1.70483 35 40 39
1.08131 0.384846 1.79517 35 39 39
1.21517 0.428758 2 34 39 38
1.0772 0.376827 1.75776 34 39 38
1.18029 0.409392 1.90967 34 39 39
1.09561 0.376827 1.75776 34 39 38
-0.628536 0.219608 1 36 36 33
-0.683869 0.240949 1.09718 36 36 33
-0.657276 0.233542 1.06345 36 36 32
-0.682989 0.244753 1.1145 36 37 33
-0.702342 0.253857 1.15596 37 38 34
-0.716811 0.26134 1.19003 38 39 35
-0.698319 0.256832 1.1695 37 38 34
-0.713105 0.264591 1.20483 36 37 33
-0.686068 0.256832 1.1695 35 36 33
-0.642521 0.242697 1.10514 36 36 33
-0.632148 0.240949 1.09718 36 36 33
-0.679412 0.26134 1.19003 35 36 33
-0.691283 0.268368 1.22203 36 37 34
-0.64785 0.253857 1.15596 37 38 34
-0.668931 0.264591 1.20483 37 37 34
-0.635741 0.253857 1.15596 36 37 33
-0.656309 0.264591 1.20483 36 37 33
-0.630938 0.256832 1.1695 37 37 33
-0.663672 0.272805 1.24224 37 37 33
-0.669868 0.278078 1.26625 36 37 32
-0.692871 0.290504 1.32283 35 36 30
-0.685942 0.290504 1.32283 36 37 31
-0.689902 0.295162 1.34404 36 37 32
-0.658031 0.284429 1.29517 36 37 32
-0.70882 0.309574 1.40967 36 37 32
-0.701436 0.309574 1.40967 36 37 33
-0.651299 0.290504 1.32283 36 37 33
-0.660341 0.297704 1.35562 37 38 34
-0.746367 0.340145 1.54887 36 37 33
-0.69476 0.320105 1.45762 36 37 33
-0.724735 0.337626 1.53741 36 38 33
-0.699246 0.329412 1.5 35 37 31
-0.739849 0.352501 1.60514 34 36 30
-0.793917 0.382609 1.74224 35 36 31
-0.697691 0.340145 1.54887 36 37 33
-0.714627 0.352501 1.60514 37 38 34
-0.715252 0.357009 1.62567 36 37 33
-0.697812 0.352501 1.60514 36 37 32
-0.732224 0.374395 1.70483 35 36 31
-0.708305 0.366636 1.6695 35 36 31
-0.67259 0.352501 1.60514 36 36 32
-0.717401 0.380745 1.73375 37 37 33
-0.682072 0.366636 1.6695 36 37 34
-0.663197 0.36112 1.64438 36 36 33
-0.678647 0.374395 1.70483 36 36 33
-0.730983 0.408644 1.86079 35 36 33
-0.681303 0.386018 1.75776 36 36 33
-0.699908 0.401992 1.8305 36 37 34
-0.642929 0.374395 1.70483 36 37 33
-0.667593 0.394233 1.79517 36 37 33
-0.605252 0.362525 1.65078 37 37 33
-0.637481 0.387363 1.76388 37 37 33
-0.62981 0.388329 1.76828 37 36 32
-0.612831 0.3835 1.74629 37 37 33
-0.627246 0.398468 1.81445 37 36 32
-0.575907 0.371482 1.69157 36 36 32
-0.576032 0.377369 1.71838 37 37 33
-0.572105 0.380745 1.73375 38 37 34
-0.582969 0.394233 1.79517 38 37 34
-0.573566 0.394233 1.79517 38 38 34
-0.557913 0.389865 1.77528 37 37 33
-0.526844 0.374395 1.70483 36 36 32
-0.533994 0.386018 1.75776 36 36 32
-0.530017 0.389865 1.77528 36 37 33
-0.504028 0.377369 1.71838 36 37 33
-0.483938 0.368915 1.67988 35 36 32
-0.489542 0.380098 1.7308 35 36 32
-0.480476 0.380098 1.7308 35 36 33
-0.449616 0.362525 1.65078 36 37 34
-0.462345 0.380098 1.7308 36 37 35
-0.456274 0.382609 1.74224 36 37 34
-0.452704 0.387363 1.76388 34 35 32
-0.432024 0.377369 1.71838 35 35 33
-0.41288 0.36832 1.67717 34 35 33
-0.41076 0.374395 1.70483 34 35 33
-0.411603 0.3835 1.74629 35 35 33
-0.386526 0.36832 1.67717 36 37 35
-0.393309 0.3835 1.74629 37 38 36
-0.375042 0.374395 1.70483 36 37 35
-0.357752 0.365846 1.6659 35 35 33
-0.363241 0.380745 1.73375 35 35 33
-0.342602 0.36832 1.67717 36 36 35
-0.336377 0.371144 1.69003 36 36 35
-0.335427 0.380098 1.7308 37 37 36
-0.313292 0.364877 1.66149 38 38 36
-0.317296 0.380098 1.7308 36 36 34
-0.303605 0.374395 1.70483 36 35 33
-0.287947 0.365846 1.6659 35 34 30
-0.290099 0.380098 1.7308 35 35 31
-0.276817 0.374395 1.70483 37 37 34
-0.267887 0.374395 1.70483 37 37 34
-0.256943 0.371482 1.69157 36 36 33
-0.248083 0.371482 1.69157 36 36 33
-0.246962 0.3835 1.74629 37 37 33
-0.230363 0.371482 1.69157 36 36 33
-0.22664 0.380098 1.7308 37 37 35
-0.212643 0.371482 1.69157 37 37 34
-0.208864 0.380745 1.73375 36 36 34
-0.199443 0.380098 1.7308 36 36 33
-0.186062 0.371482 1.69157 36 36 33
-0.178591 0.374395 1.70483 36 37 34
-0.166146 0.366636 1.6695 38 38 35
-0.15838 0.368915 1.67988 37 38 35
-0.146153 0.36046 1.64138 36 36 33
-0.147309 0.386018 1.75776 35 36 33
-0.129697 0.362525 1.65078 36 37 34
-0.123184 0.368915 1.67988 36 37 34
-0.114201 0.36832 1.67717 36 37 34
-0.103167 0.36046 1.64138 36 36 34
-0.0967876 0.368915 1.67988 36 37 35
-0.0879887 0.368915 1.67988 36 37 34
-0.0815903 0.380098 1.7308 36 37 34
-0.0719495 0.377083 1.71707 36 37 34
-0.0610797 0.365846 1.6659 36 37 35
-0.0520414 0.363661 1.65596 36 37 35
-0.0446478 0.374395 1.70483 36 36 35
-0.0343889 0.36046 1.64138 35 36 34
-0.026354 0.36832 1.67717 35 36 34
-0.0178591 0.374395 1.70483 36 36 35
-0.00843913 0.353832 1.6112 36 36 35
0 0.377083 1.71707 35 36 34
0.00872567 0.365846 1.6659 35 35 33
0.0172929 0.362525 1.65078 35 35 33
0.0265803 0.371482 1.69157 35 35 33
0.0351955 0.368915 1.67988 35 35 33
0.0436283 0.365846 1.6659 36 36 33
0.0510894 0.357009 1.62567 36 36 33
0.0630035 0.377369 1.71838 36 36 33
0.0708809 0.371482 1.69157 36 36 33
0.0817293 0.380745 1.73375 36 36 33
0.0859722 0.36046 1.64138 35 36 33
0.0969158 0.369404 1.68211 36 36 35
0.106321 0.371482 1.69157 36 36 35
0.111764 0.36046 1.64138 35 36 34
0.120361 0.36046 1.64138 35 35 33
0.133 0.371757 1.69282 34 35 32
0.141867 0.371757 1.69282 35 36 33
0.149581 0.368915 1.67988 35 36 34
0.160732 0.374395 1.70483 35 36 34
0.162651 0.358924 1.63439 35 36 33
0.181312 0.380098 1.7308 34 35 32
0.180542 0.36046 1.64138 33 34 31
0.19645 0.374395 1.70483 33 35 31
0.19087 0.347943 1.58438 34 36 33
0.206333 0.36046 1.64138 34 36 33
0.212873 0.357009 1.62567 34 36 33
0.228402 0.36832 1.67717 34 36 34
0.237569 0.368915 1.67988 35 37 34
0.253837 0.380098 1.7308 35 36 33
0.255167 0.368915 1.67988 35 36 33
0.259394 0.362525 1.65078 35 36 33
0.274663 0.371482 1.69157 36 37 34
0.285746 0.374395 1.70483 36 37 34
0.294676 0.374395 1.70483 36 37 34
0.299162 0.368915 1.67988 36 37 35
0.310104 0.371482 1.69157 36 37 35
0.316248 0.36832 1.67717 34 36 33
0.335998 0.380745 1.73375 34 36 32
0.326694 0.36046 1.64138 35 36 33
0.345544 0.371482 1.69157 32 35 30
0.362624 0.380098 1.7308 32 34 30
0.360172 0.36832 1.67717 33 35 31
0.378021 0.377369 1.71838 33 35 32
0.383971 0.374395 1.70483 34 36 34
0.405099 0.386018 1.75776 34 35 33
0.387583 0.36112 1.64438 35 36 34
0.41076 0.374395 1.70483 35 36 34
0.422703 0.377083 1.71707 34 36 33
0.435148 0.380098 1.7308 34 35 32
0.437549 0.374395 1.70483 33 34 31
0.461943 0.387363 1.76388 34 35 32
0.448019 0.36832 1.67717 33 35 32
0.464337 0.374395 1.70483 32 34 32
0.473267 0.374395 1.70483 34 36 34
0.489542 0.380098 1.7308 35 37 35
0.50307 0.3835 1.74629 35 37 36
0.513695 0.384606 1.75133 35 37 35
0.513029 0.377369 1.71838 34 37 35
0.529278 0.382609 1.74224 33 35 34
0.522746 0.371482 1.69157 33 35 34
0.561177 0.392146 1.78567 32 35 34
0.548615 0.377083 1.71707 32 35 34
0.567097 0.3835 1.74629 33 36 34
0.572105 0.380745 1.73375 32 35 34
0.576572 0.377723 1.71999 31 35 34
0.585033 0.377369 1.71838 32 36 35
0.609765 0.387363 1.76388 34 37 36
0.619004 0.387363 1.76388 34 38 37
0.621977 0.3835 1.74629 34 37 36
0.637481 0.387363 1.76388 33 37 36
0.640271 0.3835 1.74629 36 40 38
0.628494 0.371144 1.69003 37 40 39
0.652723 0.380098 1.7308 36 40 38
0.651858 0.374395 1.70483 34 38 37
0.708337 0.401335 1.82751 34 39 37
0.717909 0.401335 1.82751 35 39 37
0.697157 0.384606 1.75133 34 39 37
0.699239 0.380745 1.73375 34 38 36
0.668497 0.359339 1.63628 34 37 35
0.718933 0.381558 1.73745 32 36 35
0.721573 0.378172 1.72203 32 36 35
0.751621 0.389057 1.7716 32 36 35
0.746234 0.381558 1.73745 32 36 35
0.764164 0.386018 1.75776 34 38 37
0.750084 0.374395 1.70483 35 39 37
0.773535 0.381558 1.73745 33 37 36
0.791785 0.386018 1.75776 30 36 35
0.845582 0.407508 1.85562 28 34 33
0.827439 0.394233 1.79517 31 36 36
0.836842 0.394233 1.79517 35 39 38
0.828612 0.386018 1.75776 35 39 39
0.862703 0.397484 1.80997 35 39 39
0.898997 0.409703 1.86561 35 39 38
0.908768 0.409703 1.86561 34 38 37
0.936859 0.417874 1.90282 35 39 38
0.917578 0.404966 1.84404 35 39 38
0.869089 0.37957 1.7284 35 39 39
0.942775 0.407508 1.85562 35 40 39
0.967836 0.414071 1.8855 35 39 39
0.921949 0.390455 1.77797 34 38 38
0.992491 0.416127 1.89486 33 37 37
0.968366 0.401992 1.8305 33 37 37
0.969381 0.398468 1.81445 33 38 38
0.96848 0.394233 1.79517 33 38 38
0.988388 0.398468 1.81445 35 40 40
1.01416 0.404966 1.84404 37 42 42
1.0074 0.398468 1.81445 39 44 43
1.03348 0.404966 1.84404 40 45 44
1.09547 0.425281 1.93655 37 42 41
1.09664 0.42183 1.92083 34 38 37
1.11173 0.423745 1.92955 35 38 38
1.01293 0.382609 1.74224 35 39 39
1.12682 0.42183 1.92083 35 38 38
1.12151 0.416127 1.89486 34 38 38
1.08843 0.400307 1.82283 34 39 39
1.08131 0.394233 1.79517 35 40 39
1.12041 0.404966 1.84404 34 39 39
1.22564 0.439216 2 34 39 39
1.23612 0.439216 2 34 39 38
1.39758 0.492413 2.24224 34 38 37
-0.689616 0.246686 1.09718 35 35 31
-0.659272 0.237813 1.05772 35 35 31
-0.653732 0.237813 1.05772 36 36 32
-0.729277 0.267562 1.19003 36 37 33
-0.69531 0.2573 1.14438 37 38 34
-0.704445 0.262947 1.1695 36 37 33
-0.659887 0.248475 1.10514 36 36 32
-0.677328 0.2573 1.14438 35 36 32
-0.64831 0.248475 1.10514 35 36 32
-0.710485 0.274758 1.22203 36 36 33
-0.642127 0.25058 1.1145 36 36 33
-0.697684 0.274758 1.22203 37 37 34
-0.670643 0.266554 1.18555 38 38 35
-0.71266 0.285902 1.2716 37 38 35
-0.649315 0.262947 1.1695 36 37 33
-0.635741 0.259902 1.15596 36 37 32
-0.705517 0.291201 1.29517 36 37 32
-0.698734 0.291201 1.29517 36 37 33
-0.706728 0.29742 1.32283 37 37 33
-0.745738 0.316944 1.40967 36 37 31
-0.663236 0.284699 1.26625 35 36 30
-0.659377 0.285902 1.2716 36 37 32
-0.679013 0.29742 1.32283 37 38 33
-0.732776 0.324278 1.44228 36 37 32
-0.681642 0.304792 1.35562 36 37 32
-0.674541 0.304792 1.35562 36 36 32
-0.710113 0.324278 1.44228 35 36 31
-0.702558 0.324278 1.44228 36 37 33
-0.679286 0.316944 1.40967 36 37 32
-0.634168 0.299145 1.3305 37 38 33
-0.730142 0.348244 1.54887 37 38 34
-0.699246 0.337255 1.5 36 37 32
-0.733027 0.357565 1.59033 34 36 30
-0.724697 0.357565 1.59033 35 36 31
-0.716367 0.357565 1.59033 36 37 33
-0.686686 0.346783 1.54238 36 37 32
-0.70622 0.360894 1.60514 35 36 31
-0.706737 0.365509 1.62567 35 36 31
-0.683047 0.357565 1.59033 35 35 30
-0.708305 0.375365 1.6695 36 36 32
-0.67259 0.360894 1.60514 36 37 33
-0.690816 0.375365 1.6695 36 37 33
-0.711788 0.391719 1.74224 36 37 33
-0.714504 0.39832 1.7716 36 36 33
-0.654584 0.369718 1.64438 36 37 34
-0.681077 0.38981 1.73375 36 36 33
-0.669923 0.388608 1.7284 35 36 33
-0.633171 0.37232 1.65596 36 37 34
-0.671888 0.400574 1.78162 36 37 33
-0.658829 0.39832 1.7716 37 37 33
-0.62507 0.383309 1.70483 37 37 33
-0.625526 0.389148 1.7308 36 37 33
-0.620533 0.391719 1.74224 36 36 31
-0.611408 0.391719 1.74224 37 36 32
-0.589351 0.383309 1.70483 37 37 33
-0.585033 0.386354 1.71838 36 36 32
-0.589235 0.395209 1.75776 35 35 31
-0.562563 0.383309 1.70483 36 36 31
-0.570822 0.395209 1.75776 37 37 33
-0.556655 0.391719 1.74224 38 38 34
-0.54003 0.386354 1.71838 38 38 34
-0.53103 0.386354 1.71838 37 37 33
-0.522029 0.386354 1.71838 36 36 32
-0.513029 0.386354 1.71838 36 36 32
-0.500056 0.383309 1.70483 37 37 33
-0.491126 0.383309 1.70483 35 36 32
-0.493923 0.392631 1.74629 34 35 31
-0.483651 0.391719 1.74224 35 36 32
-0.464337 0.383309 1.70483 35 36 33
-0.451865 0.380327 1.69157 36 37 34
-0.446478 0.383309 1.70483 37 37 35
-0.44497 0.38981 1.73375 36 36 34
-0.432024 0.386354 1.71838 35 36 34
-0.437032 0.399148 1.77528 35 36 33
-0.404095 0.377089 1.67717 35 35 33
-0.392655 0.374556 1.6659 35 36 33
-0.405099 0.395209 1.75776 36 37 35
-0.383971 0.383309 1.70483 37 37 35
-0.380755 0.389148 1.7308 36 37 35
-0.366112 0.383309 1.70483 36 37 35
-0.371942 0.399148 1.77528 36 37 35
-0.342602 0.377089 1.67717 36 37 35
-0.331575 0.374556 1.6659 36 37 35
-0.330394 0.383309 1.70483 38 39 37
-0.324018 0.386354 1.71838 39 39 38
-0.320135 0.392631 1.74629 37 36 35
-0.306017 0.386354 1.71838 35 35 32
-0.287947 0.374556 1.6659 35 35 31
-0.285746 0.383309 1.70483 35 35 31
-0.265378 0.36747 1.63439 37 37 34
-0.270015 0.386354 1.71838 37 37 34
-0.258957 0.383309 1.70483 36 36 33
-0.248083 0.380327 1.69157 36 37 33
-0.242829 0.386061 1.71707 36 36 33
-0.235378 0.388608 1.7284 36 36 32
-0.224842 0.386061 1.71707 37 37 33
-0.217574 0.389148 1.7308 37 37 34
-0.211756 0.395209 1.75776 36 36 33
-0.187328 0.365509 1.62567 35 35 32
-0.186062 0.380327 1.69157 36 36 32
-0.178591 0.383309 1.70483 36 36 32
-0.166909 0.377089 1.67717 37 37 34
-0.155636 0.371156 1.65078 37 37 34
-0.152893 0.386061 1.71707 36 36 33
