ply
format ascii 1.0
element vertex 1495
property float x
property float y
property float z
property uchar red
property uchar green
property uchar blue
end_header
-0.357183 0.169369 1.70483 0 0 0
-0.346011 0.168279 1.69386 0 0 0
-0.332291 0.165859 1.6695 0 0 0
-0.330394 0.169369 1.70483 0 0 0
-0.323773 0.170585 1.71707 0 0 0
-0.306058 0.165859 1.6695 0 0 0
-0.293327 0.163635 1.64712 0 0 0
-0.288569 0.165859 1.6695 0 0 0
-0.287467 0.170389 1.7151 0 0 0
-0.27108 0.165859 1.6695 0 0 0
-0.267887 0.169369 1.70483 0 0 0
-0.257133 0.168176 1.69282 0 0 0
-0.248266 0.168176 1.69282 0 0 0
-0.232125 0.163065 1.64138 0 0 0
-0.232169 0.169369 1.70483 0 0 0
-0.224842 0.170585 1.71707 0 0 0
-0.217272 0.17171 1.7284 0 0 0
-0.1941 0.160067 1.6112 0 0 0
-0.190819 0.164513 1.65596 0 0 0
-0.183635 0.165859 1.6695 0 0 0
-0.177333 0.168176 1.69282 0 0 0
-0.1674 0.167111 1.68211 0 0 0
-0.157062 0.165502 1.6659 0 0 0
-0.149779 0.167111 1.68211 0 0 0
-0.142873 0.169369 1.70483 0 0 0
-0.131983 0.16689 1.67988 0 0 0
-0.122006 0.165294 1.66382 0 0 0
-0.115337 0.168279 1.69386 0 0 0
-0.102179 0.161504 1.62567 0 0 0
-0.0963618 0.166156 1.67249 0 0 0
-0.0858584 0.16285 1.63921 0 0 0
-0.0766342 0.161504 1.62567 0 0 0
-0.0714365 0.169369 1.70483 0 0 0
-0.0613211 0.166156 1.67249 0 0 0
-0.052561 0.166156 1.67249 0 0 0
-0.0437225 0.165859 1.6695 0 0 0
-0.0354883 0.168279 1.69386 0 0 0
-0.0264608 0.167296 1.68397 0 0 0
-0.0176406 0.167296 1.68397 0 0 0
-0.00869595 0.164938 1.66023 0 0 0
0 0.164111 1.6519 0 0 0
0.00881053 0.167111 1.68211 0 0 0
0.0173047 0.164111 1.6519 0 0 0
0.0262805 0.166156 1.67249 0 0 0
0.0355066 0.168365 1.69473 0 0 0
0.0441014 0.167296 1.68397 0 0 0
0.0522884 0.165294 1.66382 0 0 0
0.0602907 0.163364 1.64438 0 0 0
0.067259 0.159465 1.60514 0 0 0
0.0772726 0.16285 1.63921 0 0 0
0.0869595 0.164938 1.66023 0 0 0
0.0951757 0.164111 1.6519 0 0 0
0.103527 0.163635 1.64712 0 0 0
0.113882 0.166156 1.67249 0 0 0
0.121133 0.164111 1.6519 0 0 0
0.131168 0.165859 1.6695 0 0 0
0.140968 0.167111 1.68211 0 0 0
0.14709 0.164111 1.6519 0 0 0
0.159697 0.168279 1.69386 0 0 0
0.170773 0.170478 1.716 0 0 0
0.168783 0.160067 1.6112 0 0 0
0.181699 0.164111 1.6519 0 0 0
0.193014 0.166407 1.67501 0 0 0
0.200007 0.164938 1.66023 0 0 0
0.21293 0.168279 1.69386 0 0 0
0.220507 0.167296 1.68397 0 0 0
0.223232 0.16285 1.63921 0 0 0
0.234791 0.164938 1.66023 0 0 0
0.244013 0.165294 1.66382 0 0 0
0.258957 0.169369 1.70483 0 0 0
0.261442 0.165294 1.66382 0 0 0
0.271565 0.166156 1.67249 0 0 0
0.280325 0.166156 1.67249 0 0 0
0.292779 0.168279 1.69386 0 0 0
0.303605 0.169369 1.70483 0 0 0
0.300504 0.16285 1.63921 0 0 0
0.327889 0.172754 1.7389 0 0 0
0.332558 0.170478 1.716 0 0 0
0.3348 0.167111 1.68211 0 0 0
0.350534 0.170478 1.716 0 0 0
0.354666 0.168176 1.69282 0 0 0
0.360754 0.16689 1.67988 0 0 0
0.370042 0.167111 1.68211 0 0 0
0.386728 0.170585 1.71707 0 0 0
0.397872 0.171512 1.7264 0 0 0
0.393503 0.165859 1.6695 0 0 0
0.416438 0.17171 1.7284 0 0 0
0.416733 0.168176 1.69282 0 0 0
0.42586 0.168279 1.69386 0 0 0
0.437549 0.169369 1.70483 0 0 0
0.452128 0.171512 1.7264 0 0 0
0.455408 0.169369 1.70483 0 0 0
0.458147 0.167111 1.68211 0 0 0
0.48658 0.174133 1.75279 0 0 0
0.482197 0.169369 1.70483 0 0 0
0.487964 0.168279 1.69386 0 0 0
0.506968 0.17171 1.7284 0 0 0
0.502756 0.167296 1.68397 0 0 0
0.532483 0.174133 1.75279 0 0 0
0.533511 0.171512 1.7264 0 0 0
0.550845 0.174133 1.75279 0 0 0
0.548272 0.170478 1.716 0 0 0
0.574238 0.175673 1.76828 0 0 0
0.581608 0.175103 1.76255 0 0 0
0.580198 0.171949 1.7308 0 0 0
0.592022 0.172754 1.7389 0 0 0
0.607649 0.174627 1.75776 0 0 0
0.605851 0.171512 1.7264 0 0 0
0.607211 0.169369 1.70483 0 0 0
0.631983 0.173724 1.74867 0 0 0
0.641142 0.173724 1.74867 0 0 0
0.642021 0.171512 1.7264 0 0 0
0.642929 0.169369 1.70483 0 0 0
0.677387 0.176002 1.7716 0 0 0
0.669923 0.17171 1.7284 0 0 0
0.674526 0.170585 1.71707 0 0 0
0.69221 0.172754 1.7389 0 0 0
0.720675 0.177522 1.7869 0 0 0
0.711788 0.173085 1.74224 0 0 0
0.725279 0.174133 1.75279 0 0 0
0.74501 0.176634 1.77797 0 0 0
0.76162 0.178343 1.79517 0 0 0
0.743379 0.171949 1.7308 0 0 0
0.762002 0.174133 1.75279 0 0 0
0.755469 0.170585 1.71707 0 0 0
0.795001 0.1774 1.78567 0 0 0
0.780969 0.172242 1.73375 0 0 0
0.826825 0.180259 1.81445 0 0 0
0.818272 0.176368 1.77528 0 0 0
0.822259 0.175235 1.76388 0 0 0
0.861491 0.181557 1.82751 0 0 0
0.855647 0.178343 1.79517 0 0 0
0.849975 0.175235 1.76388 0 0 0
0.874453 0.178343 1.79517 0 0 0
0.912272 0.184077 1.85288 0 0 0
0.893258 0.178343 1.79517 0 0 0
0.9087 0.179537 1.80718 0 0 0
0.931842 0.182211 1.8341 0 0 0
0.941448 0.182211 1.8341 0 0 0
0.962214 0.184349 1.85562 0 0 0
0.985755 0.18697 1.882 0 0 0
0.964308 0.181091 1.82283 0 0 0
0.951842 0.176998 1.78162 0 0 0
0.983403 0.181091 1.82283 0 0 0
1.00451 0.183199 1.84404 0 0 0
1.04212 0.188248 1.89486 0 0 0
0.996688 0.178343 1.79517 0 0 0
1.09122 0.193434 1.94707 0 0 0
1.06659 0.187318 1.8855 0 0 0
1.08636 0.189038 1.90282 0 0 0
1.11906 0.192959 1.94228 0 0 0
1.07212 0.183199 1.84404 0 0 0
1.07383 0.181853 1.8305 0 0 0
1.10936 0.186208 1.87433 0 0 0
1.11109 0.184863 1.86079 0 0 0
1.09293 0.180259 1.81445 0 0 0
1.1801 0.192959 1.94228 0 0 0
1.08568 0.176002 1.7716 0 0 0
1.07681 0.173085 1.74224 0 0 0
1.08593 0.173085 1.74224 0 0 0
-0.628536 0.104575 1 0 0 0
-0.644163 0.108076 1.03348 0 0 0
-0.63875 0.108076 1.03348 0 0 0
-0.632313 0.107901 1.0318 0 0 0
-0.627923 0.108076 1.03348 0 0 0
-0.640566 0.111211 1.06345 0 0 0
-0.634996 0.111211 1.06345 0 0 0
-0.629426 0.111211 1.06345 0 0 0
-0.623856 0.111211 1.06345 0 0 0
-0.620213 0.111557 1.06677 0 0 0
-0.616746 0.111942 1.07045 0 0 0
-0.590032 0.108076 1.03348 0 0 0
-0.622078 0.115001 1.0997 0 0 0
-0.602227 0.112372 1.07455 0 0 0
-0.613579 0.11557 1.10514 0 0 0
-0.602098 0.114487 1.09479 0 0 0
-0.616688 0.118389 1.1321 0 0 0
-0.614595 0.119133 1.13921 0 0 0
-0.587518 0.115001 1.0997 0 0 0
-0.620268 0.122613 1.17249 0 0 0
-0.596694 0.119133 1.13921 0 0 0
-0.624756 0.125996 1.20483 0 0 0
-0.613259 0.124939 1.19473 0 0 0
-0.617809 0.127163 1.216 0 0 0
-0.589561 0.122613 1.17249 0 0 0
-0.611241 0.12846 1.2284 0 0 0
-0.611619 0.129907 1.24224 0 0 0
-0.598372 0.12846 1.2284 0 0 0
-0.601705 0.13058 1.24867 0 0 0
-0.609129 0.133643 1.27797 0 0 0
-0.619635 0.137459 1.31445 0 0 0
-0.60376 0.135442 1.29517 0 0 0
-0.605866 0.137459 1.31445 0 0 0
-0.600549 0.137819 1.31789 0 0 0
-0.625586 0.145234 1.3888 0 0 0
-0.598384 0.140553 1.34404 0 0 0
-0.616099 0.146437 1.4003 0 0 0
-0.584305 0.140553 1.34404 0 0 0
-0.584459 0.142305 1.36079 0 0 0
-0.618413 0.152431 1.45762 0 0 0
-0.58194 0.145234 1.3888 0 0 0
-0.636156 0.160774 1.53741 0 0 0
-0.612822 0.156863 1.5 0 0 0
-0.58988 0.152951 1.46259 0 0 0
-0.625152 0.16423 1.57045 0 0 0
-0.645971 0.171962 1.64438 0 0 0
-0.660788 0.178283 1.70483 0 0 0
-0.608079 0.166309 1.59033 0 0 0
-0.565682 0.156863 1.5 0 0 0
-0.633999 0.178283 1.70483 0 0 0
-0.578995 0.165142 1.57917 0 0 0
-0.5823 0.168491 1.6112 0 0 0
-0.61751 0.181307 1.73375 0 0 0
-0.565422 0.168491 1.6112 0 0 0
-0.579789 0.17539 1.67717 0 0 0
-0.616216 0.189278 1.80997 0 0 0
-0.611047 0.190623 1.82283 0 0 0
-0.557036 0.176532 1.68808 0 0 0
-0.54553 0.175674 1.67988 0 0 0
-0.544704 0.178283 1.70483 0 0 0
-0.546482 0.181846 1.7389 0 0 0
-0.534128 0.180748 1.7284 0 0 0
-0.511576 0.176101 1.68397 0 0 0
-0.505709 0.177135 1.69386 0 0 0
-0.497092 0.177227 1.69473 0 0 0
-0.494343 0.179451 1.716 0 0 0
-0.485355 0.179451 1.716 0 0 0
-0.479255 0.180539 1.7264 0 0 0
-0.455528 0.174901 1.67249 0 0 0
-0.463765 0.181555 1.73612 0 0 0
-0.455401 0.181846 1.7389 0 0 0
-0.443085 0.180539 1.7264 0 0 0
-0.422905 0.175906 1.68211 0 0 0
-0.425491 0.180748 1.7284 0 0 0
-0.413451 0.179451 1.716 0 0 0
-0.413134 0.183298 1.75279 0 0 0
-0.398332 0.180748 1.7284 0 0 0
-0.376014 0.174588 1.6695 0 0 0
-0.367927 0.174901 1.67249 0 0 0
-0.363755 0.177135 1.69386 0 0 0
-0.350406 0.174901 1.67249 0 0 0
-0.337441 0.172748 1.6519 0 0 0
-0.337139 0.177135 1.69386 0 0 0
-0.330394 0.178283 1.70483 0 0 0
-0.319395 0.177135 1.69386 0 0 0
-0.306606 0.174901 1.67249 0 0 0
-0.307447 0.180539 1.7264 0 0 0
-0.294676 0.178283 1.70483 0 0 0
-0.281937 0.175906 1.68211 0 0 0
-0.278804 0.179563 1.71707 0 0 0
-0.266 0.177027 1.69282 0 0 0
-0.250191 0.172248 1.64712 0 0 0
-0.251823 0.179563 1.71707 0 0 0
-0.234186 0.173172 1.65596 0 0 0
-0.229074 0.175906 1.68211 0 0 0
-0.223239 0.178283 1.70483 0 0 0
-0.211173 0.175674 1.67988 0 0 0
-0.201124 0.174588 1.6695 0 0 0
-0.189139 0.171648 1.64138 0 0 0
-0.181172 0.172248 1.64712 0 0 0
-0.175977 0.175674 1.67988 0 0 0
-0.168467 0.177027 1.69282 0 0 0
-0.162954 0.180748 1.7284 0 0 0
-0.150733 0.177027 1.69282 0 0 0
-0.139912 0.174588 1.6695 0 0 0
-0.131168 0.174588 1.6695 0 0 0
-0.121743 0.173619 1.66023 0 0 0
-0.115337 0.177135 1.69386 0 0 0
-0.105122 0.174901 1.67249 0 0 0
-0.0940344 0.170677 1.6321 0 0 0
-0.0892957 0.178283 1.70483 0 0 0
-0.0787006 0.174588 1.6695 0 0 0
-0.0709333 0.177027 1.69282 0 0 0
-0.0603908 0.172248 1.64712 0 0 0
-0.0532599 0.177227 1.69473 0 0 0
-0.0427429 0.170677 1.6321 0 0 0
-0.0339207 0.169311 1.61903 0 0 0
-0.0264608 0.176101 1.68397 0 0 0
-0.0171717 0.171421 1.63921 0 0 0
-0.00865233 0.172748 1.6519 0 0 0
0 0.174901 1.67249 0 0 0
0.00882028 0.176101 1.68397 0 0 0
0.0168978 0.168686 1.61306 0 0 0
0.0255447 0.170004 1.62567 0 0 0
0.0350406 0.174901 1.67249 0 0 0
0.0443832 0.177227 1.69473 0 0 0
0.0535774 0.178283 1.70483 0 0 0
0.0598401 0.170677 1.6321 0 0 0
0.0705622 0.176101 1.68397 0 0 0
0.0798487 0.177135 1.69386 0 0 0
0.0898334 0.179357 1.7151 0 0 0
0.0963618 0.174901 1.67249 0 0 0
0.1078 0.179357 1.7151 0 0 0
0.111616 0.171421 1.63921 0 0 0
0.11968 0.170677 1.6321 0 0 0
0.132158 0.175906 1.68211 0 0 0
0.139135 0.173619 1.66023 0 0 0
0.148923 0.174901 1.67249 0 0 0
0.157683 0.174901 1.67249 0 0 0
0.165223 0.173619 1.66023 0 0 0
0.173919 0.173619 1.66023 0 0 0
0.182615 0.173619 1.66023 0 0 0
0.189485 0.171962 1.64438 0 0 0
0.202866 0.176101 1.68397 0 0 0
0.20606 0.171421 1.63921 0 0 0
0.224701 0.179451 1.716 0 0 0
0.230533 0.177027 1.69282 0 0 0
0.241098 0.178283 1.70483 0 0 0
0.243487 0.173619 1.66023 0 0 0
0.253591 0.174588 1.6695 0 0 0
0.261442 0.173994 1.66382 0 0 0
0.271565 0.174901 1.67249 0 0 0
0.274747 0.171421 1.63921 0 0 0
0.290747 0.175906 1.68211 0 0 0
0.290825 0.170778 1.63307 0 0 0
0.316855 0.180748 1.7284 0 0 0
0.321464 0.178283 1.70483 0 0 0
0.32599 0.175906 1.68211 0 0 0
0.337139 0.177135 1.69386 0 0 0
0.353067 0.180748 1.7284 0 0 0
0.352421 0.175906 1.68211 0 0 0
0.358525 0.174588 1.6695 0 0 0
0.370042 0.175906 1.68211 0 0 0
0.381499 0.177135 1.69386 0 0 0
0.398332 0.180748 1.7284 0 0 0
0.393503 0.174588 1.6695 0 0 0
0.408116 0.177135 1.69386 0 0 0
0.414095 0.175906 1.68211 0 0 0
0.428619 0.178283 1.70483 0 0 0
0.415262 0.169202 1.618 0 0 0
0.438008 0.174901 1.67249 0 0 0
0.4522 0.177027 1.69282 0 0 0
0.464337 0.178283 1.70483 0 0 0
0.466958 0.175906 1.68211 0 0 0
0.491834 0.181846 1.7389 0 0 0
0.494653 0.179563 1.71707 0 0 0
0.503331 0.179451 1.716 0 0 0
0.508985 0.178283 1.70483 0 0 0
0.528266 0.181846 1.7389 0 0 0
0.51685 0.174901 1.67249 0 0 0
0.539284 0.179451 1.716 0 0 0
0.552234 0.180748 1.7284 0 0 0
0.550069 0.177135 1.69386 0 0 0
0.578387 0.183298 1.75279 0 0 0
0.59084 0.184319 1.76255 0 0 0
0.588446 0.180748 1.7284 0 0 0
0.605929 0.183298 1.75279 0 0 0
0.61511 0.183298 1.75279 0 0 0
0.633258 0.185931 1.77797 0 0 0
0.651939 0.188642 1.80389 0 0 0
0.629164 0.179451 1.716 0 0 0
0.651833 0.183298 1.75279 0 0 0
0.65946 0.182867 1.74867 0 0 0
0.670195 0.183298 1.75279 0 0 0
0.692597 0.186865 1.7869 0 0 0
0.701956 0.186865 1.7869 0 0 0
0.711316 0.186865 1.7869 0 0 0
0.714504 0.185265 1.7716 0 0 0
0.696506 0.178283 1.70483 0 0 0
0.729318 0.184319 1.76255 0 0 0
0.74501 0.185931 1.77797 0 0 0
0.750215 0.184919 1.76828 0 0 0
0.774768 0.188642 1.80389 0 0 0
0.776295 0.186736 1.78567 0 0 0
0.781078 0.18565 1.77528 0 0 0
0.764463 0.179563 1.71707 0 0 0
0.791785 0.183818 1.75776 0 0 0
0.803781 0.184458 1.76388 0 0 0
0.818272 0.18565 1.77528 0 0 0
0.849737 0.190623 1.82283 0 0 0
0.825581 0.183146 1.75133 0 0 0
0.850324 0.186562 1.784 0 0 0
0.859669 0.186562 1.784 0 0 0
0.869013 0.186562 1.784 0 0 0
0.907919 0.192841 1.84404 0 0 0
0.917578 0.192841 1.84404 0 0 0
0.914089 0.190107 1.81789 0 0 0
0.874907 0.180082 1.72203 0 0 0
0.921467 0.18773 1.79517 0 0 0
0.971921 0.196009 1.87433 0 0 0
0.946563 0.188986 1.80718 0 0 0
0.957505 0.189278 1.80997 0 0 0
1.00547 0.196811 1.882 0 0 0
0.983403 0.190623 1.82283 0 0 0
1.04349 0.200326 1.91561 0 0 0
0.995426 0.189278 1.80997 0 0 0
1.05204 0.198156 1.89486 0 0 0
1.03348 0.192841 1.84404 0 0 0
1.10372 0.204039 1.95113 0 0 0
1.08181 0.198156 1.89486 0 0 0
1.05466 0.191425 1.8305 0 0 0
1.10166 0.198156 1.89486 0 0 0
1.06442 0.189747 1.81445 0 0 0
1.07392 0.189747 1.81445 0 0 0
1.08343 0.189747 1.81445 0 0 0
1.16993 0.203115 1.94228 0 0 0
1.13882 0.196009 1.87433 0 0 0
1.17713 0.200871 1.92083 0 0 0
1.13973 0.192841 1.84404 0 0 0
1.2466 0.20915 2 0 0 0
-0.58657 0.102473 0.933233 0 0 0
-0.682378 0.120212 1.09479 0 0 0
-0.637717 0.113296 1.0318 0 0 0
-0.631386 0.11313 1.03029 0 0 0
-0.627923 0.11348 1.03348 0 0 0
-0.638757 0.116441 1.06045 0 0 0
-0.639173 0.117539 1.07045 0 0 0
-0.629426 0.116771 1.06345 0 0 0
-0.627959 0.117539 1.07045 0 0 0
-0.622353 0.117539 1.07045 0 0 0
-0.614626 0.117135 1.06677 0 0 0
-0.625035 0.120212 1.09479 0 0 0
-0.603451 0.117135 1.06677 0 0 0
-0.594322 0.116441 1.06045 0 0 0
-0.613579 0.121348 1.10514 0 0 0
-0.622617 0.124309 1.1321 0 0 0
-0.599038 0.120751 1.0997 0 0 0
-0.614595 0.12509 1.13921 0 0 0
-0.590425 0.121348 1.10514 0 0 0
-0.61568 0.127792 1.16382 0 0 0
-0.609584 0.127792 1.16382 0 0 0
-0.587039 0.124309 1.1321 0 0 0
-0.60678 0.1298 1.18211 0 0 0
-0.624109 0.134883 1.2284 0 0 0
-0.627866 0.137109 1.24867 0 0 0
-0.588205 0.1298 1.18211 0 0 0
-0.599871 0.133782 1.21838 0 0 0
-0.615006 0.138633 1.26255 0 0 0
-0.606087 0.138107 1.25776 0 0 0
-0.617328 0.142214 1.29517 0 0 0
-0.560982 0.13067 1.19003 0 0 0
-0.60376 0.142214 1.29517 0 0 0
-0.587809 0.140031 1.27528 0 0 0
-0.615723 0.148366 1.35119 0 0 0
-0.643943 0.156971 1.42955 0 0 0
-0.605841 0.14942 1.36079 0 0 0
-0.611037 0.152496 1.3888 0 0 0
-0.637553 0.16103 1.46652 0 0 0
-0.644249 0.164706 1.5 0 0 0
-0.602805 0.156013 1.42083 0 0 0
-0.628536 0.164706 1.5 0 0 0
-0.638214 0.169359 1.54238 0 0 0
-0.645166 0.173399 1.57917 0 0 0
-0.587874 0.160053 1.45762 0 0 0
-0.613979 0.169359 1.54238 0 0 0
-0.658851 0.18416 1.67717 0 0 0
-0.630103 0.178504 1.62567 0 0 0
-0.592226 0.170072 1.54887 0 0 0
-0.624497 0.181831 1.65596 0 0 0
-0.661196 0.195228 1.77797 0 0 0
-0.614928 0.18416 1.67717 0 0 0
-0.587529 0.178504 1.62567 0 0 0
-0.615605 0.189785 1.7284 0 0 0
-0.598281 0.187197 1.70483 0 0 0
-0.572456 0.181831 1.65596 0 0 0
-0.616216 0.198742 1.80997 0 0 0
-0.565878 0.185358 1.68808 0 0 0
-0.577906 0.192303 1.75133 0 0 0
-0.564698 0.190939 1.7389 0 0 0
-0.537442 0.184702 1.68211 0 0 0
-0.528632 0.184702 1.68211 0 0 0
-0.533511 0.189566 1.7264 0 0 0
-0.531232 0.192011 1.74867 0 0 0
-0.515426 0.189566 1.7264 0 0 0
-0.500056 0.187197 1.70483 0 0 0
-0.481809 0.183646 1.67249 0 0 0
-0.482197 0.187197 1.70483 0 0 0
-0.467475 0.184906 1.68397 0 0 0
-0.473617 0.190939 1.7389 0 0 0
-0.458151 0.188325 1.7151 0 0 0
-0.440526 0.184702 1.68211 0 0 0
-0.443597 0.189785 1.7284 0 0 0
-0.431697 0.188541 1.71707 0 0 0
-0.422439 0.188424 1.716 0 0 0
-0.418969 0.190939 1.7389 0 0 0
-0.412163 0.192011 1.74867 0 0 0
-0.392901 0.187197 1.70483 0 0 0
-0.376687 0.183646 1.67249 0 0 0
-0.362345 0.18086 1.64712 0 0 0
-0.363755 0.185992 1.69386 0 0 0
-0.359522 0.188424 1.716 0 0 0
-0.348253 0.187197 1.70483 0 0 0
-0.346105 0.190939 1.7389 0 0 0
-0.322445 0.182694 1.66382 0 0 0
-0.31753 0.184906 1.68397 0 0 0
-0.308368 0.184702 1.68211 0 0 0
-0.295662 0.1823 1.66023 0 0 0
-0.2926 0.185879 1.69282 0 0 0
-0.285746 0.187197 1.70483 0 0 0
-0.27108 0.183318 1.6695 0 0 0
-0.273241 0.190939 1.7389 0 0 0
-0.255505 0.184702 1.68211 0 0 0
-0.240404 0.179992 1.63921 0 0 0
-0.241098 0.187197 1.70483 0 0 0
-0.229074 0.184702 1.68211 0 0 0
-0.215682 0.18086 1.64712 0 0 0
-0.208166 0.181831 1.65596 0 0 0
-0.201124 0.183318 1.6695 0 0 0
-0.19645 0.187197 1.70483 0 0 0
-0.180542 0.18023 1.64138 0 0 0
-0.17489 0.183318 1.6695 0 0 0
-0.170684 0.188325 1.7151 0 0 0
-0.15838 0.184457 1.67988 0 0 0
-0.148657 0.183318 1.6695 0 0 0
-0.140968 0.184702 1.68211 0 0 0
-0.130721 0.182694 1.66382 0 0 0
-0.125014 0.187197 1.70483 0 0 0
-0.116084 0.187197 1.70483 0 0 0
-0.105122 0.183646 1.67249 0 0 0
-0.0958621 0.182694 1.66382 0 0 0
-0.0892957 0.187197 1.70483 0 0 0
-0.0788415 0.183646 1.67249 0 0 0
-0.0722699 0.189381 1.72472 0 0 0
-0.0603908 0.18086 1.64712 0 0 0
-0.0512915 0.179211 1.6321 0 0 0
-0.0432617 0.181385 1.6519 0 0 0
-0.0364321 0.190939 1.7389 0 0 0
-0.0266162 0.185992 1.69386 0 0 0
-0.0179667 0.188325 1.7151 0 0 0
-0.00874451 0.183318 1.6695 0 0 0
0 0.1823 1.66023 0 0 0
0.00871474 0.182694 1.66382 0 0 0
0.0178591 0.187197 1.70483 0 0 0
0.0257575 0.179992 1.63921 0 0 0
0.0359334 0.188325 1.7151 0 0 0
0.0431363 0.18086 1.64712 0 0 0
0.0528632 0.184702 1.68211 0 0 0
0.0605663 0.181385 1.6519 0 0 0
0.0690181 0.18086 1.64712 0 0 0
0.0803661 0.187197 1.70483 0 0 0
0.0876016 0.183646 1.67249 0 0 0
0.0961896 0.183318 1.6695 0 0 0
0.104351 0.1823 1.66023 0 0 0
0.115267 0.185879 1.69282 0 0 0
0.121743 0.1823 1.66023 0 0 0
0.132304 0.184906 1.68397 0 0 0
0.142873 0.187197 1.70483 0 0 0
0.148923 0.183646 1.67249 0 0 0
0.157683 0.183646 1.67249 0 0 0
0.163131 0.179992 1.63921 0 0 0
0.176406 0.184906 1.68397 0 0 0
0.183963 0.183646 1.67249 0 0 0
0.191724 0.182694 1.66382 0 0 0
0.200007 0.1823 1.66023 0 0 0
0.210244 0.183646 1.67249 0 0 0
0.217868 0.182694 1.66382 0 0 0
0.227764 0.183646 1.67249 0 0 0
0.241098 0.187197 1.70483 0 0 0
0.253192 0.189566 1.7264 0 0 0
0.260654 0.188424 1.716 0 0 0
0.262335 0.183318 1.6695 0 0 0
0.27863 0.188424 1.716 0 0 0
0.281937 0.184702 1.68211 0 0 0
0.286228 0.181831 1.65596 0 0 0
0.294901 0.181831 1.65596 0 0 0
0.306058 0.183318 1.6695 0 0 0
0.325908 0.189785 1.7284 0 0 0
0.330394 0.187197 1.70483 0 0 0
0.330446 0.1823 1.66023 0 0 0
0.348253 0.187197 1.70483 0 0 0
0.36723 0.192463 1.75279 0 0 0
0.371173 0.189785 1.7284 0 0 0
0.367927 0.183646 1.67249 0 0 0
0.389279 0.189785 1.7284 0 0 0
0.387663 0.184702 1.68211 0 0 0
0.396474 0.184702 1.68211 0 0 0
0.405284 0.184702 1.68211 0 0 0
0.416733 0.185879 1.69282 0 0 0
0.437185 0.190939 1.7389 0 0 0
0.434466 0.185879 1.69282 0 0 0
0.455401 0.190939 1.7389 0 0 0
0.464509 0.190939 1.7389 0 0 0
0.464337 0.187197 1.70483 0 0 0
0.479809 0.189785 1.7284 0 0 0
0.482197 0.187197 1.70483 0 0 0
0.497915 0.189785 1.7284 0 0 0
0.503331 0.188424 1.716 0 0 0
0.516021 0.189785 1.7284 0 0 0
0.517915 0.187197 1.70483 0 0 0
0.533511 0.189566 1.7264 0 0 0
0.535774 0.187197 1.70483 0 0 0
0.55559 0.190939 1.7389 0 0 0
0.553633 0.187197 1.70483 0 0 0
0.573806 0.190939 1.7389 0 0 0
0.579393 0.189785 1.7284 0 0 0
0.584589 0.188541 1.71707 0 0 0
0.60113 0.190939 1.7389 0 0 0
0.606552 0.189785 1.7284 0 0 0
0.624291 0.192463 1.75279 0 0 0
0.629659 0.191305 1.74224 0 0 0
0.637562 0.190939 1.7389 0 0 0
0.638152 0.188424 1.716 0 0 0
0.657035 0.191305 1.74224 0 0 0
0.689733 0.198074 1.80389 0 0 0
0.675286 0.191305 1.74224 0 0 0
0.683102 0.190939 1.7389 0 0 0
0.697737 0.192463 1.75279 0 0 0
0.717897 0.195452 1.78001 0 0 0
0.722429 0.194164 1.76828 0 0 0
0.699949 0.185741 1.69157 0 0 0
0.767022 0.200996 1.8305 0 0 0
0.750215 0.194164 1.76828 0 0 0
0.771023 0.197116 1.79517 0 0 0
0.795786 0.200996 1.8305 0 0 0
0.773371 0.193009 1.75776 0 0 0
0.799231 0.197116 1.79517 0 0 0
0.799675 0.194933 1.77528 0 0 0
0.803781 0.193681 1.76388 0 0 0
0.82306 0.196073 1.78567 0 0 0
0.827571 0.194933 1.77528 0 0 0
0.846245 0.197116 1.79517 0 0 0
0.850324 0.19589 1.784 0 0 0
0.896673 0.204322 1.86079 0 0 0
0.862973 0.194529 1.7716 0 0 0
0.889769 0.198435 1.80718 0 0 0
0.893258 0.197116 1.79517 0 0 0
0.927237 0.202483 1.84404 0 0 0
0.956183 0.206651 1.882 0 0 0
0.941448 0.201391 1.8341 0 0 0
0.956213 0.202483 1.84404 0 0 0
0.948025 0.198742 1.80997 0 0 0
0.970268 0.201391 1.8341 0 0 0
0.996714 0.204852 1.86561 0 0 0
0.939925 0.191305 1.74224 0 0 0
1.06473 0.214623 1.9546 0 0 0
1.02603 0.204852 1.86561 0 0 0
1.03025 0.203754 1.85562 0 0 0
1.02589 0.200996 1.8305 0 0 0
1.13136 0.219608 2 0 0 0
1.10889 0.21327 1.94228 0 0 0
1.05466 0.200996 1.8305 0 0 0
1.02195 0.193009 1.75776 0 0 0
1.09955 0.205809 1.87433 0 0 0
1.11597 0.207035 1.8855 0 0 0
1.01797 0.187197 1.70483 0 0 0
1.08131 0.197116 1.79517 0 0 0
1.13882 0.205809 1.87433 0 0 0
1.14863 0.205809 1.87433 0 0 0
1.15008 0.204322 1.86079 0 0 0
1.20705 0.212641 1.93655 0 0 0
-0.649576 0.118883 1.03348 0 0 0
-0.623298 0.115033 1 0 0 0
-0.63875 0.118883 1.03348 0 0 0
-0.651706 0.122332 1.06345 0 0 0
-0.627923 0.118883 1.03348 0 0 0
-0.64478 0.123136 1.07045 0 0 0
-0.597109 0.115033 1 0 0 0
-0.678945 0.131956 1.14712 0 0 0
-0.655854 0.128606 1.118 0 0 0
-0.601937 0.119097 1.03533 0 0 0
-0.616746 0.123136 1.07045 0 0 0
-0.625035 0.125936 1.09479 0 0 0
-0.605532 0.123136 1.07045 0 0 0
-0.638463 0.131046 1.13921 0 0 0
-0.592276 0.122713 1.06677 0 0 0
-0.622617 0.130228 1.1321 0 0 0
-0.620562 0.131046 1.13921 0 0 0
-0.644548 0.137433 1.19473 0 0 0
-0.604828 0.130228 1.1321 0 0 0
-0.625355 0.135981 1.18211 0 0 0
-0.636916 0.13988 1.216 0 0 0
-0.594828 0.131956 1.14712 0 0 0
-0.60678 0.135981 1.18211 0 0 0
-0.587303 0.132973 1.15596 0 0 0
-0.627866 0.143638 1.24867 0 0 0
-0.618126 0.142898 1.24224 0 0 0
-0.604806 0.141306 1.2284 0 0 0
-0.630895 0.148987 1.29517 0 0 0
-0.598606 0.142898 1.24224 0 0 0
-0.599499 0.144684 1.25776 0 0 0
-0.619635 0.151205 1.31445 0 0 0
-0.640665 0.158093 1.37433 0 0 0
-0.622801 0.155432 1.35119 0 0 0
-0.620096 0.156535 1.36079 0 0 0
-0.612969 0.156535 1.36079 0 0 0
-0.611871 0.158093 1.37433 0 0 0
-0.643505 0.168246 1.46259 0 0 0
-0.635844 0.168246 1.46259 0 0 0
-0.613992 0.164445 1.42955 0 0 0
-0.602805 0.163442 1.42083 0 0 0
-0.628536 0.172549 1.5 0 0 0
-0.636156 0.176852 1.53741 0 0 0
-0.630136 0.177424 1.54238 0 0 0
-0.636894 0.181656 1.57917 0 0 0
-0.641374 0.185341 1.6112 0 0 0
-0.650518 0.190489 1.65596 0 0 0
-0.650066 0.192929 1.67717 0 0 0
-0.641282 0.192929 1.67717 0 0 0
-0.618181 0.188563 1.63921 0 0 0
-0.604558 0.187005 1.62567 0 0 0
-0.635672 0.199438 1.73375 0 0 0
-0.648788 0.206503 1.79517 0 0 0
-0.615605 0.198823 1.7284 0 0 0
-0.590305 0.193497 1.68211 0 0 0
-0.604505 0.201154 1.74867 0 0 0
-0.601332 0.203176 1.76625 0 0 0
-0.582427 0.199864 1.73745 0 0 0
-0.566602 0.19752 1.71707 0 0 0
-0.55726 0.197396 1.716 0 0 0
-0.552234 0.198823 1.7284 0 0 0
-0.54955 0.201154 1.74867 0 0 0
-0.536512 0.19971 1.73612 0 0 0
-0.521307 0.197396 1.716 0 0 0
-0.522073 0.201154 1.74867 0 0 0
-0.500056 0.196111 1.70483 0 0 0
-0.500138 0.19971 1.73612 0 0 0
-0.498521 0.202751 1.76255 0 0 0
-0.473267 0.196111 1.70483 0 0 0
-0.477399 0.201628 1.75279 0 0 0
-0.458678 0.19752 1.71707 0 0 0
-0.440526 0.193497 1.68211 0 0 0
-0.431716 0.193497 1.68211 0 0 0
-0.42586 0.194849 1.69386 0 0 0
-0.428077 0.200031 1.7389 0 0 0
-0.416438 0.198823 1.7284 0 0 0
-0.399244 0.194849 1.69386 0 0 0
-0.395475 0.197396 1.716 0 0 0
-0.392396 0.200414 1.74224 0 0 0
-0.382537 0.200031 1.7389 0 0 0
-0.373429 0.200031 1.7389 0 0 0
-0.354883 0.194849 1.69386 0 0 0
-0.3458 0.19473 1.69282 0 0 0
-0.339324 0.196111 1.70483 0 0 0
-0.328267 0.194849 1.69386 0 0 0
-0.317179 0.193497 1.68211 0 0 0
-0.316489 0.198593 1.7264 0 0 0
-0.299889 0.193711 1.68397 0 0 0
-0.290747 0.193497 1.68211 0 0 0
-0.285746 0.196111 1.70483 0 0 0
-0.268881 0.190489 1.65596 0 0 0
-0.263966 0.193241 1.67988 0 0 0
-0.255505 0.193497 1.68211 0 0 0
-0.250028 0.196111 1.70483 0 0 0
-0.241098 0.196111 1.70483 0 0 0
-0.23369 0.197396 1.716 0 0 0
-0.220263 0.193497 1.68211 0 0 0
-0.21431 0.196111 1.70483 0 0 0
-0.201124 0.192047 1.6695 0 0 0
-0.1898 0.189472 1.64712 0 0 0
-0.184776 0.193241 1.67988 0 0 0
-0.176211 0.193497 1.68211 0 0 0
-0.164798 0.190489 1.65596 0 0 0
-0.157401 0.192047 1.6695 0 0 0
-0.151803 0.196111 1.70483 0 0 0
-0.140968 0.193497 1.68211 0 0 0
-0.13662 0.200031 1.7389 0 0 0
-0.124209 0.194849 1.69386 0 0 0
-0.111616 0.188563 1.63921 0 0 0
-0.10303 0.188563 1.63921 0 0 0
-0.0956555 0.190981 1.66023 0 0 0
-0.0876016 0.192391 1.67249 0 0 0
-0.0808925 0.197396 1.716 0 0 0
-0.0695676 0.190981 1.66023 0 0 0
-0.0617419 0.193711 1.68397 0 0 0
-0.0535774 0.196111 1.70483 0 0 0
-0.0455401 0.200031 1.7389 0 0 0
-0.0352421 0.193497 1.68211 0 0 0
-0.0266 0.19473 1.69282 0 0 0
-0.0173047 0.190023 1.6519 0 0 0
-0.00858584 0.188563 1.63921 0 0 0
0 0.192391 1.67249 0 0 0
0.00882028 0.193711 1.68397 0 0 0
0.0173047 0.190023 1.6519 0 0 0
0.0266162 0.194849 1.69386 0 0 0
0.0348589 0.191393 1.66382 0 0 0
0.0429292 0.188563 1.63921 0 0 0
0.0522884 0.191393 1.66382 0 0 0
0.0621046 0.194849 1.69386 0 0 0
0.0709766 0.194849 1.69386 0 0 0
0.0793825 0.193711 1.68397 0 0 0
0.0892957 0.196111 1.70483 0 0 0
0.0969158 0.193497 1.68211 0 0 0
0.106465 0.194849 1.69386 0 0 0
0.118404 0.200031 1.7389 0 0 0
0.118148 0.185341 1.6112 0 0 0
0.127203 0.186242 1.61903 0 0 0
0.142873 0.196111 1.70483 0 0 0
0.148923 0.192391 1.67249 0 0 0
0.156527 0.190981 1.66023 0 0 0
0.169662 0.196111 1.70483 0 0 0
0.177442 0.194849 1.69386 0 0 0
0.180303 0.188563 1.63921 0 0 0
0.192724 0.192391 1.67249 0 0 0
0.206725 0.197396 1.716 0 0 0
0.211885 0.193893 1.68555 0 0 0
0.219004 0.192391 1.67249 0 0 0
0.232169 0.196111 1.70483 0 0 0
0.23255 0.189158 1.64438 0 0 0
0.243487 0.190981 1.66023 0 0 0
0.255788 0.193711 1.68397 0 0 0
0.266162 0.194849 1.69386 0 0 0
0.265164 0.187856 1.63307 0 0 0
0.273718 0.187856 1.63307 0 0 0
0.289085 0.192391 1.67249 0 0 0
0.303605 0.196111 1.70483 0 0 0
0.301954 0.189472 1.64712 0 0 0
0.307932 0.187856 1.63307 0 0 0
0.32285 0.191633 1.6659 0 0 0
0.339324 0.196111 1.70483 0 0 0
0.341646 0.192391 1.67249 0 0 0
0.357183 0.196111 1.70483 0 0 0
0.361232 0.193497 1.68211 0 0 0
0.3724 0.19473 1.69282 0 0 0
0.386728 0.19752 1.71707 0 0 0
0.384758 0.192047 1.6695 0 0 0
0.399244 0.194849 1.69386 0 0 0
0.417017 0.199099 1.7308 0 0 0
0.410992 0.192047 1.6695 0 0 0
0.431697 0.19752 1.71707 0 0 0
0.437549 0.196111 1.70483 0 0 0
0.456274 0.200414 1.74224 0 0 0
0.461703 0.198823 1.7284 0 0 0
0.470213 0.198593 1.7264 0 0 0
0.473267 0.196111 1.70483 0 0 0
0.488862 0.198823 1.7284 0 0 0
0.507753 0.202751 1.76255 0 0 0
0.500056 0.196111 1.70483 0 0 0
0.512319 0.197396 1.716 0 0 0
0.521307 0.197396 1.716 0 0 0
0.537374 0.200031 1.7389 0 0 0
0.561565 0.205552 1.7869 0 0 0
0.552234 0.198823 1.7284 0 0 0
0.553633 0.196111 1.70483 0 0 0
0.581608 0.202751 1.76255 0 0 0
0.586187 0.201154 1.74867 0 0 0
0.580422 0.196111 1.70483 0 0 0
0.581495 0.193497 1.68211 0 0 0
0.606552 0.198823 1.7284 0 0 0
0.615605 0.198823 1.7284 0 0 0
0.6458 0.205552 1.7869 0 0 0
0.637562 0.200031 1.7389 0 0 0
0.64667 0.200031 1.7389 0 0 0
0.651817 0.198823 1.7284 0 0 0
0.651858 0.196111 1.70483 0 0 0
0.683158 0.202751 1.76255 0 0 0
0.701956 0.205552 1.7869 0 0 0
0.693537 0.200414 1.74224 0 0 0
0.706918 0.201628 1.75279 0 0 0
0.711788 0.200414 1.74224 0 0 0
0.749745 0.20843 1.81192 0 0 0
0.725247 0.199099 1.7308 0 0 0
0.76162 0.206503 1.79517 0 0 0
0.774768 0.207506 1.80389 0 0 0
0.776295 0.20541 1.78567 0 0 0
0.794274 0.207665 1.80527 0 0 0
0.80373 0.207665 1.80527 0 0 0
0.812562 0.207506 1.80389 0 0 0
0.798061 0.20146 1.75133 0 0 0
0.836329 0.208721 1.81445 0 0 0
0.841552 0.207665 1.80527 0 0 0
0.846245 0.206503 1.79517 0 0 0
0.850324 0.205218 1.784 0 0 0
0.849975 0.202904 1.76388 0 0 0
0.874453 0.206503 1.79517 0 0 0
0.855439 0.199864 1.73745 0 0 0
0.871446 0.20146 1.75133 0 0 0
0.890811 0.203792 1.7716 0 0 0
0.912064 0.206503 1.79517 0 0 0
0.909369 0.203792 1.7716 0 0 0
0.945213 0.209685 1.82283 0 0 0
0.933178 0.204945 1.78162 0 0 0
0.970268 0.210981 1.8341 0 0 0
0.979875 0.210981 1.8341 0 0 0
1.03346 0.220358 1.91561 0 0 0
0.977883 0.206503 1.79517 0 0 0
0.995426 0.208206 1.80997 0 0 0
1.0358 0.214607 1.86561 0 0 0
1.03997 0.213456 1.85562 0 0 0
0.977725 0.198823 1.7284 0 0 0
1.04507 0.210567 1.8305 0 0 0
1.05466 0.210567 1.8305 0 0 0
1.10166 0.217971 1.89486 0 0 0
1.11159 0.217971 1.89486 0 0 0
1.07392 0.208721 1.81445 0 0 0
1.11109 0.214052 1.86079 0 0 0
1.16647 0.222766 1.93655 0 0 0
1.17237 0.221962 1.92955 0 0 0
1.11194 0.208721 1.81445 0 0 0
1.10952 0.206503 1.79517 0 0 0
1.08593 0.200414 1.74224 0 0 0
-0.628536 0.120261 1 0 0 0
-0.685438 0.132251 1.0997 0 0 0
-0.596223 0.116012 0.964669 0 0 0
-0.673918 0.132251 1.0997 0 0 0
-0.626908 0.124086 1.0318 0 0 0
-0.64478 0.128733 1.07045 0 0 0
-0.636976 0.128291 1.06677 0 0 0
-0.612783 0.12451 1.03533 0 0 0
-0.678123 0.139017 1.15596 0 0 0
-0.624741 0.129227 1.07455 0 0 0
-0.652266 0.136148 1.1321 0 0 0
-0.627838 0.132251 1.0997 0 0 0
-0.605532 0.128733 1.07045 0 0 0
-0.642895 0.137954 1.14712 0 0 0
-0.632496 0.137003 1.13921 0 0 0
-0.586688 0.128291 1.06677 0 0 0
-0.602002 0.132905 1.10514 0 0 0
-0.649999 0.144895 1.20483 0 0 0
-0.612853 0.137954 1.14712 0 0 0
-0.61568 0.139962 1.16382 0 0 0
-0.600836 0.137954 1.14712 0 0 0
-0.644152 0.149393 1.24224 0 0 0
-0.612281 0.143451 1.19282 0 0 0
-0.600588 0.142162 1.18211 0 0 0
-0.61144 0.146238 1.216 0 0 0
-0.635904 0.15369 1.27797 0 0 0
-0.637679 0.155759 1.29517 0 0 0
-0.650875 0.160691 1.33618 0 0 0
-0.633405 0.158078 1.31445 0 0 0
-0.617328 0.155759 1.29517 0 0 0
-0.641479 0.163651 1.36079 0 0 0
-0.635719 0.164003 1.36372 0 0 0
-0.596976 0.155759 1.29517 0 0 0
-0.608883 0.160691 1.33618 0 0 0
-0.608646 0.162497 1.35119 0 0 0
-0.632573 0.170871 1.42083 0 0 0
-0.678608 0.185489 1.54238 0 0 0
-0.652106 0.180392 1.5 0 0 0
-0.644249 0.180392 1.5 0 0 0
-0.62354 0.176749 1.46971 0 0 0
-0.608056 0.174514 1.45113 0 0 0
-0.603143 0.175296 1.45762 0 0 0
-0.676539 0.199148 1.65596 0 0 0
-0.624677 0.18627 1.54887 0 0 0
-0.659191 0.199148 1.65596 0 0 0
-0.632935 0.193765 1.6112 0 0 0
-0.630103 0.195505 1.62567 0 0 0
-0.573539 0.180392 1.5 0 0 0
-0.642929 0.205026 1.70483 0 0 0
-0.584023 0.188864 1.57045 0 0 0
-0.590739 0.193765 1.6112 0 0 0
-0.642571 0.213821 1.77797 0 0 0
-0.607211 0.205026 1.70483 0 0 0
-0.588574 0.201699 1.67717 0 0 0
-0.630142 0.219216 1.82283 0 0 0
-0.593157 0.209524 1.74224 0 0 0
-0.58708 0.210618 1.75133 0 0 0
-0.566602 0.206498 1.71707 0 0 0
-0.56578 0.209524 1.74224 0 0 0
-0.554699 0.208788 1.73612 0 0 0
-0.542553 0.20762 1.7264 0 0 0
-0.537374 0.209123 1.7389 0 0 0
-0.517915 0.205026 1.70483 0 0 0
-0.505709 0.203706 1.69386 0 0 0
-0.509232 0.208788 1.73612 0 0 0
-0.497341 0.20762 1.7264 0 0 0
-0.476295 0.202516 1.68397 0 0 0
-0.490317 0.212412 1.76625 0 0 0
-0.473617 0.209123 1.7389 0 0 0
-0.458391 0.206369 1.716 0 0 0
-0.449167 0.20626 1.7151 0 0 0
-0.429248 0.201136 1.67249 0 0 0
-0.434544 0.20786 1.7284 0 0 0
-0.41969 0.205026 1.70483 0 0 0
-0.418298 0.208788 1.73612 0 0 0
-0.406915 0.20762 1.7264 0 0 0
-0.392901 0.205026 1.70483 0 0 0
-0.386487 0.206369 1.716 0 0 0
-0.382537 0.209123 1.7389 0 0 0
-0.356534 0.199662 1.66023 0 0 0
-0.352421 0.202292 1.68211 0 0 0
-0.348253 0.205026 1.70483 0 0 0
-0.328789 0.19866 1.6519 0 0 0
-0.320136 0.19866 1.6519 0 0 0
-0.32357 0.206369 1.716 0 0 0
-0.314582 0.206369 1.716 0 0 0
-0.299889 0.202516 1.68397 0 0 0
-0.294676 0.205026 1.70483 0 0 0
-0.283907 0.203706 1.69386 0 0 0
-0.276817 0.205026 1.70483 0 0 0
-0.255447 0.195505 1.62567 0 0 0
-0.260654 0.206369 1.716 0 0 0
-0.246695 0.202292 1.68211 0 0 0
-0.2394 0.203581 1.69282 0 0 0
-0.238699 0.210793 1.75279 0 0 0
-0.223239 0.205026 1.70483 0 0 0
-0.211453 0.202292 1.68211 0 0 0
-0.199492 0.199148 1.65596 0 0 0
-0.195186 0.203706 1.69386 0 0 0
-0.187521 0.205026 1.70483 0 0 0
-0.171074 0.196395 1.63307 0 0 0
-0.166146 0.200777 1.6695 0 0 0
-0.1596 0.203581 1.69282 0 0 0
-0.148923 0.201136 1.67249 0 0 0
-0.139912 0.200777 1.6695 0 0 0
-0.132158 0.202292 1.68211 0 0 0
-0.121743 0.199662 1.66023 0 0 0
-0.113882 0.201136 1.67249 0 0 0
-0.105122 0.201136 1.67249 0 0 0
-0.0963618 0.201136 1.67249 0 0 0
-0.0876016 0.201136 1.67249 0 0 0
-0.0787006 0.200777 1.6695 0 0 0
-0.0700813 0.201136 1.67249 0 0 0
-0.0608716 0.199662 1.66023 0 0 0
-0.0532325 0.203706 1.69386 0 0 0
-0.0438008 0.201136 1.67249 0 0 0
-0.034509 0.198085 1.64712 0 0 0
-0.025661 0.196395 1.63307 0 0 0
-0.0176211 0.202292 1.68211 0 0 0
-0.00881053 0.202292 1.68211 0 0 0
0 0.197756 1.64438 0 0 0
0.00905301 0.20786 1.7284 0 0 0
0.0178591 0.205026 1.70483 0 0 0
0.0258389 0.197756 1.64438 0 0 0
0.0341943 0.196278 1.6321 0 0 0
0.0433679 0.199148 1.65596 0 0 0
0.0522884 0.200093 1.66382 0 0 0
0.0601009 0.197134 1.63921 0 0 0
0.0695676 0.199662 1.66023 0 0 0
0.0808501 0.20626 1.7151 0 0 0
0.0876016 0.201136 1.67249 0 0 0
0.0954093 0.199148 1.65596 0 0 0
0.10652 0.20381 1.69473 0 0 0
0.114537 0.202292 1.68211 0 0 0
0.121743 0.199662 1.66023 0 0 0
0.132304 0.202516 1.68397 0 0 0
0.136777 0.196278 1.6321 0 0 0
0.149779 0.202292 1.68211 0 0 0
0.158589 0.202292 1.68211 0 0 0
0.163131 0.197134 1.63921 0 0 0
0.170972 0.196278 1.6321 0 0 0
0.181699 0.19866 1.6519 0 0 0
0.190819 0.199148 1.65596 0 0 0
0.201484 0.201136 1.67249 0 0 0
0.21293 0.203706 1.69386 0 0 0
0.226325 0.20786 1.7284 0 0 0
0.229074 0.202292 1.68211 0 0 0
0.236102 0.200777 1.6695 0 0 0
0.248418 0.203706 1.69386 0 0 0
0.254045 0.201136 1.67249 0 0 0
0.260879 0.199662 1.66023 0 0 0
0.276817 0.205026 1.70483 0 0 0
0.277554 0.199148 1.65596 0 0 0
0.283333 0.197134 1.63921 0 0 0
0.297313 0.200777 1.6695 0 0 0
0.316855 0.20786 1.7284 0 0 0
0.310581 0.198085 1.64712 0 0 0
0.323547 0.200777 1.6695 0 0 0
0.346105 0.209123 1.7389 0 0 0
0.350534 0.206369 1.716 0 0 0
0.357183 0.205026 1.70483 0 0 0
0.361232 0.202292 1.68211 0 0 0
0.370042 0.202292 1.68211 0 0 0
0.381266 0.203581 1.69282 0 0 0
0.395475 0.206369 1.716 0 0 0
0.396474 0.202292 1.68211 0 0 0
0.41076 0.205026 1.70483 0 0 0
0.416733 0.203581 1.69282 0 0 0
0.431697 0.206498 1.71707 0 0 0
0.440415 0.206369 1.716 0 0 0
0.440526 0.202292 1.68211 0 0 0
0.468218 0.210793 1.75279 0 0 0
0.467379 0.206369 1.716 0 0 0
0.47022 0.203706 1.69386 0 0 0
0.494595 0.210297 1.74867 0 0 0
0.491126 0.205026 1.70483 0 0 0
0.496533 0.203581 1.69282 0 0 0
0.523303 0.210793 1.75279 0 0 0
0.521307 0.206369 1.716 0 0 0
0.537374 0.209123 1.7389 0 0 0
0.547529 0.209524 1.74224 0 0 0
0.551596 0.20762 1.7264 0 0 0
0.569206 0.210793 1.75279 0 0 0
0.562563 0.205026 1.70483 0 0 0
0.559648 0.200777 1.6695 0 0 0
0.576685 0.203706 1.69386 0 0 0
0.604505 0.210297 1.74867 0 0 0
0.610238 0.209123 1.7389 0 0 0
0.602933 0.203581 1.69282 0 0 0
0.612173 0.203706 1.69386 0 0 0
0.651883 0.213821 1.77797 0 0 0
0.638551 0.206498 1.71707 0 0 0
0.661014 0.210793 1.75279 0 0 0
0.672096 0.211391 1.75776 0 0 0
0.689134 0.213821 1.77797 0 0 0
0.683102 0.209123 1.7389 0 0 0
0.68352 0.206498 1.71707 0 0 0
0.706918 0.210793 1.75279 0 0 0
0.722429 0.212656 1.76828 0 0 0
0.746423 0.216938 1.80389 0 0 0
0.732733 0.210297 1.74867 0 0 0
0.734313 0.208149 1.7308 0 0 0
0.750031 0.210012 1.74629 0 0 0
0.772947 0.213821 1.77797 0 0 0
0.793665 0.216938 1.80389 0 0 0
0.770575 0.208149 1.7308 0 0 0
0.817321 0.218209 1.81445 0 0 0
0.795765 0.210012 1.74629 0 0 0
0.804912 0.210012 1.74629 0 0 0
0.845832 0.218209 1.81445 0 0 0
0.841766 0.214747 1.78567 0 0 0
0.850324 0.214546 1.784 0 0 0
0.869919 0.217105 1.80527 0 0 0
0.8531 0.210618 1.75133 0 0 0
0.889769 0.217334 1.80718 0 0 0
0.887701 0.214546 1.784 0 0 0
0.927237 0.221767 1.84404 0 0 0
0.931842 0.220571 1.8341 0 0 0
0.983293 0.230375 1.91561 0 0 0
0.951055 0.220571 1.8341 0 0 0
0.954761 0.219216 1.82283 0 0 0
0.949675 0.215889 1.79517 0 0 0
0.973856 0.219216 1.82283 0 0 0
0.961174 0.214261 1.78162 0 0 0
1.03219 0.227879 1.89486 0 0 0
1.02053 0.223159 1.85562 0 0 0
0.996688 0.215889 1.79517 0 0 0
0.99645 0.213821 1.77797 0 0 0
1.03548 0.220138 1.8305 0 0 0
1.0528 0.221767 1.84404 0 0 0
1.12182 0.234158 1.94707 0 0 0
1.12923 0.233582 1.94228 0 0 0
1.07383 0.220138 1.8305 0 0 0
1.09143 0.221767 1.84404 0 0 0
1.16261 0.234158 1.94707 0 0 0
1.16647 0.232892 1.93655 0 0 0
1.17662 0.232892 1.93655 0 0 0
1.17029 0.229659 1.90967 0 0 0
1.18719 0.231002 1.92083 0 0 0
1.19725 0.231002 1.92083 0 0 0
-0.694618 0.138684 1.10514 0 0 0
-0.644163 0.129691 1.03348 0 0 0
-0.61806 0.12549 1 0 0 0
-0.653738 0.133869 1.06677 0 0 0
-0.707117 0.146048 1.16382 0 0 0
-0.62251 0.129691 1.03348 0 0 0
-0.639173 0.134331 1.07045 0 0 0
-0.654098 0.138684 1.10514 0 0 0
-0.625801 0.133869 1.06677 0 0 0
-0.581395 0.12549 1 0 0 0
-0.612715 0.133453 1.06345 0 0 0
-0.611139 0.134331 1.07045 0 0 0
-0.625156 0.138684 1.10514 0 0 0
-0.599926 0.134331 1.07045 0 0 0
-0.610558 0.138001 1.0997 0 0 0
-0.622617 0.142067 1.1321 0 0 0
-0.616688 0.142067 1.1321 0 0 0
-0.596214 0.138684 1.10514 0 0 0
-0.626409 0.147136 1.17249 0 0 0
-0.602661 0.14296 1.13921 0 0 0
-0.609584 0.146048 1.16382 0 0 0
-0.636977 0.154152 1.2284 0 0 0
-0.630543 0.154152 1.2284 0 0 0
-0.641458 0.158437 1.26255 0 0 0
-0.617675 0.154152 1.2284 0 0 0
-0.628232 0.158437 1.26255 0 0 0
-0.627887 0.160035 1.27528 0 0 0
-0.600978 0.154824 1.23375 0 0 0
-0.614528 0.160035 1.27528 0 0 0
-0.599499 0.157837 1.25776 0 0 0
-0.629879 0.167678 1.33618 0 0 0
-0.634352 0.170766 1.36079 0 0 0
-0.627224 0.170766 1.36079 0 0 0
-0.590192 0.162531 1.29517 0 0 0
-0.605424 0.168664 1.34404 0 0 0
-0.623433 0.175724 1.4003 0 0 0
-0.643505 0.183541 1.46259 0 0 0
-0.635844 0.183541 1.46259 0 0 0
-0.660314 0.192929 1.53741 0 0 0
-0.654372 0.193553 1.54238 0 0 0
-0.590683 0.176899 1.40967 0 0 0
-0.636156 0.192929 1.53741 0 0 0
-0.649728 0.199571 1.59033 0 0 0
-0.655648 0.204005 1.62567 0 0 0
-0.628623 0.19817 1.57917 0 0 0
-0.620352 0.19817 1.57917 0 0 0
-0.61208 0.19817 1.57917 0 0 0
-0.651858 0.21394 1.70483 0 0 0
-0.565682 0.188235 1.5 0 0 0
-0.633999 0.21394 1.70483 0 0 0
-0.60715 0.207807 1.65596 0 0 0
-0.61614 0.21394 1.70483 0 0 0
-0.615605 0.216897 1.7284 0 0 0
-0.606552 0.216897 1.7284 0 0 0
-0.589351 0.21394 1.70483 0 0 0
-0.573856 0.21152 1.68555 0 0 0
-0.581186 0.217569 1.73375 0 0 0
-0.562563 0.21394 1.70483 0 0 0
-0.572376 0.221183 1.76255 0 0 0
-0.548272 0.215341 1.716 0 0 0
-0.539001 0.215228 1.7151 0 0 0
-0.523453 0.212563 1.69386 0 0 0
-0.521034 0.215228 1.7151 0 0 0
-0.512319 0.215341 1.716 0 0 0
-0.512913 0.219441 1.74867 0 0 0
-0.500942 0.218215 1.7389 0 0 0
-0.494595 0.219441 1.74867 0 0 0
-0.47022 0.212563 1.69386 0 0 0
-0.473617 0.218215 1.7389 0 0 0
-0.463765 0.217866 1.73612 0 0 0
-0.462563 0.221647 1.76625 0 0 0
-0.443597 0.216897 1.7284 0 0 0
-0.431427 0.215341 1.716 0 0 0
-0.425 0.216647 1.7264 0 0 0
-0.413451 0.215341 1.716 0 0 0
-0.411345 0.219005 1.7452 0 0 0
-0.390372 0.212563 1.69386 0 0 0
-0.383971 0.21394 1.70483 0 0 0
-0.375042 0.21394 1.70483 0 0 0
-0.361232 0.211088 1.68211 0 0 0
-0.350406 0.209881 1.67249 0 0 0
-0.346011 0.212563 1.69386 0 0 0
-0.337139 0.212563 1.69386 0 0 0
-0.332558 0.215341 1.716 0 0 0
-0.319395 0.212563 1.69386 0 0 0
-0.30796 0.210808 1.67988 0 0 0
-0.297845 0.209881 1.67249 0 0 0
-0.298749 0.216897 1.7284 0 0 0
-0.287798 0.215476 1.71707 0 0 0
-0.28289 0.218634 1.74224 0 0 0
-0.262335 0.209506 1.6695 0 0 0
-0.257133 0.212433 1.69282 0 0 0
-0.246695 0.211088 1.68211 0 0 0
-0.237569 0.210808 1.67988 0 0 0
-0.23369 0.215341 1.716 0 0 0
-0.215682 0.206697 1.64712 0 0 0
-0.21431 0.21394 1.70483 0 0 0
-0.203933 0.212433 1.69282 0 0 0
-0.193832 0.211088 1.68211 0 0 0
-0.185021 0.211088 1.68211 0 0 0
-0.175977 0.210808 1.67988 0 0 0
-0.163131 0.205705 1.63921 0 0 0
-0.157401 0.209506 1.6695 0 0 0
-0.148657 0.209506 1.6695 0 0 0
-0.139912 0.209506 1.6695 0 0 0
-0.130439 0.208343 1.66023 0 0 0
-0.125014 0.21394 1.70483 0 0 0
-0.116084 0.21394 1.70483 0 0 0
-0.105726 0.211088 1.68211 0 0 0
-0.0969158 0.211088 1.68211 0 0 0
-0.0869595 0.208343 1.66023 0 0 0
-0.0772726 0.205705 1.63921 0 0 0
-0.0724241 0.216897 1.7284 0 0 0
-0.0612116 0.209506 1.6695 0 0 0
-0.052561 0.209881 1.67249 0 0 0
-0.0438008 0.209881 1.67249 0 0 0
-0.0354883 0.212563 1.69386 0 0 0
-0.0262805 0.209881 1.67249 0 0 0
-0.017489 0.209506 1.6695 0 0 0
-0.00892957 0.21394 1.70483 0 0 0
0 0.209881 1.67249 0 0 0
0.00871474 0.208793 1.66382 0 0 0
0.0169686 0.203272 1.61983 0 0 0
0.0266162 0.212563 1.69386 0 0 0
0.0341943 0.204812 1.6321 0 0 0
0.0440526 0.211088 1.68211 0 0 0
0.0522884 0.208793 1.66382 0 0 0
0.0605663 0.207298 1.6519 0 0 0
0.0723405 0.216647 1.7264 0 0 0
0.0803661 0.21394 1.70483 0 0 0
0.0869595 0.208343 1.66023 0 0 0
0.0958621 0.208793 1.66382 0 0 0
0.105843 0.211321 1.68397 0 0 0
0.115337 0.212563 1.69386 0 0 0
0.122006 0.208793 1.66382 0 0 0
0.131402 0.209881 1.67249 0 0 0
0.139436 0.208793 1.66382 0 0 0
0.142925 0.201429 1.60514 0 0 0
0.156865 0.208793 1.66382 0 0 0
0.167585 0.211321 1.68397 0 0 0
0.170972 0.204812 1.6321 0 0 0
0.17952 0.204812 1.6321 0 0 0
0.191724 0.208793 1.66382 0 0 0
0.206725 0.215341 1.716 0 0 0
0.217021 0.216647 1.7264 0 0 0
0.223239 0.21394 1.70483 0 0 0
0.229327 0.211321 1.68397 0 0 0
0.236524 0.209881 1.67249 0 0 0
0.245285 0.209881 1.67249 0 0 0
0.253591 0.209506 1.6695 0 0 0
0.266162 0.212563 1.69386 0 0 0
0.274866 0.212433 1.69282 0 0 0
0.27827 0.208343 1.66023 0 0 0
0.2926 0.212433 1.69282 0 0 0
0.301651 0.212563 1.69386 0 0 0
0.310333 0.212433 1.69282 0 0 0
0.3192 0.212433 1.69282 0 0 0
0.330394 0.21394 1.70483 0 0 0
0.336933 0.212433 1.69282 0 0 0
0.355213 0.218215 1.7389 0 0 0
0.365019 0.218634 1.74224 0 0 0
0.360754 0.210808 1.67988 0 0 0
0.363398 0.207298 1.6519 0 0 0
0.383971 0.21394 1.70483 0 0 0
0.387663 0.211088 1.68211 0 0 0
0.407385 0.216897 1.7284 0 0 0
0.413709 0.215476 1.71707 0 0 0
0.428898 0.218634 1.74224 0 0 0
0.431697 0.215476 1.71707 0 0 0
0.431716 0.211088 1.68211 0 0 0
0.443333 0.212433 1.69282 0 0 0
0.458391 0.215341 1.716 0 0 0
0.467671 0.215476 1.71707 0 0 0
0.473267 0.21394 1.70483 0 0 0
0.482197 0.21394 1.70483 0 0 0
0.497915 0.216897 1.7284 0 0 0
0.49339 0.211088 1.68211 0 0 0
0.518325 0.217866 1.73612 0 0 0
0.507181 0.209506 1.6695 0 0 0
0.537374 0.218215 1.7389 0 0 0
0.542553 0.216647 1.7264 0 0 0
0.558709 0.219441 1.74867 0 0 0
0.560638 0.216647 1.7264 0 0 0
0.582829 0.221647 1.76625 0 0 0
0.586187 0.219441 1.74867 0 0 0
0.603153 0.222318 1.7716 0 0 0
0.60113 0.218215 1.7389 0 0 0
0.613664 0.219441 1.74867 0 0 0
0.619346 0.218215 1.7389 0 0 0
0.628454 0.218215 1.7389 0 0 0
0.634591 0.217199 1.7308 0 0 0
0.642764 0.216897 1.7284 0 0 0
0.661014 0.219958 1.75279 0 0 0
0.676119 0.221902 1.76828 0 0 0
0.695801 0.225276 1.79517 0 0 0
0.688556 0.219958 1.75279 0 0 0
0.707759 0.223117 1.77797 0 0 0
0.687577 0.21394 1.70483 0 0 0
0.696506 0.21394 1.70483 0 0 0
0.746423 0.22637 1.80389 0 0 0
0.725247 0.217199 1.7308 0 0 0
0.743641 0.219958 1.75279 0 0 0
0.771023 0.225276 1.79517 0 0 0
0.798849 0.230594 1.83755 0 0 0
0.785648 0.224084 1.78567 0 0 0
0.80373 0.226544 1.80527 0 0 0
0.813185 0.226544 1.80527 0 0 0
0.822641 0.226544 1.80527 0 0 0
0.832097 0.226544 1.80527 0 0 0
0.836842 0.225276 1.79517 0 0 0
0.831497 0.22135 1.76388 0 0 0
0.875197 0.230423 1.83618 0 0 0
0.859669 0.223874 1.784 0 0 0
0.880303 0.226783 1.80718 0 0 0
0.912272 0.232519 1.85288 0 0 0
0.921977 0.232519 1.85288 0 0 0
0.914089 0.228128 1.81789 0 0 0
0.931842 0.230161 1.8341 0 0 0
0.935665 0.228747 1.82283 0 0 0
0.971921 0.235211 1.87433 0 0 0
0.974644 0.233511 1.86079 0 0 0
0.97553 0.231409 1.84404 0 0 0
0.979875 0.230161 1.8341 0 0 0
0.989482 0.230161 1.8341 0 0 0
1.01626 0.234116 1.86561 0 0 0
0.979837 0.223576 1.78162 0 0 0
0.989169 0.223576 1.78162 0 0 0
1.03997 0.232862 1.85562 0 0 0
1.02387 0.227133 1.80997 0 0 0
1.10889 0.243738 1.94228 0 0 0
1.12616 0.245284 1.9546 0 0 0
1.07885 0.232862 1.85562 0 0 0
1.13941 0.243738 1.94228 0 0 0
1.11597 0.236612 1.8855 0 0 0
1.11918 0.235211 1.87433 0 0 0
1.08131 0.225276 1.79517 0 0 0
1.12041 0.231409 1.84404 0 0 0
1.10012 0.225276 1.79517 0 0 0
1.13973 0.231409 1.84404 0 0 0
1.08593 0.218634 1.74224 0 0 0
-0.581676 0.120973 0.925446 0 0 0
-0.623298 0.130719 1 0 0 0
-0.6616 0.139928 1.07045 0 0 0
-0.653738 0.139447 1.06677 0 0 0
-0.652882 0.140465 1.07455 0 0 0
-0.64478 0.139928 1.07045 0 0 0
-0.653706 0.143109 1.09479 0 0 0
-0.657687 0.145255 1.1112 0 0 0
-0.630369 0.140465 1.07455 0 0 0
-0.642521 0.144462 1.10514 0 0 0
-0.614626 0.139447 1.06677 0 0 0
-0.646336 0.147986 1.1321 0 0 0
-0.610465 0.141068 1.07917 0 0 0
-0.638463 0.148916 1.13921 0 0 0
-0.632496 0.148916 1.13921 0 0 0
-0.622617 0.147986 1.1321 0 0 0
-0.633967 0.152133 1.16382 0 0 0
-0.63255 0.153267 1.17249 0 0 0
-0.608628 0.148916 1.13921 0 0 0
-0.611522 0.151106 1.15596 0 0 0
-0.614126 0.153267 1.17249 0 0 0
-0.607985 0.153267 1.17249 0 0 0
-0.612281 0.155924 1.19282 0 0 0
-0.617809 0.158954 1.216 0 0 0
-0.594396 0.154524 1.18211 0 0 0
-0.618126 0.162384 1.24224 0 0 0
-0.619263 0.164413 1.25776 0 0 0
-0.605113 0.162384 1.24224 0 0 0
-0.615822 0.167054 1.27797 0 0 0
-0.617328 0.169303 1.29517 0 0 0
-0.599434 0.166222 1.2716 0 0 0
-0.640665 0.179651 1.37433 0 0 0
-0.615881 0.174664 1.33618 0 0 0
-0.620096 0.177881 1.36079 0 0 0
-0.675676 0.196078 1.5 0 0 0
-0.632573 0.18573 1.42083 0 0 0
-0.643505 0.191189 1.46259 0 0 0
-0.668367 0.200968 1.53741 0 0 0
-0.626047 0.190539 1.45762 0 0 0
-0.654372 0.201618 1.54238 0 0 0
-0.628536 0.196078 1.5 0 0 0
-0.603143 0.190539 1.45762 0 0 0
-0.612822 0.196078 1.5 0 0 0
-0.636894 0.206427 1.57917 0 0 0
-0.628623 0.206427 1.57917 0 0 0
-0.669717 0.222854 1.70483 0 0 0
-0.630103 0.212505 1.62567 0 0 0
-0.628745 0.214952 1.64438 0 0 0
-0.662889 0.229773 1.75776 0 0 0
-0.633999 0.222854 1.70483 0 0 0
-0.633711 0.225935 1.7284 0 0 0
-0.5823 0.210614 1.6112 0 0 0
-0.589803 0.216465 1.65596 0 0 0
-0.554181 0.206427 1.57917 0 0 0
-0.596226 0.225454 1.72472 0 0 0
-0.585581 0.224835 1.71999 0 0 0
-0.589235 0.229773 1.75776 0 0 0
-0.57034 0.225935 1.7284 0 0 0
-0.563792 0.226943 1.73612 0 0 0
-0.563144 0.230399 1.76255 0 0 0
-0.545605 0.226943 1.73612 0 0 0
-0.533511 0.225674 1.7264 0 0 0
-0.521034 0.224196 1.7151 0 0 0
-0.505709 0.221419 1.69386 0 0 0
-0.497092 0.221533 1.69473 0 0 0
-0.494084 0.224196 1.7151 0 0 0
-0.485101 0.224196 1.7151 0 0 0
-0.473267 0.222854 1.70483 0 0 0
-0.464337 0.222854 1.70483 0 0 0
-0.469547 0.229773 1.75776 0 0 0
-0.437225 0.218235 1.6695 0 0 0
-0.458611 0.233582 1.7869 0 0 0
-0.428619 0.222854 1.70483 0 0 0
-0.41969 0.222854 1.70483 0 0 0
-0.405733 0.220126 1.68397 0 0 0
-0.396913 0.220126 1.68397 0 0 0
-0.392901 0.222854 1.70483 0 0 0
-0.38883 0.225674 1.7264 0 0 0
-0.377499 0.224314 1.716 0 0 0
-0.370745 0.225674 1.7264 0 0 0
-0.357183 0.222854 1.70483 0 0 0
-0.348253 0.222854 1.70483 0 0 0
-0.341367 0.224196 1.7151 0 0 0
-0.324126 0.218626 1.67249 0 0 0
-0.317179 0.219883 1.68211 0 0 0
-0.320571 0.228584 1.74867 0 0 0
-0.303605 0.222854 1.70483 0 0 0
-0.296606 0.224314 1.716 0 0 0
-0.285746 0.222854 1.70483 0 0 0
-0.274866 0.221284 1.69282 0 0 0
-0.266162 0.221419 1.69386 0 0 0
-0.258957 0.222854 1.70483 0 0 0
-0.250028 0.222854 1.70483 0 0 0
-0.242829 0.224454 1.71707 0 0 0
-0.230533 0.221284 1.69282 0 0 0
-0.220263 0.219883 1.68211 0 0 0
-0.218593 0.227308 1.7389 0 0 0
-0.201124 0.218235 1.6695 0 0 0
-0.194046 0.220126 1.68397 0 0 0
-0.182145 0.216465 1.65596 0 0 0
-0.179761 0.224314 1.716 0 0 0
-0.1674 0.219883 1.68211 0 0 0
-0.158589 0.219883 1.68211 0 0 0
-0.149779 0.219883 1.68211 0 0 0
-0.140163 0.218626 1.67249 0 0 0
-0.133943 0.222854 1.70483 0 0 0
-0.129246 0.230399 1.76255 0 0 0
-0.113434 0.217765 1.6659 0 0 0
-0.107924 0.224454 1.71707 0 0 0
-0.0967876 0.219592 1.67988 0 0 0
-0.0898806 0.224314 1.716 0 0 0
-0.0792947 0.219883 1.68211 0 0 0
-0.0699561 0.218235 1.6695 0 0 0
-0.0601009 0.214276 1.63921 0 0 0
-0.0515151 0.214276 1.63921 0 0 0
-0.0443604 0.221419 1.69386 0 0 0
-0.0354883 0.221419 1.69386 0 0 0
-0.0260879 0.217024 1.66023 0 0 0
-0.0172545 0.215309 1.64712 0 0 0
-0.00865233 0.215935 1.6519 0 0 0
0 0.220126 1.68397 0 0 0
0.00858584 0.214276 1.63921 0 0 0
0.0170298 0.212505 1.62567 0 0 0
0.0258818 0.215309 1.64712 0 0 0
0.0352421 0.219883 1.68211 0 0 0
0.0435737 0.217492 1.66382 0 0 0
0.0521757 0.217024 1.66023 0 0 0
0.0621046 0.221419 1.69386 0 0 0
0.0690181 0.215309 1.64712 0 0 0
0.081383 0.225674 1.7264 0 0 0
0.0876016 0.218626 1.67249 0 0 0
0.0956555 0.217024 1.66023 0 0 0
0.109296 0.227308 1.7389 0 0 0
0.111616 0.214276 1.63921 0 0 0
0.122423 0.218235 1.6695 0 0 0
