ply
format ascii 1.0
element vertex 1292
property float x
property float y
property float z
property uchar red
property uchar green
property uchar blue
end_header
-0.21431 -0.0623991 1.70483 38 38 34
-0.203597 -0.0618573 1.69003 38 37 33
-0.193263 -0.0613867 1.67717 36 36 31
-0.188867 -0.0628471 1.71707 38 39 35
-0.169345 -0.0591686 1.61657 40 41 37
-0.166909 -0.0613867 1.67717 39 40 36
-0.155033 -0.0601866 1.64438 38 39 35
-0.14699 -0.0604208 1.65078 37 38 35
-0.135476 -0.0591686 1.61657 38 39 35
-0.13177 -0.0613867 1.67717 38 39 35
-0.12105 -0.0604208 1.65078 39 39 36
-0.111968 -0.0601866 1.64438 38 38 35
-0.106224 -0.0618573 1.69003 37 37 34
-0.0957282 -0.0608128 1.66149 36 37 34
-0.0857048 -0.0598898 1.63628 36 37 34
-0.0789033 -0.0612634 1.6738 37 37 34
-0.0726482 -0.0634575 1.73375 37 38 34
-0.060918 -0.0608128 1.66149 37 38 34
-0.0527932 -0.0614858 1.67988 38 38 35
-0.0439234 -0.0613867 1.67717 36 37 34
-0.0348103 -0.0608128 1.66149 36 36 32
-0.0267887 -0.0623991 1.70483 37 37 34
-0.0169345 -0.0591686 1.61657 38 38 35
-0.00864646 -0.0604208 1.65078 37 37 34
0 -0.0613867 1.67717 37 37 33
0.00878468 -0.0613867 1.67717 37 37 33
0.0171212 -0.0598207 1.63439 37 37 33
0.0256817 -0.0598207 1.63439 37 37 33
0.0349027 -0.0609743 1.6659 38 37 34
0.0425745 -0.0595015 1.62567 37 37 34
0.0527081 -0.0613867 1.67717 37 37 34
0.0599241 -0.0598207 1.63439 37 37 34
0.0689036 -0.0601866 1.64438 37 37 34
0.0783231 -0.0608128 1.66149 38 37 34
0.0878468 -0.0613867 1.67717 38 38 35
0.0957282 -0.0608128 1.66149 38 38 35
0.101607 -0.0591686 1.61657 38 38 35
0.108288 -0.0582083 1.59033 38 38 35
0.122986 -0.0613867 1.67717 38 38 35
0.128409 -0.0598207 1.63439 38 38 35
0.141762 -0.0619137 1.69157 38 38 35
0.153009 -0.0628948 1.71838 37 36 33
0.159482 -0.0619137 1.69157 37 36 33
0.156288 -0.0574804 1.57045 38 38 34
0.17141 -0.0598898 1.63628 39 39 36
0.177813 -0.0591686 1.61657 38 38 36
0.187328 -0.0595015 1.62567 36 37 34
0.200159 -0.0608128 1.66149 36 36 34
0.208862 -0.0608128 1.66149 36 36 34
0.214015 -0.0598207 1.63439 37 37 35
0.226267 -0.0608128 1.66149 38 38 36
0.239005 -0.0618573 1.69003 37 37 35
0.244319 -0.0609743 1.6659 36 37 35
0.26335 -0.0634575 1.73375 36 37 34
0.265803 -0.0619137 1.69157 37 37 35
0.26978 -0.0608128 1.66149 36 36 34
0.273939 -0.0598207 1.63439 37 37 34
0.280992 -0.0595015 1.62567 37 37 34
0.298679 -0.0613867 1.67717 36 36 33
0.312535 -0.0623991 1.70483 38 38 35
0.301165 -0.0584589 1.59718 39 38 36
0.320922 -0.0606102 1.65596 38 37 35
0.339324 -0.0623991 1.70483 37 36 34
0.337212 -0.0604208 1.65078 37 36 34
0.357183 -0.0623991 1.70483 36 36 33
0.362933 -0.0618573 1.69003 36 36 33
0.371357 -0.0617861 1.68808 36 36 33
0.376983 -0.0612634 1.6738 36 36 34
0.392901 -0.0623991 1.70483 36 36 34
0.383171 -0.0595015 1.62567 35 36 34
0.403284 -0.0612634 1.6738 36 36 34
0.404809 -0.0601866 1.64438 36 37 35
0.451331 -0.0657055 1.79517 36 37 35
0.422035 -0.0601866 1.64438 37 38 35
0.430648 -0.0601866 1.64438 37 38 36
0.464121 -0.063593 1.73745 37 38 35
0.460306 -0.0618573 1.69003 36 37 34
0.48966 -0.0645604 1.76388 36 37 34
0.482197 -0.0623991 1.70483 36 37 35
0.499457 -0.0634575 1.73375 36 37 35
0.495714 -0.0618573 1.69003 36 37 34
0.508985 -0.0623991 1.70483 36 37 33
0.5267 -0.0634575 1.73375 36 36 33
0.53103 -0.0628948 1.71838 36 37 34
0.546025 -0.063593 1.73745 37 38 35
0.52539 -0.0601866 1.64438 36 37 34
0.530756 -0.0598207 1.63439 35 36 32
0.585809 -0.0649775 1.77528 36 36 33
0.580198 -0.0633496 1.7308 36 37 34
0.571004 -0.0613867 1.67717 36 37 34
0.589351 -0.0623991 1.70483 37 37 35
0.623003 -0.0649775 1.77528 37 37 35
0.621977 -0.0639166 1.74629 37 37 35
0.611347 -0.0619137 1.69157 36 36 34
0.640271 -0.0639166 1.74629 36 36 34
0.643657 -0.0633496 1.7308 37 37 34
0.662889 -0.0643364 1.75776 37 37 34
0.667711 -0.0639166 1.74629 37 37 34
0.660788 -0.0623991 1.70483 37 37 34
0.705204 -0.0657055 1.79517 37 38 35
0.702153 -0.0645604 1.76388 37 38 35
0.720178 -0.0653577 1.78567 37 38 35
0.696506 -0.0623991 1.70483 36 37 34
0.717401 -0.0634575 1.73375 36 37 34
0.733849 -0.064101 1.75133 35 36 34
0.743023 -0.064101 1.75133 36 37 34
0.760901 -0.0648428 1.7716 35 36 33
0.722313 -0.0608128 1.66149 35 37 34
0.776064 -0.0645604 1.76388 36 38 34
0.759013 -0.0623991 1.70483 35 37 34
0.788888 -0.064101 1.75133 35 36 34
0.807297 -0.0648428 1.7716 34 36 34
0.863929 -0.0686031 1.87433 34 36 34
0.830529 -0.0652098 1.78162 34 36 34
0.864596 -0.0671303 1.8341 34 36 34
0.855647 -0.0657055 1.79517 35 37 34
0.872183 -0.0662473 1.80997 35 37 35
0.913016 -0.0686031 1.87433 34 36 34
0.891144 -0.0662473 1.80997 33 35 33
0.923337 -0.0679179 1.85562 33 35 33
0.938084 -0.0682839 1.86561 33 35 32
0.888439 -0.0640035 1.74867 32 35 32
0.946554 -0.0674943 1.84404 32 36 34
0.911473 -0.0643364 1.75776 34 37 35
0.940272 -0.0657055 1.79517 35 38 36
0.968366 -0.0669986 1.8305 34 37 35
0.977953 -0.0669986 1.8305 32 36 34
1.04785 -0.0710901 1.94228 32 36 34
0.968512 -0.0650759 1.77797 33 36 34
0.922391 -0.0613867 1.67717 31 35 33
1.04064 -0.0686031 1.87433 31 35 33
0.99645 -0.0650759 1.77797 30 35 32
1.13136 -0.0732026 2 30 35 32
1.07009 -0.0686031 1.87433 34 37 35
1.0343 -0.0657055 1.79517 36 39 38
1.03 -0.0648428 1.7716 36 39 37
1.12682 -0.070305 1.92083 34 37 36
1.12151 -0.0693545 1.89486 33 37 36
1.14695 -0.070305 1.92083 33 36 35
1.11075 -0.0674943 1.84404 37 40 39
1.10752 -0.0667179 1.82283 40 43 42
1.11707 -0.0667179 1.82283 39 43 42
1.17114 -0.0693545 1.89486 38 42 40
1.11892 -0.0657055 1.79517 35 40 38
-0.58657 -0.0292779 0.933233 37 38 34
-0.581682 -0.0292779 0.933233 37 37 34
-0.576794 -0.0292779 0.933233 38 38 34
-0.612822 -0.0313726 1 38 38 34
-0.587245 -0.0303223 0.966525 38 37 34
-0.531272 -0.0276707 0.882004 38 37 33
-0.578118 -0.0303748 0.968195 38 37 33
-0.572058 -0.0303223 0.966525 38 37 34
-0.586633 -0.0313726 1 38 37 34
-0.542577 -0.0292779 0.933233 38 37 34
-0.595445 -0.0324228 1.03348 39 37 35
-0.57092 -0.0313726 1 38 37 35
-0.546745 -0.0303223 0.966525 37 37 34
-0.540643 -0.0302641 0.964669 37 36 33
-0.555206 -0.0313726 1 38 36 34
-0.584865 -0.0333632 1.06345 38 37 34
-0.544731 -0.0313726 1 38 37 34
-0.577498 -0.0335826 1.07045 38 37 34
-0.55214 -0.0324228 1.03348 37 36 33
-0.562584 -0.0333632 1.06345 36 35 32
-0.52378 -0.0313726 1 36 35 32
-0.518542 -0.0313726 1 36 36 33
-0.564478 -0.0345003 1.0997 36 36 33
-0.541988 -0.0334672 1.06677 37 37 34
-0.56925 -0.0355167 1.1321 37 37 34
-0.497591 -0.0313726 1 37 36 34
-0.52906 -0.0337115 1.07455 37 36 34
-0.52822 -0.0340199 1.08438 37 36 34
-0.535462 -0.0348612 1.1112 37 36 34
-0.536537 -0.035315 1.12567 36 36 34
-0.527025 -0.0350744 1.118 37 37 35
-0.503069 -0.0338562 1.07917 38 38 35
-0.561581 -0.0382236 1.21838 37 37 35
-0.5552 -0.0382236 1.21838 37 36 34
-0.57445 -0.0400088 1.27528 37 36 34
-0.524091 -0.0369309 1.17717 38 37 35
-0.562273 -0.040093 1.27797 38 37 34
-0.563057 -0.0406327 1.29517 38 37 34
-0.537446 -0.0392575 1.25133 37 37 34
-0.530892 -0.0392575 1.25133 37 37 33
-0.53283 -0.0398933 1.2716 37 37 34
-0.556145 -0.042166 1.34404 39 38 35
-0.529138 -0.0406327 1.29517 38 37 34
-0.587874 -0.0457293 1.45762 38 36 34
-0.504059 -0.0397255 1.26625 38 36 34
-0.508787 -0.0406327 1.29517 38 36 34
-0.564969 -0.0457293 1.45762 38 36 33
-0.538998 -0.0442248 1.40967 38 37 34
-0.518291 -0.0431164 1.37433 38 37 34
-0.511092 -0.0431164 1.37433 38 37 34
-0.549969 -0.0470588 1.5 38 37 34
-0.542112 -0.0470588 1.5 38 36 33
-0.516848 -0.0455255 1.45113 38 37 33
-0.54355 -0.0485921 1.54887 39 38 34
-0.535437 -0.0485921 1.54887 38 38 34
-0.530335 -0.0488695 1.55772 38 37 34
-0.53311 -0.0498928 1.59033 39 38 35
-0.529665 -0.0503572 1.60514 40 39 36
-0.534003 -0.0515885 1.64438 39 38 35
-0.492799 -0.0483883 1.54238 37 36 33
-0.564163 -0.056319 1.79517 37 36 33
-0.508164 -0.0515885 1.64438 37 36 33
-0.483131 -0.0498928 1.59033 37 37 34
-0.524787 -0.0551455 1.75776 37 38 34
-0.508538 -0.0543922 1.73375 37 37 34
-0.499457 -0.0543922 1.73375 37 37 34
-0.501081 -0.0555796 1.7716 37 37 34
-0.45129 -0.0510013 1.62567 37 38 34
-0.459085 -0.0528799 1.68555 37 38 34
-0.443831 -0.0521253 1.66149 37 37 34
-0.432323 -0.0517893 1.65078 36 36 33
-0.423677 -0.0517893 1.65078 36 36 33
-0.41503 -0.0517893 1.65078 36 37 34
-0.429896 -0.0547857 1.74629 37 37 34
-0.407194 -0.0530206 1.69003 37 37 34
-0.391615 -0.0521253 1.66149 38 37 34
-0.389489 -0.0530206 1.69003 38 37 34
-0.380637 -0.0530206 1.69003 38 37 33
-0.365508 -0.0521253 1.66149 37 36 32
-0.360172 -0.0526171 1.67717 37 36 31
-0.351387 -0.0526171 1.67717 37 37 32
-0.35416 -0.0543922 1.73375 37 37 32
-0.336377 -0.0530206 1.69003 37 37 32
-0.321995 -0.0521253 1.66149 36 36 32
-0.326917 -0.0543922 1.73375 36 36 32
-0.301453 -0.0515885 1.64438 36 35 31
-0.29284 -0.0515885 1.64438 36 36 32
-0.287185 -0.0521253 1.66149 37 37 34
-0.278482 -0.0521253 1.66149 37 37 33
-0.274413 -0.0530206 1.69003 37 37 33
-0.272431 -0.0543922 1.73375 37 37 33
-0.261259 -0.0539604 1.71999 37 37 33
-0.239696 -0.0512749 1.63439 37 37 33
-0.234969 -0.0521253 1.66149 38 37 33
-0.228402 -0.0526171 1.67717 37 37 33
-0.217564 -0.0521253 1.66149 37 37 33
-0.21431 -0.0534849 1.70483 38 38 34
-0.208509 -0.0542997 1.7308 39 39 35
-0.19645 -0.0534849 1.70483 38 38 35
-0.180542 -0.0514943 1.64138 38 38 34
-0.171212 -0.0512749 1.63439 38 39 35
-0.165349 -0.0521253 1.66149 37 38 35
-0.156646 -0.0521253 1.66149 37 38 34
-0.148336 -0.0522637 1.6659 37 37 34
-0.140555 -0.0526171 1.67717 37 38 35
-0.12639 -0.0504688 1.60869 38 39 35
-0.126125 -0.0539604 1.71999 39 39 36
-0.112404 -0.0517893 1.65078 38 38 35
-0.104431 -0.0521253 1.66149 37 37 34
-0.0957282 -0.0521253 1.66149 37 37 34
-0.0870257 -0.0521253 1.66149 37 37 33
-0.0762055 -0.050716 1.61657 36 36 33
-0.0696205 -0.0521253 1.66149 37 37 34
-0.0614928 -0.0526171 1.67717 37 38 34
-0.0497921 -0.0497062 1.58438 37 38 35
-0.0438352 -0.0525115 1.6738 36 37 33
-0.0340596 -0.0510013 1.62567 36 36 33
-0.0258389 -0.0515885 1.64438 37 37 34
-0.0177202 -0.0530689 1.69157 37 37 34
-0.00861295 -0.0515885 1.64438 36 36 33
0 -0.0539098 1.71838 36 36 32
0.00892957 -0.0534849 1.70483 37 36 32
0.0174051 -0.0521253 1.66149 37 37 33
0.0267887 -0.0534849 1.70483 37 37 33
0.0354404 -0.0530689 1.69157 37 37 33
0.0432323 -0.0517893 1.65078 37 37 33
0.0531606 -0.0530689 1.69157 37 37 34
0.0605252 -0.0517893 1.65078 37 37 34
0.0702774 -0.0526171 1.67717 37 37 34
0.0790621 -0.0526171 1.67717 37 37 34
0.0876704 -0.0525115 1.6738 37 37 34
0.0951111 -0.0517893 1.65078 37 37 34
0.101607 -0.050716 1.61657 38 38 35
0.115181 -0.0530689 1.69157 38 38 35
0.120361 -0.0514943 1.64138 38 38 35
0.12639 -0.0504688 1.60869 38 38 34
0.133851 -0.0501076 1.59718 37 37 34
0.146153 -0.0514943 1.64138 37 37 34
0.153268 -0.0510013 1.62567 37 37 34
0.166574 -0.0525115 1.6738 37 37 34
0.181312 -0.0542997 1.7308 38 38 35
0.186062 -0.0530689 1.69157 37 37 35
0.18628 -0.050716 1.61657 37 37 34
0.208509 -0.0542997 1.7308 37 37 34
0.207515 -0.0517893 1.65078 37 37 35
0.223239 -0.0534849 1.70483 37 38 35
0.230363 -0.0530689 1.69157 37 38 35
0.231136 -0.0512749 1.63439 37 37 35
0.239696 -0.0512749 1.63439 36 36 34
0.258957 -0.0534849 1.70483 35 36 33
0.265803 -0.0530689 1.69157 36 36 34
0.267001 -0.0515885 1.64438 37 37 34
0.283265 -0.0530206 1.69003 37 37 35
0.27942 -0.050716 1.61657 37 37 35
0.29284 -0.0515885 1.64438 37 37 34
0.30459 -0.0521253 1.66149 38 38 35
0.308181 -0.0512749 1.63439 37 37 35
0.321995 -0.0521253 1.66149 36 36 33
0.323566 -0.0510013 1.62567 37 36 34
0.335905 -0.0515885 1.64438 37 36 34
0.354081 -0.0530206 1.69003 37 36 33
0.356805 -0.0521253 1.66149 36 36 32
0.365508 -0.0521253 1.66149 36 35 32
0.376983 -0.0525115 1.6738 35 35 32
0.389489 -0.0530206 1.69003 35 35 33
0.40183 -0.0534849 1.70483 35 36 34
0.414411 -0.0539604 1.71999 36 36 34
0.42342 -0.0539604 1.71999 37 37 35
0.428619 -0.0534849 1.70483 37 38 35
0.437549 -0.0534849 1.70483 37 38 36
0.454051 -0.0543922 1.73375 37 38 36
0.455408 -0.0534849 1.70483 37 38 35
0.460306 -0.0530206 1.69003 36 37 35
0.495244 -0.0559686 1.784 35 36 33
0.47342 -0.0525115 1.6738 36 37 34
0.495492 -0.0539604 1.71999 36 37 34
0.487344 -0.0521253 1.66149 36 37 34
0.513029 -0.0539098 1.71838 36 37 34
0.508488 -0.0525115 1.6738 36 37 34
0.548615 -0.055695 1.77528 37 37 34
0.522154 -0.0521253 1.66149 37 38 35
0.539974 -0.0530206 1.69003 37 38 35
0.567097 -0.0547857 1.74629 36 37 34
0.567032 -0.0539098 1.71838 36 36 33
0.580198 -0.0542997 1.7308 36 37 34
0.571004 -0.0526171 1.67717 37 37 35
0.603684 -0.0547857 1.74629 37 37 34
0.608429 -0.0543922 1.73375 36 36 33
0.612034 -0.0539098 1.71838 36 36 34
0.631124 -0.0547857 1.74629 36 36 34
0.62507 -0.0534849 1.70483 36 36 34
0.633999 -0.0534849 1.70483 37 37 35
0.653834 -0.0543922 1.73375 38 38 35
0.651858 -0.0534849 1.70483 38 39 35
0.660788 -0.0534849 1.70483 37 38 35
0.681077 -0.0543922 1.73375 37 39 35
0.70669 -0.055695 1.77528 37 38 35
0.711392 -0.0553375 1.76388 36 37 34
0.715503 -0.0549437 1.75133 36 37 34
0.742815 -0.056319 1.79517 36 37 34
0.720715 -0.0539604 1.71999 35 36 33
0.76162 -0.056319 1.79517 36 37 34
0.744644 -0.0543922 1.73375 35 36 34
0.775571 -0.0559686 1.784 35 37 34
0.794274 -0.056636 1.80527 36 37 34
0.785303 -0.0553375 1.76388 35 37 34
0.788888 -0.0549437 1.75133 35 36 34
0.812948 -0.0559686 1.784 35 36 34
0.832975 -0.0566958 1.80718 35 36 34
0.849737 -0.0571868 1.82283 34 36 33
0.83986 -0.0558941 1.78162 34 36 33
0.855647 -0.056319 1.79517 34 36 33
0.858524 -0.0558941 1.78162 34 36 34
0.838829 -0.0540246 1.72203 35 37 34
0.91854 -0.0585291 1.86561 34 36 34
0.900624 -0.0567834 1.80997 34 36 33
0.902661 -0.056319 1.79517 33 36 33
0.903324 -0.0557793 1.77797 33 36 33
0.939602 -0.0574274 1.8305 32 36 33
0.906758 -0.0548602 1.74867 33 36 34
0.940272 -0.056319 1.79517 34 37 35
0.940575 -0.0557793 1.77797 34 37 35
0.985189 -0.0578523 1.84404 33 36 34
0.9483 -0.0551455 1.75776 32 35 33
1.02101 -0.0588026 1.87433 31 35 33
1.03082 -0.0588026 1.87433 30 35 32
0.962589 -0.0543922 1.73375 31 35 33
1.00609 -0.056319 1.79517 31 35 33
1.01549 -0.056319 1.79517 32 36 34
1.07647 -0.059153 1.8855 34 37 35
1.15232 -0.0627451 2 34 37 35
1.0437 -0.056319 1.79517 33 37 36
1.0916 -0.0583778 1.86079 33 36 35
1.09143 -0.0578523 1.84404 33 36 35
1.14028 -0.0599111 1.90967 33 36 35
1.12084 -0.0583778 1.86079 36 40 38
1.10752 -0.0571868 1.82283 39 42 41
1.13007 -0.0578523 1.84404 38 42 42
1.10952 -0.056319 1.79517 37 42 41
1.19029 -0.0599111 1.90967 37 41 40
-0.608545 -0.0253123 0.968195 37 38 35
-0.599983 -0.0251659 0.962595 38 38 35
-0.576794 -0.0243983 0.933233 38 38 34
-0.573938 -0.0244849 0.936549 38 37 34
-0.607584 -0.0261438 1 38 37 33
-0.583189 -0.0253123 0.968195 38 37 33
-0.555044 -0.0243021 0.929553 38 37 33
-0.572058 -0.0252686 0.966525 37 36 33
-0.586633 -0.0261438 1 37 36 33
-0.581395 -0.0261438 1 38 36 34
-0.55687 -0.0252686 0.966525 38 37 35
-0.57092 -0.0261438 1 38 37 35
-0.583673 -0.0269753 1.0318 37 37 34
-0.560444 -0.0261438 1 37 37 34
-0.555206 -0.0261438 1 39 37 35
-0.5694 -0.0270675 1.03533 38 37 34
-0.583105 -0.0279855 1.07045 37 36 33
-0.539493 -0.0261438 1 37 36 34
-0.587518 -0.0287502 1.0997 37 36 33
-0.581758 -0.0287502 1.0997 37 36 33
-0.557014 -0.0278026 1.06345 37 36 33
-0.5359 -0.027019 1.03348 36 36 33
-0.529629 -0.0269753 1.0318 36 36 33
-0.541988 -0.0278893 1.06677 37 37 34
-0.555694 -0.0288925 1.10514 38 37 35
-0.580143 -0.0304812 1.1659 37 36 34
-0.564786 -0.02999 1.14712 37 36 34
-0.521431 -0.0279855 1.07045 38 36 34
-0.535462 -0.029051 1.1112 38 37 35
-0.494468 -0.0271217 1.03741 38 37 35
-0.508721 -0.0282135 1.07917 37 38 35
-0.548755 -0.0307757 1.17717 37 37 35
-0.518849 -0.0294292 1.12567 37 37 35
-0.549028 -0.0314989 1.20483 36 36 34
-0.510985 -0.0296572 1.13439 36 36 33
-0.549281 -0.0322549 1.23375 37 37 34
-0.553384 -0.0328827 1.25776 37 37 34
-0.544 -0.0327146 1.25133 38 37 34
-0.529895 -0.0322549 1.23375 38 37 34
-0.539491 -0.0332444 1.2716 37 37 33
-0.524338 -0.0327146 1.25133 37 37 33
-0.52617 -0.0332444 1.2716 37 37 33
-0.517324 -0.0331046 1.26625 37 36 33
-0.512849 -0.0332444 1.2716 37 36 34
-0.494501 -0.0324768 1.24224 37 36 34
-0.539886 -0.0359303 1.37433 37 36 33
-0.538295 -0.0363085 1.3888 37 36 33
-0.573539 -0.0392157 1.5 38 37 34
-0.511231 -0.0354409 1.35562 38 37 34
-0.524231 -0.036854 1.40967 39 38 34
-0.549969 -0.0392157 1.5 39 38 35
-0.526796 -0.0381077 1.45762 37 36 33
-0.534255 -0.0392157 1.5 36 35 32
-0.54355 -0.0404935 1.54887 38 37 34
-0.468629 -0.0354409 1.35562 39 38 35
-0.530335 -0.0407246 1.55772 39 38 35
-0.53311 -0.0415774 1.59033 38 38 35
-0.592371 -0.0469325 1.79517 39 38 35
-0.54465 -0.0438476 1.67717 39 38 35
-0.497699 -0.0407246 1.55772 38 37 34
-0.535774 -0.0445708 1.70483 37 36 34
-0.515926 -0.0436471 1.6695 37 37 34
-0.499551 -0.0429904 1.64438 37 37 34
-0.508985 -0.0445708 1.70483 37 37 34
-0.482325 -0.0429904 1.64438 37 37 34
-0.46832 -0.0425011 1.62567 38 38 35
-0.459805 -0.0425011 1.62567 38 38 35
-0.48796 -0.0459546 1.75776 38 38 35
-0.464337 -0.0445708 1.70483 37 37 34
-0.455408 -0.0445708 1.70483 37 37 34
-0.435128 -0.0434377 1.66149 37 37 34
-0.426426 -0.0434377 1.66149 37 37 34
-0.424898 -0.0441838 1.69003 37 37 35
-0.434226 -0.0461146 1.76388 38 37 35
-0.41076 -0.0445708 1.70483 38 37 35
-0.398342 -0.0441838 1.69003 37 36 34
-0.38575 -0.0437595 1.6738 36 36 32
-0.370357 -0.0429904 1.64438 37 36 33
-0.371785 -0.0441838 1.69003 38 37 32
-0.375016 -0.0456547 1.74629 38 37 33
-0.354081 -0.0441838 1.69003 38 37 33
-0.348253 -0.0445708 1.70483 38 38 33
-0.339324 -0.0445708 1.70483 38 38 34
-0.318679 -0.0429904 1.64438 37 37 33
-0.311273 -0.0431577 1.65078 37 37 33
-0.29962 -0.0427291 1.63439 37 37 34
-0.306304 -0.044967 1.71999 38 37 34
-0.287185 -0.0434377 1.66149 37 37 34
-0.278482 -0.0434377 1.66149 37 37 33
-0.271778 -0.0437595 1.6738 37 37 33
-0.265561 -0.0441838 1.69003 37 37 34
-0.261259 -0.044967 1.71999 37 37 33
-0.245477 -0.0437595 1.6738 37 36 33
-0.237186 -0.0438476 1.67717 37 37 33
-0.234013 -0.0449249 1.71838 37 37 33
-0.216162 -0.0431577 1.65078 37 37 33
-0.209416 -0.0435531 1.6659 37 37 33
-0.20069 -0.0435531 1.6659 38 38 34
-0.191965 -0.0435531 1.6659 38 38 34
-0.190702 -0.0453268 1.73375 37 37 33
-0.177202 -0.0442241 1.69157 36 37 33
-0.168189 -0.0441838 1.69003 37 38 34
-0.155033 -0.0429904 1.64438 37 37 34
-0.14642 -0.0429904 1.64438 37 38 34
-0.139241 -0.0434377 1.66149 38 38 35
-0.130538 -0.0434377 1.66149 39 39 35
-0.119848 -0.0427291 1.63439 39 39 36
-0.113971 -0.0437595 1.6738 38 38 35
-0.107155 -0.0445708 1.70483 37 37 34
-0.0957282 -0.0434377 1.66149 37 37 34
-0.0878468 -0.0438476 1.67717 37 37 34
-0.0790621 -0.0438476 1.67717 36 36 33
-0.0698053 -0.0435531 1.6659 36 37 33
-0.0596043 -0.0425011 1.62567 38 38 35
-0.0516777 -0.0429904 1.64438 38 38 35
-0.0436283 -0.0435531 1.6659 37 37 34
-0.0340596 -0.0425011 1.62567 37 37 34
-0.026354 -0.0438476 1.67717 37 38 35
-0.0174051 -0.0434377 1.66149 38 38 35
-0.00878468 -0.0438476 1.67717 37 37 33
0 -0.0431577 1.65078 37 36 32
0.00847473 -0.0423006 1.618 37 37 33
0.0169345 -0.0422633 1.61657 38 37 34
0.0256817 -0.0427291 1.63439 38 37 34
0.0343889 -0.0429119 1.64138 37 37 33
0.0436283 -0.0435531 1.6659 37 37 34
0.054003 -0.0449249 1.71838 37 37 34
0.0601806 -0.0429119 1.64138 37 37 34
0.0681193 -0.0425011 1.62567 37 37 34
0.0749686 -0.0415774 1.59033 37 37 34
0.0856058 -0.0427291 1.63439 37 37 34
0.093664 -0.0425011 1.62567 37 37 35
0.105416 -0.0438476 1.67717 38 37 35
0.110694 -0.0425011 1.62567 38 38 35
0.119848 -0.0427291 1.63439 38 38 35
0.133943 -0.0445708 1.70483 38 37 34
0.141762 -0.0442241 1.69157 38 37 34
0.14642 -0.0429904 1.64438 38 38 35
0.156646 -0.0434377 1.66149 38 38 35
0.166909 -0.0438476 1.67717 38 38 35
0.172929 -0.0431577 1.65078 38 37 35
0.182754 -0.0434377 1.66149 37 36 34
0.185372 -0.0420573 1.60869 36 36 34
0.202048 -0.0438476 1.67717 36 36 34
0.207515 -0.0431577 1.65078 37 37 34
0.212873 -0.0425011 1.62567 37 37 35
0.230363 -0.0442241 1.69157 37 37 35
0.234186 -0.043293 1.65596 37 37 35
0.250028 -0.0445708 1.70483 37 37 35
0.261015 -0.0449249 1.71838 36 36 34
0.265803 -0.0442241 1.69157 37 37 34
0.265378 -0.0427291 1.63439 37 37 34
0.285746 -0.0445708 1.70483 37 37 35
0.282499 -0.0427291 1.63439 37 37 34
0.298679 -0.0438476 1.67717 37 37 34
0.310104 -0.0442241 1.69157 37 37 34
0.318964 -0.0442241 1.69157 37 37 34
0.327824 -0.0442241 1.69157 36 36 33
0.34234 -0.044967 1.71999 36 36 33
0.348253 -0.0445708 1.70483 36 36 33
0.348103 -0.0434377 1.66149 36 36 33
0.360172 -0.0438476 1.67717 36 36 33
0.372125 -0.0442241 1.69157 36 36 34
0.387385 -0.044967 1.71999 36 36 34
0.389489 -0.0441838 1.69003 36 37 34
0.391615 -0.0434377 1.66149 36 36 34
0.404095 -0.0438476 1.67717 36 36 34
0.426808 -0.0453268 1.73375 36 36 34
0.432429 -0.044967 1.71999 36 37 34
0.43375 -0.0441838 1.69003 36 37 34
0.438352 -0.0437595 1.6738 36 37 35
0.448019 -0.0438476 1.67717 37 38 35
0.472214 -0.0453268 1.73375 37 38 35
0.476665 -0.0448908 1.71707 37 37 35
0.474373 -0.0438476 1.67717 36 37 34
0.478641 -0.0434377 1.66149 36 37 34
0.508538 -0.0453268 1.73375 35 37 33
0.538972 -0.0471966 1.80527 36 37 34
0.517915 -0.0445708 1.70483 37 37 34
0.53103 -0.0449249 1.71838 37 37 34
0.544862 -0.0453268 1.73375 37 38 35
0.55795 -0.0456547 1.74629 37 38 35
0.549327 -0.0442241 1.69157 37 38 35
0.571132 -0.0452497 1.7308 37 37 34
0.567047 -0.0442241 1.69157 36 37 33
0.575907 -0.0442241 1.69157 37 37 34
0.613704 -0.0464125 1.77528 37 38 35
0.603034 -0.0449249 1.71838 36 37 33
0.61751 -0.0453268 1.73375 36 36 33
0.631124 -0.0456547 1.74629 35 36 33
0.64672 -0.0461146 1.76388 35 35 32
0.639635 -0.044967 1.71999 37 37 34
0.665198 -0.0461146 1.76388 38 38 35
0.657037 -0.0449249 1.71838 37 38 34
0.681303 -0.0459546 1.75776 36 37 34
0.675671 -0.044967 1.71999 37 38 35
0.690158 -0.0453268 1.73375 37 38 35
0.699239 -0.0453268 1.73375 37 38 35
0.696506 -0.0445708 1.70483 36 37 34
0.699311 -0.0441838 1.69003 35 36 33
0.720715 -0.044967 1.71999 34 35 32
0.766716 -0.0472465 1.80718 35 36 32
0.744644 -0.0453268 1.73375 35 36 33
0.748632 -0.0450205 1.72203 35 37 34
0.78387 -0.0465784 1.78162 36 37 34
0.759013 -0.0445708 1.70483 35 37 34
0.808634 -0.0469325 1.79517 35 36 34
0.791736 -0.0454236 1.73745 34 36 34
0.816576 -0.0463163 1.7716 34 36 33
0.825856 -0.0463163 1.7716 34 35 33
0.821294 -0.0455487 1.74224 33 35 32
0.862703 -0.0473195 1.80997 34 36 34
0.86505 -0.0469325 1.79517 35 36 34
0.867856 -0.0465784 1.78162 35 37 34
0.869618 -0.0461765 1.76625 35 37 35
0.893258 -0.0469325 1.79517 35 37 35
0.920427 -0.0478562 1.8305 34 37 34
0.947855 -0.0487742 1.86561 34 37 34
0.906623 -0.0461765 1.76625 33 37 34
0.962214 -0.0485128 1.85562 32 36 33
0.965871 -0.0482102 1.84404 32 36 34
0.981653 -0.0485128 1.85562 32 36 34
0.969381 -0.0474367 1.81445 32 35 34
0.9483 -0.0459546 1.75776 31 35 33
1.01363 -0.0486481 1.86079 31 35 33
0.987286 -0.0469325 1.79517 31 35 33
1.0713 -0.0504458 1.92955 32 36 34
1.05046 -0.0490022 1.87433 32 36 34
1.05262 -0.0486481 1.86079 32 36 35
1.03591 -0.0474367 1.81445 33 36 35
1.08635 -0.0492942 1.8855 33 36 35
1.05491 -0.0474367 1.81445 33 36 35
1.06442 -0.0474367 1.81445 33 36 35
1.13689 -0.0502179 1.92083 33 36 35
1.10109 -0.0482102 1.84404 32 37 36
1.0269 -0.0445708 1.70483 35 39 38
1.10752 -0.0476557 1.82283 37 41 40
1.11707 -0.0476557 1.82283 37 41 40
1.31379 -0.055573 2.12567 36 40 39
1.11892 -0.0469325 1.79517 36 40 40
-0.628536 -0.020915 1 38 39 36
-0.583749 -0.019588 0.936549 38 39 35
-0.578843 -0.019588 0.936549 38 38 34
-0.573938 -0.019588 0.936549 37 37 33
-0.586118 -0.0201761 0.964669 37 36 32
-0.582183 -0.0202149 0.966525 36 36 31
-0.597109 -0.020915 1 36 35 31
-0.552354 -0.0195186 0.933233 36 35 31
-0.586633 -0.020915 1 37 36 33
-0.561933 -0.0202149 0.966525 37 36 33
-0.576158 -0.020915 1 37 36 34
-0.591091 -0.021654 1.03533 37 36 34
-0.546745 -0.0202149 0.966525 37 36 34
-0.541683 -0.0202149 0.966525 37 36 33
-0.592276 -0.0223115 1.06677 37 36 34
-0.568379 -0.0216152 1.03348 37 36 34
-0.581101 -0.0223115 1.06677 37 36 33
-0.559673 -0.0216974 1.03741 37 36 34
-0.587518 -0.0230002 1.0997 38 37 34
-0.547708 -0.021654 1.03533 38 37 35
-0.542285 -0.021654 1.03533 38 37 35
-0.576204 -0.0232408 1.1112 38 37 34
-0.551573 -0.0224743 1.07455 37 37 34
-0.558718 -0.0230002 1.0997 38 37 34
-0.542636 -0.0225708 1.07917 38 37 35
-0.570795 -0.023992 1.14712 37 36 34
-0.492353 -0.020915 1 38 36 34
-0.541282 -0.0232408 1.1112 38 37 35
-0.55703 -0.0241769 1.15596 38 37 35
-0.532881 -0.0233829 1.118 38 38 35
-0.562298 -0.0249479 1.19282 38 38 35
-0.52881 -0.0237257 1.13439 37 37 35
-0.549803 -0.0249479 1.19282 37 37 34
-0.516926 -0.0237257 1.13439 36 36 33
-0.593646 -0.0275638 1.31789 37 37 34
-0.557109 -0.0261716 1.25133 37 37 34
-0.542819 -0.0258039 1.23375 37 37 33
-0.536357 -0.0258039 1.23375 38 37 34
-0.496483 -0.0241769 1.15596 37 37 34
-0.541052 -0.0266725 1.27528 37 37 34
-0.542706 -0.0270885 1.29517 37 37 34
-0.556145 -0.0281107 1.34404 36 36 33
-0.529138 -0.0270885 1.29517 37 36 34
-0.501007 -0.0259814 1.24224 38 37 35
-0.580239 -0.0304862 1.45762 37 36 34
-0.539886 -0.0287442 1.37433 36 36 33
-0.546382 -0.0294832 1.40967 37 37 34
-0.554851 -0.0303503 1.45113 38 38 34
-0.518291 -0.0287442 1.37433 38 38 34
-0.518727 -0.0291736 1.39486 39 38 34
-0.536254 -0.0305902 1.46259 38 37 34
-0.574759 -0.0332619 1.59033 37 36 33
-0.549349 -0.0322589 1.54238 37 35 32
-0.563294 -0.0335715 1.60514 38 36 34
-0.533192 -0.0322589 1.54238 39 38 35
-0.568393 -0.0349177 1.6695 39 38 35
-0.483481 -0.0301654 1.44228 37 37 34
-0.550904 -0.0349177 1.6695 37 36 33
-0.575315 -0.0370531 1.7716 37 37 34
-0.494874 -0.0323948 1.54887 37 37 34
-0.516777 -0.0343924 1.64438 37 37 34
-0.508164 -0.0343924 1.64438 37 37 34
-0.499551 -0.0343924 1.64438 38 37 34
-0.479221 -0.0335715 1.60514 37 38 35
-0.560136 -0.0399407 1.90967 37 38 34
-0.473712 -0.0343924 1.64438 38 38 35
-0.475768 -0.0351813 1.68211 38 38 35
-0.483651 -0.036439 1.74224 38 38 35
-0.447873 -0.0343924 1.64438 37 37 34
-0.463133 -0.0362614 1.73375 36 36 32
-0.450025 -0.0359399 1.71838 36 36 33
-0.41723 -0.0340009 1.62567 37 37 34
-0.425285 -0.0353793 1.69157 38 38 35
-0.41969 -0.0356566 1.70483 38 37 35
-0.400318 -0.0347502 1.66149 38 37 35
-0.408646 -0.0362614 1.73375 37 36 34
-0.402456 -0.0365238 1.74629 37 36 33
-0.392396 -0.036439 1.74224 37 37 33
-0.359544 -0.0341832 1.63439 38 37 33
-0.369367 -0.0359736 1.71999 39 38 34
-0.357183 -0.0356566 1.70483 39 38 34
-0.351349 -0.0359736 1.71999 39 38 34
-0.330698 -0.0347502 1.66149 39 38 34
-0.327525 -0.035347 1.69003 38 38 34
-0.315613 -0.0350076 1.6738 38 38 35
-0.301453 -0.0343924 1.64438 39 38 35
-0.306017 -0.0359399 1.71838 38 38 35
-0.289894 -0.0350781 1.67717 38 37 34
-0.276687 -0.0345262 1.65078 38 37 34
-0.265378 -0.0341832 1.63439 38 37 34
-0.265561 -0.035347 1.69003 38 38 34
-0.250747 -0.0345262 1.65078 38 37 34
-0.245971 -0.0350781 1.67717 37 37 33
-0.239005 -0.035347 1.69003 36 36 32
-0.226267 -0.0347502 1.66149 36 36 32
-0.214015 -0.0341832 1.63439 36 37 32
-0.209416 -0.0348425 1.6659 37 37 33
-0.195843 -0.0340009 1.62567 36 37 32
-0.185372 -0.0336459 1.60869 36 36 31
-0.177813 -0.0338107 1.61657 36 36 32
-0.170298 -0.0340009 1.62567 37 37 34
-0.161783 -0.0340009 1.62567 38 38 35
-0.158124 -0.0350781 1.67717 37 38 34
-0.148336 -0.0348425 1.6659 38 38 35
-0.140555 -0.0350781 1.67717 38 39 35
-0.131506 -0.0350076 1.6738 39 39 36
-0.121836 -0.0347502 1.66149 39 38 35
-0.112404 -0.0345262 1.65078 38 38 34
-0.105416 -0.0350781 1.67717 38 37 34
-0.0947425 -0.0343924 1.64438 38 38 35
-0.0892957 -0.0356566 1.70483 37 38 34
-0.0775166 -0.0343924 1.64438 37 37 34
-0.0696205 -0.0347502 1.66149 38 38 34
-0.0605252 -0.0345262 1.65078 38 38 35
-0.0510894 -0.0340009 1.62567 37 37 34
-0.0416492 -0.0332619 1.59033 36 36 33
-0.0354404 -0.0353793 1.69157 37 37 34
-0.0265803 -0.0353793 1.69157 37 38 35
-0.0170298 -0.0340009 1.62567 37 38 34
-0.00859722 -0.0343295 1.64138 37 37 33
0 -0.0345262 1.65078 38 37 34
0.00856058 -0.0341832 1.63439 39 38 35
0.0174051 -0.0347502 1.66149 39 38 35
0.025278 -0.0336459 1.60869 39 39 35
0.0348103 -0.0347502 1.66149 38 38 35
0.0443005 -0.0353793 1.69157 38 38 34
0.0522154 -0.0347502 1.66149 37 37 34
0.0605252 -0.0345262 1.65078 37 37 34
0.0714365 -0.0356566 1.70483 38 38 34
0.0790621 -0.0350781 1.67717 38 38 35
0.0878468 -0.0350781 1.67717 38 37 35
0.0926861 -0.0336459 1.60869 38 37 35
0.102727 -0.0341832 1.63439 37 37 34
0.107883 -0.0331375 1.58438 37 37 35
0.119209 -0.0340009 1.62567 38 37 35
0.124948 -0.0332619 1.59033 38 38 35
0.141633 -0.035347 1.69003 38 38 35
0.14934 -0.0350781 1.67717 39 38 35
0.157807 -0.0350076 1.6738 39 38 35
0.168189 -0.035347 1.69003 38 38 35
0.175694 -0.0350781 1.67717 38 37 34
0.179772 -0.0341832 1.63439 37 36 34
0.198197 -0.0359736 1.71999 37 36 33
0.207012 -0.0359399 1.71838 36 35 33
0.208862 -0.0347502 1.66149 36 36 33
0.219617 -0.0350781 1.67717 36 36 33
0.232169 -0.0356566 1.70483 37 37 34
0.241098 -0.0356566 1.70483 37 37 35
0.250028 -0.0356566 1.70483 37 37 35
0.254244 -0.0350076 1.6738 37 37 34
0.267887 -0.0356566 1.70483 37 37 34
0.272325 -0.0350781 1.67717 38 38 34
0.283265 -0.035347 1.69003 38 37 34
0.284227 -0.0343924 1.64438 37 37 34
0.306017 -0.0359399 1.71838 37 37 34
0.310104 -0.0353793 1.69157 36 36 33
0.306537 -0.0340009 1.62567 36 36 33
0.327525 -0.035347 1.69003 36 36 33
0.327292 -0.0343924 1.64438 36 36 33
0.342602 -0.0350781 1.67717 36 36 33
0.350681 -0.0350076 1.6738 36 36 33
0.366112 -0.0356566 1.70483 36 36 33
0.365508 -0.0347502 1.66149 37 37 34
0.391318 -0.0363389 1.73745 37 37 35
0.389489 -0.035347 1.69003 37 37 35
0.394517 -0.0350076 1.6738 36 37 34
0.397737 -0.0345262 1.65078 35 36 34
0.412051 -0.0350076 1.6738 35 36 33
0.435889 -0.0362614 1.73375 35 36 33
0.43375 -0.035347 1.69003 35 36 33
0.450025 -0.0359399 1.71838 35 36 33
0.455408 -0.0356566 1.70483 36 37 34
0.464337 -0.0356566 1.70483 37 38 35
0.477474 -0.0359736 1.71999 38 39 36
0.462271 -0.0341832 1.63439 37 37 35
0.495492 -0.0359736 1.71999 36 37 34
0.490954 -0.0350076 1.6738 36 37 34
0.504566 -0.035347 1.69003 36 37 34
0.525804 -0.0361998 1.7308 36 37 34
0.53103 -0.0359399 1.71838 37 37 34
0.548803 -0.0365238 1.74629 37 38 35
0.544704 -0.0356566 1.70483 37 38 35
0.558031 -0.0359399 1.71838 37 38 35
0.567563 -0.0359736 1.71999 37 38 35
0.56653 -0.035347 1.69003 37 37 34
0.580422 -0.0356566 1.70483 37 37 34
0.603684 -0.0365238 1.74629 37 37 34
0.607395 -0.0361998 1.7308 36 36 33
0.601938 -0.035347 1.69003 36 36 33
0.621035 -0.0359399 1.71838 36 36 33
0.630035 -0.0359399 1.71838 36 36 33
0.633999 -0.0356566 1.70483 36 37 34
0.653834 -0.0362614 1.73375 37 37 34
0.641282 -0.0350781 1.67717 35 36 32
0.688093 -0.03713 1.77528 35 36 32
0.692915 -0.0368917 1.76388 36 37 33
0.68468 -0.0359736 1.71999 37 38 35
0.687577 -0.0356566 1.70483 37 38 35
0.725287 -0.03713 1.77528 36 37 34
0.72987 -0.0368917 1.76388 35 36 32
0.75725 -0.0377972 1.80718 34 35 32
0.753183 -0.03713 1.77528 34 35 32
0.752196 -0.0366292 1.75133 34 36 32
0.753725 -0.0362614 1.73375 34 36 32
0.779459 -0.0370531 1.7716 35 37 34
0.782578 -0.0367636 1.75776 36 38 35
0.808634 -0.037546 1.79517 35 37 34
0.776872 -0.0356566 1.70483 34 36 33
0.810198 -0.0367636 1.75776 33 35 33
0.825856 -0.0370531 1.7716 34 35 33
0.83986 -0.0372627 1.78162 34 36 34
0.849192 -0.0372627 1.78162 35 37 34
0.883809 -0.0383602 1.8341 35 36 34
0.887927 -0.0381245 1.82283 35 37 34
0.891144 -0.0378556 1.80997 36 37 35
0.878869 -0.0369412 1.76625 35 37 35
0.888121 -0.0369412 1.76625 34 37 35
0.919584 -0.0378556 1.80997 34 37 34
0.921467 -0.037546 1.79517 33 36 34
0.94919 -0.0382849 1.8305 32 36 33
0.996658 -0.0397975 1.90282 31 35 33
0.97553 -0.0385682 1.84404 31 35 33
0.898674 -0.0351813 1.68211 32 35 34
0.9592 -0.0371862 1.77797 32 35 34
0.988388 -0.0379493 1.81445 31 35 34
0.977825 -0.0371862 1.77797 32 36 35
1.04684 -0.0394353 1.8855 33 37 35
1.0169 -0.0379493 1.81445 33 37 35
1.0264 -0.0379493 1.81445 34 37 36
1.00354 -0.0367636 1.75776 34 37 36
1.1067 -0.0401743 1.92083 34 36 35
1.08186 -0.0389185 1.86079 35 37 36
1.17327 -0.0418301 2 34 37 36
1.10135 -0.0389185 1.86079 32 36 35
1.11109 -0.0389185 1.86079 32 37 36
1.20469 -0.0418301 2 35 39 38
1.16707 -0.0401743 1.92083 36 40 39
1.11707 -0.0381245 1.82283 36 40 40
1.13973 -0.0385682 1.84404 35 40 39
1.19725 -0.0401743 1.92083 35 40 39
-0.584257 -0.0145812 0.929553 37 38 34
-0.579388 -0.0145812 0.929553 37 38 34
-0.57452 -0.0145812 0.929553 38 38 35
-0.58847 -0.0150629 0.960263 37 37 34
-0.562287 -0.0145168 0.925446 37 36 33
-0.582183 -0.0151612 0.966525 36 36 32
-0.57712 -0.0151612 0.966525 36 36 32
-0.591871 -0.0156863 1 37 36 32
-0.586633 -0.0156863 1 37 36 33
-0.559648 -0.0150995 0.962595 37 36 34
-0.576158 -0.0156863 1 37 36 34
-0.57092 -0.0156863 1 37 36 34
-0.565682 -0.0156863 1 36 36 34
-0.560444 -0.0156863 1 37 36 34
-0.573792 -0.0162114 1.03348 37 36 34
-0.57054 -0.016273 1.03741 37 36 33
-0.562966 -0.0162114 1.03348 36 35 33
-0.596214 -0.0173355 1.10514 37 36 34
-0.569926 -0.0167336 1.06677 38 37 35
-0.547708 -0.0162405 1.03533 38 37 35
-0.543372 -0.016273 1.03741 39 38 35
-0.557201 -0.0168557 1.07455 39 38 35
-0.553941 -0.0169281 1.07917 38 37 35
-0.564563 -0.0174306 1.1112 38 37 35
-0.570402 -0.0177943 1.13439 38 37 35
-0.570795 -0.017994 1.14712 38 37 35
-0.547102 -0.0174306 1.1112 38 37 35
-0.505336 -0.016273 1.03741 38 37 35
-0.535462 -0.0174306 1.1112 38 37 34
-0.555716 -0.0182887 1.1659 39 38 35
-0.534752 -0.0177943 1.13439 38 38 35
-0.548755 -0.0184654 1.17717 37 38 35
-0.561581 -0.0191118 1.21838 37 37 34
-0.521483 -0.0179511 1.14438 37 37 34
-0.563663 -0.0196287 1.25133 37 37 34
-0.549281 -0.0193529 1.23375 36 36 33
-0.514551 -0.0183451 1.1695 35 35 31
-0.603763 -0.0217851 1.3888 36 36 33
-0.529895 -0.0193529 1.23375 37 37 34
-0.549489 -0.0203163 1.29517 38 37 34
-0.490049 -0.0183451 1.1695 38 38 35
-0.56868 -0.0215582 1.37433 37 36 34
-0.529138 -0.0203163 1.29517 36 36 33
-0.568533 -0.0221124 1.40967 37 37 34
-0.565595 -0.0222876 1.42083 37 37 35
-0.539886 -0.0215582 1.37433 38 37 35
-0.566897 -0.0229427 1.46259 38 38 35
-0.557335 -0.0228646 1.45762 38 38 34
-0.531615 -0.0221124 1.40967 38 38 34
-0.557825 -0.0235294 1.5 38 37 33
-0.549969 -0.0235294 1.5 37 36 33
-0.526796 -0.0228646 1.45762 37 36 33
-0.551663 -0.0242961 1.54887 37 36 33
-0.54355 -0.0242961 1.54887 38 37 34
-0.538494 -0.0244348 1.55772 38 37 35
-0.568393 -0.0261883 1.6695 37 37 34
-0.519212 -0.0242961 1.54887 37 36 33
-0.542616 -0.0257943 1.64438 37 37 34
-0.502987 -0.0242961 1.54887 38 37 34
-0.51285 -0.0251786 1.60514 37 37 34
-0.493541 -0.0246345 1.57045 37 36 33
-0.538404 -0.0273292 1.74224 37 37 34
-0.517915 -0.0267425 1.70483 38 38 35
-0.508985 -0.0267425 1.70483 37 37 34
-0.470813 -0.0251786 1.60514 37 37 34
-0.491126 -0.0267425 1.70483 37 37 34
-0.482197 -0.0267425 1.70483 37 37 34
-0.481295 -0.0271961 1.73375 37 38 34
-0.460306 -0.0265103 1.69003 37 38 34
-0.463133 -0.0271961 1.73375 37 37 34
-0.446478 -0.0267425 1.70483 37 37 34
-0.430449 -0.0263086 1.67717 37 37 34
-0.417723 -0.0260627 1.66149 38 38 35
-0.423024 -0.0269549 1.71838 37 37 34
-0.400318 -0.0260627 1.66149 38 37 35
-0.42049 -0.0279843 1.784 37 36 34
-0.396022 -0.0269549 1.71838 37 36 33
-0.361517 -0.0251786 1.60514 38 37 34
-0.361744 -0.0257943 1.64438 38 37 33
-0.366112 -0.0267425 1.70483 38 38 33
-0.354081 -0.0265103 1.69003 39 38 34
-0.341914 -0.0262557 1.6738 39 38 34
-0.328566 -0.0258946 1.65078 39 38 34
-0.330394 -0.0267425 1.70483 39 38 35
-0.316248 -0.0263086 1.67717 38 38 35
-0.310104 -0.0265345 1.69157 39 38 35
-0.300969 -0.0265103 1.69003 39 38 35
-0.289894 -0.0263086 1.67717 38 37 35
-0.278482 -0.0260627 1.66149 38 38 35
-0.267001 -0.0257943 1.64438 39 38 35
-0.270268 -0.0269802 1.71999 39 39 35
-0.254756 -0.0263086 1.67717 39 38 35
-0.248083 -0.0265345 1.69157 38 38 35
-0.243014 -0.0269549 1.71838 37 37 34
-0.230153 -0.0265103 1.69003 36 37 32
-0.227026 -0.0271961 1.73375 38 38 34
-0.206333 -0.0257472 1.64138 39 39 35
-0.207206 -0.0269802 1.71999 37 37 32
-0.183257 -0.0249464 1.59033 35 36 30
-0.177813 -0.025358 1.61657 36 37 32
-0.172259 -0.0257943 1.64438 38 38 35
-0.165349 -0.0260627 1.66149 38 38 35
-0.15409 -0.0256374 1.63439 37 37 33
-0.150485 -0.0265103 1.69003 37 37 34
-0.135476 -0.025358 1.61657 37 37 34
-0.127009 -0.025358 1.61657 38 38 34
-0.127134 -0.0271961 1.73375 38 37 34
-0.108288 -0.0249464 1.59033 38 38 35
-0.108107 -0.0269802 1.71999 37 37 34
-0.0920227 -0.0250538 1.59718 38 38 35
-0.0856058 -0.0256374 1.63439 38 38 35
-0.0762055 -0.025358 1.61657 39 39 35
-0.0720715 -0.0269802 1.71999 39 39 35
-0.0620207 -0.0265345 1.69157 38 38 34
-0.0515833 -0.0257472 1.64138 37 37 33
-0.0446478 -0.0267425 1.70483 38 37 35
-0.033704 -0.0252344 1.60869 39 39 36
-0.0256817 -0.0256374 1.63439 38 38 35
-0.0168783 -0.0252737 1.6112 37 37 34
-0.00872567 -0.0261318 1.6659 38 37 34
0 -0.0258946 1.65078 38 37 34
0.00856058 -0.0256374 1.63439 38 38 34
0.0169345 -0.025358 1.61657 38 37 34
0.025278 -0.0252344 1.60869 38 38 34
0.0338691 -0.025358 1.61657 38 38 34
0.0430648 -0.0257943 1.64438 38 38 34
0.0535774 -0.0267425 1.70483 37 37 34
0.0634591 -0.0271498 1.7308 37 37 34
0.0674081 -0.0252344 1.60869 37 37 34
0.0796683 -0.0265103 1.69003 37 37 34
0.0885203 -0.0265103 1.69003 37 37 34
0.0973724 -0.0265103 1.69003 37 37 34
0.102727 -0.0256374 1.63439 36 36 33
0.110075 -0.025358 1.61657 37 36 34
0.119848 -0.0256374 1.63439 37 37 34
0.132902 -0.0265345 1.69157 37 37 34
0.141762 -0.0265345 1.69157 37 37 34
0.14553 -0.0256374 1.63439 38 37 34
0.156646 -0.0260627 1.66149 37 37 34
0.166909 -0.0263086 1.67717 38 37 34
0.180179 -0.0269802 1.71999 37 37 34
0.184776 -0.0263511 1.67988 37 37 34
0.193263 -0.0263086 1.67717 38 37 34
0.202048 -0.0263086 1.67717 37 36 33
0.207515 -0.0258946 1.65078 36 36 33
0.216162 -0.0258946 1.65078 37 36 34
0.223937 -0.0257943 1.64438 37 36 34
0.234969 -0.0260627 1.66149 37 37 34
0.247857 -0.0265103 1.69003 36 37 34
0.252374 -0.0260627 1.66149 37 37 34
0.26354 -0.0263086 1.67717 37 37 34
0.262485 -0.025358 1.61657 38 37 34
0.285746 -0.0267425 1.70483 37 37 34
0.289894 -0.0263086 1.67717 37 37 34
0.303605 -0.0267425 1.70483 37 36 33
0.29491 -0.0252344 1.60869 37 36 34
0.310066 -0.0257943 1.64438 37 36 34
0.333331 -0.0269802 1.71999 37 36 34
0.333818 -0.0263086 1.67717 37 36 34
0.330224 -0.025358 1.61657 36 36 33
0.357183 -0.0267425 1.70483 36 36 33
0.356805 -0.0260627 1.66149 37 37 34
0.369552 -0.0263511 1.67988 37 37 34
0.383971 -0.0267425 1.70483 37 37 35
0.38575 -0.0262557 1.6738 37 37 35
0.398342 -0.0265103 1.69003 36 37 34
0.41076 -0.0267425 1.70483 35 36 34
0.416046 -0.0265103 1.69003 35 36 34
0.425285 -0.0265345 1.69157 36 36 34
0.412874 -0.0252344 1.60869 35 36 33
0.446478 -0.0267425 1.70483 35 36 33
0.451454 -0.0265103 1.69003 35 36 34
0.44515 -0.0256374 1.63439 36 37 34
0.456486 -0.0257943 1.64438 36 37 34
0.491422 -0.0272541 1.73745 36 37 34
0.486862 -0.0265103 1.69003 36 37 34
0.500056 -0.0267425 1.70483 36 37 34
0.490042 -0.0257472 1.64138 36 37 34
0.509511 -0.0263086 1.67717 36 37 34
0.526844 -0.0267425 1.70483 36 36 33
0.535774 -0.0267425 1.70483 36 37 34
0.549031 -0.0269549 1.71838 36 37 34
0.549327 -0.0265345 1.69157 36 37 34
0.571132 -0.0271498 1.7308 36 37 33
0.571492 -0.0267425 1.70483 36 36 33
0.600526 -0.0276688 1.76388 36 37 33
0.589351 -0.0267425 1.70483 36 37 33
0.603034 -0.0269549 1.71838 36 37 33
0.612034 -0.0269549 1.71838 36 36 33
0.621617 -0.0269802 1.71999 36 36 33
0.640271 -0.0273928 1.74629 36 36 33
0.639635 -0.0269802 1.71999 37 38 35
0.665198 -0.0276688 1.76388 37 38 35
0.646198 -0.0265103 1.69003 35 36 32
0.683676 -0.0276688 1.76388 33 35 30
0.686004 -0.0273928 1.74629 35 36 33
0.697157 -0.0274719 1.75133 36 37 34
0.704298 -0.0273928 1.74629 37 38 35
0.702698 -0.0269802 1.71999 36 37 34
0.734586 -0.0278475 1.77528 35 36 33
0.752218 -0.0281595 1.79517 35 36 34
0.748348 -0.0276688 1.76388 35 36 33
0.744644 -0.0271961 1.73375 35 36 33
0.747742 -0.0269802 1.71999 34 36 32
0.784915 -0.0279843 1.784 34 36 32
0.788738 -0.0277898 1.7716 34 36 33
0.791785 -0.0275727 1.75776 35 36 34
0.793917 -0.0273292 1.74224 34 36 33
0.803043 -0.0273292 1.74224 33 35 32
0.842441 -0.0283479 1.80718 35 36 34
0.869284 -0.0289261 1.84404 36 37 35
0.830419 -0.0273292 1.74224 34 36 33
0.892862 -0.0290648 1.85288 33 35 32
0.860367 -0.0277059 1.76625 34 36 34
0.91854 -0.0292645 1.86561 36 37 35
0.928312 -0.0292645 1.86561 35 37 35
0.938084 -0.0292645 1.86561 34 37 34
0.876272 -0.0270544 1.72472 33 36 34
0.921467 -0.0281595 1.79517 33 36 33
0.921949 -0.0278897 1.77797 32 36 33
0.940272 -0.0281595 1.79517 31 35 33
0.981653 -0.0291077 1.85562 32 35 34
1.00734 -0.0295765 1.8855 32 36 34
0.987541 -0.0287137 1.8305 32 35 34
0.977883 -0.0281595 1.79517 31 35 34
0.997892 -0.028462 1.81445 33 37 35
1.0074 -0.028462 1.81445 35 38 36
1.05046 -0.0294013 1.87433 36 39 38
0.994334 -0.0275727 1.75776 36 39 38
1.0528 -0.0289261 1.84404 35 38 37
1.06246 -0.0289261 1.84404 33 36 35
1.05978 -0.0285934 1.82283 34 37 36
1.08178 -0.0289261 1.84404 35 38 37
1.13689 -0.0301307 1.92083 34 38 37
1.05784 -0.0277898 1.7716 34 38 37
1.06712 -0.0277898 1.7716 35 39 38
1.10752 -0.0285934 1.82283 34 39 38
1.10012 -0.0281595 1.79517 34 38 37
1.18719 -0.0301307 1.92083 33 38 37
1.2466 -0.0313726 2 34 38 37
-0.605025 -0.0100664 0.962595 35 35 32
-0.553987 -0.00929464 0.8888 35 36 32
-0.61806 -0.0104575 1 36 37 34
-0.569651 -0.00972082 0.929553 38 37 34
-0.607584 -0.0104575 1 38 37 34
-0.565936 -0.00982538 0.939552 38 37 34
-0.555044 -0.00972082 0.929553 37 36 33
-0.591871 -0.0104575 1 37 36 33
-0.586633 -0.0104575 1 37 36 34
-0.581395 -0.0104575 1 36 36 34
-0.576158 -0.0104575 1 36 36 34
-0.57092 -0.0104575 1 37 36 34
-0.565682 -0.0104575 1 38 37 35
-0.518661 -0.00967787 0.925446 38 38 35
-0.573792 -0.0108076 1.03348 38 37 34
-0.549969 -0.0104575 1 37 36 34
-0.544731 -0.0104575 1 37 35 33
-0.557553 -0.0108076 1.03348 36 35 33
-0.551247 -0.0107901 1.0318 37 36 34
-0.547708 -0.010827 1.03533 38 37 35
-0.543372 -0.0108487 1.03741 38 37 35
-0.570238 -0.0115001 1.0997 39 38 36
-0.532504 -0.0108487 1.03741 39 38 35
-0.545944 -0.0112372 1.07455 38 37 35
-0.576803 -0.011996 1.14712 38 37 35
-0.56686 -0.0119133 1.13921 38 37 35
-0.569139 -0.0120885 1.15596 38 37 35
-0.544593 -0.0116915 1.118 38 37 34
-0.55703 -0.0120885 1.15596 38 37 34
-0.555716 -0.0121925 1.1659 39 38 35
-0.544921 -0.0120885 1.15596 38 38 35
-0.586323 -0.0131531 1.25776 37 37 34
-0.561581 -0.0127412 1.21838 36 37 34
-0.531289 -0.0121925 1.1659 36 36 33
-0.572793 -0.0132978 1.2716 36 36 33
-0.557109 -0.0130858 1.25133 36 36 32
-0.530096 -0.0125996 1.20483 36 36 32
-0.572937 -0.0137819 1.31789 36 36 33
-0.556273 -0.0135442 1.29517 37 37 33
-0.53362 -0.0131531 1.25776 37 37 34
-0.542706 -0.0135442 1.29517 37 37 34
-0.560934 -0.0141764 1.35562 36 36 33
-0.529138 -0.0135442 1.29517 36 36 33
-0.522354 -0.0135442 1.29517 37 36 34
-0.561149 -0.0147416 1.40967 37 37 35
-0.539886 -0.0143721 1.37433 38 37 35
-0.540645 -0.0145868 1.39486 37 37 34
-0.573539 -0.0156863 1.5 37 37 33
-0.565682 -0.0156863 1.5 37 37 34
-0.573585 -0.0161294 1.54238 38 37 33
-0.532049 -0.0151752 1.45113 38 36 33
-0.524448 -0.0151752 1.45113 37 36 34
-0.585681 -0.0171962 1.64438 38 36 34
-0.506144 -0.0150827 1.44228 38 37 34
-0.518542 -0.0156863 1.5 37 37 34
-0.580422 -0.0178283 1.70483 37 36 33
-0.522176 -0.0162898 1.55772 37 37 34
-0.480988 -0.0152431 1.45762 38 37 34
-0.54465 -0.017539 1.67717 37 37 34
-0.533415 -0.0174588 1.6695 37 36 34
-0.52467 -0.0174588 1.6695 37 36 34
-0.491461 -0.0166309 1.59033 38 37 35
-0.507181 -0.0174588 1.6695 38 37 35
-0.490938 -0.0171962 1.64438 37 37 34
-0.532209 -0.0189747 1.81445 36 36 33
-0.484579 -0.0175906 1.68211 36 36 32
-0.476742 -0.0176266 1.68555 37 37 33
-0.477474 -0.0179868 1.71999 38 38 34
-0.460306 -0.0176735 1.69003 37 38 34
-0.43426 -0.0170004 1.62567 37 38 34
-0.439234 -0.017539 1.67717 37 37 34
-0.437549 -0.0178283 1.70483 37 37 34
-0.417723 -0.0173751 1.66149 37 37 34
-0.426808 -0.0181307 1.73375 37 37 34
-0.414411 -0.0179868 1.71999 37 37 34
-0.398342 -0.0176735 1.69003 37 36 33
-0.386526 -0.017539 1.67717 38 37 34
-0.362318 -0.0168229 1.60869 39 37 35
-0.365508 -0.0173751 1.66149 38 37 33
-0.356805 -0.0173751 1.66149 38 37 33
-0.348103 -0.0173751 1.66149 39 38 34
-0.35416 -0.0181307 1.73375 38 37 32
-0.339324 -0.0178283 1.70483 38 37 33
-0.316742 -0.0170916 1.63439 39 38 34
-0.316248 -0.017539 1.67717 38 38 35
-0.307464 -0.017539 1.67717 38 37 34
-0.289507 -0.0170004 1.62567 38 37 34
-0.284227 -0.0171962 1.64438 38 38 35
-0.276687 -0.0172631 1.65078 38 38 35
-0.26978 -0.0173751 1.66149 39 38 35
-0.263966 -0.0175674 1.67988 38 38 35
-0.246932 -0.0170004 1.62567 38 37 34
-0.25225 -0.0179868 1.71999 38 38 34
-0.228616 -0.0169053 1.61657 38 38 35
-0.232169 -0.0178283 1.70483 37 38 34
-0.21065 -0.0168229 1.60869 38 38 34
-0.21431 -0.0178283 1.70483 38 39 35
-0.203597 -0.0176735 1.69003 37 37 33
-0.193263 -0.017539 1.67717 36 36 32
-0.185893 -0.0176735 1.69003 36 37 33
-0.18001 -0.0179699 1.71838 37 37 34
-0.160878 -0.0169053 1.61657 37 38 35
-0.155033 -0.0171962 1.64438 37 37 34
-0.144753 -0.0170004 1.62567 36 36 33
-0.138343 -0.0172631 1.65078 36 37 33
-0.13177 -0.017539 1.67717 37 37 34
-0.127406 -0.0181694 1.73745 38 37 34
-0.112404 -0.0172631 1.65078 38 38 35
-0.101112 -0.0168229 1.60869 38 37 34
-0.0982252 -0.0178283 1.70483 38 38 35
-0.0892957 -0.0178283 1.70483 38 38 35
-0.0791898 -0.0175674 1.67988 38 38 35
-0.0691717 -0.0172631 1.65078 38 38 34
-0.0599241 -0.0170916 1.63439 37 37 33
-0.0496281 -0.0165142 1.57917 37 37 34
-0.0442602 -0.0176735 1.69003 38 38 35
-0.0354081 -0.0176735 1.69003 38 37 34
-0.025278 -0.0168229 1.60869 37 36 33
-0.0170298 -0.0170004 1.62567 37 36 33
-0.00886666 -0.0177027 1.69282 38 37 33
0 -0.0170004 1.62567 38 37 33
0.00861295 -0.0171962 1.64438 38 37 34
0.0169345 -0.0169053 1.61657 37 36 32
0.026354 -0.017539 1.67717 36 36 32
0.0351955 -0.0175674 1.67988 37 37 33
0.0416492 -0.0166309 1.59033 38 38 35
0.0508036 -0.0169053 1.61657 38 38 34
0.0614928 -0.017539 1.67717 37 37 34
0.0684846 -0.0170916 1.63439 37 37 34
0.0766342 -0.0170004 1.62567 37 37 34
0.0856058 -0.0170916 1.63439 37 37 34
0.0922891 -0.0167509 1.6018 38 37 35
0.104431 -0.0173751 1.66149 37 37 34
0.111764 -0.0171648 1.64138 36 36 33
0.118542 -0.0169053 1.61657 37 36 34
0.127009 -0.0169053 1.61657 37 37 34
0.135476 -0.0169053 1.61657 37 37 34
0.14699 -0.0172631 1.65078 38 37 34
0.155033 -0.0171962 1.64438 38 37 34
0.165349 -0.0173751 1.66149 37 37 34
0.172259 -0.0171962 1.64438 37 37 34
0.183239 -0.0174212 1.6659 37 37 34
0.201228 -0.0182619 1.74629 37 37 34
0.201642 -0.0175038 1.6738 37 36 33
0.212449 -0.0176735 1.69003 37 37 34
0.214931 -0.0171648 1.64138 38 37 35
0.226267 -0.0173751 1.66149 37 37 34
0.234969 -0.0173751 1.66149 37 36 34
0.244319 -0.0174212 1.6659 36 36 34
0.253044 -0.0174212 1.6659 36 36 34
0.263011 -0.0175038 1.6738 37 37 34
0.262485 -0.0169053 1.61657 38 37 34
0.272477 -0.0170004 1.62567 38 37 34
0.294676 -0.0178283 1.70483 37 37 34
0.29398 -0.0172631 1.65078 37 37 34
0.307464 -0.017539 1.67717 37 37 34
0.310066 -0.0171962 1.64438 37 36 34
0.325033 -0.017539 1.67717 37 37 34
0.317897 -0.0167025 1.59718 37 37 34
0.341914 -0.0175038 1.6738 37 37 34
0.344518 -0.0171962 1.64438 37 37 34
0.369367 -0.0179868 1.71999 37 37 35
0.368957 -0.017539 1.67717 37 37 34
0.370357 -0.0171962 1.64438 37 37 34
0.396393 -0.0179868 1.71999 37 37 34
0.387583 -0.0171962 1.64438 36 37 34
0.397737 -0.0172631 1.65078 36 37 34
0.404809 -0.0171962 1.64438 36 37 34
0.424898 -0.0176735 1.69003 36 36 34
0.429585 -0.0175038 1.6738 36 36 34
0.458656 -0.0183146 1.75133 35 36 33
0.455408 -0.0178283 1.70483 34 35 32
0.464337 -0.0178283 1.70483 35 36 33
0.473267 -0.0178283 1.70483 35 36 33
0.47342 -0.0175038 1.6738 35 36 34
0.486862 -0.0176735 1.69003 36 37 34
0.488637 -0.0174212 1.6659 36 37 34
0.508985 -0.0178283 1.70483 35 36 33
0.5267 -0.0181307 1.73375 36 36 33
0.535781 -0.0181307 1.73375 35 36 33
0.540537 -0.0179868 1.71999 35 36 33
0.527434 -0.0172631 1.65078 34 35 31
0.570822 -0.0183818 1.75776 35 36 32
0.548262 -0.0173751 1.66149 35 36 32
0.58539 -0.0182619 1.74629 35 36 32
0.575907 -0.0176896 1.69157 36 36 33
0.607649 -0.0183818 1.75776 36 37 33
0.603599 -0.0179868 1.71999 36 36 33
