ply
format ascii 1.0
element vertex 1324
property float x
property float y
property float z
property uchar red
property uchar green
property uchar blue
end_header
-0.48779 -0.162316 1.07045 37 37 33
-0.480525 -0.161758 1.06677 37 37 33
-0.489598 -0.166751 1.0997 37 37 32
-0.486232 -0.167576 1.10514 36 37 32
-0.480444 -0.167576 1.10514 37 38 33
-0.474655 -0.167576 1.10514 38 39 34
-0.474323 -0.169526 1.118 38 38 35
-0.471681 -0.170689 1.12567 37 38 34
-0.462611 -0.169526 1.118 37 37 33
-0.480931 -0.178499 1.17717 36 37 32
-0.495427 -0.186267 1.2284 38 38 33
-0.485002 -0.184747 1.21838 38 38 34
-0.459421 -0.177336 1.1695 38 38 34
-0.461252 -0.180449 1.19003 38 38 34
-0.471736 -0.187078 1.23375 37 37 34
-0.454368 -0.182694 1.20483 37 37 33
-0.481651 -0.196391 1.29517 37 37 34
-0.434676 -0.179769 1.18555 37 38 34
-0.441653 -0.185302 1.22203 37 37 33
-0.478708 -0.203802 1.34404 36 37 33
-0.464223 -0.200586 1.32283 37 38 34
-0.457295 -0.200586 1.32283 38 38 35
-0.494045 -0.22004 1.45113 37 38 34
-0.488622 -0.221025 1.45762 37 37 34
-0.478844 -0.22004 1.45113 37 37 34
-0.42958 -0.200586 1.32283 37 37 34
-0.465718 -0.221025 1.45762 37 37 34
-0.456042 -0.22004 1.45113 37 37 33
-0.463545 -0.227451 1.5 36 37 33
-0.470536 -0.234862 1.54887 37 37 33
-0.474801 -0.241149 1.59033 37 38 34
-0.489692 -0.253153 1.6695 37 38 34
-0.446198 -0.234862 1.54887 37 38 34
-0.472203 -0.253153 1.6695 37 38 34
-0.445591 -0.243393 1.60514 37 38 34
-0.474525 -0.264182 1.74224 37 38 33
-0.428776 -0.243393 1.60514 37 37 33
-0.446478 -0.258511 1.70483 37 38 33
-0.430449 -0.254316 1.67717 37 37 33
-0.438023 -0.264182 1.74224 36 37 32
-0.41969 -0.258511 1.70483 36 38 32
-0.398984 -0.2511 1.65596 37 38 33
-0.419068 -0.2696 1.77797 38 39 34
-0.383448 -0.252291 1.66382 38 39 34
-0.387385 -0.260809 1.71999 37 38 33
-0.365508 -0.251939 1.66149 37 37 33
-0.363264 -0.2565 1.69157 36 37 33
-0.360358 -0.260809 1.71999 36 38 34
-0.338269 -0.2511 1.65596 37 38 35
-0.348578 -0.265561 1.75133 37 38 35
-0.327148 -0.255971 1.68808 37 38 34
-0.324018 -0.260564 1.71838 37 37 34
-0.302626 -0.250315 1.65078 37 36 33
-0.310989 -0.264797 1.74629 37 37 34
-0.292384 -0.2565 1.69157 38 37 34
-0.290593 -0.262895 1.73375 38 37 34
-0.274413 -0.256266 1.69003 37 37 34
-0.270268 -0.260809 1.71999 37 36 33
-0.256709 -0.256266 1.69003 38 37 34
-0.247857 -0.256266 1.69003 39 37 35
-0.243241 -0.260809 1.71999 38 37 35
-0.230363 -0.2565 1.69157 38 36 34
-0.221503 -0.2565 1.69157 38 37 35
-0.21431 -0.258511 1.70483 38 38 35
-0.207012 -0.260564 1.71838 38 38 35
-0.199783 -0.262895 1.73375 37 37 34
-0.184108 -0.253805 1.6738 37 37 34
-0.184777 -0.267465 1.76388 38 38 35
-0.168189 -0.256266 1.69003 37 37 34
-0.159337 -0.256266 1.69003 36 36 33
-0.141607 -0.241149 1.59033 37 37 34
-0.137807 -0.249345 1.64438 37 38 34
-0.133943 -0.258511 1.70483 37 37 34
-0.123184 -0.254727 1.67988 37 37 33
-0.114201 -0.254316 1.67717 37 37 34
-0.108006 -0.260564 1.71838 37 37 34
-0.0957282 -0.251939 1.66149 37 37 34
-0.0851491 -0.246506 1.62567 37 37 34
-0.081177 -0.261119 1.72203 38 38 35
-0.0726482 -0.262895 1.73375 38 39 36
-0.060918 -0.251939 1.66149 38 38 35
-0.0540537 -0.260809 1.71999 37 38 35
-0.0442092 -0.255971 1.68808 37 37 34
-0.0354081 -0.256266 1.69003 37 37 34
-0.0265561 -0.256266 1.69003 37 37 34
-0.0174051 -0.251939 1.66149 37 37 34
-0.00859722 -0.248889 1.64138 37 36 33
0 -0.249345 1.64438 36 36 33
0.0090005 -0.260564 1.71838 37 37 34
0.0182008 -0.263457 1.73745 37 37 34
0.027059 -0.261119 1.72203 36 36 34
0.0342423 -0.247828 1.63439 35 36 33
0.0450025 -0.260564 1.71838 36 36 34
0.0513635 -0.247828 1.63439 37 37 35
0.062507 -0.258511 1.70483 37 38 35
0.0702774 -0.254316 1.67717 37 38 35
0.0796683 -0.256266 1.69003 37 37 35
0.0864646 -0.250315 1.65078 37 37 34
0.0990055 -0.260564 1.71838 38 38 35
0.107155 -0.258511 1.70483 39 38 36
0.116084 -0.258511 1.70483 39 38 35
0.121836 -0.251939 1.66149 38 37 34
0.136215 -0.262895 1.73375 38 37 34
0.140273 -0.253805 1.6738 37 37 34
0.155943 -0.265561 1.75133 37 37 35
0.157807 -0.253805 1.6738 37 37 35
0.168189 -0.256266 1.69003 36 36 34
0.178591 -0.258511 1.70483 36 36 34
0.182754 -0.251939 1.66149 37 37 35
0.19452 -0.255971 1.68808 38 38 36
0.203597 -0.256266 1.69003 37 38 36
0.21431 -0.258511 1.70483 36 37 34
0.223239 -0.258511 1.70483 37 37 34
0.232169 -0.258511 1.70483 38 38 35
0.243014 -0.260564 1.71838 37 38 35
0.247857 -0.256266 1.69003 37 37 34
0.249776 -0.249345 1.64438 37 37 34
0.272431 -0.262895 1.73375 37 37 34
0.271778 -0.253805 1.6738 37 38 35
0.278482 -0.251939 1.66149 38 39 36
0.294676 -0.258511 1.70483 37 38 36
0.300969 -0.256266 1.69003 37 38 35
0.309821 -0.256266 1.69003 37 38 35
0.324322 -0.260809 1.71999 37 37 34
0.338429 -0.264797 1.74629 38 38 35
0.330698 -0.251939 1.66149 37 37 34
0.342602 -0.254316 1.67717 37 37 34
0.363241 -0.262895 1.73375 37 37 34
0.366112 -0.258511 1.70483 37 37 34
0.375042 -0.258511 1.70483 37 38 35
0.37421 -0.251939 1.66149 37 38 35
0.396393 -0.260809 1.71999 37 38 34
0.408646 -0.262895 1.73375 36 37 33
0.423513 -0.266536 1.75776 37 37 34
0.416046 -0.256266 1.69003 37 38 35
0.428619 -0.258511 1.70483 37 38 34
0.452704 -0.267465 1.76388 37 37 34
0.457336 -0.264797 1.74629 36 36 33
0.466483 -0.264797 1.74629 36 36 33
0.464337 -0.258511 1.70483 35 35 31
0.469158 -0.256266 1.69003 36 36 32
0.490376 -0.262895 1.73375 36 36 32
0.504522 -0.265561 1.75133 37 37 34
0.507673 -0.262449 1.7308 37 37 34
0.504566 -0.256266 1.69003 37 37 34
0.533994 -0.266536 1.75776 36 37 34
0.543201 -0.266536 1.75776 36 37 34
0.552408 -0.266536 1.75776 36 36 34
0.56357 -0.267465 1.76388 36 37 34
0.568733 -0.265561 1.75133 36 37 34
0.572105 -0.262895 1.73375 37 37 35
0.601774 -0.272208 1.79517 36 38 35
0.607942 -0.270768 1.78567 36 37 34
0.599348 -0.262895 1.73375 35 36 34
0.626063 -0.270515 1.784 35 36 34
0.601938 -0.256266 1.69003 35 37 34
0.61614 -0.258511 1.70483 35 37 35
0.670049 -0.277113 1.82751 36 37 35
0.639036 -0.260564 1.71838 36 38 35
0.665198 -0.267465 1.76388 36 38 35
0.662915 -0.262895 1.73375 36 38 35
0.688093 -0.269193 1.77528 36 38 35
0.705204 -0.272208 1.79517 36 37 35
0.727481 -0.277113 1.82751 35 37 35
0.700732 -0.263457 1.73745 36 38 36
0.703534 -0.261119 1.72203 36 38 36
0.747784 -0.27403 1.80718 35 37 35
0.733849 -0.265561 1.75133 35 36 34
0.766716 -0.27403 1.80718 35 37 35
0.779306 -0.275133 1.81445 35 37 35
0.808955 -0.282159 1.86079 35 37 35
0.789828 -0.272208 1.79517 35 37 35
0.788738 -0.268635 1.7716 36 37 35
0.798018 -0.268635 1.7716 35 37 35
0.807297 -0.268635 1.7716 36 37 36
0.849967 -0.279619 1.84404 36 38 36
0.873747 -0.284213 1.87433 36 37 36
0.824325 -0.265158 1.74867 36 37 36
0.812591 -0.258511 1.70483 36 37 36
0.858524 -0.270155 1.78162 36 37 35
0.84867 -0.264182 1.74224 36 36 35
0.922834 -0.284213 1.87433 36 36 34
0.893258 -0.272208 1.79517 36 37 35
0.927237 -0.279619 1.84404 37 38 36
0.936895 -0.279619 1.84404 36 38 36
0.946554 -0.279619 1.84404 36 37 35
0.938545 -0.274453 1.80997 35 36 34
0.971933 -0.281374 1.85562 35 36 34
1.00242 -0.287326 1.89486 34 36 34
1.03461 -0.293647 1.93655 34 37 34
0.987541 -0.277566 1.8305 35 38 35
0.977883 -0.272208 1.79517 35 37 35
0.977825 -0.2696 1.77797 35 37 36
0.996688 -0.272208 1.79517 34 37 36
1.07026 -0.28957 1.90967 34 36 35
1.04314 -0.279619 1.84404 34 36 35
1.01144 -0.268635 1.7716 34 36 35
1.11173 -0.292586 1.92955 34 36 36
0.991182 -0.258511 1.70483 35 37 36
1.03928 -0.268635 1.7716 35 37 37
1.06251 -0.272208 1.79517 34 37 36
1.14028 -0.28957 1.90967 34 37 36
1.20469 -0.303268 2 33 36 36
1.15129 -0.287326 1.89486 33 36 36
1.16121 -0.287326 1.89486 32 35 35
1.23612 -0.303268 2 31 35 34
1.19725 -0.291264 1.92083 31 35 34
-0.539114 -0.125576 0.85773 40 40 36
-0.541796 -0.127261 0.869241 40 40 36
-0.547293 -0.129642 0.885502 40 41 36
-0.559948 -0.133773 0.91372 40 40 35
-0.50888 -0.122621 0.837546 39 38 34
-0.533379 -0.129642 0.885502 38 38 32
-0.528741 -0.129642 0.885502 38 38 32
-0.542999 -0.134316 0.917429 39 38 34
-0.522326 -0.130356 0.89038 38 38 34
-0.490722 -0.123572 0.844042 38 38 34
-0.526447 -0.133773 0.91372 38 37 34
-0.508335 -0.130356 0.89038 37 37 33
-0.565682 -0.146405 1 37 37 33
-0.53078 -0.138656 0.947071 37 37 32
-0.540488 -0.142524 0.973489 37 37 32
-0.535971 -0.142679 0.974549 38 38 33
-0.52823 -0.14197 0.969708 38 38 34
-0.512075 -0.138965 0.949179 38 38 34
-0.504754 -0.138321 0.944781 38 38 34
-0.514993 -0.142524 0.973489 38 38 34
-0.509291 -0.142355 0.972338 37 38 34
-0.518542 -0.146405 1 37 38 34
-0.499105 -0.142355 0.972338 37 38 34
-0.523457 -0.15084 1.03029 37 38 33
-0.548251 -0.159631 1.09033 37 38 34
-0.497591 -0.146405 1 37 39 34
-0.505972 -0.150455 1.02766 37 38 34
-0.514013 -0.15449 1.05522 37 38 33
-0.511006 -0.155255 1.06045 37 38 34
-0.506883 -0.155695 1.06345 38 39 35
-0.516084 -0.160282 1.09479 38 39 35
-0.48099 -0.151062 1.0318 39 40 35
-0.509386 -0.161798 1.10514 38 39 34
-0.486113 -0.15618 1.06677 37 37 32
-0.45045 -0.146405 1 37 37 32
-0.476576 -0.156719 1.07045 36 37 32
-0.454703 -0.151306 1.03348 37 37 32
-0.518564 -0.174635 1.19282 37 37 33
-0.489289 -0.166786 1.13921 37 38 34
-0.486677 -0.167944 1.14712 38 39 35
-0.527032 -0.184143 1.25776 38 39 34
-0.482435 -0.170695 1.1659 37 38 33
-0.476328 -0.170695 1.1659 37 38 34
-0.470221 -0.170695 1.1659 39 39 34
-0.473718 -0.174227 1.19003 39 39 34
-0.500974 -0.186708 1.27528 38 39 34
-0.492868 -0.186169 1.2716 38 38 34
-0.503909 -0.192947 1.31789 38 38 34
-0.460855 -0.178912 1.22203 37 37 33
-0.481651 -0.189619 1.29517 36 36 32
-0.492787 -0.196775 1.34404 36 37 33
-0.468084 -0.189619 1.29517 37 37 33
-0.451 -0.185386 1.26625 37 37 33
-0.435941 -0.18187 1.24224 37 37 33
-0.518542 -0.219608 1.5 37 37 33
-0.47993 -0.206382 1.40967 37 37 34
-0.486445 -0.212452 1.45113 36 37 33
-0.494972 -0.219608 1.5 36 36 33
-0.505858 -0.228058 1.55772 36 37 33
-0.463643 -0.212452 1.45113 36 37 33
-0.456042 -0.212452 1.45113 37 37 33
-0.476641 -0.225812 1.54238 37 37 33
-0.507181 -0.244424 1.6695 37 37 33
-0.462423 -0.226763 1.54887 37 38 34
-0.482325 -0.240746 1.64438 37 38 34
-0.446198 -0.226763 1.54887 39 39 35
-0.424261 -0.219608 1.5 38 39 35
-0.445591 -0.235 1.60514 38 39 35
-0.442775 -0.238006 1.62567 37 38 33
-0.448019 -0.245547 1.67717 36 37 33
-0.416492 -0.232833 1.59033 37 37 33
-0.477576 -0.27243 1.86079 36 37 33
-0.428619 -0.249596 1.70483 36 37 33
-0.41288 -0.245547 1.67717 37 38 33
-0.41076 -0.249596 1.70483 37 38 34
-0.40183 -0.249596 1.70483 38 39 34
-0.405099 -0.257346 1.75776 38 38 34
-0.387385 -0.251815 1.71999 37 38 33
-0.375042 -0.249596 1.70483 36 37 33
-0.378793 -0.258242 1.76388 36 37 33
-0.369554 -0.258242 1.76388 36 37 34
-0.351349 -0.251815 1.71999 37 38 35
-0.348578 -0.256404 1.75133 37 38 35
-0.333331 -0.251815 1.71999 36 37 34
-0.324322 -0.251815 1.71999 36 37 34
-0.309821 -0.247429 1.69003 36 36 33
-0.30823 -0.253399 1.7308 37 37 34
-0.292384 -0.247655 1.69157 38 38 34
-0.283523 -0.247655 1.69157 38 38 34
-0.286405 -0.258242 1.76388 38 38 34
-0.261077 -0.243251 1.66149 38 37 34
-0.261015 -0.251579 1.71838 38 37 34
-0.245477 -0.245053 1.6738 38 37 35
-0.234969 -0.243251 1.66149 38 37 35
-0.230363 -0.247655 1.69157 38 37 35
-0.221301 -0.247429 1.69003 38 38 35
-0.216215 -0.251815 1.71999 38 37 35
-0.203597 -0.247429 1.69003 37 37 34
-0.194745 -0.247429 1.69003 37 37 34
-0.189188 -0.251815 1.71999 38 38 34
-0.177041 -0.247429 1.69003 38 38 35
-0.172908 -0.254372 1.73745 38 37 34
-0.163459 -0.25383 1.73375 37 37 33
-0.153152 -0.251815 1.71999 37 36 33
-0.142873 -0.249596 1.70483 37 36 33
-0.129194 -0.240746 1.64438 37 37 33
-0.123928 -0.247429 1.69003 37 37 33
-0.113133 -0.243251 1.66149 36 37 33
-0.105416 -0.245547 1.67717 36 36 33
-0.0966315 -0.245547 1.67717 36 36 33
-0.0885203 -0.247429 1.69003 37 37 34
-0.0810045 -0.251579 1.71838 37 38 35
-0.0681193 -0.238006 1.62567 37 38 35
-0.060715 -0.242441 1.65596 37 37 34
-0.0527081 -0.245547 1.67717 37 37 34
-0.0430648 -0.240746 1.64438 36 36 34
-0.0354081 -0.247429 1.69003 37 37 34
-0.0267887 -0.249596 1.70483 37 36 34
-0.0172259 -0.240746 1.64438 37 37 34
-0.00861295 -0.240746 1.64438 36 36 33
0 -0.241683 1.65078 36 36 33
0.00856058 -0.239283 1.63439 37 36 34
0.0178591 -0.249596 1.70483 37 37 34
0.0270015 -0.251579 1.71838 36 36 33
0.0354081 -0.247429 1.69003 36 36 34
0.0435128 -0.243251 1.66149 36 36 34
0.0531122 -0.247429 1.69003 37 37 34
0.0605252 -0.241683 1.65078 37 37 34
0.0696205 -0.243251 1.66149 37 37 35
0.0778182 -0.241683 1.65078 38 37 35
0.0908103 -0.25383 1.73375 38 37 35
0.0990984 -0.251815 1.71999 39 38 35
0.111583 -0.25991 1.77528 39 38 35
0.115076 -0.247429 1.69003 39 38 35
0.125014 -0.249596 1.70483 37 37 34
0.13177 -0.245547 1.67717 36 35 32
0.142873 -0.249596 1.70483 37 36 34
0.147451 -0.242441 1.65596 37 37 35
0.159337 -0.247429 1.69003 36 36 34
0.165349 -0.243251 1.66149 36 36 34
0.178591 -0.249596 1.70483 36 36 34
0.185893 -0.247429 1.69003 37 37 35
0.194745 -0.247429 1.69003 38 38 36
0.200159 -0.243251 1.66149 38 39 36
0.210409 -0.245053 1.6738 37 37 34
0.219176 -0.245053 1.6738 36 36 33
0.234013 -0.251579 1.71838 37 37 35
0.241098 -0.249596 1.70483 37 37 35
0.243672 -0.243251 1.66149 37 37 34
0.261015 -0.251579 1.71838 37 38 35
0.26354 -0.245547 1.67717 38 38 35
0.279277 -0.251815 1.71999 38 38 36
0.280545 -0.245053 1.6738 37 38 35
0.297295 -0.251815 1.71999 37 38 35
0.306017 -0.251579 1.71838 37 37 34
0.315313 -0.251815 1.71999 36 37 34
0.324018 -0.251579 1.71838 37 37 34
0.319919 -0.241683 1.65078 37 37 34
0.331575 -0.243897 1.6659 37 37 34
0.353558 -0.253399 1.7308 37 37 34
0.357183 -0.249596 1.70483 37 37 34
0.359448 -0.245053 1.6738 37 37 34
0.372125 -0.247655 1.69157 37 38 35
0.380637 -0.247429 1.69003 37 38 35
0.402456 -0.255666 1.74629 37 38 34
0.415749 -0.258242 1.76388 36 37 33
0.421963 -0.256404 1.75133 36 37 34
0.42342 -0.251815 1.71999 37 38 34
0.420818 -0.245053 1.6738 37 37 34
0.457867 -0.261187 1.784 37 37 34
0.435128 -0.243251 1.66149 37 37 34
0.459026 -0.251579 1.71838 38 38 34
0.4859 -0.261187 1.784 37 37 34
0.473267 -0.249596 1.70483 37 37 34
0.493923 -0.255666 1.74629 37 37 34
0.508137 -0.258242 1.76388 37 38 35
0.508538 -0.25383 1.73375 37 38 35
0.521363 -0.255666 1.74629 37 38 35
0.513886 -0.247655 1.69157 36 37 34
0.53103 -0.251579 1.71838 37 37 35
0.540537 -0.251815 1.71999 36 37 34
0.549031 -0.251579 1.71838 36 36 34
0.558554 -0.251815 1.71999 36 36 34
0.582048 -0.258242 1.76388 36 37 34
0.591287 -0.258242 1.76388 36 38 35
0.598442 -0.257346 1.75776 36 38 35
0.620579 -0.262822 1.79517 36 37 35
0.612831 -0.255666 1.74629 35 37 34
0.61751 -0.25383 1.73375 35 37 34
0.637481 -0.258242 1.76388 36 37 35
0.650899 -0.25991 1.77528 36 38 35
0.644753 -0.25383 1.73375 36 38 35
0.648644 -0.251815 1.71999 36 38 35
0.693772 -0.265645 1.81445 37 38 36
0.691473 -0.261187 1.784 36 38 36
0.705204 -0.262822 1.79517 36 38 36
0.70669 -0.25991 1.77528 36 37 35
0.711392 -0.258242 1.76388 36 38 36
0.720631 -0.258242 1.76388 36 38 36
0.738194 -0.261187 1.784 36 38 36
0.756451 -0.264301 1.80527 35 37 35
0.76162 -0.262822 1.79517 36 37 35
0.780784 -0.266149 1.81789 36 38 35
0.794486 -0.267557 1.82751 35 37 34
0.784915 -0.261187 1.784 35 37 34
0.820991 -0.269977 1.84404 36 37 35
0.803603 -0.261187 1.784 36 37 35
0.840308 -0.269977 1.84404 36 37 36
0.840189 -0.266872 1.82283 36 38 36
0.823362 -0.258588 1.76625 36 37 36
0.864596 -0.268521 1.8341 37 37 36
0.889225 -0.273136 1.86561 37 37 36
0.831104 -0.252508 1.72472 36 36 35
0.83045 -0.249596 1.70483 36 36 34
0.913617 -0.271672 1.85562 36 37 35
0.878869 -0.258588 1.76625 37 38 36
0.910104 -0.264989 1.80997 37 38 36
0.912064 -0.262822 1.79517 36 38 36
0.972641 -0.277418 1.89486 36 37 35
0.896248 -0.253047 1.7284 34 35 33
0.905301 -0.253047 1.7284 34 34 32
0.929887 -0.257346 1.75776 31 34 31
1.00734 -0.276047 1.8855 34 36 34
1.01721 -0.276047 1.8855 37 39 37
0.997129 -0.267995 1.8305 36 38 36
1.03082 -0.274412 1.87433 36 38 37
1.02382 -0.269977 1.84404 35 37 36
1.05046 -0.274412 1.87433 34 36 35
1.08658 -0.28122 1.92083 33 36 35
1.06236 -0.27243 1.86079 33 36 35
1.07211 -0.27243 1.86079 33 36 35
1.05978 -0.266872 1.82283 35 37 36
1.12682 -0.28122 1.92083 34 37 36
1.13028 -0.279585 1.90967 34 37 36
1.14028 -0.279585 1.90967 34 37 36
1.08131 -0.262822 1.79517 33 36 35
1.15129 -0.277418 1.89486 33 36 36
1.11707 -0.266872 1.82283 34 37 36
1.02348 -0.242441 1.65596 33 36 36
1.2466 -0.29281 2 33 36 35
-0.54955 -0.123435 0.874334 40 40 36
-0.551931 -0.125012 0.885502 40 40 36
-0.544001 -0.12426 0.880174 41 41 36
-0.53269 -0.122716 0.869241 39 39 34
-0.540981 -0.125701 0.89038 38 37 32
-0.550376 -0.128996 0.91372 37 37 31
-0.562646 -0.133028 0.942284 38 37 32
-0.560544 -0.133704 0.947071 38 38 34
-0.524956 -0.126334 0.894863 38 38 34
-0.549291 -0.133381 0.944781 38 38 34
-0.515582 -0.126334 0.894863 38 38 34
-0.537969 -0.133028 0.942284 37 37 33
-0.533033 -0.133028 0.942284 37 37 33
-0.529497 -0.133381 0.944781 37 36 32
-0.540488 -0.137434 0.973489 37 36 32
-0.520859 -0.133704 0.947071 38 38 34
-0.514651 -0.133381 0.944781 39 40 35
-0.539493 -0.141176 1 38 39 34
-0.519477 -0.137271 0.972338 37 38 33
-0.514993 -0.137434 0.973489 37 37 33
-0.52378 -0.141176 1 37 37 33
-0.533537 -0.145259 1.02892 37 37 33
-0.513304 -0.141176 1 36 37 33
-0.523457 -0.145453 1.03029 37 38 33
-0.534733 -0.150134 1.06345 37 38 34
-0.512664 -0.145453 1.03029 37 38 34
-0.520769 -0.149325 1.05772 37 38 34
-0.501201 -0.145259 1.02892 37 38 34
-0.496474 -0.145453 1.03029 37 38 34
-0.506883 -0.150134 1.06345 36 37 33
-0.487182 -0.145902 1.03348 36 37 32
-0.466164 -0.141176 1 38 39 34
-0.518849 -0.158918 1.12567 39 39 35
-0.515883 -0.159825 1.1321 38 39 34
-0.528149 -0.165528 1.17249 38 38 34
-0.501161 -0.158918 1.12567 38 38 34
-0.504703 -0.161946 1.14712 38 38 34
-0.467148 -0.151702 1.07455 37 37 33
-0.477259 -0.156875 1.1112 36 37 33
-0.474323 -0.157835 1.118 37 38 34
-0.498651 -0.168004 1.19003 37 38 34
-0.482435 -0.164598 1.1659 37 38 33
-0.467536 -0.16156 1.14438 37 38 33
-0.439743 -0.15393 1.09033 38 38 34
-0.485002 -0.172006 1.21838 38 38 34
-0.508787 -0.182847 1.29517 38 38 33
-0.472239 -0.172006 1.21838 37 37 33
-0.478458 -0.176659 1.25133 37 37 33
-0.497006 -0.186056 1.31789 37 37 34
-0.499827 -0.189747 1.34404 37 37 33
-0.520942 -0.200588 1.42083 36 37 33
-0.478081 -0.186752 1.32283 37 37 33
-0.471152 -0.186752 1.32283 37 38 34
-0.471668 -0.189747 1.34404 36 36 31
-0.457295 -0.186752 1.32283 36 36 31
-0.483732 -0.200588 1.42083 36 37 33
-0.434165 -0.182847 1.29517 37 38 34
-0.494972 -0.211765 1.5 36 37 34
-0.45778 -0.199012 1.40967 36 37 34
-0.479258 -0.211765 1.5 36 37 34
-0.471402 -0.211765 1.5 37 37 34
-0.463545 -0.211765 1.5 37 38 34
-0.473222 -0.219913 1.55772 37 37 33
-0.465063 -0.219913 1.55772 37 37 33
-0.452405 -0.217748 1.54238 37 38 33
-0.462406 -0.226608 1.60514 37 38 33
-0.424261 -0.211765 1.5 37 38 33
-0.445591 -0.226608 1.60514 37 38 32
-0.437184 -0.226608 1.60514 37 37 32
-0.463133 -0.244765 1.73375 37 37 33
-0.420369 -0.226608 1.60514 37 37 33
-0.422035 -0.232148 1.64438 36 37 33
-0.413422 -0.232148 1.64438 36 37 33
-0.41969 -0.240682 1.70483 36 38 34
-0.41076 -0.240682 1.70483 36 38 33
-0.392163 -0.234892 1.66382 37 38 33
-0.384758 -0.235694 1.6695 37 37 33
-0.372964 -0.233782 1.65596 36 37 32
-0.375042 -0.240682 1.70483 36 37 32
-0.366112 -0.240682 1.70483 36 37 33
-0.344518 -0.232148 1.64438 36 37 34
-0.342602 -0.236777 1.67717 37 38 34
-0.336684 -0.23881 1.69157 37 38 35
-0.330394 -0.240682 1.70483 37 38 35
-0.311273 -0.233052 1.65078 37 38 35
-0.312535 -0.240682 1.70483 37 37 34
-0.303605 -0.240682 1.70483 38 38 35
-0.297295 -0.242822 1.71999 38 38 34
-0.279221 -0.235187 1.6659 37 37 33
-0.274663 -0.23881 1.69157 37 37 33
-0.267887 -0.240682 1.70483 37 36 33
-0.258957 -0.240682 1.70483 37 36 34
-0.241163 -0.232148 1.64438 37 36 34
-0.243014 -0.242594 1.71838 37 36 34
-0.223937 -0.232148 1.64438 38 36 34
-0.217564 -0.234564 1.66149 37 36 34
-0.210832 -0.236777 1.67717 37 36 33
-0.207012 -0.242594 1.71838 38 37 34
-0.186041 -0.227929 1.6145 38 38 35
-0.182754 -0.234564 1.66149 38 38 35
-0.175694 -0.236777 1.67717 39 39 35
-0.169662 -0.240682 1.70483 38 38 34
-0.158124 -0.236777 1.67717 37 37 33
-0.150485 -0.238593 1.69003 37 36 32
-0.142873 -0.240682 1.70483 36 36 32
-0.133943 -0.240682 1.70483 37 37 33
-0.122739 -0.236302 1.6738 37 37 34
-0.114201 -0.236777 1.67717 37 37 33
-0.105204 -0.236302 1.6738 36 36 32
-0.0966315 -0.236777 1.67717 36 36 33
-0.0892957 -0.240682 1.70483 37 37 34
-0.0803661 -0.240682 1.70483 37 38 35
-0.0708163 -0.238593 1.69003 37 38 35
-0.0635672 -0.244765 1.73375 37 38 35
-0.0526022 -0.236302 1.6738 38 38 35
-0.0438352 -0.236302 1.6738 37 37 34
-0.0357183 -0.240682 1.70483 37 37 34
-0.026354 -0.236777 1.67717 39 38 35
-0.0183462 -0.247247 1.75133 39 38 36
-0.00864646 -0.233052 1.65078 37 36 34
0 -0.236302 1.6738 35 35 32
0.00856058 -0.230737 1.63439 36 36 33
0.0180179 -0.242822 1.71999 37 37 34
0.0261077 -0.234564 1.66149 36 36 34
0.0348103 -0.234564 1.66149 36 36 34
0.0442602 -0.238593 1.69003 37 37 34
0.052354 -0.235187 1.6659 37 37 35
0.060918 -0.234564 1.66149 37 37 35
0.0720715 -0.242822 1.71999 37 37 34
0.0758341 -0.22711 1.60869 38 38 35
0.0892957 -0.240682 1.70483 38 38 35
0.0967876 -0.23716 1.67988 38 38 35
0.104083 -0.233782 1.65596 38 37 34
0.116084 -0.240682 1.70483 37 37 34
0.126007 -0.242594 1.71838 36 36 33
0.137201 -0.246535 1.74629 37 36 33
0.137807 -0.232148 1.64438 37 37 34
0.14904 -0.236302 1.6738 36 36 34
0.160732 -0.240682 1.70483 36 36 34
0.163646 -0.232148 1.64438 36 36 34
0.169345 -0.228222 1.61657 37 37 35
0.190702 -0.244765 1.73375 38 38 36
0.19645 -0.240682 1.70483 38 38 36
0.202048 -0.236777 1.67717 37 37 35
0.21431 -0.240682 1.70483 36 36 34
0.223239 -0.240682 1.70483 38 38 35
0.225513 -0.233782 1.65596 39 39 36
0.233454 -0.233052 1.65078 38 38 35
0.250028 -0.240682 1.70483 37 37 34
0.258957 -0.240682 1.70483 38 38 35
0.270268 -0.242822 1.71999 38 38 36
0.26978 -0.234564 1.66149 38 38 35
0.279221 -0.235187 1.6659 37 37 34
0.302713 -0.247247 1.75133 37 37 35
0.298679 -0.236777 1.67717 37 37 35
0.307464 -0.236777 1.67717 37 38 34
0.313292 -0.234564 1.66149 37 37 34
0.335427 -0.244349 1.7308 37 37 34
0.328566 -0.233052 1.65078 37 37 34
0.348253 -0.240682 1.70483 37 37 34
0.363241 -0.244765 1.73375 37 37 34
0.375016 -0.246535 1.74629 37 37 34
0.357626 -0.229506 1.62567 37 38 34
0.380637 -0.238593 1.69003 38 38 35
0.386526 -0.236777 1.67717 38 38 35
0.405402 -0.242822 1.71999 37 38 35
0.401381 -0.235187 1.6659 37 38 34
0.42342 -0.242822 1.71999 37 37 34
0.435889 -0.244765 1.73375 37 37 34
0.429585 -0.236302 1.6738 37 37 34
0.442092 -0.238318 1.68808 37 37 34
0.448019 -0.236777 1.67717 37 37 34
0.464337 -0.240682 1.70483 38 37 35
0.461236 -0.234564 1.66149 37 37 34
0.502122 -0.250628 1.77528 36 37 34
0.491126 -0.240682 1.70483 36 37 34
0.526552 -0.253435 1.79517 37 38 35
0.516739 -0.244349 1.7308 36 37 35
0.539316 -0.250628 1.77528 36 37 34
0.53487 -0.244349 1.7308 36 37 34
0.571306 -0.256644 1.81789 36 37 34
0.535865 -0.236777 1.67717 36 36 34
0.567097 -0.246535 1.74629 35 36 33
0.572105 -0.244765 1.73375 36 37 35
0.581186 -0.244765 1.73375 37 38 36
0.604406 -0.250628 1.77528 36 38 36
0.613704 -0.250628 1.77528 36 37 35
0.629982 -0.253435 1.79517 35 36 34
0.61751 -0.244765 1.73375 35 36 34
0.637481 -0.249019 1.76388 36 37 35
0.650899 -0.250628 1.77528 37 38 36
0.660197 -0.250628 1.77528 36 38 35
0.692464 -0.259226 1.83618 35 37 35
0.674437 -0.249019 1.76388 35 37 35
0.671996 -0.244765 1.73375 36 37 35
0.686004 -0.246535 1.74629 35 36 34
0.722284 -0.256158 1.81445 34 35 33
0.720178 -0.252094 1.78567 35 37 35
0.73754 -0.254862 1.80527 36 38 36
0.724676 -0.247247 1.75133 36 38 35
0.731738 -0.246535 1.74629 35 37 35
0.76162 -0.253435 1.79517 36 38 35
0.762481 -0.250628 1.77528 36 38 35
0.780426 -0.253435 1.79517 36 37 35
0.784915 -0.251859 1.784 35 36 34
0.809349 -0.256644 1.81789 36 37 34
0.802533 -0.251523 1.78162 35 37 35
0.854112 -0.264612 1.87433 36 37 36
0.827439 -0.253435 1.79517 36 37 36
0.819405 -0.248155 1.75776 36 37 36
0.859285 -0.257341 1.82283 37 37 36
0.849192 -0.251523 1.78162 36 36 35
0.851116 -0.249353 1.76625 35 36 34
0.867856 -0.251523 1.78162 36 36 34
0.932941 -0.26751 1.89486 36 36 35
0.870121 -0.246871 1.74867 37 38 36
0.87928 -0.246871 1.74867 37 38 36
0.973259 -0.27044 1.91561 36 38 36
0.976725 -0.268633 1.90282 36 37 35
0.938545 -0.255525 1.80997 34 36 33
0.92068 -0.248155 1.75776 34 35 33
1.03003 -0.274881 1.94707 33 35 32
1.01659 -0.268633 1.90282 33 35 33
1.02227 -0.26751 1.89486 34 37 35
1.05109 -0.272408 1.92955 35 37 36
1.00672 -0.258423 1.8305 35 37 36
1.08103 -0.274881 1.94707 34 37 36
1.12089 -0.282353 2 33 36 35
1.06028 -0.264612 1.87433 33 35 35
1.03591 -0.256158 1.81445 32 35 35
1.0343 -0.253435 1.79517 32 36 35
1.08186 -0.2627 1.86079 34 37 36
1.17327 -0.282353 2 35 38 37
1.03118 -0.245963 1.74224 35 38 37
1.14695 -0.271176 1.92083 34 37 36
1.12084 -0.2627 1.86079 33 36 36
1.16028 -0.2696 1.90967 34 37 36
1.17029 -0.2696 1.90967 34 37 36
1.23612 -0.282353 2 34 38 37
0.934947 -0.211765 1.5 34 37 37
-0.556569 -0.120382 0.885502 39 39 35
-0.56952 -0.124218 0.91372 39 39 35
-0.562228 -0.123667 0.909666 39 39 35
-0.577452 -0.128101 0.942284 38 38 33
-0.559484 -0.125185 0.920833 37 37 32
-0.541508 -0.122217 0.898997 37 37 30
-0.528741 -0.120382 0.885502 37 37 31
-0.542999 -0.124722 0.917429 38 38 33
-0.524956 -0.121655 0.894863 38 38 34
-0.564583 -0.132016 0.971083 37 37 33
-0.544343 -0.128441 0.944781 38 37 34
-0.527512 -0.125611 0.923969 37 37 33
-0.550685 -0.132344 0.973489 37 37 33
-0.529497 -0.128441 0.944781 37 37 33
-0.539848 -0.132187 0.972338 37 37 33
-0.508154 -0.125611 0.923969 38 38 34
-0.531399 -0.132621 0.975527 38 39 34
-0.539493 -0.135948 1 38 39 34
-0.534255 -0.135948 1 37 38 33
-0.501017 -0.128752 0.947071 37 37 32
-0.538926 -0.139879 1.02892 37 37 33
-0.53425 -0.140066 1.03029 38 38 34
-0.513304 -0.135948 1 37 38 34
-0.508066 -0.135948 1 37 38 34
-0.502828 -0.135948 1 37 38 34
-0.480934 -0.131397 0.966525 37 38 34
-0.50659 -0.139879 1.02892 37 38 34
-0.501201 -0.139879 1.02892 36 37 33
-0.495812 -0.139879 1.02892 36 37 33
-0.506883 -0.144574 1.06345 36 37 32
-0.485033 -0.139879 1.02892 37 38 33
-0.495742 -0.144574 1.06345 38 40 34
-0.475586 -0.140271 1.0318 39 40 35
-0.506361 -0.151065 1.1112 39 40 35
-0.497809 -0.150241 1.10514 38 39 34
-0.49472 -0.151065 1.1112 37 38 34
-0.504703 -0.155948 1.14712 37 38 34
-0.486034 -0.151989 1.118 37 37 33
-0.517475 -0.163794 1.20483 37 38 34
-0.494648 -0.158502 1.1659 37 39 34
-0.475335 -0.154217 1.13439 37 38 34
-0.465785 -0.153032 1.12567 36 37 32
-0.497765 -0.165635 1.21838 37 38 32
-0.497584 -0.167726 1.23375 37 38 32
-0.479611 -0.163794 1.20483 37 37 32
-0.491567 -0.170116 1.25133 37 37 32
-0.492868 -0.172871 1.2716 37 37 32
-0.486208 -0.172871 1.2716 36 36 32
-0.448786 -0.161782 1.19003 36 37 33
-0.472887 -0.172871 1.2716 38 38 34
-0.4832 -0.179165 1.31789 37 37 33
-0.457633 -0.172144 1.26625 37 38 34
-0.451 -0.172144 1.26625 37 37 33
-0.454516 -0.176075 1.29517 36 36 31
-0.468629 -0.184293 1.35562 36 36 32
-0.494045 -0.197277 1.45113 36 37 33
-0.502828 -0.203922 1.5 37 38 34
-0.494972 -0.203922 1.5 37 38 34
-0.471243 -0.197277 1.45113 37 38 34
-0.494874 -0.210566 1.54887 37 38 34
-0.456042 -0.197277 1.45113 37 38 34
-0.463545 -0.203922 1.5 38 38 34
-0.455688 -0.203922 1.5 37 38 34
-0.465063 -0.211768 1.55772 37 38 34
-0.439975 -0.203922 1.5 37 38 33
-0.458142 -0.216202 1.59033 37 37 32
-0.474373 -0.228008 1.67717 36 37 32
-0.441482 -0.216202 1.59033 35 36 31
-0.472214 -0.235699 1.73375 36 37 32
-0.455408 -0.231768 1.70483 37 38 34
-0.470136 -0.244049 1.79517 37 38 34
-0.411962 -0.218215 1.60514 38 39 35
-0.428619 -0.231768 1.70483 37 38 34
-0.41288 -0.228008 1.67717 37 38 34
-0.405284 -0.228678 1.68211 37 38 34
-0.380539 -0.219487 1.6145 37 38 33
-0.389489 -0.229756 1.69003 36 37 33
-0.372964 -0.225124 1.65596 35 37 31
-0.361744 -0.22355 1.64438 36 37 32
-0.363264 -0.229965 1.69157 37 38 34
-0.36002 -0.233609 1.71838 36 38 34
-0.357752 -0.23809 1.75133 37 38 34
-0.348578 -0.23809 1.75133 37 38 35
-0.335998 -0.235699 1.73375 37 38 35
-0.318964 -0.229965 1.69157 38 38 35
-0.307464 -0.228008 1.67717 37 38 34
-0.295887 -0.225876 1.66149 38 38 35
-0.306852 -0.241345 1.77528 38 38 34
-0.292695 -0.237404 1.74629 38 37 34
-0.281033 -0.235299 1.7308 38 37 34
-0.272431 -0.235699 1.73375 37 36 33
-0.258957 -0.231768 1.70483 37 36 33
-0.256108 -0.237404 1.74629 36 35 32
-0.241098 -0.231768 1.70483 36 35 33
-0.234233 -0.233828 1.71999 37 36 34
-0.221301 -0.229756 1.69003 38 37 34
-0.207515 -0.22442 1.65078 38 37 34
-0.198869 -0.22442 1.65078 39 38 35
-0.198011 -0.233609 1.71838 38 38 35
-0.184108 -0.22755 1.6738 38 38 35
-0.177041 -0.229756 1.69003 38 38 35
-0.168189 -0.229756 1.69003 38 37 34
-0.162161 -0.233828 1.71999 37 37 34
-0.148336 -0.226476 1.6659 38 37 34
-0.139241 -0.225876 1.66149 37 36 33
-0.131506 -0.22755 1.6738 37 37 33
-0.126125 -0.233828 1.71999 37 37 33
-0.116084 -0.231768 1.70483 36 36 33
-0.105204 -0.22755 1.6738 36 37 34
-0.0973724 -0.229756 1.69003 36 37 34
-0.0885203 -0.229756 1.69003 37 37 35
-0.079741 -0.229965 1.69157 38 38 35
-0.0684846 -0.222191 1.63439 38 38 36
-0.062507 -0.231768 1.70483 38 38 36
-0.0527081 -0.228008 1.67717 38 38 35
-0.0435128 -0.225876 1.66149 37 37 34
-0.0354081 -0.229756 1.69003 38 37 35
-0.0267887 -0.231768 1.70483 39 39 36
-0.0171212 -0.222191 1.63439 39 38 36
-0.00885203 -0.229756 1.69003 38 37 34
0 -0.229965 1.69157 37 36 33
0.00872567 -0.226476 1.6659 36 36 33
0.0180179 -0.233828 1.71999 37 37 34
0.0267887 -0.231768 1.70483 37 37 34
0.033704 -0.218698 1.60869 37 37 34
0.0450025 -0.233609 1.71838 37 37 35
0.0508036 -0.219769 1.61657 37 37 35
0.0605252 -0.22442 1.65078 37 37 35
0.0681193 -0.221006 1.62567 37 38 35
0.0810045 -0.233609 1.71838 38 38 35
0.0885203 -0.229756 1.69003 38 38 35
0.0982252 -0.231768 1.70483 38 37 34
0.108972 -0.235699 1.73375 37 36 33
0.114201 -0.228008 1.67717 37 36 33
0.12105 -0.22442 1.65078 37 36 33
0.135134 -0.233828 1.71999 38 37 34
0.140555 -0.228008 1.67717 37 37 34
0.144753 -0.221006 1.62567 36 35 33
0.155636 -0.22442 1.65078 35 35 33
0.168342 -0.229965 1.69157 37 37 35
0.178591 -0.231768 1.70483 38 38 36
0.187521 -0.231768 1.70483 38 39 36
0.191456 -0.225876 1.66149 38 38 35
0.203597 -0.229756 1.69003 37 37 34
0.21431 -0.231768 1.70483 37 37 35
0.219176 -0.22755 1.6738 39 39 36
0.228402 -0.228008 1.67717 39 39 36
0.243241 -0.233828 1.71999 38 38 36
0.250028 -0.231768 1.70483 38 38 35
0.261259 -0.233828 1.71999 37 37 35
0.270268 -0.233828 1.71999 38 38 36
0.286405 -0.239796 1.76388 38 38 36
0.285746 -0.231768 1.70483 37 37 35
0.289894 -0.228008 1.67717 37 38 35
0.295887 -0.225876 1.66149 37 37 35
0.307464 -0.228008 1.67717 38 38 35
0.324018 -0.233609 1.71838 37 37 35
0.32438 -0.22755 1.6738 37 37 34
0.342019 -0.233609 1.71838 37 37 34
0.354916 -0.236203 1.73745 37 37 34
0.344518 -0.22355 1.64438 37 37 34
0.366112 -0.231768 1.70483 37 37 34
0.385271 -0.23809 1.75133 38 38 34
0.383971 -0.231768 1.70483 37 38 34
0.403617 -0.23809 1.75133 37 38 34
0.408646 -0.235699 1.73375 38 38 35
0.418619 -0.236203 1.73745 37 37 34
0.439179 -0.242531 1.784 37 37 34
0.420818 -0.22755 1.6738 37 37 34
0.441438 -0.233828 1.71999 37 37 34
0.464928 -0.241345 1.77528 37 37 34
0.471182 -0.239796 1.76388 37 37 34
0.452533 -0.225876 1.66149 37 37 34
0.48966 -0.239796 1.76388 36 37 34
0.493923 -0.237404 1.74629 35 36 34
0.495492 -0.233828 1.71999 35 36 33
0.495143 -0.229491 1.68808 36 37 35
0.522868 -0.23809 1.75133 36 37 35
0.533994 -0.238964 1.75776 37 38 35
0.535781 -0.235699 1.73375 37 38 35
0.554332 -0.239796 1.76388 37 37 35
0.55956 -0.23809 1.75133 36 36 34
0.572809 -0.239796 1.76388 36 36 33
0.572105 -0.235699 1.73375 36 37 35
0.591287 -0.239796 1.76388 36 38 35
0.590267 -0.235699 1.73375 36 37 35
0.59459 -0.233828 1.71999 35 37 35
0.619004 -0.239796 1.76388 35 36 34
0.621977 -0.237404 1.74629 35 37 34
0.621617 -0.233828 1.71999 36 38 35
0.648334 -0.240394 1.76828 37 38 36
0.649417 -0.237404 1.74629 36 38 36
0.676996 -0.244049 1.79517 36 37 35
0.686399 -0.244049 1.79517 35 37 34
0.670854 -0.235299 1.7308 35 37 35
0.686004 -0.237404 1.74629 35 37 34
0.714607 -0.244049 1.79517 35 36 34
0.747287 -0.251895 1.85288 35 37 35
0.720631 -0.239796 1.76388 36 38 35
0.72987 -0.239796 1.76388 35 37 35
0.731738 -0.237404 1.74629 35 37 35
0.756882 -0.242531 1.784 35 37 34
0.771023 -0.244049 1.79517 36 38 35
0.780426 -0.244049 1.79517 36 38 35
0.764435 -0.236203 1.73745 35 37 34
0.788738 -0.240845 1.7716 36 38 35
0.814044 -0.245682 1.80718 36 37 35
0.840308 -0.250693 1.84404 35 37 35
0.821197 -0.242208 1.78162 35 37 35
0.842441 -0.245682 1.80718 36 37 35
0.83986 -0.242208 1.78162 36 36 35
0.849192 -0.242208 1.78162 35 36 34
0.872183 -0.246061 1.80997 36 36 34
0.851803 -0.237727 1.74867 36 37 35
0.877188 -0.242208 1.78162 37 37 35
0.910839 -0.248852 1.8305 37 37 35
0.927237 -0.250693 1.84404 37 37 35
0.926118 -0.247809 1.82283 36 37 35
0.976725 -0.258684 1.90282 35 36 34
0.938545 -0.246061 1.80997 35 36 34
0.931262 -0.24171 1.77797 36 37 35
0.959877 -0.246671 1.81445 35 37 35
1.01234 -0.257602 1.89486 34 36 34
1.02227 -0.257602 1.89486 34 36 34
1.00451 -0.250693 1.84404 35 37 35
1.00672 -0.248852 1.8305 34 37 36
0.962589 -0.235699 1.73375 34 36 36
1.0169 -0.246671 1.81445 33 35 35
1.01549 -0.244049 1.79517 33 36 35
1.07009 -0.254811 1.87433 32 35 35
1.1067 -0.261133 1.92083 32 35 35
1.1259 -0.263269 1.93655 34 37 36
1.0531 -0.244049 1.79517 35 37 36
1.13689 -0.261133 1.92083 35 38 37
1.10109 -0.250693 1.84404 34 37 36
1.20469 -0.271895 2 32 36 35
1.16028 -0.259615 1.90967 33 36 35
1.11194 -0.246671 1.81445 34 37 36
1.10952 -0.244049 1.79517 35 37 37
1.19029 -0.259615 1.90967 35 38 37
-0.539114 -0.112122 0.85773 39 40 36
-0.554972 -0.11639 0.89038 40 40 35
-0.567026 -0.119925 0.917429 40 40 35
-0.564307 -0.12037 0.920833 39 39 34
-0.543705 -0.116976 0.894863 38 38 32
-0.55261 -0.119925 0.917429 37 37 31
-0.547805 -0.119925 0.917429 37 37 31
-0.574756 -0.126939 0.971083 39 39 34
-0.55682 -0.124076 0.949179 40 40 36
-0.535368 -0.12037 0.920833 40 40 36
-0.517964 -0.117516 0.898997 39 39 35
-0.57092 -0.130719 1 38 38 34
-0.550034 -0.127103 0.972338 37 37 34
-0.53078 -0.1238 0.947071 37 37 32
-0.539848 -0.127103 0.972338 36 37 32
-0.5196 -0.123501 0.944781 36 37 32
-0.53029 -0.127254 0.973489 36 37 32
-0.553795 -0.134184 1.02651 37 38 33
-0.519477 -0.127103 0.972338 38 38 34
-0.514384 -0.127103 0.972338 37 38 33
-0.509291 -0.127103 0.972338 37 37 33
-0.533537 -0.134499 1.02892 38 38 34
-0.513304 -0.130719 1 38 39 35
-0.508066 -0.130719 1 38 39 35
-0.548251 -0.142527 1.09033 38 39 35
-0.497591 -0.130719 1 37 38 34
-0.492353 -0.130719 1 36 38 33
-0.501871 -0.134679 1.03029 36 37 33
-0.512453 -0.139013 1.06345 36 37 33
-0.491078 -0.134679 1.03029 36 37 33
-0.502876 -0.139447 1.06677 37 38 33
-0.508274 -0.142527 1.09033 38 39 34
-0.477211 -0.135337 1.03533 38 39 34
-0.53429 -0.153267 1.17249 38 39 33
-0.50054 -0.145255 1.1112 37 38 33
-0.478405 -0.140465 1.07455 37 38 34
-0.504703 -0.14995 1.14712 38 38 34
-0.498694 -0.14995 1.14712 38 39 35
-0.500755 -0.152406 1.1659 39 40 35
-0.490429 -0.151106 1.15596 38 39 35
-0.510528 -0.159265 1.21838 38 39 34
-0.504147 -0.159265 1.21838 37 38 33
-0.456755 -0.146143 1.118 37 38 33
-0.491383 -0.159265 1.21838 37 38 33
-0.479611 -0.157494 1.20483 37 38 33
-0.4733 -0.157494 1.20483 38 38 34
-0.466989 -0.157494 1.20483 38 38 34
-0.447169 -0.152876 1.1695 37 37 33
-0.488435 -0.169303 1.29517 36 37 32
-0.481651 -0.169303 1.29517 37 37 33
-0.497031 -0.177205 1.35562 37 37 33
-0.501923 -0.181543 1.3888 37 37 33
-0.489497 -0.179651 1.37433 37 37 33
-0.487375 -0.181543 1.3888 36 37 32
-0.487314 -0.18427 1.40967 36 36 32
-0.47993 -0.18427 1.40967 36 37 33
-0.538072 -0.209822 1.60514 37 38 34
-0.478844 -0.18969 1.45113 37 38 35
-0.45778 -0.18427 1.40967 37 38 35
-0.439107 -0.179651 1.37433 38 38 35
-0.516777 -0.214952 1.64438 38 39 35
-0.508164 -0.214952 1.64438 38 39 35
-0.438155 -0.188534 1.44228 38 39 35
-0.474801 -0.207887 1.59033 38 39 35
-0.489692 -0.218235 1.6695 38 39 34
-0.458142 -0.207887 1.59033 38 39 34
-0.492776 -0.227744 1.74224 38 39 34
-0.463459 -0.218235 1.6695 37 38 34
-0.456803 -0.219238 1.67717 37 38 33
-0.455408 -0.222854 1.70483 36 37 33
-0.430648 -0.214952 1.64438 37 38 34
-0.437549 -0.222854 1.70483 36 37 33
-0.456179 -0.237183 1.81445 36 37 33
-0.404809 -0.214952 1.64438 36 38 34
-0.425558 -0.230882 1.76625 37 38 34
-0.393503 -0.218235 1.6695 37 38 33
-0.381637 -0.216465 1.65596 36 37 33
-0.376983 -0.218798 1.6738 35 37 31
-0.365508 -0.217189 1.66149 36 37 32
-0.360172 -0.219238 1.67717 36 37 34
-0.348103 -0.217189 1.66149 37 38 34
-0.351349 -0.224835 1.71999 37 38 34
-0.330698 -0.217189 1.66149 37 38 34
-0.315052 -0.212505 1.62567 38 38 35
-0.318964 -0.22112 1.69157 38 39 35
-0.30459 -0.217189 1.66149 38 38 35
-0.300969 -0.220919 1.69003 38 38 35
-0.289312 -0.218798 1.6738 38 38 34
-0.295644 -0.230573 1.76388 38 37 34
-0.281512 -0.226634 1.73375 38 37 34
-0.267887 -0.222854 1.70483 38 37 34
-0.265255 -0.228274 1.74629 36 36 33
-0.24286 -0.216465 1.65596 36 35 33
-0.234969 -0.217189 1.66149 37 36 34
-0.228402 -0.219238 1.67717 38 37 34
-0.22664 -0.226249 1.7308 38 37 35
-0.217945 -0.226634 1.73375 38 37 34
-0.203597 -0.220919 1.69003 38 38 35
-0.193263 -0.219238 1.67717 38 38 35
-0.185893 -0.220919 1.69003 38 38 35
-0.184136 -0.229773 1.75776 38 37 34
-0.166909 -0.219238 1.67717 38 37 34
-0.163459 -0.226634 1.73375 37 37 33
-0.150622 -0.22112 1.69157 37 37 33
-0.140782 -0.219592 1.67988 36 36 32
-0.133943 -0.222854 1.70483 36 36 32
-0.122986 -0.219238 1.67717 36 36 33
-0.111288 -0.213645 1.63439 37 37 34
-0.107155 -0.222854 1.70483 37 37 35
-0.101627 -0.230573 1.76388 37 37 34
-0.0861295 -0.214952 1.64438 37 38 35
-0.0796683 -0.220919 1.69003 38 38 36
-0.0669256 -0.208782 1.59718 38 38 36
-0.060918 -0.217189 1.66149 38 38 36
-0.0510894 -0.212505 1.62567 38 39 36
-0.0450025 -0.224624 1.71838 37 37 34
-0.0354404 -0.22112 1.69157 37 36 34
-0.0265561 -0.220919 1.69003 37 37 34
-0.0174051 -0.217189 1.66149 38 37 35
-0.00870257 -0.217189 1.66149 38 37 34
0 -0.220919 1.69003 37 37 34
0.00908103 -0.226634 1.73375 38 37 35
0.0175694 -0.219238 1.67717 38 38 35
0.0267887 -0.222854 1.70483 37 37 35
0.0357183 -0.222854 1.70483 37 37 34
0.0435128 -0.217189 1.66149 37 37 35
0.0527081 -0.219238 1.67717 38 37 35
0.0574029 -0.204657 1.56562 38 38 36
0.0681193 -0.212505 1.62567 38 38 36
0.0796683 -0.220919 1.69003 38 38 35
0.0892957 -0.222854 1.70483 38 38 35
0.0990984 -0.224835 1.71999 37 37 34
0.104431 -0.217189 1.66149 37 36 33
0.113133 -0.217189 1.66149 37 36 33
0.121836 -0.217189 1.66149 37 36 33
0.135134 -0.224835 1.71999 38 37 34
0.142873 -0.222854 1.70483 38 37 35
0.14934 -0.219238 1.67717 35 35 33
0.156646 -0.217189 1.66149 34 34 32
0.17117 -0.224835 1.71999 36 36 34
0.175341 -0.218798 1.6738 37 37 35
0.185893 -0.220919 1.69003 38 38 36
0.191456 -0.217189 1.66149 38 38 36
0.203597 -0.220919 1.69003 38 38 36
0.212449 -0.220919 1.69003 38 38 36
0.215324 -0.214952 1.64438 39 38 36
0.230363 -0.22112 1.69157 38 38 36
0.244771 -0.226249 1.7308 38 38 36
0.23424 -0.208782 1.59718 38 38 35
0.252374 -0.217189 1.66149 38 38 35
0.263011 -0.218798 1.6738 37 37 35
0.279016 -0.224624 1.71838 37 37 35
0.291213 -0.227118 1.73745 37 37 35
0.292117 -0.220919 1.69003 37 37 34
0.300969 -0.220919 1.69003 36 37 34
0.312535 -0.222854 1.70483 37 37 35
0.321464 -0.222854 1.70483 37 37 35
0.330394 -0.222854 1.70483 37 37 34
0.339324 -0.222854 1.70483 37 37 34
0.3394 -0.217189 1.66149 37 37 34
0.344518 -0.214952 1.64438 37 37 33
0.362933 -0.220919 1.69003 37 37 34
0.375042 -0.222854 1.70483 38 38 34
0.387385 -0.224835 1.71999 36 37 33
0.409136 -0.232063 1.77528 35 36 32
0.398342 -0.220919 1.69003 36 37 33
0.41076 -0.222854 1.70483 36 37 33
0.42342 -0.224835 1.71999 37 38 34
0.432429 -0.224835 1.71999 37 38 34
0.437549 -0.222854 1.70483 38 38 35
0.438352 -0.218798 1.6738 38 38 35
0.455408 -0.222854 1.70483 38 38 35
0.455886 -0.218798 1.6738 37 37 34
0.458263 -0.215789 1.65078 36 37 34
0.490376 -0.226634 1.73375 36 37 35
0.495492 -0.224835 1.71999 37 38 35
0.504501 -0.224835 1.71999 37 38 36
0.521363 -0.228274 1.74629 37 38 35
0.538198 -0.231582 1.7716 37 38 35
0.53103 -0.224624 1.71838 37 37 35
0.540537 -0.224835 1.71999 37 37 35
0.55795 -0.228274 1.74629 36 36 34
0.562067 -0.226249 1.7308 36 36 33
0.558187 -0.22112 1.69157 36 36 34
0.58708 -0.228932 1.75133 35 37 34
0.607942 -0.23342 1.78567 36 37 35
0.603684 -0.228274 1.74629 36 37 35
0.608429 -0.226634 1.73375 35 37 35
0.628243 -0.230573 1.76388 35 37 35
0.645354 -0.23342 1.78567 37 38 36
0.62507 -0.222854 1.70483 37 39 37
0.649417 -0.228274 1.74629 36 38 36
0.665198 -0.230573 1.76388 36 38 36
0.662915 -0.226634 1.73375 36 38 36
0.671996 -0.226634 1.73375 37 39 37
0.692915 -0.230573 1.76388 36 38 36
0.690158 -0.226634 1.73375 36 38 35
0.715988 -0.232063 1.77528 36 38 36
0.720631 -0.230573 1.76388 36 38 36
0.742815 -0.234662 1.79517 35 37 35
0.739109 -0.230573 1.76388 35 37 35
0.766716 -0.236232 1.80718 35 37 35
0.784914 -0.23889 1.82751 36 38 35
0.748632 -0.225103 1.72203 35 37 34
0.779459 -0.231582 1.7716 35 36 33
0.809349 -0.237633 1.81789 36 38 35
0.767943 -0.222854 1.70483 36 38 36
0.82351 -0.236232 1.80718 36 37 35
0.793731 -0.225103 1.72203 35 36 34
0.836842 -0.234662 1.79517 36 37 35
0.873452 -0.242207 1.85288 36 37 35
0.884459 -0.242564 1.85562 36 37 35
0.906895 -0.246014 1.882 36 36 34
0.908768 -0.243871 1.86561 36 36 35
0.869618 -0.230882 1.76625 36 36 34
0.938208 -0.246471 1.8855 35 36 34
0.87928 -0.228584 1.74867 35 36 34
0.912064 -0.234662 1.79517 35 36 34
0.935665 -0.238278 1.82283 35 36 34
0.915874 -0.230882 1.76625 36 37 35
0.971933 -0.242564 1.85562 37 38 36
0.991555 -0.245011 1.87433 35 37 35
0.994137 -0.243241 1.86079 35 37 35
0.9483 -0.229773 1.75776 35 37 35
0.988388 -0.237183 1.81445 35 37 36
0.977825 -0.232414 1.77797 35 37 36
0.946534 -0.222854 1.70483 35 37 37
1.05046 -0.245011 1.87433 35 37 37
1.01549 -0.234662 1.79517 35 38 37
1.10162 -0.252229 1.92955 33 36 36
1.0343 -0.234662 1.79517 32 35 34
1.08973 -0.245011 1.87433 33 36 35
1.12682 -0.251089 1.92083 33 36 35
1.10936 -0.245011 1.87433 33 37 36
1.10109 -0.241051 1.84404 33 36 35
1.20469 -0.261438 2 32 36 35
1.03583 -0.222854 1.70483 33 36 36
1.08568 -0.231582 1.7716 33 37 36
1.18029 -0.249629 1.90967 33 37 36
1.09561 -0.229773 1.75776 32 36 35
-0.588654 -0.117528 0.936549 39 40 36
-0.566992 -0.114154 0.909666 39 40 35
-0.533834 -0.108389 0.863725 40 39 35
-0.577452 -0.118247 0.942284 39 38 33
-0.590778 -0.122019 0.972338 38 38 33
-0.536317 -0.111734 0.89038 38 38 32
-0.540511 -0.113595 0.905214 38 37 32
-0.575499 -0.122019 0.972338 39 39 34
-0.519465 -0.111122 0.885502 40 40 36
-0.549291 -0.118561 0.944781 40 40 36
-0.545662 -0.118848 0.947071 39 39 35
-0.523778 -0.115128 0.917429 38 38 35
-0.550685 -0.122163 0.973489 37 37 34
-0.54618 -0.122296 0.974549 36 37 32
-0.523162 -0.118247 0.942284 36 37 32
-0.502517 -0.114663 0.91372 36 37 31
-0.53029 -0.122163 0.973489 36 37 32
-0.525191 -0.122163 0.973489 36 37 32
-0.534255 -0.12549 1 37 38 33
-0.572699 -0.135852 1.08257 37 38 33
-0.507913 -0.121689 0.969708 37 37 33
-0.518542 -0.12549 1 38 39 34
-0.528853 -0.129292 1.03029 38 39 35
-0.508066 -0.12549 1 39 40 36
-0.516737 -0.128961 1.02766 38 39 35
-0.526309 -0.132733 1.05772 37 38 34
-0.520769 -0.132733 1.05772 36 37 33
-0.533287 -0.137385 1.09479 36 37 33
-0.527553 -0.137385 1.09479 36 38 33
-0.476639 -0.12549 1 37 38 33
-0.520963 -0.138684 1.10514 37 38 33
-0.494343 -0.133076 1.06045 37 39 33
-0.506878 -0.138001 1.0997 37 38 33
-0.501118 -0.138001 1.0997 37 38 33
-0.507057 -0.14126 1.12567 36 38 33
-0.536407 -0.151195 1.20483 37 38 33
-0.486232 -0.138684 1.10514 38 39 34
-0.529673 -0.152894 1.21838 38 40 35
-0.527597 -0.154152 1.2284 38 40 35
-0.511164 -0.151195 1.20483 38 39 34
-0.504853 -0.151195 1.20483 38 39 34
-0.482435 -0.14631 1.1659 37 38 33
-0.492232 -0.151195 1.20483 37 38 33
-0.522354 -0.162531 1.29517 37 38 33
-0.500681 -0.157837 1.25776 37 38 34
-0.508787 -0.162531 1.29517 38 39 35
-0.502003 -0.162531 1.29517 38 39 34
-0.460679 -0.151195 1.20483 37 38 34
-0.479547 -0.159573 1.2716 36 37 33
-0.481651 -0.162531 1.29517 36 37 32
-0.503894 -0.172465 1.37433 36 37 33
-0.468084 -0.162531 1.29517 37 37 33
-0.502081 -0.176899 1.40967 37 37 33
-0.446245 -0.159573 1.2716 37 38 34
-0.49859 -0.180993 1.44228 36 37 33
-0.510685 -0.188235 1.5 36 37 32
-0.502828 -0.188235 1.5 37 38 34
-0.494972 -0.188235 1.5 38 38 35
-0.461406 -0.178301 1.42083 37 38 35
-0.463643 -0.182102 1.45113 38 39 35
-0.471402 -0.188235 1.5 38 38 35
-0.478649 -0.194369 1.54887 38 38 34
-0.507181 -0.209506 1.6695 38 39 35
-0.508985 -0.21394 1.70483 38 39 35
-0.482325 -0.206354 1.64438 39 40 35
-0.462406 -0.201429 1.60514 39 40 35
-0.465099 -0.206354 1.64438 39 40 36
-0.473267 -0.21394 1.70483 39 41 36
-0.424268 -0.195478 1.55772 37 39 34
-0.448019 -0.210469 1.67717 36 37 32
-0.446478 -0.21394 1.70483 36 37 33
-0.44497 -0.217569 1.73375 35 36 31
-0.421665 -0.210469 1.67717 35 37 32
-0.407658 -0.207807 1.65596 35 37 32
-0.41076 -0.21394 1.70483 36 38 34
-0.391615 -0.208501 1.66149 37 39 34
-0.38575 -0.210046 1.6738 37 38 34
-0.390484 -0.217569 1.73375 35 37 31
-0.388032 -0.22135 1.76388 35 36 32
-0.366112 -0.21394 1.70483 36 37 33
-0.351387 -0.210469 1.67717 36 38 34
-0.348253 -0.21394 1.70483 37 38 34
-0.330698 -0.208501 1.66149 37 38 34
-0.327525 -0.212082 1.69003 38 38 35
-0.324018 -0.215639 1.71838 39 39 35
-0.307464 -0.210469 1.67717 39 38 35
-0.310989 -0.219143 1.74629 38 38 34
-0.302713 -0.219775 1.75133 38 37 34
-0.279221 -0.209055 1.6659 38 37 34
-0.271778 -0.210046 1.6738 38 37 34
-0.270015 -0.215639 1.71838 37 36 33
-0.262902 -0.217199 1.7308 37 36 33
-0.238417 -0.204005 1.62567 37 36 34
-0.245188 -0.217569 1.73375 38 37 35
-0.241762 -0.22278 1.77528 38 37 35
-0.225224 -0.215842 1.71999 38 37 35
-0.208862 -0.208501 1.66149 38 37 34
-0.208864 -0.217569 1.73375 38 37 34
-0.193263 -0.210469 1.67717 38 37 34
-0.184478 -0.210469 1.67717 38 37 34
-0.18001 -0.215639 1.71838 38 37 34
-0.169662 -0.21394 1.70483 38 37 34
-0.158124 -0.210469 1.67717 38 37 34
-0.147944 -0.208501 1.66149 37 37 33
-0.140555 -0.210469 1.67717 36 36 32
-0.13177 -0.210469 1.67717 36 35 32
-0.126125 -0.215842 1.71999 36 36 33
-0.118053 -0.217569 1.73375 37 37 35
-0.108787 -0.217199 1.7308 37 37 34
-0.0966315 -0.210469 1.67717 36 36 34
-0.0876704 -0.210046 1.6738 37 37 35
-0.0810805 -0.215842 1.71999 38 38 36
-0.0720715 -0.215842 1.71999 38 38 36
-0.060918 -0.208501 1.66149 38 38 36
-0.0516777 -0.206354 1.64438 38 38 36
-0.0430648 -0.206354 1.64438 37 37 35
-0.0350681 -0.210046 1.6738 36 36 33
-0.0259394 -0.207157 1.65078 36 35 32
-0.0170298 -0.204005 1.62567 36 36 33
-0.00878468 -0.210469 1.67717 37 37 34
0 -0.21394 1.70483 37 37 34
0.00864646 -0.207157 1.65078 38 38 35
0.0182934 -0.219143 1.74629 38 37 35
0.0274402 -0.219143 1.74629 37 37 35
0.0344518 -0.206354 1.64438 37 37 35
0.0428029 -0.205099 1.63439 38 38 36
0.054003 -0.215639 1.71838 38 38 36
0.0619642 -0.212082 1.69003 39 38 36
0.0691717 -0.207157 1.65078 39 38 36
0.0796683 -0.212082 1.69003 39 38 36
0.0870257 -0.208501 1.66149 38 38 36
0.0974612 -0.212276 1.69157 37 37 34
0.104431 -0.208501 1.66149 37 37 34
0.111968 -0.206354 1.64438 37 37 34
0.122986 -0.210469 1.67717 37 37 35
0.131506 -0.210046 1.6738 38 38 35
0.142873 -0.21394 1.70483 37 37 34
0.151803 -0.21394 1.70483 35 35 32
0.156646 -0.208501 1.66149 35 35 33
0.162839 -0.205337 1.63628 36 36 34
0.178591 -0.21394 1.70483 37 37 35
0.182754 -0.208501 1.66149 38 38 35
0.190819 -0.207807 1.65596 38 38 36
0.195843 -0.204005 1.62567 38 38 36
0.212449 -0.212082 1.69003 38 38 36
0.217564 -0.208501 1.66149 38 38 36
0.222575 -0.205099 1.63439 38 38 35
0.241098 -0.21394 1.70483 38 38 35
0.243672 -0.208501 1.66149 38 38 36
0.254244 -0.210046 1.6738 38 38 35
0.265561 -0.212082 1.69003 37 37 35
0.263962 -0.204005 1.62567 36 36 34
0.275614 -0.206354 1.64438 36 37 34
0.289312 -0.210046 1.6738 37 37 35
0.298679 -0.210469 1.67717 37 37 35
0.317836 -0.217569 1.73375 37 38 35
0.313292 -0.208501 1.66149 37 37 35
