ply
format ascii 1.0
element vertex 1367
property float x
property float y
property float z
property uchar red
property uchar green
property uchar blue
end_header
-0.823989 0.606102 1.65596 36 36 32
-0.883856 0.657055 1.79517 37 36 32
-0.856232 0.643364 1.75776 37 37 33
-0.766346 0.582083 1.59033 37 36 33
-0.758016 0.582083 1.59033 36 35 32
-0.846245 0.657055 1.79517 36 35 32
-0.794731 0.623991 1.70483 36 35 32
-0.785802 0.623991 1.70483 36 35 31
-0.724697 0.582083 1.59033 36 35 31
-0.844295 0.686031 1.87433 36 35 31
-0.759013 0.623991 1.70483 36 36 31
-0.840205 0.698963 1.90967 35 36 32
-0.830202 0.698963 1.90967 35 36 32
-0.779306 0.664113 1.81445 36 36 33
-0.77661 0.669986 1.8305 36 36 34
-0.746543 0.652098 1.78162 36 36 33
-0.763038 0.674943 1.84404 36 36 32
-0.749316 0.671303 1.8341 36 36 32
-0.708924 0.643364 1.75776 35 35 31
-0.725618 0.667179 1.82283 35 35 31
-0.720496 0.671303 1.8341 35 35 30
-0.700456 0.661451 1.80718 35 35 31
-0.66616 0.637682 1.74224 35 35 31
-0.687428 0.667179 1.82283 35 35 31
-0.633999 0.623991 1.70483 34 35 31
-0.67611 0.674943 1.84404 34 35 31
-0.648788 0.657055 1.79517 34 35 30
-0.620533 0.637682 1.74224 36 35 32
-0.629982 0.657055 1.79517 36 36 33
-0.630142 0.667179 1.82283 36 36 33
-0.63813 0.686031 1.87433 36 36 32
-0.6058 0.661451 1.80718 35 35 31
-0.580028 0.643364 1.75776 36 35 31
-0.560092 0.63127 1.72472 36 36 32
-0.556655 0.637682 1.74224 36 36 32
-0.555075 0.64647 1.76625 36 36 32
-0.543201 0.643364 1.75776 36 36 32
-0.545358 0.657055 1.79517 35 35 32
-0.539541 0.661451 1.80718 35 35 31
-0.511027 0.637682 1.74224 35 35 31
-0.521414 0.662473 1.80997 35 35 32
-0.501081 0.648428 1.7716 36 36 33
-0.494585 0.652098 1.78162 36 36 33
-0.459775 0.617861 1.68808 35 36 32
-0.473243 0.648428 1.7716 35 36 32
-0.456274 0.637682 1.74224 35 36 32
-0.437549 0.623991 1.70483 35 36 32
-0.447926 0.652098 1.78162 35 36 33
-0.430481 0.640035 1.74867 36 37 34
-0.432525 0.657055 1.79517 36 37 34
-0.41993 0.652098 1.78162 35 36 33
-0.417131 0.662473 1.80997 35 36 33
-0.401267 0.652098 1.78162 35 36 32
-0.388553 0.64647 1.76625 35 35 32
-0.385511 0.657055 1.79517 35 35 31
-0.360787 0.630287 1.72203 35 35 30
-0.348253 0.623991 1.70483 35 35 31
-0.328172 0.603484 1.64881 35 35 31
-0.337643 0.637682 1.74224 35 35 31
-0.331445 0.643364 1.75776 35 35 32
-0.315688 0.630287 1.72203 35 36 33
-0.311412 0.640035 1.74867 36 36 33
-0.294676 0.623991 1.70483 36 36 33
-0.300887 0.657055 1.79517 36 36 33
-0.267719 0.603484 1.64881 35 35 31
-0.276204 0.643364 1.75776 35 35 31
-0.268286 0.64647 1.76625 36 36 32
-0.244013 0.608979 1.66382 36 36 33
-0.246388 0.637682 1.74224 36 36 33
-0.237263 0.637682 1.74224 36 36 34
-0.220714 0.616932 1.68555 36 36 33
-0.220963 0.643364 1.75776 35 36 32
-0.209886 0.637682 1.74224 35 35 32
-0.191724 0.608979 1.66382 36 35 32
-0.194865 0.648428 1.7716 36 36 33
-0.176571 0.616932 1.68555 36 35 32
-0.164086 0.603484 1.64881 34 34 30
-0.157401 0.611059 1.6695 33 32 28
-0.148151 0.608979 1.66382 34 34 30
-0.146547 0.640035 1.74867 35 35 32
-0.132628 0.617861 1.68808 35 36 33
-0.122423 0.611059 1.6695 34 35 31
-0.118305 0.63593 1.73745 33 34 30
-0.108236 0.630287 1.72203 34 35 31
-0.093664 0.595015 1.62567 35 36 33
-0.092068 0.643364 1.75776 35 36 33
-0.081177 0.630287 1.72203 35 36 33
-0.0690889 0.603484 1.64881 35 36 33
-0.0604527 0.603484 1.64881 35 35 31
-0.0542024 0.63127 1.72472 34 34 30
-0.0446478 0.623991 1.70483 33 34 30
-0.0365019 0.637682 1.74224 32 34 29
-0.0271012 0.63127 1.72472 33 34 29
-0.0180675 0.63127 1.72472 34 34 31
-0.00881053 0.615673 1.68211 34 35 31
0 0.623991 1.70483 34 34 31
0.00901967 0.630287 1.72203 34 35 32
0.0176571 0.616932 1.68555 34 35 33
0.027059 0.630287 1.72203 34 35 33
0.0357183 0.623991 1.70483 34 35 32
0.0451687 0.63127 1.72472 34 34 32
0.0535774 0.623991 1.70483 35 35 33
0.0618929 0.617861 1.68808 35 36 33
0.0721573 0.630287 1.72203 35 35 32
0.0803661 0.623991 1.70483 34 34 31
0.0903373 0.63127 1.72472 34 34 31
0.10265 0.652098 1.78162 35 35 33
0.104934 0.611059 1.6695 34 35 32
0.114771 0.616932 1.68555 33 34 31
0.115569 0.576848 1.57603 34 35 32
0.136882 0.637682 1.74224 34 35 32
0.147309 0.643364 1.75776 34 35 33
0.153334 0.630287 1.72203 32 34 31
0.157401 0.611059 1.6695 32 34 31
0.174929 0.643364 1.75776 34 35 32
0.176571 0.616932 1.68555 34 35 33
0.185679 0.617861 1.68808 35 36 34
0.198742 0.63127 1.72472 34 35 33
0.213423 0.648428 1.7716 33 34 32
0.21681 0.63127 1.72472 33 34 31
0.218613 0.611059 1.6695 32 34 32
0.237263 0.637682 1.74224 32 35 32
0.251958 0.652098 1.78162 31 34 32
0.25982 0.648428 1.7716 32 34 33
0.252727 0.608979 1.66382 33 35 34
0.267887 0.623991 1.70483 32 34 33
0.286789 0.64647 1.76625 32 35 33
0.294618 0.643364 1.75776 33 36 34
0.288569 0.611059 1.6695 33 36 34
0.313031 0.643364 1.75776 33 35 34
0.312535 0.623991 1.70483 31 34 33
0.321464 0.623991 1.70483 31 34 33
0.333728 0.630287 1.72203 29 32 32
0.354608 0.652098 1.78162 27 30 30
0.355894 0.637682 1.74224 23 28 28
0.365019 0.637682 1.74224 23 29 29
0.374145 0.637682 1.74224 26 31 31
0.378826 0.630287 1.72203 32 37 36
0.376014 0.611059 1.6695 36 41 39
0.407055 0.64647 1.76625 37 41 40
0.410647 0.637682 1.74224 37 40 38
0.444301 0.674943 1.84404 36 38 37
0.428898 0.637682 1.74224 33 35 35
0.447926 0.652098 1.78162 32 35 34
0.467833 0.667179 1.82283 31 34 34
0.470136 0.657055 1.79517 31 35 34
0.460003 0.630287 1.72203 34 37 37
0.469754 0.63127 1.72472 36 40 39
0.494585 0.652098 1.78162 37 41 40
0.482197 0.623991 1.70483 36 40 39
0.508819 0.64647 1.76625 35 39 38
0.52258 0.652098 1.78162 34 38 37
0.514923 0.63127 1.72472 34 38 37
0.523957 0.63127 1.72472 33 38 37
0.550575 0.652098 1.78162 32 37 36
0.547529 0.637682 1.74224 32 37 36
0.558709 0.640035 1.74867 32 37 36
0.573578 0.64647 1.76625 33 38 37
0.592371 0.657055 1.79517 34 38 38
0.584031 0.637682 1.74224 34 38 38
0.601332 0.64647 1.76625 33 38 37
0.630142 0.667179 1.82283 34 37 37
0.635177 0.662473 1.80997 33 37 37
0.622823 0.640035 1.74867 33 37 37
0.648788 0.657055 1.79517 34 38 38
0.62507 0.623991 1.70483 34 39 39
0.656839 0.64647 1.76625 34 39 39
0.651817 0.632617 1.7284 34 39 39
0.651858 0.623991 1.70483 34 39 38
0.681303 0.643364 1.75776 35 40 40
0.71278 0.664113 1.81445 36 41 41
0.703095 0.64647 1.76625 36 40 41
0.735166 0.667179 1.82283 34 39 39
0.733412 0.657055 1.79517 33 38 38
0.742815 0.657055 1.79517 33 37 38
0.772697 0.674943 1.84404 34 38 39
0.77661 0.669986 1.8305 35 39 40
0.779306 0.664113 1.81445 35 39 40
0.780426 0.657055 1.79517 36 39 40
0.805373 0.669986 1.8305 35 39 40
0.828448 0.681074 1.86079 34 38 39
0.844295 0.686031 1.87433 34 37 38
0.826825 0.664113 1.81445 36 40 41
0.921852 0.732026 2 38 41 42
0.859626 0.674943 1.84404 39 42 42
0.846245 0.657055 1.79517 38 40 41
0.893382 0.686031 1.87433 36 39 39
0.920224 0.698963 1.90967 36 38 39
0.913016 0.686031 1.87433 36 40 40
0.916166 0.681074 1.86079 35 40 40
0.955788 0.70305 1.92083 35 40 39
0.965849 0.70305 1.92083 35 39 39
0.936895 0.674943 1.84404 34 39 39
0.980239 0.698963 1.90967 35 39 39
0.956213 0.674943 1.84404 33 38 37
0.940272 0.657055 1.79517 32 38 37
1.00242 0.693545 1.89486 35 40 38
0.939093 0.643364 1.75776 36 41 40
1.02227 0.693545 1.89486 36 41 40
1.04025 0.698963 1.90967 35 40 39
0.987286 0.657055 1.79517 32 38 37
1.11041 0.732026 2 33 38 37
1.02159 0.667179 1.82283 34 38 38
1.08026 0.698963 1.90967 34 39 38
1.14184 0.732026 2 34 39 38
1.15232 0.732026 2 34 39 38
1.07212 0.674943 1.84404 34 39 38
0.97144 0.606102 1.65596 35 39 39
1.10936 0.686031 1.87433 32 38 38
1.19422 0.732026 2 31 37 37
1.11075 0.674943 1.84404 33 39 39
1.30993 0.789109 2.15596 34 40 40
1.10012 0.657055 1.79517 35 40 41
1.23612 0.732026 2 34 40 40
1.11892 0.657055 1.79517 34 39 40
-0.75728 0.447284 1.20483 40 40 36
-0.774284 0.461171 1.24224 37 37 33
-0.744659 0.447284 1.20483 34 35 30
-0.761271 0.461171 1.24224 35 36 30
-0.786923 0.48082 1.29517 36 37 32
-0.665675 0.410273 1.10514 35 36 31
-0.841724 0.523327 1.40967 34 35 30
-0.795499 0.498965 1.34404 35 36 30
-0.838623 0.53071 1.42955 36 36 31
-0.753004 0.48082 1.29517 36 35 31
-0.916283 0.590399 1.59033 36 35 31
-0.907953 0.590399 1.59033 36 35 31
-0.936746 0.614761 1.65596 36 35 31
-0.928072 0.614761 1.65596 36 35 31
-0.83281 0.556863 1.5 36 35 31
-0.824953 0.556863 1.5 36 35 31
-0.977883 0.666441 1.79517 35 35 31
-0.80924 0.556863 1.5 36 36 31
-0.753121 0.523327 1.40967 36 36 32
-0.830793 0.583015 1.57045 36 36 32
-0.822568 0.583015 1.57045 36 36 31
-0.696942 0.498965 1.34404 36 36 31
-0.799582 0.578289 1.55772 36 36 31
-0.952286 0.695831 1.87433 35 35 31
-0.857238 0.632905 1.70483 35 35 30
-0.874646 0.652555 1.75776 35 35 30
-0.865439 0.652555 1.75776 36 36 32
-0.774676 0.590399 1.59033 37 36 33
-0.847025 0.652555 1.75776 37 36 33
-0.789295 0.614761 1.65596 35 34 31
-0.803661 0.632905 1.70483 35 34 31
-0.771948 0.614761 1.65596 35 35 32
-0.785802 0.632905 1.70483 35 35 31
-0.776872 0.632905 1.70483 36 35 31
-0.791785 0.652555 1.75776 35 35 31
-0.799231 0.666441 1.79517 35 35 31
-0.801999 0.67671 1.82283 35 35 31
-0.835057 0.713094 1.92083 35 36 33
-0.744644 0.643641 1.73375 36 36 33
-0.741893 0.649179 1.74867 36 36 33
-0.75842 0.671936 1.80997 36 36 33
-0.742815 0.666441 1.79517 35 35 32
-0.733412 0.666441 1.79517 35 35 32
-0.702662 0.646792 1.74224 35 35 31
-0.714607 0.666441 1.79517 35 35 30
-0.699884 0.661413 1.78162 35 35 31
-0.695801 0.666441 1.79517 35 35 31
-0.692058 0.671936 1.80997 35 36 32
-0.671888 0.661413 1.78162 36 36 33
-0.667593 0.666441 1.79517 35 35 31
-0.65819 0.666441 1.79517 35 35 30
-0.629659 0.646792 1.74224 35 35 31
-0.614294 0.640288 1.72472 36 36 32
-0.635177 0.671936 1.80997 35 35 31
-0.625697 0.671936 1.80997 35 35 31
-0.606566 0.661413 1.78162 36 35 31
-0.611047 0.67671 1.82283 35 35 30
-0.605217 0.680893 1.8341 35 35 31
-0.560092 0.640288 1.72472 36 36 32
-0.586004 0.680893 1.8341 36 36 31
-0.559907 0.661413 1.78162 35 35 31
-0.56679 0.680893 1.8341 35 35 30
-0.555183 0.678448 1.82751 34 34 30
-0.539541 0.6709 1.80718 34 34 31
-0.515581 0.652555 1.75776 35 35 32
-0.51715 0.666441 1.79517 35 35 33
-0.487062 0.639291 1.72203 36 36 33
-0.48796 0.652555 1.75776 36 36 34
-0.492213 0.6709 1.80718 36 36 33
-0.46072 0.640288 1.72472 35 36 33
-0.470136 0.666441 1.79517 36 36 33
-0.467833 0.67671 1.82283 35 36 33
-0.447926 0.661413 1.78162 35 36 33
-0.441928 0.666441 1.79517 35 36 33
-0.425558 0.655706 1.76625 36 36 33
-0.423122 0.666441 1.79517 36 36 33
-0.397484 0.640288 1.72472 36 36 33
-0.378853 0.624468 1.68211 35 36 33
-0.388553 0.655706 1.76625 35 36 33
-0.379302 0.655706 1.76625 35 35 31
-0.37005 0.655706 1.76625 34 34 30
-0.344314 0.625746 1.68555 35 35 31
-0.342747 0.639291 1.72203 36 36 33
-0.334248 0.640288 1.72472 37 37 33
-0.333045 0.655706 1.76625 36 36 33
-0.316181 0.640288 1.72472 36 36 33
-0.317281 0.661413 1.78162 36 36 33
-0.315071 0.67671 1.82283 36 36 33
-0.292016 0.646792 1.74224 36 36 33
-0.28289 0.646792 1.74224 36 36 32
-0.261442 0.617679 1.66382 35 35 31
-0.264639 0.646792 1.74224 35 35 32
-0.250028 0.632905 1.70483 36 35 33
-0.243531 0.639291 1.72203 35 35 33
-0.232169 0.632905 1.70483 35 35 33
-0.218613 0.619789 1.6695 35 35 33
-0.227526 0.671936 1.80997 35 35 33
-0.210661 0.649179 1.74867 36 36 33
-0.194228 0.625746 1.68555 37 36 33
-0.193343 0.652555 1.75776 36 36 33
-0.185025 0.655706 1.76625 36 36 32
-0.169662 0.632905 1.70483 35 34 30
-0.156865 0.617679 1.66382 33 32 28
-0.151803 0.632905 1.70483 34 34 30
-0.14454 0.640288 1.72472 35 36 33
-0.132428 0.625746 1.68555 35 36 33
-0.125014 0.632905 1.70483 34 35 31
-0.121313 0.661413 1.78162 34 35 31
-0.110482 0.652555 1.75776 34 35 31
-0.101275 0.652555 1.75776 35 36 33
-0.0882855 0.625746 1.68555 37 37 34
-0.079457 0.625746 1.68555 36 36 34
-0.0699561 0.619789 1.6695 35 36 33
-0.0644476 0.652555 1.75776 35 35 31
-0.054118 0.639291 1.72203 34 34 31
-0.0451687 0.640288 1.72472 34 34 31
-0.0345444 0.612106 1.64881 33 35 31
-0.0259083 0.612106 1.64881 34 35 32
-0.0178591 0.632905 1.70483 35 36 33
-0.00903373 0.640288 1.72472 34 35 32
0 0.632905 1.70483 33 34 31
0.00912549 0.646792 1.74224 34 35 33
0.017489 0.619789 1.6695 34 35 33
0.0267887 0.632905 1.70483 34 35 33
0.0376109 0.666441 1.79517 34 35 32
0.0451687 0.640288 1.72472 35 35 32
0.0542024 0.640288 1.72472 35 35 32
0.0612116 0.619789 1.6695 35 35 32
0.0746543 0.661413 1.78162 34 34 31
0.0824325 0.649179 1.74867 34 34 31
0.0933178 0.661413 1.78162 34 35 31
0.101275 0.652555 1.75776 34 35 32
0.104083 0.614761 1.65596 34 34 32
0.114771 0.625746 1.68555 34 35 33
0.119987 0.607454 1.63628 35 35 34
0.135295 0.639291 1.72203 35 36 34
0.141469 0.626687 1.68808 35 35 34
0.151803 0.632905 1.70483 33 34 31
0.166523 0.655706 1.76625 31 32 29
0.161783 0.603515 1.62567 33 34 32
0.176571 0.625746 1.68555 35 36 34
0.183635 0.619789 1.6695 35 36 34
0.200761 0.646792 1.74224 34 35 33
0.208219 0.641654 1.7284 33 34 32
0.21431 0.632905 1.70483 33 34 32
0.225843 0.640288 1.72472 32 34 32
0.234877 0.640288 1.72472 32 35 33
0.241098 0.632905 1.70483 31 34 32
0.252551 0.639291 1.72203 32 35 33
0.258957 0.632905 1.70483 32 34 33
0.271012 0.640288 1.72472 32 34 33
0.289285 0.661413 1.78162 32 35 33
0.282939 0.626687 1.68808 32 35 34
0.294676 0.632905 1.70483 32 35 34
0.303605 0.632905 1.70483 32 35 33
0.326612 0.661413 1.78162 31 34 33
0.317828 0.625746 1.68555 31 34 33
0.326656 0.625746 1.68555 29 32 32
0.351548 0.655706 1.76625 27 31 32
0.341036 0.619789 1.6695 25 30 31
0.361349 0.640288 1.72472 25 31 31
0.369806 0.639291 1.72203 29 34 35
0.371357 0.626687 1.68808 34 37 37
0.383971 0.632905 1.70483 36 41 38
0.397484 0.640288 1.72472 37 41 40
0.406518 0.640288 1.72472 37 40 38
0.43919 0.67671 1.82283 36 38 37
0.409593 0.617679 1.66382 33 35 35
0.438023 0.646792 1.74224 32 35 35
0.453312 0.655706 1.76625 31 35 35
0.441428 0.625746 1.68555 32 35 35
0.46072 0.640288 1.72472 34 37 37
0.478754 0.652555 1.75776 35 38 38
0.502453 0.671936 1.80997 35 39 38
0.492776 0.646792 1.74224 34 38 37
0.521414 0.671936 1.80997 34 38 37
0.530894 0.671936 1.80997 34 38 37
0.518724 0.645015 1.73745 34 38 37
0.541243 0.661413 1.78162 34 39 37
0.53299 0.640288 1.72472 33 38 36
0.547529 0.646792 1.74224 32 37 36
0.544704 0.632905 1.70483 32 37 36
0.573578 0.655706 1.76625 32 37 36
0.574906 0.646792 1.74224 35 39 38
0.586187 0.649179 1.74867 35 39 39
0.616216 0.671936 1.80997 35 39 38
0.615898 0.661413 1.78162 34 38 38
0.619834 0.655706 1.76625 32 37 36
0.644657 0.671936 1.80997 31 36 36
0.61614 0.632905 1.70483 34 38 38
0.684019 0.692594 1.86561 35 39 39
0.644753 0.643641 1.73375 34 39 39
0.670509 0.660055 1.77797 33 38 38
0.686399 0.666441 1.79517 34 38 38
0.684593 0.655706 1.76625 35 39 39
0.686938 0.649179 1.74867 36 40 41
0.707759 0.660055 1.77797 36 40 41
0.783343 0.721057 1.94228 34 38 39
0.75338 0.684585 1.84404 33 37 38
0.763038 0.684585 1.84404 33 38 39
0.736544 0.652555 1.75776 34 38 39
0.754322 0.660055 1.77797 35 39 39
0.754957 0.652555 1.75776 35 39 39
0.819697 0.699977 1.8855 36 39 40
0.750084 0.632905 1.70483 36 39 40
0.834477 0.695831 1.87433 34 38 39
0.838194 0.690803 1.86079 34 38 39
0.847941 0.690803 1.86079 36 40 41
0.863929 0.695831 1.87433 38 41 42
0.873747 0.695831 1.87433 37 41 41
0.87718 0.690803 1.86079 37 39 40
0.886926 0.690803 1.86079 35 38 38
0.925606 0.713094 1.92083 35 37 38
0.84867 0.646792 1.74224 36 39 39
0.928332 0.699977 1.8855 35 40 40
0.955788 0.713094 1.92083 35 40 39
0.970234 0.716331 1.92955 35 39 39
0.926118 0.67671 1.82283 35 39 39
1.02661 0.742484 2 36 40 40
1.03708 0.742484 2 34 39 38
1.09487 0.77602 2.09033 33 38 37
0.949675 0.666441 1.79517 34 39 38
0.939093 0.652555 1.75776 35 40 39
0.919745 0.632905 1.70483 36 41 39
0.992951 0.67671 1.82283 35 40 39
1.09994 0.742484 2 34 39 38
1.11041 0.742484 2 34 38 38
1.12089 0.742484 2 34 39 38
1.07189 0.703452 1.89486 35 39 39
1.14184 0.742484 2 34 39 39
0.93664 0.603515 1.62567 34 39 38
1.16279 0.742484 2 34 39 39
1.17327 0.742484 2 35 39 40
1.25812 0.789136 2.12567 32 38 38
1.11918 0.695831 1.87433 31 37 37
1.20469 0.742484 2 33 39 39
1.21517 0.742484 2 35 40 41
1.10012 0.666441 1.79517 36 41 42
1.10952 0.666441 1.79517 36 41 41
1.2466 0.742484 2 35 39 40
-0.814058 0.487592 1.29517 34 34 28
-0.837738 0.505992 1.34404 34 34 29
-0.61806 0.376471 1 35 35 30
-0.919233 0.564706 1.5 35 36 30
-0.835024 0.517396 1.37433 35 36 31
-0.696288 0.435184 1.15596 35 36 30
-0.841724 0.530698 1.40967 35 35 30
-0.795499 0.505992 1.34404 35 35 30
-0.728738 0.467666 1.24224 36 35 30
-0.78142 0.505992 1.34404 36 36 31
-0.864236 0.564706 1.5 37 35 31
-0.804806 0.530698 1.40967 36 35 31
-0.848523 0.564706 1.5 35 35 30
-0.891294 0.598714 1.59033 35 34 30
-0.83281 0.564706 1.5 35 35 31
-0.824953 0.564706 1.5 35 35 31
-0.817096 0.564706 1.5 36 36 32
-0.80924 0.564706 1.5 37 37 34
-0.801383 0.564706 1.5 37 37 33
-0.745738 0.530698 1.40967 36 36 31
-0.748771 0.538185 1.42955 35 35 31
-0.814342 0.591227 1.57045 35 35 30
-0.875097 0.641819 1.70483 35 35 31
-0.848217 0.628518 1.6695 35 35 31
-0.799665 0.598714 1.59033 35 35 31
-0.848309 0.641819 1.70483 35 35 30
-0.783006 0.598714 1.59033 36 36 32
-0.874453 0.675828 1.79517 37 36 33
-0.82152 0.641819 1.70483 36 35 32
-0.812591 0.641819 1.70483 34 33 30
-0.942803 0.752941 2 34 34 31
-0.836842 0.675828 1.79517 34 34 31
-0.810198 0.661746 1.75776 35 35 31
-0.870212 0.718933 1.90967 35 35 31
-0.830649 0.694227 1.84404 35 35 30
-0.775666 0.655901 1.74224 35 35 30
-0.779459 0.666955 1.7716 35 36 32
-0.792451 0.686241 1.82283 36 36 34
-0.809822 0.709836 1.8855 35 36 33
-0.741893 0.658322 1.74867 35 36 32
-0.772697 0.694227 1.84404 35 36 32
-0.730849 0.664941 1.76625 35 35 31
-0.706135 0.650692 1.7284 35 35 32
-0.702662 0.655901 1.74224 36 36 32
-0.742649 0.702349 1.86561 35 35 31
-0.71607 0.686241 1.82283 36 36 32
-0.723106 0.702349 1.86561 36 36 32
-0.68122 0.670729 1.78162 35 36 32
-0.66609 0.664941 1.76625 35 36 32
-0.667593 0.675828 1.79517 36 36 32
-0.647588 0.664941 1.76625 35 35 31
-0.677399 0.705632 1.87433 35 35 31
-0.643663 0.680349 1.80718 35 35 31
-0.63969 0.686241 1.82283 35 35 30
-0.637475 0.694227 1.84404 35 35 31
-0.587193 0.649307 1.72472 36 36 33
-0.59208 0.664941 1.76625 36 35 32
-0.601499 0.686241 1.82283 36 36 32
-0.573578 0.664941 1.76625 36 35 32
-0.564327 0.664941 1.76625 36 35 32
-0.589043 0.705632 1.87433 36 36 32
-0.547477 0.666955 1.7716 36 35 32
-0.529278 0.655901 1.74224 35 34 31
-0.520153 0.655901 1.74224 34 34 31
-0.505101 0.648295 1.72203 35 35 32
-0.513932 0.671623 1.784 35 36 33
-0.492776 0.655901 1.74224 36 36 34
-0.494585 0.670729 1.78162 36 37 34
-0.459085 0.634559 1.68555 35 36 32
-0.469547 0.661746 1.75776 34 35 31
-0.470136 0.675828 1.79517 35 35 32
-0.442653 0.649307 1.72472 35 35 32
-0.438023 0.655901 1.74224 35 35 32
-0.424586 0.649307 1.72472 34 35 31
-0.423513 0.661746 1.75776 35 35 32
-0.41993 0.670729 1.78162 36 36 33
-0.417131 0.6814 1.80997 36 36 33
-0.404317 0.675828 1.79517 36 36 33
-0.403478 0.690483 1.8341 36 36 33
-0.393871 0.690483 1.8341 36 36 33
-0.357183 0.641819 1.70483 36 35 32
-0.366706 0.675828 1.79517 36 37 33
-0.342747 0.648295 1.72203 38 37 34
-0.347901 0.675828 1.79517 39 39 36
-0.321464 0.641819 1.70483 37 37 34
-0.312535 0.641819 1.70483 35 36 32
-0.303605 0.641819 1.70483 35 36 32
-0.301141 0.655901 1.74224 35 36 32
-0.28908 0.649307 1.72472 36 36 33
-0.276817 0.641819 1.70483 36 36 33
-0.277538 0.664941 1.76625 35 36 32
-0.258957 0.641819 1.70483 35 36 32
-0.256457 0.658322 1.74867 35 35 31
-0.241098 0.641819 1.70483 34 34 31
-0.244471 0.675828 1.79517 35 34 32
-0.228137 0.655901 1.74224 35 35 32
-0.21431 0.641819 1.70483 35 36 33
-0.211756 0.661746 1.75776 36 36 33
-0.191724 0.626378 1.66382 36 36 33
-0.191635 0.655901 1.74224 36 36 33
-0.189605 0.6814 1.80997 36 35 32
-0.178652 0.675828 1.79517 35 34 31
-0.162607 0.649307 1.72472 34 33 29
-0.156516 0.661746 1.75776 33 33 29
-0.148468 0.666955 1.7716 34 35 31
-0.132428 0.634559 1.68555 35 36 33
-0.122423 0.628518 1.6695 35 36 33
-0.118631 0.655901 1.74224 35 36 33
-0.109506 0.655901 1.74224 34 35 32
-0.101275 0.661746 1.75776 35 35 33
-0.0925126 0.664941 1.76625 35 36 33
-0.0803661 0.641819 1.70483 36 36 34
-0.0706284 0.634559 1.68555 35 35 33
-0.0617999 0.634559 1.68555 34 34 30
-0.0529713 0.634559 1.68555 34 34 30
-0.0466589 0.670729 1.78162 34 35 31
-0.0373271 0.670729 1.78162 35 36 32
-0.0264857 0.634559 1.68555 35 36 33
-0.017489 0.628518 1.6695 35 36 33
-0.00884184 0.635514 1.68808 34 35 32
0 0.664941 1.76625 34 35 32
0.00884184 0.635514 1.68808 34 34 32
0.0176571 0.634559 1.68555 34 35 33
0.0276204 0.661746 1.75776 34 35 33
0.032636 0.586434 1.55772 34 35 33
0.0446478 0.641819 1.70483 35 35 33
0.0515151 0.617114 1.63921 34 34 31
0.0641142 0.658322 1.74867 34 34 30
0.0730039 0.655901 1.74224 34 34 30
0.0803661 0.641819 1.70483 34 34 31
0.0882855 0.634559 1.68555 35 35 32
0.0971141 0.634559 1.68555 35 35 33
0.109506 0.655901 1.74224 34 35 32
0.116084 0.641819 1.70483 34 35 33
0.125014 0.641819 1.70483 35 35 34
0.131168 0.628518 1.6695 35 36 34
0.147309 0.661746 1.75776 35 35 34
0.151803 0.641819 1.70483 34 35 33
0.164259 0.655901 1.74224 33 34 32
0.175774 0.664941 1.76625 34 35 33
0.172722 0.620727 1.64881 35 36 34
0.189708 0.649307 1.72472 35 36 34
0.200761 0.655901 1.74224 33 34 32
0.214631 0.670729 1.78162 32 34 32
0.223963 0.670729 1.78162 32 34 32
0.231281 0.664941 1.76625 31 34 32
0.240533 0.664941 1.76625 30 34 32
0.241098 0.641819 1.70483 30 33 31
0.244846 0.628518 1.6695 30 34 32
0.263912 0.654099 1.73745 30 34 32
0.255447 0.612015 1.62567 32 34 33
0.289285 0.670729 1.78162 33 35 34
0.291213 0.654099 1.73745 33 35 34
0.301141 0.655901 1.74224 33 35 34
0.314543 0.664941 1.76625 32 35 33
0.323794 0.664941 1.76625 30 34 32
0.325214 0.649307 1.72472 29 33 32
0.334248 0.649307 1.72472 28 32 32
0.339324 0.641819 1.70483 27 32 32
0.374658 0.690483 1.8341 29 34 34
0.376109 0.675828 1.79517 30 35 36
0.369806 0.648295 1.72203 33 37 37
0.375042 0.641819 1.70483 34 38 37
0.401267 0.670729 1.78162 34 39 37
0.388456 0.634559 1.68555 34 39 37
0.412163 0.658322 1.74867 34 37 35
0.429262 0.670729 1.78162 33 36 35
0.434809 0.664941 1.76625 31 34 34
0.441926 0.661746 1.75776 31 35 35
0.454685 0.666955 1.7716 31 35 35
0.456274 0.655901 1.74224 33 36 36
0.475921 0.670729 1.78162 34 37 37
0.482522 0.666955 1.7716 34 38 37
0.478788 0.649307 1.72472 34 38 38
0.521571 0.694227 1.84404 34 38 37
0.525118 0.686241 1.82283 34 38 37
0.511027 0.655901 1.74224 34 38 36
0.547577 0.690483 1.8341 34 38 37
0.553761 0.686241 1.82283 35 39 37
0.563309 0.686241 1.82283 33 38 36
0.542024 0.649307 1.72472 32 37 36
0.551058 0.649307 1.72472 32 37 36
0.561287 0.650692 1.7284 33 38 37
0.587902 0.670729 1.78162 35 39 39
0.611047 0.686241 1.82283 35 40 39
0.595346 0.658322 1.74867 35 39 38
0.615898 0.670729 1.78162 33 38 37
0.606552 0.650692 1.7284 32 36 36
0.629085 0.664941 1.76625 32 37 36
0.684819 0.71336 1.89486 34 39 39
0.65819 0.675828 1.79517 34 39 39
0.674765 0.683088 1.81445 33 38 38
0.657035 0.655901 1.74224 33 38 38
0.679821 0.669352 1.77797 33 38 38
0.695801 0.675828 1.79517 34 39 39
0.719083 0.689129 1.8305 34 39 39
0.734062 0.694227 1.84404 34 38 39
0.717072 0.669352 1.77797 32 37 38
0.741291 0.683088 1.81445 33 38 38
0.750795 0.683088 1.81445 34 39 40
0.714365 0.641819 1.70483 35 39 40
0.803917 0.71336 1.89486 35 39 39
0.744644 0.652706 1.73375 36 38 39
0.780426 0.675828 1.79517 36 39 39
0.82466 0.705632 1.87433 35 38 39
0.862176 0.729054 1.93655 35 39 39
0.849325 0.709836 1.8855 36 39 40
0.826825 0.683088 1.81445 37 40 41
0.889381 0.72642 1.92955 37 40 41
0.867433 0.700533 1.86079 36 39 40
0.835135 0.666955 1.7716 36 38 38
0.893382 0.705632 1.87433 35 37 37
0.929808 0.72642 1.92955 35 38 38
0.906419 0.700533 1.86079 36 40 40
0.945728 0.723137 1.92083 36 39 40
0.960128 0.72642 1.92955 35 39 39
0.890811 0.666955 1.7716 35 39 38
0.885172 0.655901 1.74224 35 39 39
0.985971 0.723137 1.92083 36 40 39
0.930869 0.675828 1.79517 35 39 38
1.00024 0.718933 1.90967 34 38 37
0.964308 0.686241 1.82283 34 39 38
1.02025 0.718933 1.90967 35 39 38
1.07899 0.752941 2 35 40 39
1.03219 0.71336 1.89486 35 39 39
1.05026 0.718933 1.90967 33 38 38
1.05204 0.71336 1.89486 34 38 38
0.840666 0.564706 1.5 34 39 38
1.07189 0.71336 1.89486 35 39 39
1.07009 0.705632 1.87433 35 39 39
1.09174 0.71336 1.89486 34 39 39
1.07212 0.694227 1.84404 34 38 38
1.17327 0.752941 2 34 38 39
1.09143 0.694227 1.84404 32 37 38
1.10109 0.694227 1.84404 31 37 38
1.20469 0.752941 2 33 38 39
1.21517 0.752941 2 35 40 41
1.13007 0.694227 1.84404 37 42 43
1.10952 0.675828 1.79517 36 42 42
1.06262 0.641819 1.70483 35 40 41
-0.814058 0.494364 1.29517 34 35 29
-0.750969 0.459884 1.20483 35 35 29
-0.830698 0.51302 1.34404 35 36 30
-0.761271 0.474161 1.24224 36 36 31
-0.702342 0.441229 1.15596 36 37 32
-0.90352 0.572549 1.5 35 36 31
-0.773356 0.494364 1.29517 35 36 31
-0.766572 0.494364 1.29517 35 35 30
-0.87995 0.572549 1.5 35 34 29
-0.872093 0.572549 1.5 36 35 30
-0.694174 0.459884 1.20483 36 35 31
-0.784634 0.524582 1.37433 36 35 31
-0.777436 0.524582 1.37433 35 35 30
-0.840666 0.572549 1.5 35 35 31
-0.793697 0.54566 1.42955 36 36 32
-0.824953 0.572549 1.5 36 36 33
-0.866304 0.60703 1.59033 37 37 33
-0.857974 0.60703 1.59033 36 37 33
-0.910816 0.650734 1.70483 36 37 33
-0.841314 0.60703 1.59033 36 36 32
-0.8159 0.594579 1.55772 36 36 32
-0.824655 0.60703 1.59033 35 35 31
-0.769956 0.572549 1.5 35 35 32
-0.952286 0.715432 1.87433 36 36 32
-0.789665 0.599438 1.57045 37 36 33
-0.874646 0.670937 1.75776 36 36 32
-0.865439 0.670937 1.75776 36 35 31
-0.764988 0.599438 1.57045 37 36 32
-0.86505 0.685214 1.79517 36 35 32
-0.893382 0.715432 1.87433 35 35 32
-0.942803 0.763399 2 36 36 33
-0.883317 0.723268 1.89486 36 35 33
-0.785802 0.650734 1.70483 35 35 32
-0.854112 0.715432 1.87433 34 35 30
-0.844295 0.715432 1.87433 34 34 30
-0.775666 0.665011 1.74224 35 36 32
-0.845118 0.733181 1.92083 36 36 33
-0.814843 0.715432 1.87433 35 35 32
-0.771023 0.685214 1.79517 35 35 32
-0.7679 0.690864 1.80997 35 36 33
-0.772697 0.70387 1.84404 36 37 34
-0.763038 0.70387 1.84404 35 36 32
-0.721598 0.674176 1.76625 35 36 32
-0.729979 0.690864 1.80997 35 35 31
-0.714607 0.685214 1.79517 35 35 30
-0.699884 0.680045 1.78162 36 36 32
-0.71089 0.700073 1.8341 36 36 33
-0.696975 0.695773 1.82283 36 36 32
-0.671888 0.680045 1.78162 35 36 32
-0.690073 0.708287 1.85562 35 35 31
-0.680353 0.708287 1.85562 35 35 31
-0.648788 0.685214 1.79517 35 35 31
-0.634561 0.680045 1.78162 35 34 30
-0.625229 0.680045 1.78162 34 34 29
-0.596226 0.658325 1.72472 35 35 31
-0.606566 0.680045 1.78162 36 36 33
-0.622037 0.708287 1.85562 36 35 33
-0.569125 0.658325 1.72472 35 35 31
-0.54737 0.643372 1.68555 35 34 31
-0.578295 0.690864 1.80997 36 35 33
-0.576397 0.700073 1.8341 37 36 34
-0.538404 0.665011 1.74224 36 36 33
-0.545358 0.685214 1.79517 36 35 33
-0.531912 0.680045 1.78162 36 36 34
-0.515581 0.670937 1.75776 37 37 34
-0.51715 0.685214 1.79517 36 36 33
-0.477459 0.64434 1.68808 36 36 33
-0.478788 0.658325 1.72472 35 35 32
-0.485253 0.680045 1.78162 34 35 31
-0.4654 0.665011 1.74224 35 36 33
-0.462563 0.674176 1.76625 36 36 33
-0.467833 0.695773 1.82283 35 36 33
-0.447926 0.680045 1.78162 35 35 32
-0.428898 0.665011 1.74224 34 35 31
-0.425558 0.674176 1.76625 34 35 31
-0.41993 0.680045 1.78162 35 35 32
-0.401521 0.665011 1.74224 35 36 32
-0.383971 0.650734 1.70483 36 36 33
-0.391935 0.680045 1.78162 36 37 34
-0.38045 0.676218 1.7716 36 36 33
-0.352421 0.642059 1.68211 35 35 31
-0.369159 0.689798 1.80718 36 36 32
-0.344014 0.659729 1.7284 37 37 34
-0.347901 0.685214 1.79517 37 37 34
-0.328517 0.665011 1.74224 36 36 32
-0.338055 0.70387 1.84404 35 36 32
-0.324619 0.695773 1.82283 36 36 32
-0.294676 0.650734 1.70483 36 37 33
-0.293093 0.667466 1.74867 36 36 33
-0.28289 0.665011 1.74224 35 36 32
-0.267887 0.650734 1.70483 35 35 31
-0.263912 0.663184 1.73745 35 35 31
-0.252945 0.658325 1.72472 35 35 32
-0.249784 0.674176 1.76625 35 35 33
-0.240533 0.674176 1.76625 35 35 33
-0.237006 0.690864 1.80997 36 35 34
-0.211885 0.643372 1.68555 36 36 34
-0.214631 0.680045 1.78162 36 36 33
-0.19645 0.650734 1.70483 36 36 33
-0.189708 0.658325 1.72472 36 36 33
-0.178591 0.650734 1.70483 36 35 32
-0.175774 0.674176 1.76625 35 35 31
-0.156865 0.635078 1.66382 35 34 30
-0.159846 0.685214 1.79517 34 34 30
-0.147309 0.670937 1.75776 34 34 31
-0.135506 0.658325 1.72472 35 35 33
-0.122006 0.635078 1.66382 36 36 34
-0.113292 0.635078 1.66382 35 36 33
-0.108405 0.658325 1.72472 34 35 32
-0.101275 0.670937 1.75776 34 35 32
-0.0933178 0.680045 1.78162 34 35 32
-0.0813036 0.658325 1.72472 36 35 34
-0.0730039 0.665011 1.74224 35 35 33
-0.0641142 0.667466 1.74867 34 34 30
-0.0542024 0.658325 1.72472 33 33 29
-0.0441428 0.643372 1.68555 34 35 31
-0.0371171 0.676218 1.7716 35 36 33
-0.0267887 0.650734 1.70483 35 36 33
-0.018251 0.665011 1.74224 34 35 31
-0.00884184 0.64434 1.68808 33 34 31
0 0.650734 1.70483 33 34 31
0.00892957 0.650734 1.70483 34 34 32
0.0183183 0.667466 1.74867 34 34 32
0.0277538 0.674176 1.76625 34 35 33
0.0352421 0.642059 1.68211 34 35 33
0.0456274 0.665011 1.74224 34 34 31
0.0535774 0.650734 1.70483 33 33 30
0.0633711 0.659729 1.7284 33 33 30
0.0724241 0.659729 1.7284 33 33 30
0.0803661 0.650734 1.70483 34 34 31
0.0948025 0.690864 1.80997 34 35 31
0.104283 0.690864 1.80997 34 34 31
0.108236 0.657299 1.72203 34 34 31
0.117439 0.658325 1.72472 34 35 32
0.128895 0.670937 1.75776 35 35 33
0.135506 0.658325 1.72472 35 35 33
0.148468 0.676218 1.7716 34 35 33
0.150085 0.643372 1.68555 35 35 33
0.167972 0.680045 1.78162 34 35 33
0.166146 0.637248 1.6695 35 36 34
0.178591 0.650734 1.70483 36 36 35
0.1854 0.643372 1.68555 34 35 33
0.201502 0.667466 1.74867 32 34 31
0.203057 0.643372 1.68555 32 34 32
0.22203 0.674176 1.76625 32 34 32
0.233295 0.680045 1.78162 31 34 32
0.237263 0.665011 1.74224 31 34 33
0.238371 0.643372 1.68555 31 34 32
0.252945 0.658325 1.72472 31 34 33
0.264639 0.665011 1.74224 32 35 34
0.286428 0.695773 1.82283 33 35 34
0.276817 0.650734 1.70483 33 35 34
0.298617 0.680045 1.78162 32 34 33
0.315071 0.695773 1.82283 32 35 33
0.306669 0.657299 1.72203 32 35 33
0.316181 0.658325 1.72472 30 34 32
0.325214 0.658325 1.72472 29 32 32
0.342296 0.674176 1.76625 27 31 32
0.346768 0.665011 1.74224 27 31 31
0.352316 0.658325 1.72472 30 35 35
0.365019 0.665011 1.74224 34 38 37
0.370383 0.658325 1.72472 35 39 37
0.375042 0.650734 1.70483 35 39 37
0.392396 0.665011 1.74224 34 37 36
0.410598 0.680045 1.78162 32 36 35
0.406518 0.658325 1.72472 33 36 35
0.406113 0.643372 1.68555 33 36 35
0.438594 0.680045 1.78162 32 35 36
0.461118 0.700073 1.8341 32 35 35
0.460733 0.685214 1.79517 32 35 35
0.46034 0.670937 1.75776 33 36 36
0.492594 0.70387 1.84404 34 37 37
0.492973 0.690864 1.80997 34 38 37
0.502453 0.690864 1.80997 34 38 37
0.499568 0.674176 1.76625 34 38 37
0.525118 0.695773 1.82283 33 38 36
0.505889 0.658325 1.72472 33 37 36
0.540374 0.690864 1.80997 34 38 37
0.557184 0.700073 1.8341 35 39 38
0.55476 0.685214 1.79517 33 38 36
0.586302 0.712104 1.86561 31 36 35
0.558709 0.667466 1.74867 31 36 36
0.591951 0.695773 1.82283 33 38 37
0.562563 0.650734 1.70483 35 39 39
0.579393 0.659729 1.7284 36 40 39
0.601332 0.674176 1.76625 34 38 37
0.641476 0.708287 1.85562 32 37 36
0.613664 0.667466 1.74867 32 37 36
0.633258 0.678648 1.77797 31 36 36
0.670634 0.708287 1.85562 32 37 37
0.694743 0.723268 1.89486 33 38 38
0.673098 0.690864 1.80997 32 37 37
0.682578 0.690864 1.80997 31 37 37
0.686399 0.685214 1.79517 32 37 37
0.714745 0.70387 1.84404 33 38 38
0.719083 0.6987 1.8305 34 38 38
0.696097 0.667466 1.74867 33 38 38
0.705256 0.667466 1.74867 33 38 38
0.71813 0.670937 1.75776 34 38 38
0.80369 0.741369 1.94228 35 40 40
0.779715 0.710263 1.86079 36 40 40
0.77661 0.6987 1.8305 35 38 39
0.786198 0.6987 1.8305 34 37 37
0.819697 0.719695 1.8855 34 37 38
0.82466 0.715432 1.87433 34 37 38
0.771887 0.661771 1.73375 36 39 40
0.900901 0.763399 2 37 41 41
0.830642 0.695773 1.82283 37 41 41
0.921852 0.763399 2 36 40 40
0.867433 0.710263 1.86079 36 39 39
0.846245 0.685214 1.79517 35 38 39
0.844414 0.676218 1.7716 35 38 38
0.903199 0.715432 1.87433 35 38 39
0.887927 0.695773 1.82283 35 39 39
0.916166 0.710263 1.86079 35 39 39
0.955788 0.733181 1.92083 34 38 38
1.09474 0.831025 2.17717 33 37 37
0.980341 0.736509 1.92955 35 39 38
0.980239 0.728918 1.90967 36 40 39
0.945213 0.695773 1.82283 36 40 39
1.00024 0.728918 1.90967 35 39 37
1.01025 0.728918 1.90967 34 38 37
1.06851 0.763399 2 34 38 37
1.07899 0.763399 2 35 39 38
1.03219 0.723268 1.89486 35 39 38
1.09994 0.763399 2 34 38 37
1.11041 0.763399 2 33 38 37
1.12089 0.763399 2 35 39 38
1.01549 0.685214 1.79517 35 40 39
1.14184 0.763399 2 35 40 39
1.09174 0.723268 1.89486 34 39 39
1.16279 0.763399 2 34 38 39
1.24699 0.811365 2.12567 35 39 39
0.980114 0.632078 1.65596 32 38 38
1.10109 0.70387 1.84404 31 37 38
1.29863 0.822928 2.15596 34 39 40
1.21517 0.763399 2 35 41 41
1.22564 0.763399 2 37 42 43
1.23612 0.763399 2 37 42 42
1.2466 0.763399 2 35 40 41
-0.707521 0.435552 1.12567 35 35 30
-0.750969 0.466184 1.20483 36 36 31
-0.800491 0.501137 1.29517 36 36 32
-0.761271 0.480657 1.24224 36 37 32
-0.835024 0.531768 1.37433 36 37 32
-0.748258 0.480657 1.24224 36 36 31
-0.773356 0.501137 1.29517 35 36 31
-0.795499 0.520047 1.34404 35 35 31
-0.826957 0.545439 1.40967 36 35 31
-0.78142 0.520047 1.34404 36 35 31
-0.904825 0.60765 1.57045 36 35 31
-0.85638 0.580392 1.5 35 35 30
-0.91961 0.629016 1.62567 35 35 31
-0.840666 0.580392 1.5 36 36 32
-0.782655 0.545439 1.40967 36 36 32
-0.793211 0.55806 1.44228 36 36 33
-0.866304 0.615345 1.59033 36 36 32
-0.760505 0.545439 1.40967 35 36 32
-0.939093 0.680128 1.75776 35 36 32
-0.929887 0.680128 1.75776 35 36 32
-0.851491 0.629016 1.62567 36 36 33
-0.824655 0.615345 1.59033 36 36 33
-0.875097 0.659648 1.70483 36 36 33
-0.762099 0.580392 1.5 36 35 32
-0.927237 0.713512 1.84404 36 36 32
-0.874646 0.680128 1.75776 37 36 33
-0.783006 0.615345 1.59033 37 36 33
-0.774676 0.615345 1.59033 37 36 33
-0.722816 0.580392 1.5 36 35 32
-0.758016 0.615345 1.59033 36 35 33
-0.883564 0.725233 1.87433 36 36 34
-0.859626 0.713512 1.84404 36 36 34
-0.785802 0.659648 1.70483 36 36 33
-0.830642 0.705304 1.82283 35 35 31
-0.791785 0.680128 1.75776 36 36 33
-0.759013 0.659648 1.70483 37 37 34
-0.818701 0.719992 1.86079 35 36 32
-0.78881 0.702063 1.81445 34 34 30
-0.771023 0.694601 1.79517 34 35 31
-0.76162 0.694601 1.79517 35 36 33
-0.752218 0.694601 1.79517 36 36 33
-0.737211 0.68936 1.78162 35 36 32
-0.714415 0.676609 1.74867 35 35 32
-0.739709 0.709663 1.8341 35 35 31
-0.709216 0.68936 1.78162 35 35 31
-0.74069 0.729554 1.8855 35 35 31
-0.71089 0.709663 1.8341 35 36 32
-0.696975 0.705304 1.82283 36 36 32
-0.66609 0.683412 1.76625 35 35 31
-0.656839 0.683412 1.76625 36 35 31
-0.67611 0.713512 1.84404 35 35 31
-0.670634 0.71799 1.85562 35 35 31
-0.626062 0.680128 1.75776 35 34 30
-0.629982 0.694601 1.79517 34 34 30
-0.610583 0.683412 1.76625 35 35 32
-0.601332 0.683412 1.76625 36 36 33
-0.611047 0.705304 1.82283 35 35 32
-0.601499 0.705304 1.82283 35 35 31
-0.602599 0.71799 1.85562 35 35 31
-0.589182 0.713512 1.84404 36 35 32
-0.572856 0.705304 1.82283 36 36 34
-0.563309 0.705304 1.82283 37 36 34
-0.523957 0.667343 1.72472 36 36 34
-0.527322 0.683412 1.76625 37 36 34
-0.534666 0.705304 1.82283 36 36 34
-0.51715 0.694601 1.79517 36 35 33
-0.515571 0.705304 1.82283 34 34 31
-0.494585 0.68936 1.78162 34 34 30
-0.485253 0.68936 1.78162 35 35 32
-0.500686 0.725233 1.87433 36 37 34
-0.466589 0.68936 1.78162 36 36 33
-0.447149 0.674121 1.74224 36 36 33
-0.44406 0.683412 1.76625 35 35 32
-0.430481 0.676609 1.74867 35 35 31
-0.423513 0.680128 1.75776 35 35 31
-0.414306 0.680128 1.75776 35 35 32
-0.405099 0.680128 1.75776 35 35 32
-0.407651 0.700328 1.80997 35 36 32
-0.391935 0.68936 1.78162 35 36 33
-0.40064 0.721858 1.86561 36 36 34
-0.366367 0.676609 1.74867 35 36 33
-0.357208 0.676609 1.74867 34 35 32
-0.351548 0.683412 1.76625 35 36 32
-0.345276 0.68936 1.78162 36 36 34
-0.333045 0.683412 1.76625 36 36 33
-0.331809 0.700328 1.80997 36 36 33
-0.314543 0.683412 1.76625 36 37 33
-0.303824 0.680128 1.75776 38 38 35
-0.29604 0.683412 1.76625 36 37 33
-0.286789 0.683412 1.76625 35 36 32
-0.279954 0.68936 1.78162 35 35 32
-0.266997 0.680128 1.75776 35 35 32
-0.255514 0.674121 1.74224 36 36 34
-0.259379 0.709663 1.8341 37 36 34
-0.223232 0.634256 1.63921 36 36 34
-0.231281 0.683412 1.76625 36 36 34
-0.211885 0.652185 1.68555 36 36 33
-0.214631 0.68936 1.78162 36 35 33
-0.205299 0.68936 1.78162 36 36 33
-0.189708 0.667343 1.72472 36 35 33
-0.183183 0.676609 1.74867 36 35 33
-0.16558 0.643778 1.66382 36 35 32
-0.170645 0.700328 1.80997 35 35 32
-0.155133 0.674121 1.74224 35 35 32
-0.14454 0.667343 1.72472 34 35 32
-0.138769 0.683412 1.76625 34 35 32
-0.129518 0.683412 1.76625 35 35 33
-0.117439 0.667343 1.72472 34 35 32
-0.112833 0.694601 1.79517 34 34 31
-0.10265 0.68936 1.78162 34 34 31
-0.0871473 0.643778 1.66382 34 34 32
-0.079457 0.652185 1.68555 36 36 34
-0.0721573 0.666304 1.72203 35 35 33
-0.062507 0.659648 1.70483 34 34 32
-0.0522884 0.643778 1.66382 34 34 31
-0.0457958 0.676609 1.74867 35 35 32
-0.0368272 0.680128 1.75776 35 36 32
-0.0267887 0.659648 1.70483 35 35 32
-0.0185025 0.683412 1.76625 34 34 30
-0.00912549 0.674121 1.74224 33 34 30
0 0.652185 1.68555 33 33 30
0.00940272 0.694601 1.79517 34 34 32
0.0186636 0.68936 1.78162 34 34 32
0.0273765 0.674121 1.74224 34 35 33
0.0348589 0.643778 1.66382 34 35 33
0.0441428 0.652185 1.68555 34 34 32
0.0542024 0.667343 1.72472 34 34 30
0.062507 0.659648 1.70483 33 33 30
0.0722699 0.667343 1.72472 34 34 31
0.0824325 0.676609 1.74867 34 34 31
0.0915917 0.676609 1.74867 33 33 30
0.0982252 0.659648 1.70483 33 34 30
0.112833 0.694601 1.79517 33 34 31
0.117439 0.667343 1.72472 34 34 32
0.125014 0.659648 1.70483 33 34 31
0.135506 0.667343 1.72472 33 34 31
0.14802 0.683412 1.76625 34 35 33
0.150085 0.652185 1.68555 35 35 34
0.15545 0.637969 1.64881 34 35 33
0.169662 0.659648 1.70483 34 35 33
0.178591 0.659648 1.70483 35 36 34
0.194276 0.683412 1.76625 34 36 34
0.198742 0.667343 1.72472 34 35 33
0.197474 0.634256 1.63921 33 35 34
0.225665 0.694601 1.79517 33 35 33
0.220714 0.652185 1.68555 32 35 33
0.244471 0.694601 1.79517 31 35 33
0.246388 0.674121 1.74224 32 35 33
0.263276 0.694601 1.79517 32 35 33
0.274927 0.700328 1.80997 33 36 34
0.284408 0.700328 1.80997 33 35 34
0.291484 0.694601 1.79517 33 35 34
0.298617 0.68936 1.78162 32 35 33
0.301141 0.674121 1.74224 31 34 32
0.310267 0.674121 1.74224 31 34 32
0.331809 0.700328 1.80997 30 34 32
0.317828 0.652185 1.68555 29 32 32
0.345276 0.68936 1.78162 27 31 31
0.343282 0.667343 1.72472 28 32 32
0.355894 0.674121 1.74224 31 35 35
0.365019 0.674121 1.74224 33 37 36
0.385511 0.694601 1.79517 35 38 37
0.379417 0.667343 1.72472 35 38 37
0.383971 0.659648 1.70483 34 37 36
0.387663 0.650854 1.68211 33 37 35
0.406518 0.667343 1.72472 33 36 36
0.421322 0.676609 1.74867 34 37 36
0.428898 0.674121 1.74224 34 37 37
0.451331 0.694601 1.79517 33 36 36
0.447149 0.674121 1.74224 31 35 35
0.47738 0.705304 1.82283 31 35 35
0.475921 0.68936 1.78162 33 36 36
0.481065 0.683412 1.76625 34 37 37
0.490317 0.683412 1.76625 34 38 38
0.488862 0.668767 1.7284 34 38 37
0.503754 0.676609 1.74867 33 37 36
0.506968 0.668767 1.7284 33 37 36
0.522073 0.676609 1.74867 34 38 37
0.531232 0.676609 1.74867 34 38 37
0.573441 0.71799 1.85562 33 38 36
0.54955 0.676609 1.74867 32 37 36
0.551058 0.667343 1.72472 32 37 36
0.587776 0.700328 1.80997 32 37 36
0.577028 0.676609 1.74867 34 38 37
0.589235 0.680128 1.75776 33 38 37
0.616216 0.700328 1.80997 33 38 37
0.620579 0.694601 1.79517 34 38 37
0.623946 0.687945 1.77797 34 38 37
0.644657 0.700328 1.80997 32 37 37
0.661557 0.708271 1.8305 30 36 36
0.671144 0.708271 1.8305 31 37 37
0.674765 0.702063 1.81445 31 37 37
0.684269 0.702063 1.81445 30 37 37
0.679821 0.687945 1.77797 31 37 37
0.677778 0.676609 1.74867 33 38 38
0.705204 0.694601 1.79517 34 39 39
0.707759 0.687945 1.77797 33 38 38
0.731787 0.702063 1.81445 33 38 38
0.696506 0.659648 1.70483 34 39 39
0.775573 0.725233 1.87433 35 40 40
0.78539 0.725233 1.87433 35 40 40
0.733294 0.668767 1.7284 35 38 39
0.771023 0.694601 1.79517 34 37 38
0.780426 0.694601 1.79517 34 37 38
0.82466 0.725233 1.87433 34 37 38
0.807817 0.702063 1.81445 36 39 40
0.838194 0.719992 1.86079 37 41 41
0.882463 0.749305 1.93655 37 41 41
0.863929 0.725233 1.87433 36 40 40
0.873747 0.725233 1.87433 36 40 40
0.87718 0.719992 1.86079 36 39 40
0.919701 0.746598 1.92955 36 40 40
0.929808 0.746598 1.92955 36 39 40
0.874453 0.694601 1.79517 35 38 39
0.907919 0.713512 1.84404 34 38 39
0.874646 0.680128 1.75776 34 38 38
0.91657 0.705304 1.82283 34 38 38
0.970236 0.738903 1.90967 35 39 38
0.935665 0.705304 1.82283 36 40 39
0.945213 0.705304 1.82283 36 40 39
0.992491 0.733176 1.89486 35 39 38
1.00242 0.733176 1.89486 34 38 37
1.06851 0.773856 2 34 38 37
1.07899 0.773856 2 35 39 38
1.08946 0.773856 2 35 40 39
1.03082 0.725233 1.87433 34 39 38
1.11041 0.773856 2 34 39 38
1.05046 0.725233 1.87433 35 40 39
1.06028 0.725233 1.87433 36 40 39
1.08181 0.733176 1.89486 36 40 39
1.07991 0.725233 1.87433 34 39 39
1.16279 0.773856 2 33 37 38
1.09955 0.725233 1.87433 34 38 39
1.10936 0.725233 1.87433 33 38 39
1.10109 0.713512 1.84404 33 38 39
1.20469 0.773856 2 35 40 40
1.03583 0.659648 1.70483 36 41 41
1.22564 0.773856 2 37 41 42
1.05369 0.659648 1.70483 36 40 41
1.11892 0.694601 1.79517 34 39 40
-0.75728 0.472483 1.20483 35 35 30
-0.774284 0.487152 1.24224 36 36 32
-0.92709 0.588235 1.5 37 37 33
-0.919233 0.588235 1.5 36 36 31
-0.816619 0.527075 1.34404 35 36 31
-0.849107 0.55281 1.40967 35 36 31
-0.690233 0.453317 1.15596 35 36 31
-0.735245 0.487152 1.24224 36 35 31
-0.826957 0.55281 1.40967 36 35 31
-0.753004 0.507909 1.29517 35 34 30
-0.81219 0.55281 1.40967 36 35 31
-0.804806 0.55281 1.40967 36 35 31
-0.732653 0.507909 1.29517 36 36 31
-0.840666 0.588235 1.5 36 36 32
-0.90258 0.637516 1.62567 36 36 32
-0.856695 0.610869 1.55772 36 36 32
-0.705517 0.507909 1.29517 35 36 32
-0.80924 0.588235 1.5 35 36 32
-0.753121 0.55281 1.40967 35 36 32
-0.793526 0.588235 1.5 36 36 33
-0.92068 0.689318 1.75776 36 37 34
-0.777813 0.588235 1.5 37 37 34
-0.962103 0.735033 1.87433 37 37 34
-0.807995 0.623661 1.59033 37 36 33
-0.754243 0.588235 1.5 37 37 33
-0.791335 0.623661 1.59033 37 36 33
-0.865439 0.689318 1.75776 37 36 33
-0.806642 0.649395 1.65596 36 35 31
-0.913091 0.743084 1.89486 35 34 31
-0.789295 0.649395 1.65596 35 35 32
-0.846245 0.703987 1.79517 36 36 34
-0.819405 0.689318 1.75776 37 37 35
-0.921852 0.784314 2 37 37 34
-0.776872 0.668562 1.70483 36 36 32
-0.821094 0.714835 1.82283 36 36 32
-0.759013 0.668562 1.70483 36 36 32
-0.779459 0.694745 1.7716 35 35 31
-0.760211 0.685752 1.74867 34 35 31
-0.771023 0.703987 1.79517 35 35 32
-0.782356 0.723154 1.84404 35 36 33
-0.767022 0.717843 1.8305 36 37 34
-0.74894 0.709792 1.80997 35 36 32
-0.727879 0.698676 1.78162 35 35 31
-0.712347 0.692647 1.76625 35 35 31
-0.742649 0.731613 1.86561 35 35 31
-0.711019 0.709792 1.80997 35 35 31
-0.684593 0.692647 1.76625 35 35 31
-0.696975 0.714835 1.82283 35 35 31
-0.682578 0.709792 1.80997 35 35 31
-0.667593 0.703987 1.79517 35 35 31
-0.647588 0.692647 1.76625 35 35 30
-0.643893 0.698676 1.78162 35 35 30
-0.644657 0.709792 1.80997 35 34 30
-0.643643 0.719253 1.8341 35 35 32
-0.637475 0.723154 1.84404 36 36 33
-0.595346 0.685752 1.74867 36 36 33
-0.611047 0.714835 1.82283 35 35 32
-0.577028 0.685752 1.74867 36 36 33
-0.587776 0.709792 1.80997 36 36 34
-0.573566 0.703987 1.79517 37 36 34
-0.54318 0.677804 1.7284 37 37 34
-0.563309 0.714835 1.82283 37 36 34
-0.536573 0.692647 1.76625 36 36 33
-0.527322 0.692647 1.76625 36 36 33
-0.511027 0.683231 1.74224 36 36 34
-0.51715 0.703987 1.79517 35 34 32
-0.503916 0.698676 1.78162 34 34 31
-0.478788 0.676361 1.72472 34 34 31
-0.470756 0.677804 1.7284 35 36 33
-0.471814 0.692647 1.76625 35 35 33
-0.425745 0.637516 1.62567 35 35 31
-0.453312 0.692647 1.76625 36 36 33
-0.458285 0.714835 1.82283 36 36 34
-0.430481 0.685752 1.74867 36 36 33
-0.419772 0.683231 1.74224 35 35 32
-0.41993 0.698676 1.78162 36 35 32
-0.398332 0.677804 1.7284 35 35 32
-0.422147 0.735033 1.87433 35 35 33
-0.384685 0.685752 1.74867 35 35 32
-0.374145 0.683231 1.74224 36 37 34
-0.376109 0.703987 1.79517 37 38 35
-0.36394 0.698676 1.78162 34 35 32
-0.348048 0.685752 1.74867 33 34 31
-0.330394 0.668562 1.70483 35 35 33
-0.335944 0.698676 1.78162 36 36 33
-0.323794 0.692647 1.76625 35 35 31
-0.322329 0.709792 1.80997 35 35 31
-0.307949 0.698676 1.78162 36 36 33
-0.29604 0.692647 1.76625 36 36 33
-0.273126 0.659649 1.68211 35 36 32
-0.261442 0.652477 1.66382 35 35 32
-0.265616 0.685752 1.74867 35 35 33
-0.252945 0.676361 1.72472 36 36 34
-0.246388 0.683231 1.74224 36 36 34
-0.238138 0.685752 1.74867 36 36 34
-0.231281 0.692647 1.76625 36 36 34
-0.21431 0.668562 1.70483 35 35 33
-0.220519 0.717843 1.8305 36 36 34
-0.210931 0.717843 1.8305 36 36 34
-0.195967 0.698676 1.78162 35 35 33
-0.180675 0.676361 1.72472 35 35 32
-0.169662 0.668562 1.70483 36 35 33
-0.166523 0.692647 1.76625 36 35 33
-0.150085 0.660999 1.68555 35 35 33
-0.14802 0.692647 1.76625 35 35 32
-0.133943 0.668562 1.70483 35 35 32
-0.129518 0.692647 1.76625 35 35 33
-0.120266 0.692647 1.76625 34 35 31
-0.104577 0.652477 1.66382 32 33 30
-0.10038 0.683231 1.74224 33 34 31
-0.0903373 0.676361 1.72472 34 34 31
-0.079457 0.660999 1.68555 34 34 32
-0.0706284 0.660999 1.68555 34 34 32
-0.0668332 0.714835 1.82283 35 35 33
-0.0542024 0.676361 1.72472 35 35 33
-0.0462563 0.692647 1.76625 36 36 33
-0.0357183 0.668562 1.70483 36 36 33
-0.0279954 0.698676 1.78162 35 35 31
-0.0172722 0.64659 1.64881 34 34 30
-0.00871474 0.652477 1.66382 33 34 30
0 0.676361 1.72472 33 33 30
0.00933178 0.698676 1.78162 34 34 32
0.0186636 0.698676 1.78162 34 35 32
0.0274775 0.685752 1.74867 35 35 34
0.0365019 0.683231 1.74224 35 36 34
0.0451687 0.676361 1.72472 34 35 32
0.0555075 0.692647 1.76625 34 34 31
0.0663618 0.709792 1.80997 34 34 31
0.0714365 0.668562 1.70483 35 35 32
0.0803661 0.668562 1.70483 34 34 31
0.0903373 0.676361 1.72472 32 33 29
0.100751 0.685752 1.74867 33 33 30
0.108405 0.676361 1.72472 33 33 30
0.117439 0.676361 1.72472 32 33 30
0.130645 0.698676 1.78162 31 32 29
0.135506 0.676361 1.72472 32 32 30
0.14802 0.692647 1.76625 34 34 32
0.153573 0.676361 1.72472 34 35 33
0.166523 0.692647 1.76625 34 35 33
0.16558 0.652477 1.66382 34 35 33
0.185025 0.692647 1.76625 34 35 34
0.1854 0.660999 1.68555 34 35 34
0.198742 0.676361 1.72472 34 36 34
0.210661 0.685752 1.74867 34 36 34
0.21681 0.676361 1.72472 34 36 34
0.220714 0.660999 1.68555 33 35 34
0.235378 0.677804 1.7284 33 35 34
0.251958 0.698676 1.78162 32 35 33
0.272141 0.727692 1.85562 31 34 32
0.268286 0.692647 1.76625 31 34 32
0.284408 0.709792 1.80997 31 34 32
0.289285 0.698676 1.78162 33 35 34
0.289696 0.677804 1.7284 34 35 34
0.287586 0.652477 1.66382 32 34 33
0.310267 0.683231 1.74224 30 33 32
0.323794 0.692647 1.76625 31 34 33
0.335944 0.698676 1.78162 30 34 34
0.326656 0.660999 1.68555 31 34 35
0.339324 0.668562 1.70483 31 35 35
0.360799 0.692647 1.76625 32 35 36
0.361349 0.676361 1.72472 33 36 36
0.379302 0.692647 1.76625 35 38 37
0.38973 0.694745 1.7716 35 38 37
0.383971 0.668562 1.70483 34 37 36
0.407055 0.692647 1.76625 33 37 36
0.41993 0.698676 1.78162 33 36 36
0.421322 0.685752 1.74867 34 37 37
0.424586 0.676361 1.72472 34 37 37
0.428619 0.668562 1.70483 33 36 36
0.460733 0.703987 1.79517 32 35 35
0.479389 0.717843 1.8305 30 34 34
0.479539 0.703987 1.79517 32 36 35
0.469754 0.676361 1.72472 34 37 37
0.494585 0.698676 1.78162 34 37 37
0.511934 0.709792 1.80997 32 37 36
0.503754 0.685752 1.74867 33 37 36
0.521507 0.697241 1.77797 34 38 37
0.554002 0.727692 1.85562 33 37 36
0.545358 0.703987 1.79517 33 37 36
0.55476 0.703987 1.79517 32 37 36
0.579523 0.723154 1.84404 32 36 35
0.582404 0.714835 1.82283 32 37 36
0.56578 0.683231 1.74224 33 38 37
0.556199 0.660999 1.68555 34 39 38
0.579393 0.677804 1.7284 34 38 38
0.611177 0.703987 1.79517 34 39 38
0.627246 0.71155 1.81445 35 39 39
0.664969 0.743084 1.89486 34 39 38
0.639385 0.703987 1.79517 34 39 38
0.666451 0.723154 1.84404 32 37 38
0.671144 0.717843 1.8305 31 37 37
0.701187 0.739412 1.8855 30 36 36
