ply
format ascii 1.0
element vertex 1365
property float x
property float y
property float z
property uchar red
property uchar green
property uchar blue
end_header
-0.28111 0.166621 1.67717 35 36 32
-0.26978 0.165063 1.66149 36 36 33
-0.26354 0.166621 1.67717 36 37 33
-0.250747 0.163999 1.65078 37 37 34
-0.239696 0.16237 1.63439 36 37 34
-0.237186 0.166621 1.67717 37 37 34
-0.228402 0.166621 1.67717 38 38 35
-0.221301 0.167898 1.69003 37 37 34
-0.208862 0.165063 1.66149 37 36 33
-0.201642 0.166286 1.6738 37 37 34
-0.18628 0.160601 1.61657 38 37 34
-0.184108 0.166286 1.6738 38 38 34
-0.174051 0.165063 1.66149 37 37 34
-0.160878 0.160601 1.61657 37 37 34
-0.156646 0.165063 1.66149 37 37 34
-0.144753 0.161504 1.62567 37 37 34
-0.141633 0.167898 1.69003 37 38 35
-0.128409 0.16237 1.63439 37 38 35
-0.121836 0.165063 1.66149 38 38 35
-0.118053 0.172242 1.73375 39 39 35
-0.104431 0.165063 1.66149 39 39 35
-0.0951111 0.163999 1.65078 38 38 34
-0.0878468 0.166621 1.67717 37 38 34
-0.0790621 0.166621 1.67717 37 37 32
-0.0696205 0.165063 1.66149 37 37 32
-0.0619642 0.167898 1.69003 36 36 32
-0.0518788 0.163999 1.65078 36 36 31
-0.0432323 0.163999 1.65078 36 36 31
-0.0351387 0.166621 1.67717 36 36 31
-0.0262335 0.165859 1.6695 36 35 31
-0.0175694 0.166621 1.67717 35 35 30
-0.00870257 0.165063 1.66149 37 37 32
0 0.163999 1.65078 38 37 34
0.00864646 0.163999 1.65078 37 37 33
0.0175694 0.166621 1.67717 37 36 32
0.0267887 0.169369 1.70483 37 36 33
0.0345858 0.163999 1.65078 37 36 33
0.0419496 0.159133 1.6018 37 36 33
0.0518788 0.163999 1.65078 37 36 32
0.0587295 0.159133 1.6018 37 37 34
0.0677979 0.160742 1.618 37 38 34
0.078531 0.165502 1.6659 36 37 33
0.0859722 0.163065 1.64138 35 36 32
0.093664 0.161504 1.62567 37 37 34
0.105416 0.166621 1.67717 37 38 34
0.111288 0.16237 1.63439 36 37 33
0.116182 0.157403 1.58438 35 36 31
0.131506 0.166286 1.6738 36 37 31
0.137556 0.163065 1.64138 36 37 32
0.146153 0.163065 1.64138 36 37 32
0.15409 0.16237 1.63439 36 36 32
0.162651 0.16237 1.63439 35 36 32
0.174051 0.165063 1.66149 35 36 31
0.188867 0.170585 1.71707 36 37 34
0.193263 0.166621 1.67717 37 38 35
0.197736 0.163065 1.64138 36 37 33
0.199916 0.157994 1.59033 35 36 32
0.214931 0.163065 1.64138 35 36 32
0.226267 0.165063 1.66149 35 36 31
0.228818 0.160742 1.618 37 38 34
0.242101 0.163999 1.65078 37 38 34
0.256943 0.168052 1.69157 36 37 32
0.259394 0.163999 1.65078 36 37 32
0.272765 0.16689 1.67988 36 37 32
0.28111 0.166621 1.67717 36 36 32
0.289894 0.166621 1.67717 35 36 33
0.301244 0.168052 1.69157 35 36 33
0.299967 0.162558 1.63628 36 37 34
0.303336 0.159818 1.60869 36 36 34
0.307051 0.157403 1.58438 36 36 33
0.339324 0.169369 1.70483 36 36 33
0.345229 0.167898 1.69003 36 36 34
0.351387 0.166621 1.67717 37 37 34
0.35139 0.162558 1.63628 37 37 34
0.361744 0.163364 1.64438 36 36 34
0.380637 0.167898 1.69003 37 36 34
0.376666 0.16237 1.63439 36 37 34
0.389091 0.163999 1.65078 36 36 33
0.404095 0.166621 1.67717 35 36 33
0.42342 0.170875 1.71999 34 36 33
0.416331 0.164513 1.65596 35 36 33
0.414896 0.160601 1.61657 34 36 33
0.430648 0.163364 1.64438 34 35 32
0.448019 0.166621 1.67717 35 36 34
0.452533 0.165063 1.66149 36 37 35
0.477474 0.170875 1.71999 34 36 33
0.47801 0.167898 1.69003 33 34 31
0.487306 0.168052 1.69157 34 36 33
0.500056 0.169369 1.70483 35 37 34
0.516739 0.171949 1.7308 35 36 34
0.522029 0.170714 1.71838 35 36 34
0.522746 0.168052 1.69157 34 36 34
0.527081 0.166621 1.67717 34 35 33
0.55956 0.173989 1.75133 34 36 34
0.54465 0.166621 1.67717 34 35 33
0.567563 0.170875 1.71999 34 36 34
0.591287 0.175235 1.76388 34 37 35
0.565667 0.165063 1.66149 34 36 35
0.589351 0.169369 1.70483 34 36 34
0.593086 0.167898 1.69003 33 36 34
0.598323 0.16689 1.67988 33 36 34
0.637481 0.175235 1.76388 33 36 34
0.62507 0.169369 1.70483 34 36 34
0.639036 0.170714 1.71838 35 36 35
0.662889 0.174627 1.75776 34 36 35
0.651858 0.169369 1.70483 33 34 34
0.666037 0.170714 1.71838 32 33 33
0.681077 0.172242 1.73375 32 33 33
0.695151 0.173488 1.74629 32 33 32
0.693039 0.170714 1.71838 35 36 34
0.71813 0.174627 1.75776 35 36 35
0.705436 0.169369 1.70483 35 35 34
0.733849 0.173989 1.75133 34 35 33
0.729724 0.170875 1.71999 33 35 33
0.750031 0.173488 1.74629 33 34 33
0.790306 0.180601 1.81789 32 34 34
0.773371 0.174627 1.75776 32 33 34
0.766672 0.171078 1.72203 27 29 30
0.798018 0.176002 1.7716 25 28 28
0.828393 0.180601 1.81789 27 30 31
0.810198 0.174627 1.75776 31 34 34
0.842441 0.179537 1.80718 32 35 35
0.803661 0.169369 1.70483 32 35 35
0.830419 0.173085 1.74224 34 36 36
0.87838 0.181091 1.82283 34 36 36
0.867856 0.176998 1.78162 32 35 35
0.877188 0.176998 1.78162 32 35 35
0.907022 0.181091 1.82283 31 34 34
0.91657 0.181091 1.82283 32 36 35
0.936895 0.183199 1.84404 35 38 37
0.875097 0.169369 1.70483 37 40 39
0.982566 0.188248 1.89486 37 39 39
0.931262 0.176634 1.77797 36 38 37
0.914354 0.17171 1.7284 35 37 37
1.00137 0.186208 1.87433 35 37 37
0.96848 0.178343 1.79517 34 37 36
0.988388 0.180259 1.81445 33 37 37
1.00672 0.181853 1.8305 32 37 36
0.975921 0.174627 1.75776 32 36 36
1.0169 0.180259 1.81445 31 36 36
1.00216 0.176002 1.7716 32 37 36
1.0249 0.178343 1.79517 33 37 36
1.11173 0.191694 1.92955 34 36 36
1.0437 0.178343 1.79517 35 37 37
1.08178 0.183199 1.84404 36 38 38
1.14205 0.191694 1.92955 34 38 38
1.11109 0.184863 1.86079 33 38 37
1.12084 0.184863 1.86079 35 39 38
1.15129 0.188248 1.89486 35 39 39
1.08568 0.176002 1.7716 35 39 39
1.31379 0.211177 2.12567 36 39 39
1.3438 0.214187 2.15596 35 39 39
-0.601899 0.100143 0.957621 41 38 36
-0.648066 0.108731 1.03974 40 39 37
-0.64262 0.108731 1.03974 39 38 36
-0.612822 0.104575 1 36 36 33
-0.658855 0.1134 1.08438 35 36 32
-0.678041 0.117717 1.12567 37 37 34
-0.573381 0.10042 0.960263 38 38 34
-0.645337 0.114022 1.09033 38 38 34
-0.611494 0.109007 1.04238 38 38 33
-0.646046 0.116204 1.1112 38 38 34
-0.624776 0.1134 1.08438 38 37 33
-0.593606 0.108731 1.03974 38 38 33
-0.591362 0.109322 1.0454 38 37 33
-0.630873 0.117717 1.12567 38 37 33
-0.624977 0.117717 1.12567 38 37 33
-0.59965 0.114022 1.09033 37 37 33
-0.609007 0.116915 1.118 36 36 32
-0.596214 0.11557 1.10514 35 35 31
-0.597295 0.116915 1.118 35 35 31
-0.629547 0.124448 1.19003 36 36 33
-0.610677 0.121925 1.1659 36 37 34
-0.60457 0.121925 1.1659 37 37 34
-0.570383 0.116204 1.1112 37 38 35
-0.626827 0.12902 1.23375 37 37 34
-0.612634 0.127412 1.21838 36 37 33
-0.569435 0.119674 1.14438 37 37 34
-0.599871 0.127412 1.21838 37 37 34
-0.641966 0.137819 1.31789 37 37 34
-0.587108 0.127412 1.21838 37 37 34
-0.596434 0.130858 1.25133 38 37 35
-0.599434 0.132978 1.2716 38 37 35
-0.60376 0.135442 1.29517 38 38 35
-0.619504 0.140553 1.34404 38 37 35
-0.664221 0.152431 1.45762 38 37 34
-0.595869 0.138335 1.32283 37 36 34
-0.611871 0.143721 1.37433 37 36 33
-0.625131 0.148584 1.42083 37 37 34
-0.652106 0.156863 1.5 38 38 35
-0.628183 0.152951 1.46259 37 37 34
-0.636392 0.156863 1.5 36 36 33
-0.628536 0.156863 1.5 36 36 32
-0.620679 0.156863 1.5 36 36 32
-0.636402 0.162898 1.55772 36 36 33
-0.624677 0.161974 1.54887 36 36 32
-0.620084 0.162898 1.55772 36 37 33
-0.608452 0.161974 1.54887 37 37 35
-0.671996 0.181307 1.73375 38 38 35
-0.613739 0.167857 1.60514 38 38 35
-0.605331 0.167857 1.60514 37 38 35
-0.62086 0.174588 1.6695 37 38 35
-0.612116 0.174588 1.6695 37 38 35
-0.606143 0.17539 1.67717 37 37 34
-0.597358 0.17539 1.67717 36 37 33
-0.598281 0.178283 1.70483 36 36 32
-0.54977 0.166309 1.59033 36 36 32
-0.590267 0.181307 1.73375 35 35 31
-0.589235 0.183818 1.75776 36 36 32
-0.586695 0.185931 1.77797 37 37 34
-0.564226 0.181694 1.73745 37 37 35
-0.544704 0.178283 1.70483 37 37 34
-0.552408 0.183818 1.75776 36 36 33
-0.519133 0.175674 1.67988 37 37 34
-0.529278 0.182195 1.74224 38 37 35
-0.51264 0.179563 1.71707 38 38 36
-0.508538 0.181307 1.73375 38 38 36
-0.491126 0.178283 1.70483 38 38 35
-0.486027 0.179699 1.71838 37 37 34
-0.473267 0.178283 1.70483 37 36 34
-0.471411 0.180999 1.7308 37 36 33
-0.451865 0.176896 1.69157 36 36 32
-0.446478 0.178283 1.70483 37 36 32
-0.441025 0.179699 1.71838 37 36 32
-0.428619 0.178283 1.70483 37 36 33
-0.41288 0.17539 1.67717 38 38 34
-0.407194 0.176735 1.69003 38 38 34
-0.391615 0.173751 1.66149 38 38 35
-0.386526 0.17539 1.67717 37 37 34
-0.387022 0.179699 1.71838 37 36 33
-0.375042 0.178283 1.70483 37 36 33
-0.369021 0.179699 1.71838 37 36 32
-0.348103 0.173751 1.66149 36 36 32
-0.342602 0.17539 1.67717 36 35 31
-0.339324 0.178283 1.70483 36 36 32
-0.321995 0.173751 1.66149 38 37 34
-0.330232 0.183146 1.75133 37 37 34
-0.307464 0.17539 1.67717 37 37 34
-0.29106 0.170916 1.63439 37 37 34
-0.294676 0.178283 1.70483 36 36 33
-0.28111 0.17539 1.67717 36 37 34
-0.276817 0.178283 1.70483 37 37 34
-0.275194 0.183146 1.75133 37 37 34
-0.252374 0.173751 1.66149 37 37 34
-0.250028 0.178283 1.70483 36 37 34
-0.234969 0.173751 1.66149 36 37 33
-0.232169 0.178283 1.70483 37 37 34
-0.219176 0.175038 1.6738 37 37 34
-0.205454 0.170916 1.63439 37 37 34
-0.196893 0.170916 1.63439 38 37 35
-0.194745 0.176735 1.69003 38 38 35
-0.186062 0.176896 1.69157 38 38 35
-0.172259 0.171962 1.64438 37 37 34
-0.166909 0.17539 1.67717 37 37 34
-0.159337 0.176735 1.69003 36 37 34
-0.153152 0.179868 1.71999 36 36 33
-0.144008 0.179699 1.71838 36 37 33
-0.13177 0.17539 1.67717 37 38 34
-0.119848 0.170916 1.63439 38 38 34
-0.109069 0.167509 1.6018 38 38 35
-0.104083 0.173172 1.65596 38 39 35
-0.0967876 0.175674 1.67988 38 38 34
-0.0878468 0.17539 1.67717 37 37 34
-0.0778182 0.172631 1.65078 37 37 33
-0.0691717 0.172631 1.65078 37 37 33
-0.0599241 0.170916 1.63439 37 37 33
-0.0515833 0.171648 1.64138 37 36 33
-0.0436283 0.174212 1.6659 36 36 31
-0.0333194 0.166309 1.59033 36 36 32
-0.0257917 0.171648 1.64138 36 36 31
-0.0175977 0.175674 1.67988 36 36 31
-0.00864646 0.172631 1.65078 38 37 33
0 0.169202 1.618 37 37 33
0.00886011 0.176896 1.69157 37 37 33
0.0174513 0.174212 1.6659 37 36 33
0.0255447 0.170004 1.62567 37 36 33
0.0340596 0.170004 1.62567 37 36 33
0.0429861 0.171648 1.64138 37 36 32
0.0510894 0.170004 1.62567 37 36 32
0.0610797 0.174212 1.6659 37 37 34
0.0671194 0.167509 1.6018 37 38 34
0.078531 0.174212 1.6659 36 37 33
0.0872567 0.174212 1.6659 35 36 32
0.0959824 0.174212 1.6659 35 36 32
0.104708 0.174212 1.6659 36 37 33
0.114201 0.17539 1.67717 36 37 32
0.117964 0.168229 1.60869 35 37 32
0.130104 0.173172 1.65596 35 36 31
0.139611 0.174212 1.6659 35 37 32
0.143944 0.169053 1.61657 35 36 32
0.15838 0.175674 1.67988 35 36 32
0.169662 0.178283 1.70483 35 37 33
0.169345 0.169053 1.61657 36 37 33
0.186062 0.176896 1.69157 37 38 34
0.193575 0.175674 1.67988 37 38 35
0.196893 0.170916 1.63439 36 37 33
0.207515 0.172631 1.65078 35 36 32
0.217564 0.173751 1.66149 35 36 32
0.232169 0.178283 1.70483 35 36 32
0.233454 0.172631 1.65078 37 38 34
0.244319 0.174212 1.6659 36 37 33
0.246932 0.170004 1.62567 36 37 33
0.25278 0.168229 1.60869 36 38 33
0.272325 0.17539 1.67717 36 37 33
0.272477 0.170004 1.62567 35 36 33
0.287947 0.174212 1.6659 35 36 33
0.306304 0.179868 1.71999 36 36 34
0.301453 0.171962 1.64438 37 37 34
0.312249 0.173172 1.65596 36 36 34
0.315052 0.170004 1.62567 36 36 33
0.330698 0.173751 1.66149 36 36 33
0.337212 0.172631 1.65078 36 36 33
0.345858 0.172631 1.65078 36 36 33
0.349111 0.170004 1.62567 37 37 34
0.368957 0.17539 1.67717 37 37 34
0.380637 0.176735 1.69003 37 37 35
0.386526 0.17539 1.67717 37 37 34
0.395311 0.17539 1.67717 36 36 34
0.414023 0.179699 1.71838 35 36 33
0.41969 0.178283 1.70483 34 35 32
0.417723 0.173751 1.66149 35 36 33
0.437549 0.178283 1.70483 34 36 33
0.442602 0.176735 1.69003 35 36 33
0.459456 0.179868 1.71999 36 37 34
0.468465 0.179868 1.71999 35 36 34
0.48966 0.184458 1.76388 34 35 32
0.490376 0.181307 1.73375 33 35 32
0.482187 0.175038 1.6738 34 35 33
0.48572 0.173172 1.65596 35 36 34
0.500727 0.17539 1.67717 34 35 33
0.522029 0.179699 1.71838 34 35 33
0.53487 0.180999 1.7308 34 35 33
0.535774 0.178283 1.70483 34 35 33
0.539974 0.176735 1.69003 34 36 34
0.553633 0.178283 1.70483 34 36 34
0.576244 0.182619 1.74629 34 36 34
0.581186 0.181307 1.73375 34 36 35
0.585033 0.179699 1.71838 34 36 34
0.609765 0.184458 1.76388 34 36 34
0.612831 0.182619 1.74629 33 35 33
0.621977 0.182619 1.74629 33 35 34
0.600477 0.173751 1.66149 33 35 34
0.630035 0.179699 1.71838 34 36 34
0.655959 0.184458 1.76388 35 37 35
0.653834 0.181307 1.73375 34 36 35
0.674437 0.184458 1.76388 32 34 33
0.666037 0.179699 1.71838 32 34 33
0.675671 0.179868 1.71999 32 34 33
0.666295 0.175038 1.6738 33 34 33
0.67642 0.17539 1.67717 35 36 35
0.702039 0.179699 1.71838 35 36 35
0.72987 0.184458 1.76388 35 36 34
0.731738 0.182619 1.74629 34 35 34
0.729724 0.179868 1.71999 33 34 33
0.746234 0.181694 1.73745 32 34 34
0.784818 0.188787 1.80527 33 34 35
0.794274 0.188787 1.80527 32 34 35
0.794259 0.186562 1.784 31 34 34
0.791785 0.183818 1.75776 31 34 34
0.776872 0.178283 1.70483 31 34 35
0.810198 0.183818 1.75776 32 35 35
0.830529 0.186314 1.78162 33 35 35
0.861491 0.191112 1.82751 33 36 36
0.830419 0.182195 1.74224 34 36 36
0.839545 0.182195 1.74224 33 36 36
0.860367 0.184706 1.76625 32 35 35
0.875386 0.185931 1.77797 30 34 34
0.893258 0.18773 1.79517 29 33 33
0.888121 0.184706 1.76625 32 35 35
0.936895 0.192841 1.84404 36 38 38
0.912637 0.185931 1.77797 37 40 39
0.930869 0.18773 1.79517 37 40 39
0.996658 0.198988 1.90282 37 39 39
0.959877 0.189747 1.81445 36 38 38
0.939093 0.183818 1.75776 35 37 37
0.9592 0.185931 1.77797 34 37 37
1.00451 0.192841 1.84404 33 37 37
0.997892 0.189747 1.81445 32 36 36
0.975921 0.183818 1.75776 31 36 36
1.05046 0.196009 1.87433 30 35 35
1.01549 0.18773 1.79517 31 36 36
1.01144 0.185265 1.7716 34 37 36
1.07211 0.194593 1.86079 34 36 36
1.08186 0.194593 1.86079 34 36 36
1.0531 0.18773 1.79517 34 36 36
1.13689 0.200871 1.92083 32 36 36
1.14028 0.199704 1.90967 33 37 37
1.20469 0.20915 2 34 39 38
1.10752 0.190623 1.82283 34 39 38
1.10012 0.18773 1.79517 34 38 38
1.18719 0.200871 1.92083 34 38 38
1.13617 0.190623 1.82283 34 37 37
-0.655172 0.114457 1.04238 41 39 37
-0.64532 0.113683 1.03533 40 39 37
-0.61806 0.109804 1 38 38 36
-0.612822 0.109804 1 36 36 34
-0.633333 0.114457 1.04238 36 36 33
-0.627873 0.114457 1.04238 37 37 34
-0.622413 0.114457 1.04238 37 38 34
-0.638727 0.118497 1.07917 37 37 32
-0.611494 0.114457 1.04238 36 36 31
-0.654457 0.123603 1.12567 37 37 32
-0.599052 0.114167 1.03974 37 37 32
-0.642665 0.123603 1.12567 37 37 33
-0.589655 0.114457 1.04238 37 37 33
-0.607737 0.11907 1.08438 37 37 33
-0.624977 0.123603 1.12567 37 37 33
-0.590971 0.11799 1.07455 37 37 33
-0.629686 0.126929 1.15596 36 36 32
-0.582203 0.118497 1.07917 35 35 31
-0.601393 0.123603 1.12567 35 35 30
-0.591439 0.12276 1.118 36 36 33
-0.631067 0.132295 1.20483 37 37 34
-0.588227 0.12456 1.13439 37 38 35
-0.604247 0.129258 1.17717 38 38 35
-0.581423 0.125658 1.14438 37 37 34
-0.58625 0.128021 1.1659 36 36 33
-0.599513 0.132295 1.20483 36 36 33
-0.585915 0.13067 1.19003 37 37 34
-0.579682 0.13067 1.19003 37 37 35
-0.588871 0.134184 1.22203 37 38 35
-0.617328 0.142214 1.29517 38 38 35
-0.585593 0.136403 1.24224 38 38 35
-0.626544 0.147581 1.34404 38 38 35
-0.619504 0.147581 1.34404 37 37 34
-0.617738 0.148852 1.35562 37 37 34
-0.610638 0.148852 1.35562 37 37 34
-0.58894 0.145252 1.32283 37 36 33
-0.620217 0.154787 1.40967 37 37 34
-0.612834 0.154787 1.40967 38 37 34
-0.623257 0.159339 1.45113 37 37 33
-0.591787 0.153161 1.39486 37 36 33
-0.628536 0.164706 1.5 37 37 33
-0.672678 0.178504 1.62567 37 37 33
-0.612822 0.164706 1.5 36 37 33
-0.622057 0.169359 1.54238 36 36 32
-0.616564 0.170072 1.54887 35 36 32
-0.630553 0.17625 1.60514 37 37 34
-0.616409 0.174625 1.59033 38 37 35
-0.628745 0.18056 1.64438 37 37 35
-0.642929 0.187197 1.70483 37 37 35
-0.644753 0.190373 1.73375 37 37 34
-0.578995 0.173399 1.57917 37 37 34
-0.603371 0.183318 1.6695 37 37 34
-0.585681 0.18056 1.64438 36 36 34
-0.54355 0.170072 1.54887 36 36 33
-0.589351 0.187197 1.70483 36 36 33
-0.571004 0.18416 1.67717 36 36 33
-0.579393 0.189785 1.7284 36 36 33
-0.562563 0.187197 1.70483 37 37 34
-0.537761 0.181831 1.65596 38 38 35
-0.540467 0.185741 1.69157 36 36 33
-0.527932 0.184457 1.67988 35 35 32
-0.52227 0.185572 1.69003 36 36 34
-0.501495 0.181262 1.65078 38 37 35
-0.500727 0.18416 1.67717 38 37 35
-0.503646 0.188541 1.71707 38 37 35
-0.499457 0.190373 1.73375 38 37 35
-0.449812 0.174625 1.59033 37 36 34
-0.480476 0.190049 1.7308 37 36 34
-0.453735 0.182923 1.6659 38 37 34
-0.474226 0.194933 1.77528 38 37 34
-0.457336 0.19175 1.74629 38 37 33
-0.421264 0.18023 1.64138 37 36 32
-0.443465 0.193681 1.76388 36 36 32
-0.416425 0.185741 1.69157 37 37 33
-0.404095 0.18416 1.67717 37 36 33
-0.392655 0.182923 1.6659 37 37 34
-0.392901 0.187197 1.70483 37 36 33
-0.386728 0.188541 1.71707 37 37 34
-0.363151 0.181262 1.65078 38 37 34
-0.360172 0.18416 1.67717 37 36 33
-0.36002 0.188684 1.71838 37 36 32
-0.35416 0.190373 1.73375 36 35 31
-0.331575 0.182923 1.6659 35 34 30
-0.325033 0.18416 1.67717 36 36 32
-0.321464 0.187197 1.70483 37 37 34
-0.307464 0.18416 1.67717 37 36 34
-0.29398 0.181262 1.65078 37 37 34
-0.285333 0.181262 1.65078 36 37 34
-0.272477 0.178504 1.62567 37 37 34
-0.274413 0.185572 1.69003 37 37 34
-0.259394 0.181262 1.65078 37 38 34
-0.252374 0.182439 1.66149 37 38 34
-0.239696 0.179462 1.63439 36 38 34
-0.241098 0.187197 1.70483 37 37 34
-0.226267 0.182439 1.66149 37 37 34
-0.214015 0.179462 1.63439 37 37 34
-0.210832 0.18416 1.67717 36 36 33
-0.196893 0.179462 1.63439 36 36 33
-0.194922 0.185741 1.69157 36 37 34
-0.177813 0.177506 1.61657 36 37 34
-0.178591 0.187197 1.70483 36 37 34
-0.160094 0.176641 1.60869 37 37 34
-0.158124 0.18416 1.67717 37 37 35
-0.14553 0.179462 1.63439 36 37 34
-0.138343 0.181262 1.65078 36 37 33
-0.130885 0.182923 1.6659 37 37 34
-0.126007 0.188684 1.71838 37 37 33
-0.112404 0.181262 1.65078 37 38 34
-0.104083 0.181831 1.65596 38 38 34
-0.0951111 0.181262 1.65078 38 38 34
-0.0859722 0.18023 1.64138 37 37 33
-0.077375 0.18023 1.64138 37 37 33
-0.0687778 0.18023 1.64138 38 38 34
-0.0605252 0.181262 1.65078 38 37 34
-0.0531606 0.185741 1.69157 37 37 34
-0.0436283 0.182923 1.6659 37 37 33
-0.0345858 0.181262 1.65078 37 37 33
-0.0254018 0.177506 1.61657 37 36 33
-0.0174051 0.182439 1.66149 37 36 32
-0.00892957 0.187197 1.70483 37 36 32
0 0.18056 1.64438 36 36 32
0.00847473 0.177662 1.618 37 36 32
0.0175977 0.184457 1.67988 37 36 33
0.0255447 0.178504 1.62567 36 36 33
0.0335597 0.175884 1.6018 37 36 33
0.0443005 0.185741 1.69157 36 36 33
0.0510894 0.178504 1.62567 36 36 32
0.0598757 0.179317 1.63307 37 37 33
0.0681193 0.178504 1.62567 37 38 34
0.0803661 0.187197 1.70483 37 37 33
0.0885203 0.185572 1.69003 36 37 33
0.093664 0.178504 1.62567 36 37 32
0.102727 0.179462 1.63439 36 37 33
0.113434 0.182923 1.6659 36 37 33
0.121836 0.182439 1.66149 36 37 33
0.128409 0.179462 1.63439 36 37 32
0.144008 0.188684 1.71838 35 37 32
0.151803 0.187197 1.70483 35 36 31
0.151019 0.175884 1.6018 34 36 31
0.162651 0.179462 1.63439 35 36 32
0.174513 0.182923 1.6659 35 37 33
0.183239 0.182923 1.6659 37 39 35
0.185372 0.176641 1.60869 38 39 36
0.198098 0.18056 1.64438 36 38 34
0.212643 0.185741 1.69157 35 37 33
0.214931 0.18023 1.64138 36 36 32
0.230363 0.185741 1.69157 35 36 32
0.229902 0.178504 1.62567 36 37 33
0.240722 0.18023 1.64138 36 37 33
0.252374 0.182439 1.66149 37 38 34
0.26354 0.18416 1.67717 37 38 34
0.272325 0.18416 1.67717 36 37 32
0.283523 0.185741 1.69157 35 36 32
0.289894 0.18416 1.67717 35 36 33
0.29106 0.179462 1.63439 36 36 33
0.315018 0.188684 1.71838 36 36 33
0.315613 0.18379 1.6738 36 36 33
0.315052 0.178504 1.62567 35 35 32
0.333818 0.18416 1.67717 35 35 32
0.341914 0.18379 1.6738 36 35 33
0.36002 0.188684 1.71838 35 35 32
0.369021 0.188684 1.71838 36 36 34
0.366478 0.182923 1.6659 37 36 34
0.387022 0.188684 1.71838 37 36 34
0.386526 0.18416 1.67717 37 36 34
0.385226 0.179462 1.63439 35 36 33
0.407194 0.185572 1.69003 34 35 33
0.410106 0.182923 1.6659 34 35 32
0.432024 0.188684 1.71838 34 35 32
0.422035 0.18056 1.64438 34 35 32
0.433679 0.181831 1.65596 34 35 32
0.455408 0.187197 1.70483 35 36 33
0.460306 0.185572 1.69003 35 36 33
0.469586 0.185741 1.69157 34 36 33
0.489542 0.190049 1.7308 34 36 33
0.491126 0.187197 1.70483 35 36 34
0.500056 0.187197 1.70483 35 36 34
0.500727 0.18416 1.67717 34 35 33
0.513886 0.185741 1.69157 33 35 32
0.518296 0.18416 1.67717 34 35 33
0.544862 0.190373 1.73375 34 35 33
0.549031 0.188684 1.71838 34 36 34
0.548826 0.185572 1.69003 35 36 34
0.571132 0.190049 1.7308 34 36 34
0.581186 0.190373 1.73375 34 36 34
0.580422 0.187197 1.70483 34 36 34
0.589351 0.187197 1.70483 34 36 34
0.598281 0.187197 1.70483 33 36 34
0.61751 0.190373 1.73375 33 35 34
0.626591 0.190373 1.73375 34 35 33
0.642118 0.192303 1.75133 34 35 34
0.644753 0.190373 1.73375 34 35 34
0.668108 0.194529 1.7716 33 34 34
0.674437 0.193681 1.76388 32 34 34
0.673431 0.190779 1.73745 33 34 34
0.705204 0.197116 1.79517 32 34 34
0.667636 0.18416 1.67717 32 34 33
0.704298 0.19175 1.74629 33 35 33
0.702698 0.188861 1.71999 34 34 34
0.717401 0.190373 1.73375 34 35 33
0.693886 0.181831 1.65596 33 34 34
0.756882 0.19589 1.784 32 34 34
0.752196 0.192303 1.75133 31 34 34
0.764164 0.193009 1.75776 31 34 35
0.764435 0.190779 1.73745 32 35 35
0.794259 0.19589 1.784 33 35 36
0.798018 0.194529 1.7716 34 36 37
0.784711 0.189086 1.72203 35 37 38
0.81302 0.193681 1.76388 35 37 38
0.819405 0.193009 1.75776 35 37 37
0.869284 0.202483 1.84404 34 36 37
0.830419 0.191305 1.74224 34 36 36
0.858524 0.195629 1.78162 33 35 36
0.893415 0.201391 1.8341 31 35 35
0.883856 0.197116 1.79517 31 34 35
0.932651 0.205809 1.87433 31 34 35
0.902661 0.197116 1.79517 32 36 36
0.936895 0.202483 1.84404 36 39 38
0.972641 0.208063 1.89486 36 39 39
0.94919 0.200996 1.8305 37 39 39
0.92068 0.193009 1.75776 37 38 38
0.949675 0.197116 1.79517 35 37 36
0.934235 0.192011 1.74867 34 36 36
0.987541 0.200996 1.8305 34 36 36
0.988388 0.199234 1.81445 33 37 37
0.977825 0.195228 1.77797 32 37 37
1.05204 0.208063 1.89486 32 37 37
1.05672 0.207035 1.8855 31 37 36
1.00216 0.194529 1.7716 31 37 36
0.998349 0.192011 1.74867 33 37 36
1.11173 0.211873 1.92955 34 37 36
1.0437 0.197116 1.79517 34 37 36
1.02205 0.191305 1.74224 34 37 37
1.13028 0.209689 1.90967 33 37 37
1.10109 0.202483 1.84404 32 37 37
1.15028 0.209689 1.90967 34 38 38
1.10752 0.200154 1.82283 35 39 39
1.11707 0.200154 1.82283 35 39 39
1.23612 0.219608 2 35 39 39
1.01327 0.178504 1.62567 34 38 38
-0.628536 0.115033 1 39 36 35
-0.648066 0.119604 1.03974 38 37 35
-0.64262 0.119604 1.03974 37 37 35
-0.640642 0.120255 1.0454 36 36 33
-0.631728 0.119604 1.03974 36 37 34
-0.656759 0.125424 1.09033 37 37 34
-0.622413 0.119908 1.04238 37 37 33
-0.661709 0.128606 1.118 36 37 32
-0.665469 0.130491 1.13439 36 36 32
-0.606034 0.119908 1.04238 36 36 32
-0.653585 0.130491 1.13439 36 36 31
-0.593606 0.119604 1.03974 36 36 32
-0.641702 0.130491 1.13439 36 37 33
-0.604813 0.124139 1.07917 37 37 33
-0.602057 0.12474 1.08438 37 37 34
-0.596378 0.12474 1.08438 37 37 33
-0.617935 0.130491 1.13439 36 36 33
-0.607289 0.129488 1.12567 35 35 31
-0.534255 0.115033 1 35 35 31
-0.60011 0.130491 1.13439 36 36 33
-0.57468 0.126211 1.09718 37 38 34
-0.636977 0.141306 1.2284 38 38 35
-0.582285 0.130491 1.13439 37 38 35
-0.606033 0.137214 1.19282 36 37 34
-0.575429 0.131642 1.14438 36 37 33
-0.613903 0.141922 1.23375 36 36 33
-0.60744 0.141922 1.23375 37 37 34
-0.600978 0.141922 1.23375 37 37 35
-0.643876 0.153705 1.33618 37 38 35
-0.596434 0.143944 1.25133 38 37 35
-0.56796 0.138595 1.20483 38 37 35
-0.647408 0.159757 1.3888 38 38 35
-0.674148 0.168246 1.46259 37 37 34
-0.590192 0.148987 1.29517 37 37 34
-0.605424 0.154609 1.34404 37 36 33
-0.667819 0.172549 1.5 37 36 33
-0.659962 0.172549 1.5 37 36 34
-0.652106 0.172549 1.5 38 37 34
-0.623257 0.166927 1.45113 37 36 33
-0.636392 0.172549 1.5 36 36 32
-0.65272 0.179188 1.55772 36 36 32
-0.5833 0.162158 1.40967 37 37 33
-0.612822 0.172549 1.5 36 36 33
-0.647368 0.184643 1.60514 35 36 31
-0.613979 0.177424 1.54238 35 36 32
-0.589252 0.172549 1.5 36 36 32
-0.597821 0.177424 1.54238 36 36 34
-0.613739 0.184643 1.60514 36 36 33
-0.581664 0.177424 1.54238 36 36 34
-0.62086 0.192047 1.6695 36 36 33
-0.65819 0.206503 1.79517 37 36 34
-0.606143 0.192929 1.67717 37 37 34
-0.56643 0.18294 1.59033 36 36 33
-0.598281 0.196111 1.70483 35 35 31
-0.612432 0.203792 1.7716 36 36 32
-0.60532 0.204524 1.77797 36 36 33
-0.565027 0.193893 1.68555 36 36 34
-0.588686 0.205218 1.784 37 37 34
-0.563024 0.199438 1.73375 37 37 34
-0.553943 0.199438 1.73375 37 36 34
-0.540537 0.197855 1.71999 36 35 33
-0.522746 0.194586 1.69157 36 35 33
-0.5267 0.199438 1.73375 37 36 34
-0.520153 0.200414 1.74224 38 37 35
-0.500056 0.196111 1.70483 38 37 35
-0.494653 0.19752 1.71707 39 38 35
-0.490376 0.199438 1.73375 38 36 34
-0.461236 0.191126 1.66149 37 36 33
-0.47563 0.200881 1.74629 38 37 34
-0.466483 0.200881 1.74629 39 38 35
-0.450025 0.197669 1.71838 38 37 34
-0.434145 0.194586 1.69157 37 36 32
-0.422346 0.193241 1.67988 37 36 32
-0.416425 0.194586 1.69157 37 36 33
-0.420749 0.200881 1.74629 37 36 32
-0.398705 0.194586 1.69157 37 36 33
-0.396393 0.197855 1.71999 37 37 33
-0.387385 0.197855 1.71999 37 37 33
-0.368957 0.192929 1.67717 38 37 34
-0.350984 0.188008 1.63439 38 38 35
-0.351387 0.192929 1.67717 38 37 34
-0.345544 0.194586 1.69157 36 36 32
-0.339324 0.196111 1.70483 36 35 32
-0.319919 0.189894 1.65078 36 35 32
-0.321464 0.196111 1.70483 36 36 33
-0.314779 0.19752 1.71707 36 36 34
-0.303605 0.196111 1.70483 36 37 34
-0.289894 0.192929 1.67717 36 37 34
-0.28111 0.192929 1.67717 37 37 34
-0.26804 0.189894 1.65078 37 37 34
-0.261077 0.191126 1.66149 37 38 35
-0.256709 0.194409 1.69003 37 38 35
-0.247857 0.194409 1.69003 36 37 34
-0.237186 0.192929 1.67717 36 37 34
-0.219076 0.185052 1.60869 36 37 34
-0.219176 0.192542 1.6738 36 36 33
-0.210409 0.192542 1.6738 35 36 32
-0.200159 0.191126 1.66149 35 35 31
-0.188333 0.188008 1.63439 35 36 32
-0.178813 0.187005 1.62567 35 36 33
-0.171212 0.188008 1.63439 36 37 34
-0.166909 0.192929 1.67717 36 37 34
-0.155636 0.189894 1.65078 37 37 34
-0.154377 0.199438 1.73375 36 37 34
-0.141762 0.194586 1.69157 37 37 34
-0.12639 0.185052 1.60869 37 38 34
-0.121836 0.191126 1.66149 37 37 34
-0.110694 0.187005 1.62567 37 38 34
-0.102179 0.187005 1.62567 38 38 34
-0.093664 0.187005 1.62567 38 37 34
-0.0864646 0.189894 1.65078 36 36 33
-0.0770452 0.188008 1.63439 36 36 32
-0.0674081 0.185052 1.60869 38 37 34
-0.0615921 0.193241 1.67988 38 37 34
-0.0513221 0.187856 1.63307 38 37 34
-0.04213 0.185052 1.60869 38 37 33
-0.0351387 0.192929 1.67717 38 37 33
-0.0267887 0.196111 1.70483 38 37 33
-0.0177202 0.194586 1.69157 37 36 33
-0.00867357 0.190489 1.65596 36 36 32
0 0.188813 1.64138 36 36 32
0.00859722 0.188813 1.64138 36 36 32
0.0175694 0.192929 1.67717 36 36 32
0.026354 0.192929 1.67717 36 36 32
0.0345858 0.189894 1.65078 36 36 33
0.0419496 0.18426 1.6018 36 36 33
0.0520414 0.190489 1.65596 36 36 32
0.0605252 0.189894 1.65078 37 37 33
0.0684846 0.188008 1.63439 37 38 34
0.079741 0.194586 1.69157 37 37 33
0.0870257 0.191126 1.66149 35 36 32
0.0967876 0.193241 1.67988 35 36 32
0.102727 0.188008 1.63439 36 37 32
0.115267 0.19473 1.69282 36 37 32
0.12105 0.189894 1.65078 36 37 33
0.124948 0.18294 1.59033 35 37 32
0.137556 0.188813 1.64138 35 36 32
0.150622 0.194586 1.69157 34 36 31
0.155636 0.189894 1.65078 34 36 31
0.160094 0.185052 1.60869 35 36 32
0.16852 0.185052 1.60869 35 37 33
0.176946 0.185052 1.60869 37 39 35
0.187328 0.187005 1.62567 37 38 34
0.195843 0.187005 1.62567 36 37 33
0.206333 0.188813 1.64138 36 37 33
0.218142 0.191633 1.6659 36 37 34
0.222575 0.188008 1.63439 36 37 33
0.235593 0.191633 1.6659 36 37 33
0.245971 0.192929 1.67717 36 38 34
0.246932 0.187005 1.62567 38 39 35
0.267887 0.196111 1.70483 36 37 34
0.261206 0.185052 1.60869 34 35 31
0.285746 0.196111 1.70483 35 36 32
0.297017 0.197669 1.71838 36 37 34
0.298679 0.192929 1.67717 36 36 33
0.312535 0.196111 1.70483 35 35 32
0.313292 0.191126 1.66149 35 35 32
0.333019 0.197669 1.71838 35 35 31
0.330698 0.191126 1.66149 35 35 32
0.35102 0.197669 1.71838 36 36 33
0.344518 0.189158 1.64438 36 35 32
0.359448 0.192542 1.6738 36 35 33
0.361744 0.189158 1.64438 36 35 33
0.376983 0.192542 1.6738 36 36 33
0.38575 0.192542 1.6738 36 36 34
0.385226 0.188008 1.63439 35 35 33
0.404095 0.192929 1.67717 35 35 33
0.41288 0.192929 1.67717 34 35 32
0.428619 0.196111 1.70483 34 35 32
0.43375 0.194409 1.69003 34 35 32
0.442602 0.194409 1.69003 34 35 32
0.447119 0.192542 1.6738 34 35 32
0.464337 0.196111 1.70483 35 36 33
0.464653 0.192542 1.6738 35 36 33
0.482197 0.196111 1.70483 35 36 34
0.499457 0.199438 1.73375 35 36 34
0.515581 0.2022 1.75776 35 36 34
0.513029 0.197669 1.71838 35 36 34
0.517915 0.196111 1.70483 34 35 33
0.548615 0.204215 1.77528 34 35 34
0.535774 0.196111 1.70483 34 35 34
0.567212 0.204215 1.77528 34 35 34
0.563024 0.199438 1.73375 34 36 34
0.558187 0.194586 1.69157 34 36 34
0.584031 0.200414 1.74224 34 36 34
0.585033 0.197669 1.71838 33 35 33
0.609765 0.202904 1.76388 33 35 34
0.593627 0.194586 1.69157 34 36 34
0.621977 0.200881 1.74629 33 35 33
0.625526 0.199099 1.7308 33 35 33
0.635672 0.199438 1.73375 33 34 32
0.644753 0.199438 1.73375 34 35 33
0.669496 0.204215 1.77528 33 35 34
0.678794 0.204215 1.77528 32 34 34
0.688093 0.204215 1.77528 32 34 34
0.675038 0.197669 1.71838 32 34 34
0.702153 0.202904 1.76388 32 34 34
0.687577 0.196111 1.70483 32 34 33
0.715503 0.20146 1.75133 32 33 33
0.756198 0.210223 1.82751 32 33 33
0.733849 0.20146 1.75133 32 33 33
0.723295 0.196111 1.70483 32 33 34
0.776181 0.207884 1.80718 31 34 35
0.780426 0.206503 1.79517 30 33 34
0.789828 0.206503 1.79517 30 33 34
0.804578 0.207884 1.80718 32 35 36
0.808634 0.206503 1.79517 35 38 38
0.818037 0.206503 1.79517 37 39 40
0.803043 0.200414 1.74224 36 39 39
0.830529 0.204945 1.78162 35 38 38
0.835135 0.203792 1.7716 35 37 37
0.841864 0.203176 1.76625 34 36 36
0.851116 0.203176 1.76625 33 36 36
0.916752 0.216492 1.882 33 36 36
0.903022 0.210981 1.8341 33 36 36
0.900624 0.208206 1.80997 33 36 37
0.910104 0.208206 1.80997 34 37 37
0.930015 0.210567 1.8305 36 39 39
0.885306 0.198399 1.72472 36 39 38
0.956213 0.212125 1.84404 36 38 38
0.948025 0.208206 1.80997 35 37 36
0.97553 0.212125 1.84404 33 35 35
0.959077 0.206503 1.79517 33 35 35
0.943394 0.201154 1.74867 33 36 36
1.01081 0.213456 1.85562 33 37 37
0.977825 0.204524 1.77797 34 38 38
1.0074 0.208721 1.81445 34 38 38
0.985127 0.2022 1.75776 33 37 37
1.0264 0.208721 1.81445 33 37 37
1.0528 0.212125 1.84404 33 37 37
1.07211 0.214052 1.86079 34 37 37
1.08186 0.214052 1.86079 35 37 37
1.03116 0.2022 1.75776 35 38 38
1.07888 0.209685 1.82283 35 38 38
1.08843 0.209685 1.82283 34 38 38
1.12084 0.214052 1.86079 35 39 39
1.21517 0.230065 2 35 39 39
1.11707 0.209685 1.82283 35 39 39
1.17114 0.217971 1.89486 35 39 39
1.13617 0.209685 1.82283 35 39 39
-0.655172 0.125358 1.04238 38 35 34
-0.653761 0.126139 1.04887 37 36 34
-0.644252 0.125358 1.04238 36 36 34
-0.585003 0.114802 0.954604 36 36 34
-0.635166 0.125721 1.0454 37 37 34
-0.656759 0.131125 1.09033 37 37 34
-0.647496 0.13041 1.08438 36 37 33
-0.645337 0.131125 1.09033 36 37 32
-0.643642 0.131948 1.09718 36 36 32
-0.581395 0.120261 1 36 36 31
-0.624776 0.13041 1.08438 35 35 31
-0.57092 0.120261 1 36 36 32
-0.647358 0.137625 1.14438 36 37 33
-0.63576 0.136423 1.13439 37 37 33
-0.629818 0.136423 1.13439 37 37 34
-0.596378 0.13041 1.08438 37 37 34
-0.587855 0.129782 1.07917 36 37 33
-0.585018 0.13041 1.08438 35 35 31
-0.606052 0.136423 1.13439 35 35 31
-0.625355 0.142162 1.18211 36 36 33
-0.610677 0.140213 1.1659 37 38 35
-0.583705 0.135374 1.12567 37 38 35
-0.604247 0.141568 1.17717 37 37 34
-0.594184 0.140646 1.1695 37 37 34
-0.591915 0.141568 1.17717 37 37 34
-0.592148 0.143115 1.19003 37 37 34
-0.585915 0.143115 1.19003 37 36 33
-0.595271 0.146964 1.22203 37 37 34
-0.602988 0.150487 1.25133 37 37 34
-0.62816 0.158492 1.31789 38 38 35
-0.599434 0.152924 1.2716 38 37 35
-0.60376 0.155759 1.29517 37 36 33
-0.607452 0.158492 1.31789 36 36 33
-0.612464 0.161636 1.34404 37 36 34
-0.612969 0.163651 1.36079 37 36 33
-0.651166 0.175894 1.46259 36 36 32
-0.638459 0.174514 1.45113 36 35 32
-0.612834 0.169528 1.40967 36 36 32
-0.61946 0.173451 1.44228 36 36 32
-0.66998 0.189913 1.57917 36 36 32
-0.590683 0.169528 1.40967 36 36 32
-0.620679 0.180392 1.5 37 37 33
-0.649728 0.191256 1.59033 37 37 33
-0.624677 0.18627 1.54887 37 37 33
-0.613979 0.185489 1.54238 37 37 34
-0.655838 0.200777 1.6695 37 37 34
-0.597821 0.185489 1.54238 37 37 34
-0.613739 0.193036 1.60514 37 37 34
-0.657035 0.209524 1.74224 37 37 34
-0.604558 0.195505 1.62567 37 36 33
-0.649549 0.213055 1.7716 36 35 32
-0.635269 0.211391 1.75776 36 36 32
-0.61751 0.208503 1.73375 36 36 32
-0.577068 0.197756 1.64438 36 36 32
-0.589351 0.205026 1.70483 36 36 33
-0.60532 0.213821 1.77797 37 37 34
-0.601774 0.215889 1.79517 37 37 34
-0.573326 0.208948 1.73745 37 37 35
-0.562067 0.208149 1.7308 37 37 34
-0.55795 0.210012 1.74629 37 37 34
-0.535774 0.205026 1.70483 37 36 34
-0.522746 0.203431 1.69157 36 35 33
-0.533994 0.211391 1.75776 37 35 33
-0.508985 0.205026 1.70483 37 36 34
-0.515581 0.211391 1.75776 37 36 34
-0.475555 0.198525 1.65078 38 37 35
-0.486027 0.206654 1.71838 38 37 34
-0.455653 0.197395 1.64138 37 36 33
-0.453735 0.200344 1.6659 37 36 33
-0.455408 0.205026 1.70483 38 38 34
-0.433679 0.199148 1.65596 38 37 34
-0.437549 0.205026 1.70483 37 36 33
-0.432024 0.206654 1.71838 36 35 31
-0.416046 0.203245 1.69003 36 35 31
-0.397737 0.198525 1.65078 36 35 30
-0.395311 0.201699 1.67717 37 36 33
-0.402456 0.210012 1.74629 38 37 34
-0.393309 0.210012 1.74629 38 37 34
-0.357626 0.195505 1.62567 38 37 34
-0.387681 0.217105 1.80527 38 37 34
-0.340596 0.195505 1.62567 37 36 33
-0.35102 0.206654 1.71838 36 36 33
-0.328566 0.198525 1.65078 36 36 33
-0.325033 0.201699 1.67717 36 36 33
-0.318964 0.203431 1.69157 37 37 34
-0.29962 0.196554 1.63439 37 37 34
-0.306017 0.206654 1.71838 37 37 34
-0.297295 0.206848 1.71999 36 37 34
-0.279221 0.200344 1.6659 36 37 34
-0.26978 0.199814 1.66149 37 37 34
-0.26354 0.201699 1.67717 37 38 35
-0.249776 0.197756 1.64438 36 37 34
-0.243672 0.199814 1.66149 35 36 33
-0.23671 0.201294 1.6738 36 37 34
-0.232169 0.205026 1.70483 37 37 34
-0.215324 0.197756 1.64438 36 36 33
-0.21431 0.205026 1.70483 35 36 32
-0.194747 0.194411 1.61657 36 36 34
-0.188333 0.196554 1.63439 37 37 34
-0.17568 0.192079 1.59718 36 37 34
-0.177041 0.203245 1.69003 36 37 34
-0.169662 0.205026 1.70483 36 37 34
-0.152411 0.194411 1.61657 37 38 35
-0.14934 0.201699 1.67717 36 37 34
-0.137807 0.197756 1.64438 36 37 33
-0.134905 0.206498 1.71707 37 37 34
-0.12105 0.198525 1.65078 37 37 34
-0.114201 0.201699 1.67717 37 37 34
-0.0999582 0.191256 1.59033 38 38 35
-0.0990055 0.206654 1.71838 37 37 34
-0.0878468 0.201699 1.67717 36 36 32
-0.0783231 0.199814 1.66149 37 36 33
-0.0703909 0.202025 1.67988 38 37 34
-0.0599241 0.196554 1.63439 37 37 34
-0.052354 0.200344 1.6659 37 37 33
-0.0413568 0.189913 1.57917 37 37 33
-0.0349027 0.200344 1.6659 38 37 33
-0.0256817 0.196554 1.63439 37 37 33
-0.017489 0.200777 1.6695 37 37 33
-0.00864646 0.198525 1.65078 37 36 33
0 0.197395 1.64138 37 36 33
0.00842601 0.193464 1.60869 36 36 32
0.0171944 0.197395 1.64138 36 36 33
0.026354 0.201699 1.67717 36 36 33
0.0342147 0.196395 1.63307 37 37 34
0.0433679 0.199148 1.65596 37 37 33
0.0513221 0.196395 1.63307 36 36 32
0.0596043 0.195505 1.62567 37 37 33
0.0708809 0.203431 1.69157 38 38 34
0.0803661 0.205026 1.70483 36 37 32
0.0886666 0.203581 1.69282 35 36 31
0.0945694 0.197395 1.64138 36 37 32
0.106321 0.203431 1.69157 36 37 33
0.115076 0.203245 1.69003 37 38 34
0.121836 0.199814 1.66149 37 38 34
0.127724 0.195505 1.62567 37 38 34
0.140555 0.201699 1.67717 36 37 33
0.151803 0.205026 1.70483 35 37 33
0.156124 0.199148 1.65596 35 37 33
0.165788 0.200344 1.6659 35 37 33
0.172929 0.198525 1.65078 36 37 33
0.177222 0.193765 1.6112 36 37 33
0.190222 0.198525 1.65078 35 36 32
0.198869 0.198525 1.65078 34 36 31
0.204358 0.195505 1.62567 34 35 31
0.223239 0.205026 1.70483 36 37 32
0.226267 0.199814 1.66149 36 37 33
0.229902 0.195505 1.62567 36 37 33
0.223206 0.183031 1.52194 35 36 32
0.250747 0.198525 1.65078 36 37 33
0.261077 0.199814 1.66149 36 37 34
0.270496 0.200344 1.6659 35 36 33
0.283265 0.203245 1.69003 36 36 34
0.292117 0.203245 1.69003 35 35 33
0.303605 0.205026 1.70483 35 35 32
0.30459 0.199814 1.66149 35 35 32
0.308181 0.196554 1.63439 35 35 32
0.327525 0.203245 1.69003 35 35 33
0.333147 0.201294 1.6738 36 36 33
0.330224 0.194411 1.61657 36 35 33
0.351387 0.201699 1.67717 35 35 32
0.363264 0.203431 1.69157 36 35 33
0.363151 0.198525 1.65078 36 35 33
0.377741 0.201699 1.67717 36 36 34
0.389845 0.203431 1.69157 37 36 34
0.391615 0.199814 1.66149 35 36 33
0.389495 0.194411 1.61657 35 35 32
0.416046 0.203245 1.69003 35 36 33
0.432429 0.206848 1.71999 35 36 33
0.430449 0.201699 1.67717 35 36 34
0.446478 0.205026 1.70483 36 37 34
0.459456 0.206848 1.71999 35 36 34
0.472214 0.208503 1.73375 36 37 34
0.469586 0.203431 1.69157 35 37 34
0.474373 0.201699 1.67717 35 37 34
0.487306 0.203431 1.69157 36 37 34
0.479393 0.196554 1.63439 35 37 34
0.51351 0.206848 1.71999 35 36 34
0.533994 0.211391 1.75776 34 35 33
0.526844 0.205026 1.70483 34 35 33
0.535774 0.205026 1.70483 35 36 34
0.540467 0.203431 1.69157 34 36 34
0.572809 0.212127 1.76388 35 36 34
0.567563 0.206848 1.71999 34 36 34
0.580198 0.208149 1.7308 34 36 34
0.567168 0.200344 1.6659 34 36 34
0.620579 0.215889 1.79517 33 35 33
0.598281 0.205026 1.70483 33 35 33
0.61646 0.208149 1.7308 33 35 33
0.6416 0.213498 1.77528 32 34 32
0.635672 0.208503 1.73375 31 33 31
0.639635 0.206848 1.71999 33 34 32
0.637346 0.203245 1.69003 34 35 34
0.669638 0.210618 1.75133 33 34 34
0.688093 0.213498 1.77528 32 34 34
0.709173 0.217105 1.80527 32 34 34
0.697157 0.210618 1.75133 32 34 34
0.711392 0.212127 1.76388 32 33 34
0.702698 0.206848 1.71999 31 32 33
0.711706 0.206848 1.71999 29 30 31
0.739109 0.212127 1.76388 29 30 31
0.729724 0.206848 1.71999 30 32 33
0.760901 0.213055 1.7716 31 35 35
0.761369 0.210618 1.75133 30 34 35
0.756751 0.206848 1.71999 29 33 34
0.775666 0.209524 1.74224 32 35 36
0.775691 0.207094 1.72203 35 38 38
0.835776 0.220571 1.8341 35 38 38
0.803043 0.209524 1.74224 35 37 37
0.842441 0.217334 1.80718 35 37 37
0.83986 0.214261 1.78162 35 37 37
0.893382 0.22541 1.87433 34 37 37
0.810569 0.202292 1.68211 34 36 37
0.840137 0.207417 1.72472 33 36 36
0.891144 0.21767 1.80997 33 36 36
0.917578 0.221767 1.84404 33 36 37
0.933056 0.223159 1.85562 34 37 37
0.919584 0.21767 1.80997 35 38 37
0.929065 0.21767 1.80997 34 38 37
0.982566 0.227879 1.89486 34 37 37
0.905301 0.20786 1.7284 33 36 36
0.97553 0.221767 1.84404 32 35 35
0.966986 0.21767 1.80997 32 35 35
0.96848 0.215889 1.79517 32 35 36
1.00451 0.221767 1.84404 33 37 37
1.03082 0.22541 1.87433 35 39 40
0.996688 0.215889 1.79517 36 40 40
0.985127 0.211391 1.75776 36 40 40
1.0264 0.218209 1.81445 36 40 40
1.07647 0.226753 1.8855 35 39 39
1.0343 0.215889 1.79517 35 38 38
1.1259 0.232892 1.93655 35 38 38
1.08178 0.221767 1.84404 37 40 40
1.07392 0.218209 1.81445 36 40 39
1.14028 0.229659 1.90967 35 39 39
1.15028 0.229659 1.90967 35 39 39
1.16028 0.229659 1.90967 35 39 39
1.11707 0.219216 1.82283 35 39 39
1.10952 0.215889 1.79517 35 39 39
1.11892 0.215889 1.79517 35 39 39
-0.685314 0.136826 1.09033 38 36 35
-0.672642 0.135425 1.07917 38 36 35
-0.646117 0.131187 1.0454 37 36 34
-0.638793 0.130808 1.04238 36 36 33
-0.66247 0.136826 1.09033 36 37 33
-0.627873 0.130808 1.04238 36 37 33
-0.672145 0.14126 1.12567 37 37 33
-0.616954 0.130808 1.04238 36 37 33
-0.613264 0.131187 1.0454 36 36 32
-0.649998 0.140298 1.118 35 36 31
-0.671745 0.14631 1.1659 36 36 31
-0.638286 0.140298 1.118 37 37 33
-0.616783 0.136826 1.09033 37 37 34
-0.626574 0.140298 1.118 36 37 33
-0.602057 0.13608 1.08438 37 37 34
-0.629376 0.143609 1.14438 37 37 34
-0.648246 0.149337 1.19003 37 37 34
-0.628997 0.14631 1.1659 36 36 33
-0.57655 0.135425 1.07917 36 36 33
-0.595497 0.14126 1.12567 36 37 34
-0.63816 0.152894 1.21838 37 38 34
-0.631779 0.152894 1.21838 38 38 35
-0.633289 0.154824 1.23375 37 37 34
-0.619016 0.152894 1.21838 37 37 34
-0.575429 0.143609 1.14438 37 37 34
-0.608073 0.153353 1.22203 37 37 34
-0.563441 0.143609 1.14438 37 36 33
-0.600978 0.154824 1.23375 37 36 33
-0.655734 0.170766 1.36079 38 37 35
-0.596434 0.15703 1.25133 39 38 35
-0.56796 0.151195 1.20483 37 36 33
-0.60376 0.162531 1.29517 35 34 31
-0.633466 0.172465 1.37433 36 35 32
-0.626268 0.172465 1.37433 37 36 34
-0.583409 0.162531 1.29517 37 36 33
-0.611871 0.172465 1.37433 37 36 33
-0.604672 0.172465 1.37433 36 36 32
-0.612834 0.176899 1.40967 36 35 32
-0.644249 0.188235 1.5 36 35 32
-0.575135 0.170116 1.35562 36 36 33
-0.67259 0.201429 1.60514 37 36 33
-0.620679 0.188235 1.5 37 37 33
-0.63279 0.194369 1.54887 37 37 34
-0.624677 0.194369 1.54887 38 38 34
-0.664583 0.209506 1.6695 38 38 35
-0.608452 0.194369 1.54887 38 38 35
-0.660788 0.21394 1.70483 38 38 35
-0.608079 0.199571 1.59033 38 38 35
-0.632497 0.210469 1.67717 37 38 35
-0.623712 0.210469 1.67717 37 37 34
-0.602907 0.206354 1.64438 37 36 33
-0.587529 0.204005 1.62567 36 36 32
-0.56643 0.199571 1.59033 36 36 32
-0.598281 0.21394 1.70483 36 35 32
-0.589351 0.21394 1.70483 36 36 34
-0.60532 0.223117 1.77797 38 37 35
-0.552711 0.206909 1.64881 37 37 34
-0.585809 0.22278 1.77528 37 37 35
-0.54553 0.210808 1.67988 37 37 34
-0.567212 0.22278 1.77528 37 37 35
-0.535774 0.21394 1.70483 37 37 35
-0.538404 0.218634 1.74224 37 36 34
-0.513886 0.212276 1.69157 37 35 34
-0.505026 0.212276 1.69157 37 36 34
-0.500056 0.21394 1.70483 38 36 34
-0.495028 0.215639 1.71838 38 37 34
-0.466909 0.207157 1.65078 37 36 34
-0.469586 0.212276 1.69157 37 36 34
-0.478754 0.220582 1.75776 37 37 34
-0.462345 0.217199 1.7308 38 38 35
-0.456274 0.218634 1.74224 38 37 34
-0.437549 0.21394 1.70483 37 36 33
-0.432024 0.215639 1.71838 36 35 31
-0.423024 0.215639 1.71838 36 35 31
-0.400318 0.208501 1.66149 36 35 32
-0.415749 0.22135 1.76388 37 36 33
-0.386526 0.210469 1.67717 37 36 33
-0.387022 0.215639 1.71838 37 36 33
-0.355625 0.202864 1.61657 38 37 34
-0.360172 0.210469 1.67717 38 37 34
-0.348103 0.208501 1.66149 36 36 32
-0.341914 0.210046 1.6738 35 35 31
-0.348578 0.219775 1.75133 36 36 33
-0.325033 0.210469 1.67717 36 37 34
-0.321464 0.21394 1.70483 36 37 34
-0.312535 0.21394 1.70483 37 38 35
-0.295887 0.208501 1.66149 36 37 34
-0.276867 0.201011 1.6018 36 37 34
-0.288286 0.215842 1.71999 36 37 34
-0.274663 0.212276 1.69157 36 37 34
-0.256817 0.205099 1.63439 37 37 34
-0.252374 0.208501 1.66149 36 37 34
-0.244319 0.209055 1.6659 35 36 33
-0.241098 0.21394 1.70483 36 36 33
-0.230153 0.212082 1.69003 36 37 34
-0.215324 0.206354 1.64438 36 37 34
-0.205454 0.205099 1.63439 36 37 34
-0.203597 0.212082 1.69003 37 37 34
-0.193263 0.210469 1.67717 37 37 34
-0.180872 0.206354 1.64438 36 37 34
-0.172259 0.206354 1.64438 36 37 34
-0.169662 0.21394 1.70483 36 37 34
-0.156646 0.208501 1.66149 36 37 34
-0.14553 0.205099 1.63439 36 37 34
-0.140555 0.210469 1.67717 37 37 34
-0.129697 0.207157 1.65078 37 38 34
-0.122159 0.209055 1.6659 37 38 34
-0.106934 0.197076 1.57045 37 37 33
-0.102179 0.204005 1.62567 37 37 33
-0.0966315 0.210469 1.67717 36 36 33
-0.0878468 0.210469 1.67717 36 36 33
-0.0790621 0.210469 1.67717 37 36 34
-0.0687778 0.205977 1.64138 37 37 34
-0.0630035 0.215639 1.71838 37 37 34
-0.0515833 0.205977 1.64138 37 37 33
-0.0446478 0.21394 1.70483 37 37 33
-0.033704 0.201875 1.60869 38 37 34
-0.0272431 0.217569 1.73375 37 37 33
-0.0171944 0.205977 1.64138 37 37 33
-0.00856058 0.205099 1.63439 37 36 33
0 0.205099 1.63439 37 36 32
0.00847473 0.203043 1.618 36 36 32
0.0171944 0.205977 1.64138 36 36 32
0.0260207 0.207807 1.65596 36 36 33
0.0349027 0.209055 1.6659 37 37 34
0.0423737 0.203043 1.618 37 37 34
0.0515833 0.205977 1.64138 37 37 33
0.0605252 0.207157 1.65078 37 37 33
0.0684846 0.205099 1.63439 36 36 32
0.0758341 0.201875 1.60869 36 36 31
0.0879887 0.210808 1.67988 36 36 32
0.0974612 0.212276 1.69157 37 38 34
0.102179 0.204005 1.62567 37 38 34
0.113434 0.209055 1.6659 38 39 34
0.117964 0.201875 1.60869 38 39 35
0.128958 0.205977 1.64138 38 39 35
0.137556 0.205977 1.64138 37 38 34
0.14699 0.207157 1.65078 36 37 33
0.15838 0.210808 1.67988 35 37 33
0.164798 0.207807 1.65596 35 36 32
0.175977 0.210808 1.67988 35 37 33
0.183239 0.209055 1.6659 36 37 34
0.194922 0.212276 1.69157 36 37 33
0.203782 0.212276 1.69157 35 36 32
0.203215 0.202864 1.61657 34 36 31
0.219617 0.210469 1.67717 35 36 32
0.232169 0.21394 1.70483 35 37 32
0.243014 0.215639 1.71838 36 37 33
0.245971 0.210469 1.67717 35 36 32
0.252374 0.208501 1.66149 35 36 33
0.259394 0.207157 1.65078 36 37 34
0.26804 0.207157 1.65078 36 36 34
0.28111 0.210469 1.67717 35 36 33
0.297295 0.215842 1.71999 34 34 31
0.303605 0.21394 1.70483 35 35 32
0.317836 0.217569 1.73375 36 36 33
0.308181 0.205099 1.63439 36 36 33
0.325033 0.210469 1.67717 36 36 33
0.345079 0.217569 1.73375 36 36 33
0.333863 0.205099 1.63439 35 35 32
0.360358 0.215842 1.71999 36 35 32
0.366112 0.21394 1.70483 36 36 33
0.368957 0.210469 1.67717 36 36 34
0.370357 0.206354 1.64438 36 36 34
0.392901 0.21394 1.70483 36 36 34
0.385226 0.205099 1.63439 35 36 33
0.400318 0.208501 1.66149 35 36 33
0.41969 0.21394 1.70483 36 36 34
0.424898 0.212082 1.69003 36 36 34
0.437549 0.21394 1.70483 36 37 34
0.439234 0.210469 1.67717 35 36 34
0.451454 0.212082 1.69003 35 36 33
0.468026 0.215639 1.71838 35 36 33
0.481295 0.217569 1.73375 36 37 34
0.474373 0.210469 1.67717 36 37 34
0.51142 0.22278 1.77528 36 37 35
0.491942 0.210469 1.67717 36 37 34
0.508985 0.21394 1.70483 35 36 34
0.501495 0.207157 1.65078 35 36 34
0.535781 0.217569 1.73375 34 35 33
0.535774 0.21394 1.70483 34 35 33
0.55956 0.219775 1.75133 34 35 33
0.549327 0.212276 1.69157 34 35 33
0.576244 0.219143 1.74629 34 35 33
0.56222 0.210469 1.67717 34 36 34
0.580422 0.21394 1.70483 34 36 34
0.599348 0.217569 1.73375 33 35 33
0.608429 0.217569 1.73375 31 34 32
0.621977 0.219143 1.74629 32 34 32
0.632945 0.219775 1.75133 32 34 33
0.619642 0.212082 1.69003 33 34 32
0.653683 0.220582 1.75776 33 34 33
0.653834 0.217569 1.73375 33 34 33
0.646198 0.212082 1.69003 33 34 34
0.666662 0.215842 1.71999 32 34 34
0.69051 0.220582 1.75776 31 33 33
0.68468 0.215842 1.71999 32 34 34
0.724009 0.225276 1.79517 31 33 33
0.715503 0.219775 1.75133 31 32 33
0.742815 0.225276 1.79517 29 30 31
0.726482 0.217569 1.73375 29 30 31
0.76162 0.225276 1.79517 29 32 33
0.752196 0.219775 1.75133 31 35 35
0.775571 0.223874 1.784 31 35 36
0.779459 0.222318 1.7716 32 36 36
0.788738 0.222318 1.7716 32 36 36
0.760398 0.211838 1.68808 34 37 37
0.82351 0.226783 1.80718 34 37 37
0.810198 0.220582 1.75776 33 36 36
0.842441 0.226783 1.80718 33 36 36
0.83986 0.223576 1.78162 34 36 36
0.874202 0.230161 1.8341 34 37 37
0.883809 0.230161 1.8341 34 36 37
0.887927 0.228747 1.82283 33 35 36
0.91854 0.234116 1.86561 33 36 36
0.907022 0.228747 1.82283 33 36 37
0.956792 0.238785 1.90282 34 37 37
0.919584 0.227133 1.80997 34 37 37
0.952495 0.232862 1.85562 33 37 37
0.930869 0.225276 1.79517 34 37 37
0.940272 0.225276 1.79517 33 36 36
0.968366 0.22971 1.8305 33 36 36
0.985189 0.231409 1.84404 32 36 36
0.9592 0.223117 1.77797 32 36 36
1.03652 0.238785 1.90282 33 37 37
1.00672 0.22971 1.8305 35 39 40
0.975921 0.220582 1.75776 36 41 41
1.05046 0.235211 1.87433 37 42 41
1.0264 0.227696 1.81445 37 42 41
1.0528 0.231409 1.84404 37 41 41
1.11576 0.243018 1.93655 36 39 39
1.08973 0.235211 1.87433 35 38 38
1.06442 0.227696 1.81445 37 40 40
1.10135 0.233511 1.86079 37 41 40
1.07191 0.225276 1.79517 36 40 40
1.16226 0.24214 1.92955 35 38 38
1.12041 0.231409 1.84404 35 38 38
1.11707 0.228747 1.82283 35 39 39
1.23612 0.25098 2 35 39 39
1.18106 0.237787 1.89486 35 39 39
-0.628536 0.130719 1 39 37 36
-0.623298 0.130719 1 38 36 35
-0.670215 0.14175 1.08438 37 36 34
-0.612822 0.130719 1 37 37 33
-0.708385 0.152406 1.1659 37 37 33
-0.629691 0.136653 1.0454 37 37 34
-0.647496 0.14175 1.08438 38 38 34
-0.641816 0.14175 1.08438 37 38 34
-0.690568 0.153879 1.17717 37 37 33
-0.659527 0.148286 1.13439 37 37 33
-0.659346 0.149593 1.14438 36 36 32
-0.622493 0.142527 1.09033 37 37 34
-0.616783 0.142527 1.09033 37 37 34
