ply
format ascii 1.0
element vertex 1366
property float x
property float y
property float z
property uchar red
property uchar green
property uchar blue
end_header
0.730849 0.563353 1.76625 35 38 38
0.763808 0.581399 1.82283 35 38 38
0.76162 0.572576 1.79517 34 38 38
0.771023 0.572576 1.79517 34 37 38
0.786861 0.577298 1.80997 34 37 38
0.78226 0.56709 1.77797 34 38 38
0.820991 0.588165 1.84404 34 38 38
0.808634 0.572576 1.79517 34 38 38
0.800991 0.560646 1.75776 35 39 38
0.819511 0.56709 1.77797 36 40 39
0.859626 0.588165 1.84404 35 39 38
0.817293 0.552987 1.73375 34 37 37
0.855647 0.572576 1.79517 34 38 38
0.847025 0.560646 1.75776 35 38 38
0.89826 0.588165 1.84404 35 39 39
0.901251 0.583845 1.8305 36 39 39
0.862698 0.552987 1.73375 34 38 38
0.890811 0.565059 1.7716 32 37 36
0.88086 0.552987 1.73375 33 38 37
0.921467 0.572576 1.79517 34 38 38
0.996032 0.612658 1.92083 34 39 38
1.08079 0.658147 2.06345 35 39 38
0.921674 0.555694 1.74224 34 38 38
0.985189 0.588165 1.84404 34 38 38
0.994848 0.588165 1.84404 34 38 37
0.992951 0.581399 1.82283 34 38 37
1.0025 0.581399 1.82283 34 38 37
1.01205 0.581399 1.82283 35 39 38
1.06196 0.604375 1.89486 35 39 38
1.13136 0.637909 2 34 38 38
1.08181 0.604375 1.89486 34 38 37
1.15232 0.637909 2 35 39 38
1.08973 0.597827 1.87433 36 40 39
1.0531 0.572576 1.79517 36 40 39
1.12151 0.604375 1.89486 35 39 38
1.14028 0.609096 1.90967 34 38 37
1.29863 0.687652 2.15596 35 39 38
1.13882 0.597827 1.87433 36 40 39
1.16121 0.604375 1.89486 35 39 38
1.02348 0.528175 1.65596 33 37 37
1.2466 0.637909 2 32 37 37
-0.75728 0.390586 1.20483 34 34 30
-0.750969 0.390586 1.20483 35 34 31
-0.704099 0.369312 1.13921 35 36 31
-0.793707 0.419871 1.29517 36 37 32
-0.754764 0.402712 1.24224 36 37 32
-0.90352 0.486275 1.5 36 37 32
-0.773356 0.419871 1.29517 36 36 31
-0.846111 0.463437 1.42955 35 35 30
-0.72062 0.398227 1.2284 35 36 30
-0.831136 0.463437 1.42955 36 36 31
-0.707752 0.398227 1.2284 35 35 30
-0.739437 0.419871 1.29517 36 36 31
-0.808673 0.463437 1.42955 36 36 32
-0.725869 0.419871 1.29517 35 36 30
-0.793697 0.463437 1.42955 34 34 29
-0.69173 0.407745 1.25776 33 33 28
-0.732141 0.435715 1.34404 35 35 31
-0.840377 0.504985 1.55772 36 36 32
-0.770548 0.467564 1.44228 35 36 32
-0.849145 0.520358 1.60514 34 35 30
-0.785669 0.486275 1.5 35 35 31
-0.858684 0.536833 1.65596 36 36 32
-0.816325 0.515559 1.59033 36 36 32
-0.807995 0.515559 1.59033 36 36 31
-0.799665 0.515559 1.59033 35 35 30
-0.866921 0.564804 1.74224 34 34 29
-0.738529 0.486275 1.5 35 34 28
-0.764988 0.509112 1.57045 35 35 28
-0.82152 0.552678 1.70483 35 36 30
-0.855647 0.581963 1.79517 35 36 30
-0.780621 0.536833 1.65596 35 35 29
-0.836842 0.581963 1.79517 34 35 28
-0.72386 0.509112 1.57045 35 35 29
-0.754601 0.536833 1.65596 36 36 31
-0.821094 0.59093 1.82283 37 36 32
-0.811546 0.59093 1.82283 37 36 32
-0.789828 0.581963 1.79517 37 36 32
-0.757415 0.564804 1.74224 37 37 33
-0.8202 0.619081 1.90967 35 36 31
-0.708305 0.541224 1.6695 35 35 30
-0.752218 0.581963 1.79517 36 36 32
-0.757434 0.593417 1.8305 37 37 34
-0.71813 0.569837 1.75776 36 36 33
-0.724009 0.581963 1.79517 35 35 31
-0.678647 0.552678 1.70483 35 36 32
-0.69051 0.569837 1.75776 36 37 32
-0.71089 0.594582 1.8341 36 36 33
-0.705086 0.597807 1.84404 37 37 34
-0.665198 0.571821 1.76388 37 37 34
-0.66344 0.578342 1.784 37 37 34
-0.642118 0.567752 1.75133 36 37 33
-0.644752 0.578342 1.784 36 36 32
-0.612608 0.557591 1.71999 35 35 31
-0.650237 0.600673 1.85288 34 35 30
-0.628436 0.58933 1.81789 34 35 30
-0.596253 0.567752 1.75133 35 36 32
-0.58708 0.567752 1.75133 36 36 32
-0.587902 0.577572 1.78162 36 36 32
-0.578571 0.577572 1.78162 37 37 32
-0.566036 0.574322 1.7716 36 37 32
-0.567938 0.585856 1.80718 35 35 31
-0.526844 0.552678 1.70483 35 35 31
-0.549006 0.585856 1.80718 35 36 32
-0.514121 0.558254 1.72203 36 36 33
-0.517376 0.571821 1.76388 36 37 33
-0.513248 0.577572 1.78162 36 37 34
-0.511144 0.585856 1.80718 36 37 33
-0.484776 0.566118 1.74629 36 36 32
-0.4859 0.578342 1.784 36 36 33
-0.473243 0.574322 1.7716 37 37 33
-0.455021 0.563252 1.73745 36 37 33
-0.449483 0.567752 1.75133 36 36 33
-0.432944 0.558254 1.72203 35 36 32
-0.423924 0.558254 1.72203 35 36 32
-0.421963 0.567752 1.75133 36 36 33
-0.40183 0.552678 1.70483 36 36 33
-0.392901 0.552678 1.70483 36 36 33
-0.383971 0.552678 1.70483 36 36 32
-0.385271 0.567752 1.75133 35 36 31
-0.362515 0.547248 1.68808 36 36 32
-0.360358 0.557591 1.71999 36 37 33
-0.354916 0.563252 1.73745 36 37 34
-0.348578 0.567752 1.75133 36 37 34
-0.336715 0.563252 1.73745 36 37 33
-0.330232 0.567752 1.75133 35 36 32
-0.318515 0.563252 1.73745 35 36 32
-0.300622 0.547248 1.68808 35 36 31
-0.301141 0.564804 1.74224 35 36 31
-0.282939 0.547248 1.68808 35 36 31
-0.27961 0.558254 1.72203 35 36 32
-0.265561 0.547879 1.69003 35 36 31
-0.256413 0.547248 1.68808 35 36 31
-0.25982 0.574322 1.7716 35 36 32
-0.241098 0.552678 1.70483 35 36 32
-0.236107 0.562052 1.73375 36 36 33
-0.22751 0.563252 1.73745 36 37 34
-0.221733 0.571821 1.76388 36 37 33
-0.210982 0.567752 1.75133 35 37 33
-0.200209 0.563252 1.73745 36 37 33
-0.187521 0.552678 1.70483 35 36 32
-0.178591 0.552678 1.70483 35 36 31
-0.168189 0.547879 1.69003 35 36 32
-0.165722 0.569837 1.75776 36 37 33
-0.151803 0.552678 1.70483 36 37 34
-0.141469 0.547248 1.68808 36 37 34
-0.135295 0.558254 1.72203 35 36 32
-0.123786 0.547248 1.68808 34 36 31
-0.119251 0.567752 1.75133 34 35 30
-0.107155 0.552678 1.70483 35 36 32
-0.0990984 0.557591 1.71999 36 37 33
-0.0885203 0.547879 1.69003 35 36 32
-0.081177 0.558254 1.72203 35 36 32
-0.0693886 0.536833 1.65596 35 36 32
-0.0612116 0.541224 1.6695 35 36 32
-0.0535774 0.552678 1.70483 35 36 32
-0.0446478 0.552678 1.70483 36 37 34
-0.0364017 0.563252 1.73745 36 37 34
-0.0267887 0.552678 1.70483 36 37 34
-0.0172259 0.533081 1.64438 35 36 33
-0.00900894 0.557591 1.71999 34 36 32
0 0.557068 1.71838 35 36 32
0.00900894 0.557591 1.71999 36 37 34
0.0178591 0.552678 1.70483 36 37 34
0.0257114 0.530453 1.63628 35 37 34
0.0354081 0.547879 1.69003 34 36 32
0.0435128 0.538628 1.66149 33 35 30
0.0535774 0.552678 1.70483 34 35 30
0.0602907 0.533081 1.64438 33 35 30
0.0707347 0.547248 1.68808 33 35 30
0.0795765 0.547248 1.68808 32 35 30
0.0892957 0.552678 1.70483 34 37 32
0.0972602 0.547248 1.68808 35 37 33
0.109205 0.563252 1.73745 35 37 33
0.113971 0.542618 1.6738 34 36 32
0.119209 0.527013 1.62567 34 36 31
0.135134 0.557591 1.71999 33 35 31
0.145607 0.563252 1.73745 34 35 31
0.14904 0.542618 1.6738 34 35 30
0.157807 0.542618 1.6738 34 36 31
0.162839 0.530453 1.63628 34 35 31
0.178591 0.552678 1.70483 35 36 32
0.191109 0.563252 1.73745 35 36 33
0.193263 0.54371 1.67717 35 36 32
0.20538 0.552678 1.70483 35 36 32
0.21431 0.552678 1.70483 35 36 32
0.223239 0.552678 1.70483 35 36 32
0.238501 0.567752 1.75133 34 35 32
0.243241 0.557591 1.71999 35 36 33
0.25225 0.557591 1.71999 34 36 33
0.261259 0.557591 1.71999 34 35 33
0.277166 0.571821 1.76388 33 35 32
0.282113 0.563252 1.73745 33 34 31
0.277554 0.536833 1.65596 32 34 31
0.297649 0.558254 1.72203 31 33 30
0.326625 0.594582 1.8341 32 34 31
0.321059 0.567752 1.75133 32 34 32
0.330232 0.567752 1.75133 33 35 32
0.339405 0.567752 1.75133 32 34 32
0.352612 0.574322 1.7716 33 35 33
0.357752 0.567752 1.75133 34 36 33
0.360787 0.558254 1.72203 33 35 33
0.353131 0.533081 1.64438 32 34 32
0.382217 0.563252 1.73745 31 34 32
0.387846 0.558254 1.72203 28 32 31
0.416488 0.585856 1.80718 28 33 32
0.40183 0.552678 1.70483 28 33 32
0.414905 0.558254 1.72203 31 35 34
0.41969 0.552678 1.70483 33 36 35
0.432944 0.558254 1.72203 34 37 35
0.437549 0.552678 1.70483 35 37 35
0.455021 0.563252 1.73745 34 37 35
0.460003 0.558254 1.72203 33 36 34
0.4859 0.578342 1.784 33 36 34
0.482322 0.563252 1.73745 32 36 34
0.501081 0.574322 1.7716 32 36 33
0.491126 0.552678 1.70483 31 35 33
0.511027 0.564804 1.74224 31 35 33
0.535955 0.581963 1.79517 32 35 34
0.529278 0.564804 1.74224 34 36 35
0.543201 0.569837 1.75776 34 36 35
0.546025 0.563252 1.73745 34 35 35
0.551058 0.559125 1.72472 31 34 33
0.578571 0.577572 1.78162 31 33 32
0.587902 0.577572 1.78162 34 36 35
0.59803 0.578342 1.784 35 37 37
0.606566 0.577572 1.78162 37 40 39
0.660161 0.619081 1.90967 37 40 39
0.629982 0.581963 1.79517 36 38 38
0.626062 0.569837 1.75776 35 37 37
0.622357 0.558254 1.72203 35 38 37
0.65819 0.581963 1.79517 35 38 38
0.653683 0.569837 1.75776 35 38 38
0.706851 0.607627 1.87433 34 38 37
0.686399 0.581963 1.79517 34 37 37
0.706523 0.59093 1.82283 35 37 37
0.71607 0.59093 1.82283 36 38 38
0.696097 0.566889 1.74867 36 38 38
0.729979 0.586761 1.80997 35 37 37
0.727879 0.577572 1.78162 35 37 37
0.74894 0.586761 1.80997 35 37 37
0.772697 0.597807 1.84404 35 38 38
0.76162 0.581963 1.79517 34 38 38
0.758603 0.572588 1.76625 34 37 38
0.7514 0.560318 1.7284 34 37 38
0.78226 0.576386 1.77797 35 38 38
0.826143 0.601559 1.85562 35 39 38
0.787688 0.566889 1.74867 34 38 38
0.818037 0.581963 1.79517 34 38 37
0.827439 0.581963 1.79517 35 39 39
0.873747 0.607627 1.87433 35 39 38
0.817293 0.562052 1.73375 35 38 38
0.855647 0.581963 1.79517 35 38 38
0.874344 0.588215 1.81445 35 39 39
0.891663 0.593417 1.8305 35 39 39
0.893351 0.588215 1.81445 35 39 39
0.938208 0.611248 1.8855 33 38 37
0.942468 0.607627 1.87433 32 37 37
0.930015 0.593417 1.8305 32 38 37
0.935665 0.59093 1.82283 34 39 38
0.930869 0.581963 1.79517 34 39 38
0.92068 0.569837 1.75776 33 38 38
0.937207 0.574322 1.7716 33 38 37
0.994137 0.603237 1.86079 34 38 38
0.994848 0.597807 1.84404 34 39 38
1.00451 0.597807 1.84404 33 38 37
1.0564 0.622701 1.92083 34 38 37
1.05204 0.614282 1.89486 35 39 38
1.07652 0.622701 1.92083 36 40 39
1.01549 0.581963 1.79517 35 39 38
1.07009 0.607627 1.87433 34 38 37
1.09174 0.614282 1.89486 34 38 38
1.05978 0.59093 1.82283 35 39 38
1.0531 0.581963 1.79517 35 39 38
1.09143 0.597807 1.84404 34 38 38
1.19422 0.648366 2 34 38 37
1.11075 0.597807 1.84404 34 38 38
1.21517 0.648366 2 34 38 38
1.22564 0.648366 2 33 38 37
1.15845 0.607627 1.87433 32 37 37
1.14939 0.597807 1.84404 32 37 37
-0.739894 0.387774 1.17717 33 34 30
-0.878641 0.46436 1.40967 34 35 31
-0.777372 0.414322 1.25776 35 35 31
-0.738348 0.396886 1.20483 36 37 31
-0.715231 0.387774 1.17717 36 37 32
-0.709065 0.387774 1.17717 35 36 30
-0.751021 0.414322 1.25776 35 35 29
-0.735245 0.409208 1.24224 35 35 30
-0.780515 0.438282 1.3305 36 36 31
-0.753004 0.426643 1.29517 36 36 31
-0.823648 0.470912 1.42955 35 35 30
-0.718081 0.414322 1.25776 37 37 32
-0.702712 0.409208 1.24224 38 38 34
-0.770238 0.452722 1.37433 37 37 33
-0.74622 0.442743 1.34404 36 36 32
-0.863696 0.517324 1.57045 35 35 32
-0.848536 0.51313 1.55772 36 36 33
-0.80924 0.494118 1.5 36 36 33
-0.718061 0.442743 1.34404 36 37 34
-0.622744 0.387774 1.17717 35 35 31
-0.785669 0.494118 1.5 34 35 30
-0.777813 0.494118 1.5 35 35 30
-0.769956 0.494118 1.5 35 35 30
-0.726308 0.470912 1.42955 34 34 29
-0.754243 0.494118 1.5 34 34 28
-0.711332 0.470912 1.42955 34 34 29
-0.865439 0.579027 1.75776 35 35 29
-0.89826 0.607449 1.84404 35 35 29
-0.82152 0.561592 1.70483 35 36 30
-0.742469 0.51313 1.55772 35 36 30
-0.821294 0.573914 1.74224 34 35 29
-0.778261 0.549953 1.6695 34 35 29
-0.840189 0.600461 1.82283 35 35 30
-0.830642 0.600461 1.82283 35 35 31
-0.821094 0.600461 1.82283 35 35 31
-0.788738 0.583586 1.7716 36 36 31
-0.818701 0.612966 1.86079 36 36 32
-0.780426 0.591349 1.79517 36 36 31
-0.732224 0.561592 1.70483 35 35 30
-0.773356 0.600461 1.82283 35 35 30
-0.736544 0.579027 1.75776 35 36 32
-0.723574 0.576032 1.74867 36 36 32
-0.765756 0.617428 1.87433 36 36 32
-0.728853 0.595306 1.80718 36 36 32
-0.749174 0.619954 1.882 36 36 32
-0.699884 0.586888 1.78162 36 36 32
-0.675286 0.573914 1.74224 35 36 32
-0.705086 0.607449 1.84404 36 37 33
-0.676996 0.591349 1.79517 36 37 34
-0.633999 0.561592 1.70483 36 36 32
-0.649549 0.583586 1.7716 35 35 31
-0.662857 0.604173 1.8341 35 36 31
-0.607211 0.561592 1.70483 35 36 32
-0.621711 0.583586 1.7716 35 35 31
-0.612432 0.583586 1.7716 34 35 31
-0.615266 0.595306 1.80718 35 36 31
-0.59803 0.58767 1.784 36 36 32
-0.592371 0.591349 1.79517 36 36 32
-0.575315 0.583586 1.7716 37 37 33
-0.577403 0.595306 1.80718 35 35 31
-0.560654 0.58767 1.784 34 34 29
-0.569864 0.607449 1.84404 34 35 30
-0.549006 0.595306 1.80718 34 35 31
-0.518724 0.572337 1.73745 35 36 33
-0.530075 0.595306 1.80718 36 37 34
-0.477046 0.545492 1.65596 36 37 34
-0.504588 0.58767 1.784 36 37 33
-0.473267 0.561592 1.70483 36 36 32
-0.482522 0.583586 1.7716 36 36 33
-0.473243 0.583586 1.7716 36 37 33
-0.46034 0.579027 1.75776 36 37 33
-0.451133 0.579027 1.75776 35 36 32
-0.424408 0.556075 1.68808 35 36 32
-0.42342 0.566584 1.71999 36 36 33
-0.41076 0.561592 1.70483 36 37 33
-0.417567 0.583586 1.7716 37 37 34
-0.41372 0.591349 1.79517 37 37 34
-0.376983 0.55137 1.6738 36 37 33
-0.382217 0.572337 1.73745 36 36 32
-0.370383 0.568143 1.72472 36 36 32
-0.38087 0.598836 1.81789 36 37 33
-0.348253 0.561592 1.70483 36 37 33
-0.339324 0.561592 1.70483 36 37 33
-0.340652 0.579027 1.75776 35 36 32
-0.318306 0.556075 1.68808 34 35 31
-0.324775 0.583586 1.7716 35 36 31
-0.309414 0.572337 1.73745 35 36 31
-0.303824 0.579027 1.75776 35 36 31
-0.288629 0.567258 1.72203 35 36 32
-0.282113 0.572337 1.73745 34 35 30
-0.273012 0.572337 1.73745 33 34 28
-0.256413 0.556075 1.68808 34 35 30
-0.254812 0.572337 1.73745 35 36 32
-0.23873 0.556075 1.68808 35 36 32
-0.24021 0.581044 1.76388 35 36 32
-0.221046 0.556075 1.68808 35 37 33
-0.222703 0.583586 1.7716 35 36 32
-0.207452 0.567258 1.72203 36 37 33
-0.198433 0.567258 1.72203 36 37 33
-0.194865 0.583586 1.7716 35 36 32
-0.183462 0.576909 1.75133 35 36 31
-0.172908 0.572337 1.73745 35 36 32
-0.166299 0.581044 1.76388 35 36 32
-0.151803 0.561592 1.70483 35 36 33
-0.141469 0.556075 1.68808 35 37 33
-0.136506 0.572337 1.73745 35 36 32
-0.128424 0.576909 1.75133 36 37 33
-0.113971 0.55137 1.6738 36 36 32
-0.107155 0.561592 1.70483 35 36 32
-0.0972602 0.556075 1.68808 35 36 32
-0.0901967 0.567258 1.72203 35 36 31
-0.081177 0.567258 1.72203 35 36 32
-0.0707347 0.556075 1.68808 36 36 33
-0.0631377 0.567258 1.72203 35 36 32
-0.0535774 0.561592 1.70483 34 36 32
-0.0463964 0.583586 1.7716 35 36 33
-0.0353673 0.556075 1.68808 36 37 34
-0.0275194 0.576909 1.75133 36 37 34
-0.0180393 0.567258 1.72203 35 36 33
-0.00901967 0.567258 1.72203 34 36 32
0 0.561592 1.70483 34 36 32
0.00876704 0.55137 1.6738 35 37 33
0.0180179 0.566584 1.71999 36 37 34
0.0265561 0.556716 1.69003 35 37 33
0.0357183 0.561592 1.70483 35 36 32
0.0442092 0.556075 1.68808 35 36 32
0.0535774 0.561592 1.70483 36 37 33
0.0642118 0.576909 1.75133 34 36 32
0.0701363 0.55137 1.6738 33 35 30
0.0803661 0.561592 1.70483 33 36 31
0.0892957 0.561592 1.70483 35 37 33
0.0982252 0.561592 1.70483 35 37 33
0.103355 0.54168 1.64438 35 37 34
0.118053 0.571118 1.73375 34 36 32
0.123786 0.556075 1.68808 34 36 32
0.132628 0.556075 1.68808 34 35 31
0.144315 0.567258 1.72203 34 35 31
0.154707 0.572337 1.73745 34 35 31
0.163807 0.572337 1.73745 35 36 31
0.171374 0.567258 1.72203 35 36 31
0.174051 0.547316 1.66149 35 36 32
0.183635 0.549953 1.6695 35 36 32
0.198197 0.566584 1.71999 35 36 32
0.20538 0.561592 1.70483 35 36 32
0.222703 0.583586 1.7716 35 37 33
0.219176 0.55137 1.6738 34 35 31
0.230153 0.556716 1.69003 33 34 30
0.245711 0.572337 1.73745 34 35 32
0.250028 0.561592 1.70483 34 35 33
0.258957 0.561592 1.70483 34 35 33
0.27059 0.567258 1.72203 33 35 32
0.274097 0.556075 1.68808 33 35 32
0.288629 0.567258 1.72203 33 35 33
0.289312 0.55137 1.6738 33 35 33
0.303605 0.561592 1.70483 33 35 33
0.327048 0.58767 1.784 34 35 33
0.315613 0.55137 1.6738 34 35 33
0.32438 0.55137 1.6738 33 35 32
0.33599 0.556075 1.68808 34 35 33
0.361892 0.583586 1.7716 33 35 32
0.357183 0.561592 1.70483 32 34 32
0.366112 0.561592 1.70483 32 35 33
0.375042 0.561592 1.70483 33 35 34
0.399009 0.583586 1.7716 31 34 34
0.400418 0.572337 1.73745 31 35 34
0.423122 0.591349 1.79517 32 35 35
0.421963 0.576909 1.75133 34 37 36
0.42772 0.572337 1.73745 34 37 35
0.45435 0.595306 1.80718 34 37 36
0.423169 0.543136 1.64881 35 38 36
0.463964 0.583586 1.7716 35 37 35
0.455408 0.561592 1.70483 35 38 35
0.478754 0.579027 1.75776 35 37 35
0.491802 0.583586 1.7716 34 37 34
0.492776 0.573914 1.74224 33 36 34
0.506374 0.579027 1.75776 32 35 33
0.509623 0.572337 1.73745 32 35 33
0.547577 0.604173 1.8341 34 36 34
0.541243 0.586888 1.78162 35 37 35
0.55476 0.591349 1.79517 35 37 35
0.564163 0.591349 1.79517 35 36 36
0.556655 0.573914 1.74224 31 33 33
0.542159 0.549953 1.6695 30 33 32
0.569125 0.568143 1.72472 33 35 35
0.597234 0.586888 1.78162 33 36 36
0.598442 0.579027 1.75776 36 38 38
0.607649 0.579027 1.75776 37 40 39
0.609728 0.572337 1.73745 36 38 38
0.639385 0.591349 1.79517 34 37 36
0.648788 0.591349 1.79517 34 38 37
0.662594 0.595306 1.80718 35 39 38
0.662557 0.586888 1.78162 35 38 38
0.671888 0.586888 1.78162 35 39 38
0.68122 0.586888 1.78162 35 38 38
0.660788 0.561592 1.70483 35 37 37
0.686938 0.576032 1.74867 35 37 38
0.696097 0.576032 1.74867 35 37 37
0.735166 0.600461 1.82283 35 37 37
0.758108 0.611261 1.85562 34 36 36
0.715188 0.569355 1.7284 35 37 38
0.772697 0.607449 1.84404 35 38 39
0.754322 0.585683 1.77797 34 38 38
0.792015 0.607449 1.84404 33 37 37
0.772947 0.585683 1.77797 34 37 38
0.811332 0.607449 1.84404 34 38 38
0.791573 0.585683 1.77797 35 39 38
0.849325 0.621106 1.8855 35 39 38
0.826825 0.597702 1.81445 36 39 38
0.869077 0.621106 1.8855 36 40 39
0.845832 0.597702 1.81445 35 39 38
0.883564 0.617428 1.87433 34 38 38
0.898704 0.621106 1.8855 34 37 38
0.903199 0.617428 1.87433 34 37 38
0.906419 0.612966 1.86079 34 38 38
0.901251 0.602988 1.8305 34 38 38
0.902855 0.597702 1.81445 32 37 37
0.890811 0.583586 1.7716 31 37 37
0.952286 0.617428 1.87433 32 37 37
0.985971 0.632745 1.92083 34 38 38
0.842976 0.535513 1.62567 34 39 38
0.974644 0.612966 1.86079 33 38 37
1.02077 0.635618 1.92955 34 39 38
0.973856 0.600461 1.82283 35 39 39
1.03628 0.632745 1.92083 34 39 38
1.00451 0.607449 1.84404 33 38 37
1.05026 0.629066 1.90967 33 38 37
1.11041 0.658824 2 33 38 37
0.985127 0.579027 1.75776 35 39 38
1.06028 0.617428 1.87433 35 39 38
1.0249 0.591349 1.79517 34 38 38
1.0343 0.591349 1.79517 34 38 37
1.02195 0.579027 1.75776 33 37 37
1.06933 0.600461 1.82283 33 37 37
1.12151 0.62419 1.89486 32 37 37
1.11918 0.617428 1.87433 32 37 37
1.08131 0.591349 1.79517 34 38 38
1.03583 0.561592 1.70483 35 39 38
1.0772 0.579027 1.75776 34 38 38
1.23612 0.658824 2 32 37 37
0.934947 0.494118 1.5 31 37 37
-0.790548 0.420898 1.25776 34 36 32
-0.733728 0.393929 1.17717 34 35 32
-0.88355 0.478386 1.42955 35 35 31
-0.721396 0.393929 1.17717 36 36 31
-0.754764 0.415703 1.24224 36 36 31
-0.809579 0.449771 1.34404 35 35 29
-0.820627 0.459908 1.37433 35 35 29
-0.744433 0.420898 1.25776 36 36 31
-0.80623 0.459908 1.37433 36 36 32
-0.799031 0.459908 1.37433 37 37 33
-0.830983 0.482647 1.44228 36 36 32
-0.85638 0.501961 1.5 37 37 33
-0.752639 0.445239 1.3305 37 37 34
-0.790039 0.471731 1.40967 38 38 34
-0.864854 0.521275 1.55772 37 37 33
-0.775272 0.471731 1.40967 36 36 33
-0.732141 0.449771 1.34404 36 36 33
-0.725101 0.449771 1.34404 36 36 32
-0.753121 0.471731 1.40967 36 36 32
-0.762993 0.482647 1.44228 35 36 31
-0.785669 0.501961 1.5 35 35 31
-0.741283 0.478386 1.42955 34 35 30
-0.806117 0.525535 1.57045 34 35 30
-0.807995 0.53219 1.59033 34 34 28
-0.754243 0.501961 1.5 34 34 28
-0.808916 0.544014 1.62567 35 35 29
-0.738529 0.501961 1.5 35 35 30
-0.669459 0.459908 1.37433 35 36 30
-0.783371 0.544014 1.62567 35 36 30
-0.812591 0.570506 1.70483 35 36 30
-0.740311 0.525535 1.57045 35 36 30
-0.794731 0.570506 1.70483 34 36 30
-0.749312 0.544014 1.62567 34 35 30
-0.760772 0.558683 1.6695 34 35 30
-0.784792 0.583023 1.74224 34 35 30
-0.775666 0.583023 1.74224 35 35 30
-0.750084 0.570506 1.70483 35 36 31
-0.741154 0.570506 1.70483 35 36 31
-0.698222 0.544014 1.62567 35 36 31
-0.76162 0.600736 1.79517 35 36 31
-0.767022 0.612559 1.8305 35 36 31
-0.74894 0.605689 1.80997 35 36 31
-0.749316 0.613763 1.8341 36 37 32
-0.702662 0.583023 1.74224 36 37 33
-0.709216 0.596204 1.78162 36 37 32
-0.699884 0.596204 1.78162 36 37 33
-0.691473 0.596999 1.784 36 36 32
-0.686399 0.600736 1.79517 35 36 32
-0.676996 0.600736 1.79517 35 36 32
-0.658829 0.592849 1.7716 35 36 31
-0.654096 0.596999 1.784 35 35 31
-0.653128 0.604755 1.80718 35 35 31
-0.667582 0.627228 1.87433 35 36 32
-0.621711 0.592849 1.7716 36 36 32
-0.620579 0.600736 1.79517 35 36 31
-0.596253 0.586067 1.75133 35 36 31
-0.6058 0.604755 1.80718 36 37 32
-0.584594 0.592849 1.7716 36 36 32
-0.553633 0.570506 1.70483 36 36 31
-0.569998 0.596999 1.784 35 35 30
-0.556757 0.592849 1.7716 34 34 29
-0.53216 0.576263 1.72203 34 35 30
-0.522519 0.575577 1.71999 35 36 32
-0.528919 0.592849 1.7716 36 37 33
-0.515581 0.588218 1.75776 36 37 33
-0.504522 0.586067 1.75133 37 37 34
-0.495348 0.586067 1.75133 36 37 34
-0.478042 0.576263 1.72203 35 36 32
-0.469023 0.576263 1.72203 36 36 32
-0.48561 0.608341 1.81789 36 36 32
-0.466589 0.596204 1.78162 35 36 32
-0.454685 0.592849 1.7716 35 35 31
-0.457044 0.608341 1.81789 35 36 32
-0.423924 0.576263 1.72203 37 37 34
-0.41076 0.570506 1.70483 37 37 34
-0.397883 0.564901 1.68808 37 37 34
-0.396865 0.576263 1.72203 37 37 34
-0.391318 0.581422 1.73745 36 37 33
-0.392457 0.596999 1.784 36 36 32
-0.374145 0.583023 1.74224 36 37 33
-0.361349 0.577161 1.72472 36 37 33
-0.355894 0.583023 1.74224 36 37 33
-0.342747 0.576263 1.72203 36 37 33
-0.336715 0.581422 1.73745 35 36 32
-0.321464 0.570506 1.70483 34 35 31
-0.324775 0.592849 1.7716 34 35 30
-0.313031 0.588218 1.75776 34 36 31
-0.286228 0.554151 1.65596 35 36 32
-0.290593 0.580183 1.73375 34 36 31
-0.291484 0.600736 1.79517 34 35 30
-0.267887 0.570506 1.70483 34 35 29
-0.248544 0.547564 1.63628 35 36 31
-0.252551 0.576263 1.72203 35 36 32
-0.248584 0.588218 1.75776 36 37 33
-0.227943 0.560122 1.6738 36 37 33
-0.225492 0.576263 1.72203 36 37 33
-0.21431 0.570506 1.70483 35 37 33
-0.20538 0.570506 1.70483 36 37 33
-0.192875 0.560122 1.6738 35 36 32
-0.185893 0.565553 1.69003 34 35 30
-0.180393 0.576263 1.72203 34 35 31
-0.15974 0.537144 1.60514 35 36 32
-0.165116 0.586067 1.75133 35 36 31
-0.153152 0.575577 1.71999 35 36 32
-0.141469 0.564901 1.68808 35 36 32
-0.133943 0.570506 1.70483 35 36 32
-0.127406 0.581422 1.73745 36 37 33
-0.115076 0.565553 1.69003 37 37 34
-0.107155 0.570506 1.70483 36 36 33
-0.0982252 0.570506 1.70483 35 36 32
-0.0884184 0.564901 1.68808 35 36 32
-0.0819037 0.581422 1.73745 35 36 32
-0.0736544 0.588218 1.75776 35 36 32
-0.0637029 0.581422 1.73745 34 35 31
-0.0499791 0.53219 1.59033 34 35 31
-0.0437225 0.558683 1.6695 34 35 31
-0.0360787 0.576263 1.72203 34 36 32
-0.027059 0.576263 1.72203 35 36 33
-0.018251 0.583023 1.74224 35 36 32
-0.00910042 0.581422 1.73745 34 35 31
0 0.581422 1.73745 35 36 31
0.00910042 0.581422 1.73745 35 36 32
0.0184777 0.590267 1.76388 35 36 32
0.0282082 0.600736 1.79517 35 36 32
0.0353673 0.564901 1.68808 35 36 32
0.0450447 0.575577 1.71999 35 36 32
0.0560654 0.596999 1.784 35 37 33
0.0619642 0.565553 1.69003 35 37 33
0.0720715 0.575577 1.71999 35 37 33
0.0789033 0.560122 1.6738 35 37 33
0.0934423 0.596999 1.784 35 37 33
0.0990984 0.575577 1.71999 35 37 33
0.108972 0.580183 1.73375 34 36 32
0.119251 0.586067 1.75133 32 35 31
0.123928 0.565553 1.69003 33 36 31
0.136506 0.581422 1.73745 34 35 31
0.148468 0.592849 1.7716 34 35 31
0.14904 0.560122 1.6738 34 35 31
0.162161 0.575577 1.71999 35 36 31
0.175538 0.590267 1.76388 35 36 32
0.180393 0.576263 1.72203 35 36 32
0.191109 0.581422 1.73745 35 37 33
0.192875 0.560122 1.6738 35 36 32
0.213423 0.592849 1.7716 35 36 32
0.210409 0.560122 1.6738 35 36 32
0.218613 0.558683 1.6695 34 35 31
0.236611 0.581422 1.73745 33 34 31
0.243531 0.576263 1.72203 32 34 31
0.25982 0.592849 1.7716 33 34 32
0.26602 0.586067 1.75133 33 35 32
0.27059 0.576263 1.72203 33 35 32
0.293434 0.604755 1.80718 33 35 32
0.28111 0.561249 1.67717 34 35 33
0.294676 0.570506 1.70483 34 36 34
0.300622 0.564901 1.68808 34 35 34
0.327048 0.596999 1.784 34 35 34
0.321464 0.570506 1.70483 33 35 33
0.323547 0.558683 1.6695 32 34 32
0.355081 0.596999 1.784 32 34 32
0.351767 0.576263 1.72203 32 34 32
0.365019 0.583023 1.74224 32 34 32
0.377479 0.588218 1.75776 32 35 33
0.378826 0.576263 1.72203 33 35 34
0.388451 0.577161 1.72472 32 36 35
0.405099 0.588218 1.75776 32 36 35
0.41993 0.596204 1.78162 33 36 35
0.41076 0.570506 1.70483 33 37 35
0.43272 0.588218 1.75776 33 36 34
0.42377 0.564052 1.68555 34 37 35
0.437549 0.570506 1.70483 35 38 36
0.463964 0.592849 1.7716 35 38 35
0.469547 0.588218 1.75776 36 38 36
0.481065 0.591059 1.76625 35 37 35
0.473267 0.570506 1.70483 34 37 35
0.514175 0.608341 1.81789 33 36 34
0.51036 0.592849 1.7716 33 36 34
0.533219 0.608341 1.81789 33 36 35
0.508985 0.570506 1.70483 35 37 35
0.549006 0.604755 1.80718 35 37 35
0.526844 0.570506 1.70483 35 37 35
0.552408 0.588218 1.75776 33 35 34
0.564327 0.591059 1.76625 30 33 32
0.578571 0.596204 1.78162 31 34 33
0.596335 0.604755 1.80718 33 35 35
0.584031 0.583023 1.74224 32 35 35
0.591527 0.581422 1.73745 34 36 36
0.583561 0.564901 1.68808 35 38 37
0.625229 0.596204 1.78162 35 38 38
0.620533 0.583023 1.74224 34 37 37
0.629659 0.583023 1.74224 34 37 37
0.653225 0.596204 1.78162 34 38 38
0.667593 0.600736 1.79517 35 38 38
0.671888 0.596204 1.78162 35 38 38
0.675342 0.591059 1.76625 36 39 39
0.684593 0.591059 1.76625 36 38 38
0.705204 0.600736 1.79517 35 37 37
0.707759 0.594979 1.77797 35 36 37
0.705256 0.585175 1.74867 34 36 37
0.749316 0.613763 1.8341 35 37 37
0.742815 0.600736 1.79517 35 38 38
0.767022 0.612559 1.8305 35 38 38
0.7679 0.605689 1.80997 34 38 38
0.763635 0.594979 1.77797 34 38 38
0.823767 0.634098 1.89486 35 38 39
0.805373 0.612559 1.8305 35 38 38
0.834477 0.627228 1.87433 36 39 39
0.800885 0.594979 1.77797 36 39 39
0.863467 0.634098 1.89486 36 39 39
0.863929 0.627228 1.87433 36 39 39
0.828823 0.594979 1.77797 35 38 38
0.8629 0.612559 1.8305 33 38 38
0.893382 0.627228 1.87433 32 37 37
0.874344 0.607189 1.81445 33 37 38
0.906419 0.622696 1.86079 33 37 38
0.893351 0.607189 1.81445 33 37 38
0.881531 0.592849 1.7716 32 37 37
0.902661 0.600736 1.79517 32 37 37
0.983895 0.648048 1.93655 33 38 38
0.935665 0.609992 1.82283 34 39 38
0.930869 0.600736 1.79517 35 39 39
1.00024 0.639051 1.90967 34 39 39
0.921674 0.583023 1.74224 34 39 39
1.02622 0.642789 1.92083 35 39 39
1.04098 0.645707 1.92955 35 40 39
0.965045 0.592849 1.7716 35 39 39
1.0564 0.642789 1.92083 34 38 37
1.06646 0.642789 1.92083 33 38 37
1.12089 0.669281 2 34 38 37
1.13136 0.669281 2 34 38 38
1.09027 0.639051 1.90967 34 38 38
1.09174 0.634098 1.89486 33 38 37
1.16279 0.669281 2 32 37 37
1.11159 0.634098 1.89486 32 37 37
1.04037 0.588218 1.75776 32 38 37
1.19422 0.669281 2 33 38 37
1.11075 0.617091 1.84404 34 39 38
1.13882 0.627228 1.87433 34 39 38
0.919233 0.501961 1.5 34 39 38
1.41855 0.768056 2.29517 32 37 38
1.09561 0.588218 1.75776 31 37 38
-0.75728 0.409486 1.20483 35 37 34
-0.837738 0.456798 1.34404 34 35 31
-0.744659 0.409486 1.20483 33 34 28
-0.793707 0.440188 1.29517 35 35 30
-0.754764 0.422198 1.24224 36 36 31
-0.780139 0.440188 1.29517 35 35 29
-0.741751 0.422198 1.24224 33 34 27
-0.813428 0.467094 1.37433 33 33 27
-0.80623 0.467094 1.37433 33 33 27
-0.722231 0.422198 1.24224 34 34 29
-0.74622 0.440188 1.29517 35 35 30
-0.76734 0.456798 1.34404 35 35 30
-0.848523 0.509804 1.5 35 35 31
-0.725869 0.440188 1.29517 36 36 32
-0.719085 0.440188 1.29517 36 36 33
-0.824953 0.509804 1.5 36 36 33
-0.705517 0.440188 1.29517 36 37 33
-0.893378 0.562809 1.65596 36 36 33
-0.801383 0.509804 1.5 35 36 32
-0.756259 0.485861 1.42955 35 35 31
-0.785669 0.509804 1.5 35 35 31
-0.777813 0.509804 1.5 34 35 30
-0.806117 0.533747 1.57045 35 35 30
-0.841336 0.562809 1.65596 34 34 29
-0.651247 0.440188 1.29517 33 34 29
-0.746386 0.509804 1.5 34 35 30
-0.907919 0.626733 1.84404 35 36 30
-0.806642 0.562809 1.65596 35 36 30
-0.82152 0.57942 1.70483 35 36 30
-0.830419 0.592133 1.74224 35 36 31
-0.828612 0.597409 1.75776 36 37 32
-0.819405 0.597409 1.75776 36 37 32
-0.785802 0.57942 1.70483 35 36 32
-0.793917 0.592133 1.74224 35 36 31
-0.784792 0.592133 1.74224 34 35 30
-0.775666 0.592133 1.74224 35 36 31
-0.801999 0.619524 1.82283 36 37 33
-0.706737 0.552514 1.62567 36 36 32
-0.732224 0.57942 1.70483 35 36 32
-0.723295 0.57942 1.70483 36 37 33
-0.752218 0.610122 1.79517 37 37 34
-0.730849 0.600294 1.76625 37 37 33
-0.727879 0.605519 1.78162 36 37 32
-0.728853 0.614204 1.80718 36 36 32
-0.678647 0.57942 1.70483 36 36 32
-0.711019 0.615153 1.80997 36 36 32
-0.71089 0.623353 1.8341 35 36 32
-0.705086 0.626733 1.84404 35 36 32
-0.691676 0.623353 1.8341 35 36 32
-0.67206 0.614204 1.80718 35 36 31
-0.654096 0.606327 1.784 34 35 31
-0.662857 0.623353 1.8341 35 36 32
-0.630991 0.602112 1.7716 36 37 33
-0.641332 0.621114 1.82751 36 37 33
-0.640532 0.629738 1.85288 36 37 32
-0.603153 0.602112 1.7716 36 37 33
-0.593874 0.602112 1.7716 37 38 34
-0.587902 0.605519 1.78162 36 36 32
-0.575315 0.602112 1.7716 36 35 31
-0.577403 0.614204 1.80718 35 35 31
-0.547529 0.592133 1.74224 35 35 30
-0.538404 0.592133 1.74224 35 35 31
-0.549006 0.614204 1.80718 35 36 33
-0.503985 0.573728 1.68808 35 36 32
-0.505101 0.585267 1.72203 35 35 31
-0.533776 0.629738 1.85288 36 37 34
-0.477459 0.573728 1.68808 37 37 34
-0.498344 0.610122 1.79517 36 36 33
-0.474525 0.592133 1.74224 35 36 32
-0.455408 0.57942 1.70483 35 35 31
-0.473281 0.614204 1.80718 35 36 32
-0.43325 0.573728 1.68808 35 36 32
-0.445405 0.602112 1.7716 35 36 32
-0.41969 0.57942 1.70483 36 37 34
-0.432525 0.610122 1.79517 37 37 34
-0.409519 0.590506 1.73745 36 36 33
-0.416488 0.614204 1.80718 36 36 33
-0.380199 0.573728 1.68808 35 36 32
-0.371357 0.573728 1.68808 35 36 32
-0.38045 0.602112 1.7716 36 36 32
-0.378625 0.614204 1.80718 35 36 32
-0.359065 0.597409 1.75776 36 36 32
-0.352612 0.602112 1.7716 36 37 32
-0.330394 0.57942 1.70483 35 36 31
-0.321464 0.57942 1.70483 35 36 31
-0.315688 0.585267 1.72203 34 36 30
-0.303605 0.57942 1.70483 34 36 31
-0.307949 0.605519 1.78162 34 35 30
-0.294618 0.597409 1.75776 33 35 29
-0.280046 0.58618 1.72472 33 35 29
-0.27059 0.585267 1.72203 33 34 29
-0.264639 0.592133 1.74224 34 35 30
-0.252551 0.585267 1.72203 34 35 30
-0.246388 0.592133 1.74224 35 36 32
-0.229888 0.573728 1.68808 36 37 33
-0.223239 0.57942 1.70483 35 36 32
-0.21431 0.57942 1.70483 35 37 32
-0.20538 0.57942 1.70483 35 36 32
-0.19645 0.57942 1.70483 34 35 31
-0.184108 0.568874 1.6738 34 35 31
-0.176837 0.573728 1.68808 34 35 31
-0.172908 0.590506 1.73745 34 35 31
-0.157807 0.568874 1.6738 33 35 30
-0.153334 0.585267 1.72203 34 35 31
-0.144315 0.585267 1.72203 35 36 32
-0.135295 0.585267 1.72203 35 36 32
-0.127406 0.590506 1.73745 35 36 32
-0.118305 0.590506 1.73745 36 36 32
-0.109205 0.590506 1.73745 36 36 32
-0.0971141 0.572866 1.68555 36 36 32
-0.0876704 0.568874 1.6738 36 36 32
-0.0787006 0.567412 1.6695 35 36 32
-0.0761741 0.617846 1.81789 35 36 32
-0.062507 0.57942 1.70483 34 35 31
-0.0526022 0.568874 1.6738 33 35 31
-0.0463964 0.602112 1.7716 34 36 32
-0.0360787 0.585267 1.72203 34 36 32
-0.0273012 0.590506 1.73745 35 36 33
-0.0176837 0.573728 1.68808 35 37 33
-0.00901967 0.585267 1.72203 35 36 32
0 0.589248 1.73375 35 36 31
0.00957212 0.621114 1.82751 35 36 31
0.0182008 0.590506 1.73745 35 36 31
0.0273765 0.592133 1.74224 35 36 32
0.0366925 0.595224 1.75133 35 36 32
0.0455021 0.590506 1.73745 35 36 31
0.0546025 0.590506 1.73745 34 35 31
0.0631377 0.585267 1.72203 34 36 32
0.0689036 0.558876 1.64438 35 37 32
0.0803661 0.57942 1.70483 34 36 32
0.0923886 0.59949 1.76388 34 36 32
0.102786 0.606327 1.784 34 36 32
0.107155 0.57942 1.70483 34 36 32
0.118305 0.590506 1.73745 33 36 32
0.123928 0.574389 1.69003 34 36 32
0.133943 0.57942 1.70483 34 35 31
0.15145 0.614204 1.80718 35 36 31
0.150311 0.573728 1.68808 34 35 30
0.160732 0.57942 1.70483 34 35 30
0.169662 0.57942 1.70483 34 35 31
0.18251 0.592133 1.74224 34 36 31
0.192636 0.595224 1.75133 34 36 32
0.209479 0.617846 1.81789 34 35 31
0.20538 0.57942 1.70483 34 35 31
0.220963 0.597409 1.75776 34 35 31
0.221301 0.574389 1.69003 34 35 31
0.227357 0.567412 1.6695 34 35 32
0.241098 0.57942 1.70483 32 34 32
0.25779 0.597409 1.75776 32 34 32
0.258957 0.57942 1.70483 33 34 32
0.265255 0.573728 1.68808 33 35 33
0.293434 0.614204 1.80718 33 35 33
0.291213 0.590506 1.73745 34 35 33
0.297649 0.585267 1.72203 34 35 34
0.306669 0.585267 1.72203 33 35 33
0.318515 0.590506 1.73745 33 35 33
0.345838 0.623353 1.8341 33 35 33
0.333728 0.585267 1.72203 32 34 32
0.349858 0.597409 1.75776 31 33 31
0.354916 0.590506 1.73745 32 34 31
0.368272 0.597409 1.75776 32 34 33
0.376098 0.595224 1.75133 31 34 33
0.38327 0.592133 1.74224 31 34 33
0.391318 0.590506 1.73745 33 35 35
0.401521 0.592133 1.74224 34 37 36
0.423122 0.610122 1.79517 34 37 36
0.402247 0.567412 1.6695 34 37 35
0.438594 0.605519 1.78162 33 36 35
0.441926 0.597409 1.75776 34 37 35
0.441964 0.585267 1.72203 35 37 35
0.470136 0.610122 1.79517 35 37 35
0.469547 0.597409 1.75776 34 37 34
0.482522 0.602112 1.7716 34 36 34
0.478788 0.58618 1.72472 34 36 34
0.491422 0.590506 1.73745 33 36 34
0.501902 0.592133 1.74224 33 36 34
0.526552 0.610122 1.79517 33 36 35
0.508985 0.57942 1.70483 34 36 34
0.529278 0.592133 1.74224 34 35 34
0.563309 0.619524 1.82283 33 35 34
0.559907 0.605519 1.78162 32 34 33
0.573566 0.610122 1.79517 32 35 34
0.586869 0.614204 1.80718 33 36 35
0.568239 0.585267 1.72203 33 36 36
0.618158 0.626733 1.84404 32 35 35
0.611177 0.610122 1.79517 34 36 36
0.615898 0.605519 1.78162 35 38 37
0.60526 0.58618 1.72472 35 37 37
0.667582 0.637029 1.87433 34 36 36
0.674248 0.634065 1.86561 34 37 37
0.653225 0.605519 1.78162 35 38 38
0.662557 0.605519 1.78162 35 38 38
0.682578 0.615153 1.80997 35 38 38
0.692058 0.615153 1.80997 35 38 38
0.701539 0.615153 1.80997 35 37 37
0.705204 0.610122 1.79517 34 36 37
0.714607 0.610122 1.79517 34 36 36
0.724009 0.610122 1.79517 34 36 36
0.73946 0.615153 1.80997 34 36 37
0.757434 0.62213 1.8305 35 37 38
0.767022 0.62213 1.8305 34 38 38
0.741893 0.594319 1.74867 34 38 38
0.758603 0.600294 1.76625 34 38 38
0.780426 0.610122 1.79517 34 38 39
0.805373 0.62213 1.8305 35 38 38
0.799231 0.610122 1.79517 35 39 38
0.838194 0.632426 1.86079 35 39 39
0.854112 0.637029 1.87433 36 40 39
0.836329 0.616677 1.81445 36 40 40
0.859626 0.626733 1.84404 35 39 39
0.869284 0.626733 1.84404 34 38 39
0.893382 0.637029 1.87433 34 38 39
0.847025 0.597409 1.75776 35 39 40
0.891663 0.62213 1.8305 34 38 39
0.907919 0.626733 1.84404 34 38 39
0.963609 0.658173 1.93655 34 38 39
0.902661 0.610122 1.79517 35 39 40
0.945405 0.632426 1.86079 34 39 38
0.921467 0.610122 1.79517 34 38 38
0.990241 0.649037 1.90967 35 39 39
1.00024 0.649037 1.90967 35 40 40
0.991555 0.637029 1.87433 34 39 39
0.959077 0.610122 1.79517 34 39 39
0.939925 0.592133 1.74224 34 39 39
1.04025 0.649037 1.90967 35 40 40
0.937604 0.57942 1.70483 35 39 39
1.11041 0.679739 2 34 38 38
1.03348 0.626733 1.84404 34 38 38
1.01549 0.610122 1.79517 34 38 38
0.973323 0.57942 1.70483 33 38 37
1.15232 0.679739 2 32 37 37
1.11027 0.649037 1.90967 33 37 37
1.0531 0.610122 1.79517 34 38 38
1.00904 0.57942 1.70483 33 38 38
1.11918 0.637029 1.87433 34 39 38
1.0269 0.57942 1.70483 33 38 37
1.13882 0.637029 1.87433 32 37 37
1.22564 0.679739 2 31 36 36
1.23612 0.679739 2 30 36 37
1.11892 0.610122 1.79517 31 37 37
-0.790548 0.434051 1.25776 33 36 32
-0.672642 0.372418 1.07917 33 34 31
-0.777372 0.434051 1.25776 34 34 29
-0.761271 0.428694 1.24224 35 36 30
-0.732037 0.415785 1.20483 35 36 30
-0.725727 0.415785 1.20483 35 35 29
-0.841724 0.486473 1.40967 33 33 28
-0.846111 0.493336 1.42955 30 30 25
-0.838623 0.493336 1.42955 30 30 25
-0.78142 0.463826 1.34404 33 33 28
-0.715725 0.428694 1.24224 35 35 30
-0.718081 0.434051 1.25776 35 36 32
-0.7603 0.463826 1.34404 34 36 31
-0.75326 0.463826 1.34404 35 36 32
-0.793697 0.493336 1.42955 36 36 32
-0.739181 0.463826 1.34404 35 36 32
-0.855471 0.541958 1.57045 35 36 32
-0.760505 0.486473 1.40967 35 36 32
-0.753121 0.486473 1.40967 35 36 31
-0.793526 0.517647 1.5 35 35 30
-0.822568 0.541958 1.57045 34 35 30
-0.777813 0.517647 1.5 33 34 29
-0.769956 0.517647 1.5 34 35 29
-0.791423 0.537565 1.55772 34 34 29
-0.832663 0.571468 1.65596 34 35 30
-0.791335 0.548821 1.59033 35 36 31
-0.883856 0.619509 1.79517 35 36 31
-0.856232 0.6066 1.75776 34 35 29
-0.797969 0.571468 1.65596 35 36 30
-0.714959 0.517647 1.5 34 35 29
-0.821294 0.601243 1.74224 35 36 31
-0.836842 0.619509 1.79517 36 37 32
-0.840189 0.629055 1.82283 35 37 32
-0.830642 0.629055 1.82283 36 37 33
-0.86021 0.659022 1.90967 36 37 33
-0.890425 0.690196 2 36 37 33
-0.811332 0.636375 1.84404 36 37 33
-0.835057 0.662876 1.92083 36 36 32
-0.771023 0.619509 1.79517 36 37 32
-0.76162 0.619509 1.79517 37 37 34
-0.777547 0.640369 1.85562 37 38 34
-0.771965 0.64382 1.86561 37 38 34
-0.744713 0.629055 1.82283 36 37 33
-0.728853 0.623653 1.80718 35 36 31
-0.699717 0.6066 1.75776 35 36 31
-0.709922 0.623653 1.80718 35 36 31
-0.667455 0.594271 1.72203 35 36 31
-0.692058 0.624617 1.80997 35 36 32
-0.671888 0.614835 1.78162 35 36 32
-0.676045 0.627352 1.81789 35 36 32
-0.663618 0.624617 1.80997 35 36 32
-0.653128 0.623653 1.80718 36 37 33
-0.630991 0.611375 1.7716 36 37 33
-0.63969 0.629055 1.82283 36 37 33
-0.620579 0.619509 1.79517 36 37 33
-0.627816 0.636375 1.84404 36 37 33
-0.59208 0.609529 1.76625 36 37 33
-0.588686 0.615655 1.784 36 36 32
-0.590349 0.627352 1.81789 36 36 32
-0.577403 0.623653 1.80718 36 36 32
-0.546025 0.599591 1.73745 36 36 31
-0.558472 0.623653 1.80718 35 35 31
-0.562891 0.639426 1.85288 35 36 32
-0.528919 0.611375 1.7716 35 36 31
-0.500056 0.588334 1.70483 35 36 32
-0.506374 0.6066 1.75776 36 37 33
-0.501081 0.611375 1.7716 36 36 33
-0.483651 0.601243 1.74224 36 36 32
-0.464337 0.588334 1.70483 35 35 31
-0.473243 0.611375 1.7716 34 34 30
-0.473281 0.623653 1.80718 35 36 32
-0.447149 0.601243 1.74224 36 36 33
-0.438023 0.601243 1.74224 35 36 32
-0.42772 0.599591 1.73745 36 36 33
-0.41076 0.588334 1.70483 36 36 33
-0.410647 0.601243 1.74224 35 36 32
-0.396865 0.594271 1.72203 35 36 32
-0.404317 0.619509 1.79517 35 36 32
-0.38327 0.601243 1.74224 36 36 32
-0.377479 0.6066 1.75776 36 36 32
-0.360787 0.594271 1.72203 35 36 31
-0.355894 0.601243 1.74224 35 35 31
-0.342747 0.594271 1.72203 35 36 31
-0.337643 0.601243 1.74224 35 36 31
-0.324708 0.594271 1.72203 35 36 31
-0.309464 0.582554 1.68808 35 36 31
-0.303605 0.588334 1.70483 34 36 31
-0.306216 0.611375 1.7716 34 35 30
-0.296937 0.611375 1.7716 34 35 30
-0.285411 0.6066 1.75776 34 35 30
-0.264857 0.581679 1.68555 34 34 29
-0.258957 0.588334 1.70483 33 34 29
-0.252551 0.594271 1.72203 34 35 30
-0.248584 0.6066 1.75776 34 35 30
-0.239377 0.6066 1.75776 35 36 32
-0.221046 0.582554 1.68808 35 36 32
-0.223963 0.614835 1.78162 35 36 32
-0.218046 0.624617 1.80997 35 36 31
-0.198742 0.595198 1.72472 35 36 31
-0.189708 0.595198 1.72472 35 36 31
-0.182008 0.599591 1.73745 34 35 31
-0.173384 0.601243 1.74224 34 35 31
-0.162354 0.594271 1.72203 34 35 31
-0.153573 0.595198 1.72472 34 35 31
-0.150444 0.619509 1.79517 35 36 32
-0.139977 0.614835 1.78162 35 36 32
-0.120905 0.569 1.64881 35 36 32
-0.116084 0.588334 1.70483 35 35 31
-0.104934 0.576142 1.6695 35 35 31
-0.100904 0.604381 1.75133 36 36 32
-0.0917312 0.604381 1.75133 36 36 32
-0.0835135 0.611375 1.7716 35 36 33
-0.0730039 0.601243 1.74224 35 35 32
-0.0613693 0.577626 1.6738 34 35 31
-0.0547529 0.601243 1.74224 35 36 33
-0.0470136 0.619509 1.79517 36 38 35
-0.0353673 0.582554 1.68808 36 37 34
-0.0264857 0.581679 1.68555 35 36 33
-0.0178591 0.588334 1.70483 35 36 33
-0.00910042 0.599591 1.73745 36 37 33
0 0.588334 1.70483 35 36 32
0.00892957 0.588334 1.70483 34 35 30
0.0184136 0.6066 1.75776 35 35 31
0.0265255 0.582554 1.68808 35 36 32
0.0364017 0.599591 1.73745 35 36 31
0.0437225 0.576142 1.6695 34 35 30
0.052467 0.576142 1.6695 34 35 31
0.0618929 0.582554 1.68808 34 36 32
0.0714365 0.588334 1.70483 34 36 31
0.0787006 0.576142 1.6695 33 35 30
0.0876704 0.577626 1.6738 33 36 31
0.100904 0.604381 1.75133 33 36 31
0.108107 0.593564 1.71999 34 36 31
0.116084 0.588334 1.70483 34 36 32
0.127406 0.599591 1.73745 33 36 31
0.136506 0.599591 1.73745 33 35 29
0.142873 0.588334 1.70483 33 35 30
0.153334 0.594271 1.72203 34 35 30
0.163807 0.599591 1.73745 34 35 30
0.172908 0.599591 1.73745 34 35 31
0.180179 0.593564 1.71999 34 35 31
0.183635 0.576142 1.6695 34 35 31
0.190819 0.571468 1.65596 34 35 31
0.20538 0.588334 1.70483 33 35 30
0.21431 0.588334 1.70483 34 35 31
0.223239 0.588334 1.70483 34 35 32
0.234511 0.594271 1.72203 34 35 32
0.23873 0.582554 1.68808 33 34 32
0.247571 0.582554 1.68808 33 35 33
0.269099 0.611375 1.7716 33 35 33
0.276204 0.6066 1.75776 32 35 33
0.27108 0.576142 1.6695 32 34 32
0.279824 0.576142 1.6695 33 35 33
0.303824 0.6066 1.75776 33 35 33
0.311886 0.604381 1.75133 33 35 33
0.315688 0.594271 1.72203 32 34 32
0.330232 0.604381 1.75133 32 34 32
0.333728 0.594271 1.72203 34 35 33
0.357303 0.619509 1.79517 33 35 33
0.334249 0.564675 1.63628 32 34 32
0.357183 0.588334 1.70483 31 34 32
0.373117 0.599591 1.73745 30 32 31
0.38973 0.611375 1.7716 30 33 32
0.383971 0.588334 1.70483 32 35 34
0.401521 0.601243 1.74224 35 37 36
0.405885 0.594271 1.72203 35 38 36
0.406724 0.582554 1.68808 34 37 35
0.424586 0.595198 1.72472 34 36 34
0.445405 0.611375 1.7716 34 36 35
0.441964 0.594271 1.72203 33 36 34
0.437225 0.576142 1.6695 33 35 33
0.450256 0.581679 1.68555 34 36 34
0.492213 0.623653 1.80718 34 36 34
0.491802 0.611375 1.7716 34 36 34
0.514175 0.627352 1.81789 33 36 34
0.528364 0.632943 1.8341 32 35 33
0.52258 0.614835 1.78162 31 35 33
0.503227 0.581679 1.68555 31 34 33
0.529278 0.601243 1.74224 32 34 33
0.547477 0.611375 1.7716 32 35 33
0.552408 0.6066 1.75776 33 35 34
0.569239 0.614835 1.78162 34 36 36
0.570822 0.6066 1.75776 34 37 36
0.574906 0.601243 1.74224 34 37 37
0.584031 0.601243 1.74224 34 37 37
0.611177 0.619509 1.79517 35 37 37
0.610583 0.609529 1.76625 35 38 38
0.625229 0.614835 1.78162 35 38 38
0.639385 0.619509 1.79517 35 38 38
0.674248 0.64382 1.86561 35 38 39
0.632361 0.595198 1.72472 35 39 39
0.650301 0.603462 1.74867 36 39 39
0.66609 0.609529 1.76625 35 38 38
0.705086 0.636375 1.84404 35 38 38
0.695801 0.619509 1.79517 35 37 37
0.705204 0.619509 1.79517 34 36 36
0.696097 0.603462 1.74867 34 35 36
0.678411 0.580491 1.68211 33 35 36
0.721598 0.609529 1.76625 34 36 37
0.80567 0.67193 1.94707 35 38 38
0.772697 0.636375 1.84404 34 38 38
0.754322 0.613572 1.77797 34 38 39
0.786198 0.631702 1.8305 34 38 39
0.760211 0.603462 1.74867 34 38 38
0.805373 0.631702 1.8305 34 38 38
0.769506 0.596468 1.7284 33 38 38
0.874903 0.670278 1.94228 34 38 38
0.859201 0.650683 1.8855 35 39 39
0.810198 0.6066 1.75776 36 39 39
0.808212 0.598314 1.73375 35 39 39
0.888829 0.650683 1.8855 35 39 39
0.898704 0.650683 1.8855 35 39 40
0.896673 0.642155 1.86079 35 39 40
0.891663 0.631702 1.8305 34 38 39
0.916166 0.642155 1.86079 34 38 39
0.893258 0.619509 1.79517 35 40 41
0.927237 0.636375 1.84404 36 40 41
0.983895 0.668299 1.93655 35 39 39
0.962103 0.646829 1.87433 34 39 39
0.964898 0.642155 1.86079 35 39 39
1.01066 0.665885 1.92955 35 39 39
1.05803 0.690196 2 34 39 39
0.959077 0.619509 1.79517 34 38 38
1.04098 0.665885 1.92955 33 38 38
0.977883 0.619509 1.79517 34 39 39
1.0025 0.629055 1.82283 36 40 40
1.0713 0.665885 1.92955 35 40 39
0.976427 0.601243 1.74224 35 39 38
1.08658 0.662876 1.92083 34 38 38
1.08181 0.653913 1.89486 33 38 37
1.0343 0.619509 1.79517 33 37 37
1.10166 0.653913 1.89486 32 37 37
1.06933 0.629055 1.82283 33 38 38
1.04037 0.6066 1.75776 34 38 38
1.07191 0.619509 1.79517 33 38 38
1.28039 0.733563 2.12567 32 37 37
1.21517 0.690196 2 31 37 37
1.13007 0.636375 1.84404 30 36 36
1.23612 0.690196 2 30 36 37
1.16827 0.646829 1.87433 31 37 38
-0.739894 0.412395 1.17717 34 36 33
-0.701625 0.394351 1.12567 33 35 31
-0.800491 0.453732 1.29517 35 35 30
-0.919233 0.52549 1.5 36 37 31
-0.868574 0.500811 1.42955 36 36 32
-0.780139 0.453732 1.29517 36 36 31
-0.841724 0.493844 1.40967 36 37 33
-0.795499 0.470854 1.34404 33 33 29
-0.80623 0.481466 1.37433 30 30 26
-0.78142 0.470854 1.34404 32 33 29
-0.982252 0.597249 1.70483 35 36 32
-0.739437 0.453732 1.29517 35 36 33
-0.732653 0.453732 1.29517 34 35 31
-0.725869 0.453732 1.29517 35 36 32
-0.83281 0.52549 1.5 36 37 33
-0.712301 0.453732 1.29517 36 36 33
-0.767888 0.493844 1.40967 36 36 33
-0.919745 0.597249 1.70483 36 36 32
-0.801383 0.52549 1.5 35 36 32
-0.830793 0.55017 1.57045 36 36 32
-0.785669 0.52549 1.5 36 36 32
-0.777813 0.52549 1.5 35 36 32
-0.733796 0.500811 1.42955 35 36 32
-0.841336 0.580127 1.65596 35 35 31
-0.817431 0.569514 1.62567 34 35 30
-0.791335 0.557137 1.59033 36 37 32
-0.773214 0.55017 1.57045 37 38 33
-0.730673 0.52549 1.5 36 37 31
-0.82152 0.597249 1.70483 35 36 30
-0.789295 0.580127 1.65596 34 35 29
-0.846245 0.628895 1.79517 34 35 29
-0.794731 0.597249 1.70483 34 36 30
-0.840189 0.638586 1.82283 35 36 31
-0.818037 0.628895 1.79517 35 37 33
-0.821094 0.638586 1.82283 36 37 34
-0.811546 0.638586 1.82283 36 37 34
-0.789828 0.628895 1.79517 36 37 33
-0.835057 0.672919 1.92083 35 36 32
-0.782904 0.638586 1.82283 35 37 32
-0.821603 0.678425 1.93655 36 37 32
-0.740101 0.618765 1.76625 36 36 32
-0.754261 0.638586 1.82283 37 37 33
-0.738319 0.633103 1.80718 37 37 33
-0.735166 0.638586 1.82283 36 36 32
-0.709216 0.624151 1.78162 35 36 31
-0.732878 0.653574 1.86561 35 36 31
-0.71089 0.642533 1.8341 35 35 31
-0.695088 0.636857 1.81789 35 36 31
-0.706851 0.656629 1.87433 36 36 32
-0.64613 0.608676 1.73745 35 36 32
-0.65819 0.628895 1.79517 35 36 31
-0.662857 0.642533 1.8341 35 36 32
-0.656793 0.646017 1.84404 35 36 32
-0.643643 0.642533 1.8341 36 37 33
-0.620579 0.628895 1.79517 36 37 34
-0.611177 0.628895 1.79517 36 37 33
-0.597234 0.624151 1.78162 35 36 32
-0.568239 0.603275 1.72203 36 36 32
-0.559219 0.603275 1.72203 36 36 32
-0.561615 0.615791 1.75776 36 36 32
-0.552408 0.615791 1.75776 35 35 31
-0.55476 0.628895 1.79517 35 35 31
-0.549006 0.633103 1.80718 35 36 32
-0.508985 0.597249 1.70483 35 36 32
-0.494399 0.590492 1.68555 35 36 32
-0.508819 0.618765 1.76625 35 36 32
-0.511934 0.634081 1.80997 35 36 32
-0.506023 0.638586 1.82283 35 36 32
-0.459085 0.590492 1.68555 35 36 31
-0.469547 0.615791 1.75776 35 35 31
-0.480331 0.642533 1.8341 35 35 31
-0.447149 0.610353 1.74224 35 35 32
-0.44406 0.618765 1.76625 34 35 31
-0.428898 0.610353 1.74224 35 36 32
-0.406724 0.591381 1.68808 35 36 33
-0.409519 0.608676 1.73745 35 36 32
-0.401521 0.610353 1.74224 35 36 32
-0.404317 0.628895 1.79517 36 36 32
-0.394914 0.628895 1.79517 36 37 33
-0.369806 0.603275 1.72203 35 36 32
-0.353142 0.590492 1.68555 34 35 30
-0.351767 0.603275 1.72203 34 35 30
-0.342747 0.603275 1.72203 34 35 30
-0.337643 0.610353 1.74224 35 36 31
-0.341289 0.634081 1.80997 34 36 31
-0.319392 0.610353 1.74224 35 36 32
-0.313031 0.615791 1.75776 35 37 32
-0.306216 0.620639 1.7716 35 37 32
-0.296937 0.620639 1.7716 35 37 33
-0.273685 0.590492 1.68555 35 36 31
-0.267887 0.597249 1.70483 35 35 30
-0.266997 0.615791 1.75776 34 35 30
-0.252945 0.604216 1.72472 35 35 30
-0.245711 0.608676 1.73745 35 36 32
-0.237263 0.610353 1.74224 36 37 33
-0.235068 0.628895 1.79517 36 37 33
-0.216472 0.603275 1.72203 35 36 32
-0.207776 0.604216 1.72472 35 36 32
-0.19452 0.591381 1.68808 34 36 31
-0.189413 0.603275 1.72203 34 35 31
-0.176837 0.591381 1.68808 34 35 31
-0.169662 0.597249 1.70483 34 35 31
-0.154269 0.573231 1.63628 34 35 32
-0.154707 0.608676 1.73745 35 36 33
-0.144315 0.603275 1.72203 35 36 33
-0.132628 0.591381 1.68808 36 37 33
-0.126275 0.603275 1.72203 36 37 33
-0.113679 0.584871 1.6695 36 36 32
-0.104934 0.584871 1.6695 35 35 31
-0.0961896 0.584871 1.6695 35 36 32
-0.092068 0.615791 1.75776 36 36 32
-0.077725 0.577621 1.64881 36 36 33
-0.0742342 0.620639 1.7716 35 36 33
-0.0631377 0.603275 1.72203 35 36 33
-0.0542024 0.604216 1.72472 35 37 34
-0.0425745 0.569514 1.62567 36 38 35
-0.0345444 0.577621 1.64881 36 38 35
-0.0267887 0.597249 1.70483 35 37 34
-0.0180393 0.603275 1.72203 35 36 32
-0.00874451 0.584871 1.6695 35 36 32
0 0.608676 1.73745 35 36 32
0.00892957 0.597249 1.70483 34 35 31
0.0184136 0.615791 1.75776 33 34 29
0.0289761 0.646017 1.84404 33 35 29
0.0346943 0.580127 1.65596 33 35 29
