ply
format ascii 1.0
element vertex 1321
property float x
property float y
property float z
property uchar red
property uchar green
property uchar blue
end_header
-0.513856 -0.131531 1.25776 37 38 34
-0.514333 -0.133363 1.27528 36 38 33
-0.535026 -0.140553 1.34404 36 38 33
-0.508787 -0.135442 1.29517 36 38 33
-0.473657 -0.127794 1.22203 35 37 31
-0.525489 -0.143721 1.37433 34 36 30
-0.551576 -0.152951 1.46259 36 37 32
-0.46535 -0.130858 1.25133 37 38 35
-0.4832 -0.137819 1.31789 37 38 34
-0.5135 -0.148584 1.42083 36 38 34
-0.489497 -0.143721 1.37433 36 38 34
-0.509247 -0.151752 1.45113 37 38 34
-0.4751 -0.143721 1.37433 37 37 34
-0.467901 -0.143721 1.37433 37 38 34
-0.519212 -0.161974 1.54887 36 37 33
-0.460279 -0.145868 1.39486 36 37 34
-0.521258 -0.167857 1.60514 36 37 34
-0.51285 -0.167857 1.60514 35 36 33
-0.48954 -0.162898 1.55772 35 37 33
-0.496035 -0.167857 1.60514 36 37 34
-0.470536 -0.161974 1.54887 37 37 34
-0.490938 -0.171962 1.64438 36 36 33
-0.482325 -0.171962 1.64438 36 36 33
-0.46832 -0.170004 1.62567 36 36 32
-0.482197 -0.178283 1.70483 37 37 34
-0.463459 -0.174588 1.6695 37 37 34
-0.447873 -0.171962 1.64438 36 36 33
-0.412012 -0.161294 1.54238 35 35 31
-0.446478 -0.178283 1.70483 36 36 33
-0.456318 -0.185931 1.77797 37 37 34
-0.428619 -0.178283 1.70483 37 37 34
-0.423924 -0.180082 1.72203 36 37 34
-0.389495 -0.169053 1.61657 36 37 34
-0.398342 -0.176735 1.69003 36 37 34
-0.386526 -0.17539 1.67717 36 37 33
-0.370357 -0.171962 1.64438 36 37 33
-0.381403 -0.181307 1.73375 37 37 34
-0.366112 -0.178283 1.70483 37 38 34
-0.357183 -0.178283 1.70483 36 37 33
-0.335905 -0.171962 1.64438 36 37 33
-0.333147 -0.175038 1.6738 36 38 34
-0.333331 -0.179868 1.71999 36 38 34
-0.334054 -0.185265 1.7716 37 39 35
-0.315313 -0.179868 1.71999 38 40 36
-0.316151 -0.18565 1.77528 37 39 35
-0.294676 -0.178283 1.70483 35 37 34
-0.275614 -0.171962 1.64438 34 36 32
-0.270496 -0.174212 1.6659 33 35 31
-0.270268 -0.179868 1.71999 34 36 32
-0.26602 -0.183146 1.75133 36 38 34
-0.260359 -0.18565 1.77528 36 38 33
-0.231136 -0.170916 1.63439 37 38 34
-0.232169 -0.178283 1.70483 37 39 34
-0.227026 -0.181307 1.73375 38 39 35
-0.216012 -0.179699 1.71838 37 38 34
-0.202048 -0.17539 1.67717 36 37 32
-0.194745 -0.176735 1.69003 35 37 32
-0.180542 -0.171648 1.64138 36 37 32
-0.178591 -0.178283 1.70483 37 38 34
-0.166909 -0.17539 1.67717 37 38 34
-0.156646 -0.173751 1.66149 37 38 34
-0.150622 -0.176896 1.69157 36 37 33
-0.138343 -0.172631 1.65078 36 37 33
-0.132902 -0.176896 1.69157 36 37 33
-0.118542 -0.169053 1.61657 36 37 33
-0.115076 -0.176735 1.69003 36 37 33
-0.104083 -0.173172 1.65596 35 37 32
-0.0966315 -0.17539 1.67717 36 37 34
-0.0878468 -0.17539 1.67717 37 38 34
-0.0810045 -0.179699 1.71838 38 38 35
-0.0696205 -0.173751 1.66149 38 38 35
-0.0599241 -0.170916 1.63439 37 37 34
-0.0527081 -0.17539 1.67717 37 38 34
-0.0438352 -0.175038 1.6738 36 37 34
-0.0354081 -0.176735 1.69003 36 37 34
-0.0261077 -0.173751 1.66149 37 38 35
-0.0178591 -0.178283 1.70483 36 37 34
-0.00884184 -0.176532 1.68808 35 36 33
0 -0.169053 1.61657 35 36 33
0.00885203 -0.176735 1.69003 36 37 33
0.0177202 -0.176896 1.69157 37 38 34
0.0265561 -0.176735 1.69003 37 38 35
0.0345858 -0.172631 1.65078 37 38 34
0.0439234 -0.17539 1.67717 36 37 34
0.054003 -0.179699 1.71838 36 37 33
0.0634591 -0.180999 1.7308 36 38 34
0.0731738 -0.182619 1.74629 37 38 35
0.0815903 -0.180999 1.7308 36 38 34
0.0878468 -0.17539 1.67717 36 37 34
0.0973724 -0.176735 1.69003 37 38 34
0.107155 -0.178283 1.70483 37 38 34
0.115181 -0.176896 1.69157 38 38 35
0.126125 -0.179868 1.71999 37 38 34
0.130538 -0.173751 1.66149 37 37 34
0.140273 -0.175038 1.6738 37 38 34
0.157061 -0.184458 1.76388 37 37 34
0.160732 -0.178283 1.70483 37 38 34
0.17254 -0.181307 1.73375 37 38 34
0.182934 -0.182619 1.74629 37 37 34
0.185893 -0.176735 1.69003 38 37 34
0.19645 -0.178283 1.70483 38 37 34
0.194919 -0.169202 1.618 38 38 35
0.21431 -0.178283 1.70483 38 37 34
0.223239 -0.178283 1.70483 37 37 34
0.224808 -0.172631 1.65078 36 37 34
0.231136 -0.170916 1.63439 35 36 33
0.25225 -0.179868 1.71999 36 37 34
0.250747 -0.172631 1.65078 37 38 35
0.265561 -0.176735 1.69003 37 38 35
0.272325 -0.17539 1.67717 37 38 34
0.283265 -0.176735 1.69003 36 37 34
0.289894 -0.17539 1.67717 36 37 33
0.308755 -0.181307 1.73375 37 37 34
0.301453 -0.171962 1.64438 38 39 36
0.316248 -0.17539 1.67717 38 39 36
0.32438 -0.175038 1.6738 38 38 35
0.342019 -0.179699 1.71838 37 38 35
0.348253 -0.178283 1.70483 37 38 35
0.357183 -0.178283 1.70483 37 38 35
0.373117 -0.181694 1.73745 37 38 35
0.371785 -0.176735 1.69003 37 37 34
0.380985 -0.176896 1.69157 36 37 34
0.382913 -0.173751 1.66149 37 37 34
0.405402 -0.179868 1.71999 37 37 35
0.41076 -0.178283 1.70483 37 38 34
0.439179 -0.186562 1.784 38 38 35
0.432024 -0.179699 1.71838 37 38 34
0.441438 -0.179868 1.71999 37 37 34
0.446478 -0.178283 1.70483 36 37 33
0.466483 -0.182619 1.74629 36 36 33
0.456803 -0.17539 1.67717 36 36 33
0.46246 -0.174212 1.6659 37 37 34
0.486483 -0.179868 1.71999 37 37 34
0.491126 -0.178283 1.70483 36 37 34
0.490954 -0.175038 1.6738 36 37 34
0.517619 -0.181307 1.73375 36 37 34
0.548427 -0.188787 1.80527 36 38 35
0.539657 -0.182619 1.74629 37 38 35
0.554332 -0.184458 1.76388 36 37 34
0.544704 -0.178283 1.70483 36 37 34
0.553633 -0.178283 1.70483 36 37 34
0.588686 -0.186562 1.784 36 37 35
0.58539 -0.182619 1.74629 36 37 34
0.580422 -0.178283 1.70483 36 37 34
0.609765 -0.184458 1.76388 36 37 35
0.608429 -0.181307 1.73375 36 38 35
0.628243 -0.184458 1.76388 36 38 35
0.6416 -0.18565 1.77528 36 39 36
0.635672 -0.181307 1.73375 36 39 36
0.649417 -0.182619 1.74629 36 38 35
0.660465 -0.183146 1.75133 36 37 34
0.674437 -0.184458 1.76388 35 36 34
0.654296 -0.176532 1.68808 35 36 34
0.669717 -0.178283 1.70483 35 37 35
0.697157 -0.183146 1.75133 35 37 34
0.714504 -0.185265 1.7716 35 37 34
0.720631 -0.184458 1.76388 35 37 34
0.717401 -0.181307 1.73375 35 37 34
0.76577 -0.191112 1.82751 35 37 34
0.76162 -0.18773 1.79517 35 37 34
0.760901 -0.185265 1.7716 36 37 35
0.785647 -0.188986 1.80718 36 37 35
0.784915 -0.186562 1.784 35 37 35
0.824927 -0.193766 1.85288 35 37 35
0.808634 -0.18773 1.79517 34 36 34
0.82351 -0.188986 1.80718 33 35 33
0.821197 -0.186314 1.78162 33 36 34
0.854989 -0.191801 1.8341 33 36 34
0.853223 -0.189278 1.80997 34 36 35
0.889225 -0.195097 1.86561 34 36 35
0.86505 -0.18773 1.79517 34 37 35
0.867856 -0.186314 1.78162 34 36 35
0.860962 -0.182867 1.74867 35 37 35
0.907022 -0.190623 1.82283 35 37 35
0.927237 -0.192841 1.84404 35 37 35
0.942775 -0.194051 1.85562 35 36 35
0.885306 -0.180363 1.72472 35 36 35
0.938545 -0.189278 1.80997 34 36 35
0.92068 -0.183818 1.75776 35 36 35
0.97553 -0.192841 1.84404 35 37 35
1.00734 -0.197177 1.8855 35 37 35
1.05043 -0.203615 1.94707 34 36 35
1.03219 -0.198156 1.89486 34 36 34
0.987286 -0.18773 1.79517 33 36 34
1.04064 -0.196009 1.87433 33 36 34
1.05046 -0.196009 1.87433 34 37 35
1.06028 -0.196009 1.87433 34 36 35
1.06236 -0.194593 1.86079 34 36 35
1.11576 -0.202515 1.93655 34 36 34
1.11676 -0.200871 1.92083 34 36 34
1.0531 -0.18773 1.79517 33 35 34
1.10936 -0.196009 1.87433 33 35 34
1.24149 -0.217429 2.07917 32 35 34
1.20469 -0.20915 2 32 35 34
1.16028 -0.199704 1.90967 30 34 32
1.17029 -0.199704 1.90967 28 33 31
1.18719 -0.200871 1.92083 27 32 30
1.2466 -0.20915 2 26 32 30
-0.568959 -0.0899297 0.905214 39 37 32
-0.561158 -0.089442 0.900304 38 38 33
-0.547293 -0.0879714 0.885502 38 39 33
-0.551726 -0.089442 0.900304 37 38 32
-0.570857 -0.0933411 0.939552 35 37 31
-0.567582 -0.0936125 0.942284 37 38 33
-0.566763 -0.0942975 0.949179 38 40 34
-0.559188 -0.0938606 0.944781 37 38 33
-0.522326 -0.088456 0.89038 36 37 32
-0.549291 -0.0938606 0.944781 36 38 33
-0.576158 -0.0993464 1 36 38 34
-0.521661 -0.0907748 0.91372 36 38 34
-0.565682 -0.0993464 1 35 37 34
-0.526566 -0.0933411 0.939552 36 38 35
-0.570564 -0.102094 1.02766 36 38 35
-0.549969 -0.0993464 1 36 38 35
-0.52823 -0.096337 0.969708 38 39 36
-0.539493 -0.0993464 1 37 38 35
-0.518806 -0.0964736 0.971083 36 37 34
-0.51372 -0.0964736 0.971083 36 38 35
-0.52378 -0.0993464 1 37 39 35
-0.53425 -0.102356 1.03029 37 39 35
-0.513304 -0.0993464 1 37 39 35
-0.508066 -0.0993464 1 37 38 34
-0.51806 -0.102356 1.03029 36 37 33
-0.527669 -0.105352 1.06045 35 36 31
-0.539021 -0.108763 1.09479 33 34 29
-0.51656 -0.105352 1.06045 36 37 33
-0.498008 -0.102672 1.03348 38 39 35
-0.542992 -0.113176 1.13921 38 38 34
-0.50461 -0.106345 1.07045 37 37 33
-0.512638 -0.109251 1.0997 38 38 34
-0.509386 -0.109791 1.10514 39 40 36
-0.526757 -0.11484 1.15596 39 39 35
-0.53248 -0.117438 1.18211 38 39 35
-0.49472 -0.110394 1.1112 38 39 35
-0.520097 -0.117438 1.18211 38 39 35
-0.502538 -0.11484 1.15596 37 38 33
-0.505594 -0.116948 1.17717 35 36 31
-0.51691 -0.121041 1.21838 36 37 32
-0.479524 -0.11369 1.14438 38 39 34
-0.517783 -0.124315 1.25133 37 38 34
-0.49926 -0.121405 1.22203 36 38 33
-0.479951 -0.118225 1.19003 36 38 33
-0.494501 -0.123412 1.24224 36 38 33
-0.499528 -0.126329 1.2716 36 37 32
-0.459514 -0.11778 1.18555 35 36 32
-0.520311 -0.13519 1.36079 35 36 31
-0.488435 -0.12867 1.29517 36 37 32
-0.511092 -0.136535 1.37433 36 38 33
-0.534431 -0.144809 1.45762 36 38 33
-0.478081 -0.131418 1.32283 37 38 34
-0.471152 -0.131418 1.32283 37 38 34
-0.509247 -0.144164 1.45113 37 38 34
-0.503892 -0.144809 1.45762 36 36 32
-0.494045 -0.144164 1.45113 35 36 32
-0.538072 -0.159465 1.60514 35 36 32
-0.494972 -0.14902 1.5 36 37 34
-0.502987 -0.153875 1.54887 36 38 34
-0.508121 -0.157994 1.59033 36 37 34
-0.471402 -0.14902 1.5 36 38 34
-0.478649 -0.153875 1.54887 36 36 33
-0.455688 -0.14902 1.5 36 36 32
-0.508985 -0.169369 1.70483 36 36 33
-0.500056 -0.169369 1.70483 36 36 33
-0.473712 -0.163364 1.64438 36 36 34
-0.490376 -0.172242 1.73375 37 37 34
-0.456486 -0.163364 1.64438 37 37 34
-0.464337 -0.169369 1.70483 37 37 34
-0.455408 -0.169369 1.70483 38 38 35
-0.439234 -0.166621 1.67717 39 39 36
-0.451133 -0.174627 1.75776 37 37 35
-0.41212 -0.16285 1.63921 37 37 34
-0.405897 -0.163803 1.64881 36 37 34
-0.407194 -0.167898 1.69003 37 37 34
-0.408646 -0.172242 1.73375 36 37 34
-0.399565 -0.172242 1.73375 36 37 33
-0.383971 -0.169369 1.70483 36 37 33
-0.371785 -0.167898 1.69003 37 37 34
-0.362933 -0.167898 1.69003 37 37 34
-0.354081 -0.167898 1.69003 36 37 33
-0.348253 -0.169369 1.70483 36 38 34
-0.339324 -0.169369 1.70483 37 39 35
-0.330394 -0.169369 1.70483 37 39 35
-0.336706 -0.1774 1.78567 37 39 35
-0.30459 -0.165063 1.66149 36 38 34
-0.303605 -0.169369 1.70483 35 37 33
-0.303824 -0.174627 1.75776 35 36 33
-0.290593 -0.172242 1.73375 35 37 33
-0.279016 -0.170714 1.71838 36 37 34
-0.270268 -0.170875 1.71999 36 38 34
-0.26335 -0.172242 1.73375 36 38 33
-0.250028 -0.169369 1.70483 36 38 33
-0.249449 -0.175235 1.76388 36 38 33
-0.234233 -0.170875 1.71999 36 37 33
-0.219617 -0.166621 1.67717 37 38 33
-0.224471 -0.1774 1.78567 37 38 34
-0.198869 -0.163999 1.65078 37 38 33
-0.198197 -0.170875 1.71999 36 37 32
-0.182754 -0.165063 1.66149 36 38 33
-0.172929 -0.163999 1.65078 37 38 34
-0.165349 -0.165063 1.66149 37 38 34
-0.15409 -0.16237 1.63439 37 38 34
-0.154377 -0.172242 1.73375 36 37 33
-0.145296 -0.172242 1.73375 36 37 33
-0.132902 -0.168052 1.69157 36 37 33
-0.123786 -0.167705 1.68808 36 37 33
-0.113133 -0.165063 1.66149 35 37 32
-0.105204 -0.166286 1.6738 35 36 32
-0.100904 -0.173989 1.75133 35 37 32
-0.0867357 -0.164513 1.65596 36 36 32
-0.0817293 -0.172242 1.73375 36 37 34
-0.0714365 -0.169369 1.70483 37 38 34
-0.0619642 -0.167898 1.69003 37 38 35
-0.0513635 -0.16237 1.63439 37 38 35
-0.0435128 -0.165063 1.66149 37 38 35
-0.0342423 -0.16237 1.63439 36 37 34
-0.0258389 -0.163364 1.64438 36 37 34
-0.0183462 -0.173989 1.75133 36 37 34
-0.00885203 -0.167898 1.69003 36 37 34
0 -0.163999 1.65078 36 37 34
0.0090005 -0.170714 1.71838 36 38 34
0.0170298 -0.161504 1.62567 37 38 35
0.0267887 -0.169369 1.70483 37 38 34
0.0349027 -0.165502 1.6659 37 37 34
0.0439234 -0.166621 1.67717 36 37 33
0.0544862 -0.172242 1.73375 36 36 33
0.0619642 -0.167898 1.69003 37 38 34
0.072004 -0.170714 1.71838 38 39 36
0.0828612 -0.174627 1.75776 37 38 34
0.0914672 -0.173488 1.74629 36 37 33
0.0973724 -0.167898 1.69003 36 37 34
0.103355 -0.163364 1.64438 37 38 34
0.113133 -0.165063 1.66149 37 38 34
0.119848 -0.16237 1.63439 37 37 34
0.12639 -0.159818 1.60869 37 37 34
0.134816 -0.159818 1.60869 37 38 34
0.14553 -0.16237 1.63439 37 38 34
0.157807 -0.166286 1.6738 37 37 34
0.171374 -0.171078 1.72203 36 37 34
0.178591 -0.169369 1.70483 36 36 33
0.182754 -0.165063 1.66149 37 37 34
0.194745 -0.167898 1.69003 37 37 34
0.202048 -0.166621 1.67717 37 37 34
0.21431 -0.169369 1.70483 37 37 34
0.223239 -0.169369 1.70483 37 38 34
0.223937 -0.163364 1.64438 37 38 35
0.241098 -0.169369 1.70483 37 37 34
0.243672 -0.165063 1.66149 36 37 34
0.253044 -0.165502 1.6659 37 37 34
0.250971 -0.158674 1.59718 38 38 35
0.271778 -0.166286 1.6738 38 38 35
0.285746 -0.169369 1.70483 37 38 35
0.299674 -0.172242 1.73375 37 38 34
0.298679 -0.166621 1.67717 37 38 35
0.312535 -0.169369 1.70483 38 38 35
0.318673 -0.167898 1.69003 38 39 36
0.32438 -0.166286 1.6738 38 38 35
0.339324 -0.169369 1.70483 37 38 35
0.348253 -0.169369 1.70483 37 37 34
0.360787 -0.171078 1.72203 36 37 34
0.375016 -0.173488 1.74629 37 37 34
0.371357 -0.167705 1.68808 37 38 35
0.380637 -0.167898 1.69003 37 37 34
0.389489 -0.167898 1.69003 37 37 34
0.423122 -0.178343 1.79517 37 37 34
0.407194 -0.167898 1.69003 37 37 34
0.42342 -0.170875 1.71999 37 37 34
0.432429 -0.170875 1.71999 37 37 33
0.44592 -0.17261 1.73745 37 37 33
0.450447 -0.170875 1.71999 37 37 34
0.463133 -0.172242 1.73375 36 37 33
0.47563 -0.173488 1.74629 36 36 33
0.477474 -0.170875 1.71999 36 36 34
0.486483 -0.170875 1.71999 36 36 34
0.477046 -0.164513 1.65596 36 37 34
0.513695 -0.173989 1.75133 36 37 34
0.504566 -0.167898 1.69003 36 37 34
0.517915 -0.169369 1.70483 36 37 34
0.539657 -0.173488 1.74629 36 37 34
0.550387 -0.173989 1.75133 36 37 34
0.56357 -0.175235 1.76388 36 37 34
0.572809 -0.175235 1.76388 36 37 34
0.576244 -0.173488 1.74629 36 37 35
0.598589 -0.1774 1.78567 36 37 34
0.590267 -0.172242 1.73375 36 37 34
0.599348 -0.172242 1.73375 36 38 35
0.603034 -0.170714 1.71838 36 38 35
0.628243 -0.175235 1.76388 35 38 35
0.632945 -0.173989 1.75133 36 38 36
0.650899 -0.176368 1.77528 37 39 36
0.676045 -0.180601 1.81789 36 38 35
0.665198 -0.175235 1.76388 36 37 34
0.669638 -0.173989 1.75133 35 36 34
0.678811 -0.173989 1.75133 35 36 34
0.700817 -0.177234 1.784 36 37 35
0.68468 -0.170875 1.71999 36 37 35
0.724009 -0.178343 1.79517 35 37 34
0.696506 -0.169369 1.70483 35 37 34
0.72987 -0.175235 1.76388 35 37 34
0.728033 -0.17261 1.73745 35 37 34
0.735563 -0.172242 1.73375 36 37 35
0.760901 -0.176002 1.7716 36 38 35
0.790306 -0.180601 1.81789 36 37 35
0.766541 -0.173085 1.74224 35 37 34
0.766672 -0.171078 1.72203 35 36 34
0.814044 -0.179537 1.80718 35 36 35
0.82351 -0.179537 1.80718 34 37 35
0.849967 -0.183199 1.84404 35 37 35
0.842441 -0.179537 1.80718 34 37 35
0.846245 -0.178343 1.79517 34 37 35
0.878943 -0.183199 1.84404 35 37 35
0.870838 -0.179537 1.80718 35 37 35
0.881663 -0.179814 1.80997 34 36 35
0.857796 -0.173085 1.74224 35 37 35
0.886519 -0.176998 1.78162 35 37 35
0.910104 -0.179814 1.80997 35 36 35
0.942775 -0.184349 1.85562 35 36 35
0.921467 -0.178343 1.79517 35 37 36
0.982566 -0.188248 1.89486 35 37 35
0.987587 -0.187318 1.8855 35 37 36
0.97553 -0.183199 1.84404 34 36 35
1.03461 -0.192389 1.93655 34 36 35
1.04785 -0.192959 1.94228 34 36 34
1.02101 -0.186208 1.87433 33 36 34
0.995426 -0.179814 1.80997 34 36 34
0.962589 -0.172242 1.73375 34 36 34
0.921586 -0.163364 1.64438 34 36 35
1.04314 -0.183199 1.84404 34 36 35
1.09664 -0.190828 1.92083 33 35 34
1.07211 -0.184863 1.86079 32 35 34
1.16279 -0.198693 2 32 35 34
1.12027 -0.189718 1.90967 33 35 34
1.14619 -0.192389 1.93655 33 36 34
1.05784 -0.176002 1.7716 32 35 34
1.16226 -0.191694 1.92955 28 33 31
1.10752 -0.181091 1.82283 26 30 29
1.11707 -0.181091 1.82283 25 30 28
1.10952 -0.178343 1.79517 26 30 29
1.18106 -0.188248 1.89486 27 33 32
-0.607495 -0.090967 0.966525 39 37 32
-0.566992 -0.0856156 0.909666 38 38 33
-0.564734 -0.0859972 0.91372 38 39 34
-0.577452 -0.0886856 0.942284 36 38 32
-0.557415 -0.0863462 0.917429 35 37 31
-0.53017 -0.0828399 0.880174 36 38 32
-0.562646 -0.0886856 0.942284 37 39 33
-0.559188 -0.0889205 0.944781 37 38 33
-0.540191 -0.0866667 0.920833 36 38 33
-0.549291 -0.0889205 0.944781 36 38 34
-0.560883 -0.0916225 0.973489 36 38 34
-0.57092 -0.0941176 1 36 38 34
-0.550034 -0.0915142 0.972338 36 38 34
-0.560444 -0.0941176 1 37 38 35
-0.524548 -0.0889205 0.944781 36 38 35
-0.533309 -0.0912666 0.969708 36 38 34
-0.559799 -0.0967211 1.02766 37 38 35
-0.539493 -0.0941176 1 36 38 35
-0.549704 -0.0968393 1.02892 36 38 34
-0.529017 -0.0941176 1 36 38 34
-0.52378 -0.0941176 1 37 38 34
-0.518542 -0.0941176 1 37 38 34
-0.497755 -0.0912666 0.969708 37 38 35
-0.524225 -0.097111 1.0318 35 36 32
-0.536401 -0.100402 1.06677 36 37 33
-0.514248 -0.0972683 1.03348 36 36 32
-0.507267 -0.0969687 1.03029 36 36 32
-0.519638 -0.100402 1.06677 38 39 35
-0.529918 -0.103501 1.0997 38 39 35
-0.508463 -0.100402 1.06677 38 39 35
-0.50461 -0.100748 1.07045 37 38 34
-0.531058 -0.10722 1.13921 37 38 34
-0.509386 -0.104013 1.10514 38 39 35
-0.506361 -0.104584 1.1112 39 40 36
-0.520702 -0.108796 1.15596 39 40 35
-0.519076 -0.109732 1.1659 38 39 35
-0.512969 -0.109732 1.1659 38 38 34
-0.523785 -0.113396 1.20483 37 38 33
-0.511117 -0.112003 1.19003 36 37 32
-0.549489 -0.121898 1.29517 35 36 30
-0.516971 -0.116118 1.23375 36 37 32
-0.520444 -0.118378 1.25776 36 37 32
-0.513856 -0.118378 1.25776 36 38 33
-0.497584 -0.116118 1.23375 37 38 34
-0.473718 -0.112003 1.19003 36 38 33
-0.500974 -0.120026 1.27528 36 37 32
-0.520946 -0.126498 1.34404 35 37 32
-0.495219 -0.121898 1.29517 35 36 31
-0.468474 -0.116917 1.24224 35 36 31
-0.481651 -0.121898 1.29517 35 37 32
-0.48501 -0.124502 1.32283 36 37 33
-0.559775 -0.145776 1.54887 37 39 34
-0.502081 -0.132674 1.40967 37 38 34
-0.494697 -0.132674 1.40967 36 37 33
-0.503892 -0.137188 1.45762 35 36 32
-0.461528 -0.127587 1.35562 34 36 31
-0.488622 -0.137188 1.45762 35 36 32
-0.494972 -0.141176 1.5 35 37 33
-0.54465 -0.157851 1.67717 36 38 34
-0.492799 -0.145165 1.54238 37 38 35
-0.486761 -0.145776 1.54887 36 38 34
-0.496035 -0.151072 1.60514 36 37 33
-0.507181 -0.15713 1.6695 36 36 33
-0.447832 -0.141176 1.5 37 37 34
-0.489692 -0.15713 1.6695 37 37 34
-0.491126 -0.160455 1.70483 38 38 35
-0.440586 -0.146609 1.55772 38 38 35
-0.445591 -0.151072 1.60514 38 38 35
-0.447873 -0.154766 1.64438 38 37 35
-0.448019 -0.157851 1.67717 39 39 36
-0.454051 -0.163176 1.73375 39 38 36
-0.425005 -0.155855 1.65596 37 37 34
-0.405908 -0.151953 1.6145 37 37 34
-0.416046 -0.159062 1.69003 36 37 34
-0.424988 -0.166013 1.76388 37 37 35
-0.408646 -0.163176 1.73375 37 37 34
-0.386526 -0.157851 1.67717 36 37 34
-0.377741 -0.157851 1.67717 37 38 34
-0.365508 -0.156376 1.66149 38 38 35
-0.369021 -0.161729 1.71838 38 38 35
-0.357183 -0.160455 1.70483 37 38 34
-0.348253 -0.160455 1.70483 36 38 34
-0.339324 -0.160455 1.70483 37 38 34
-0.321995 -0.156376 1.66149 37 38 35
-0.324322 -0.161881 1.71999 36 38 34
-0.312535 -0.160455 1.70483 35 37 33
-0.310989 -0.164357 1.74629 35 37 33
-0.290363 -0.158106 1.67988 35 36 33
-0.285746 -0.160455 1.70483 36 37 34
-0.288255 -0.167085 1.77528 36 38 35
-0.267887 -0.160455 1.70483 36 38 34
-0.258957 -0.160455 1.70483 36 38 33
-0.250028 -0.160455 1.70483 37 38 34
-0.233454 -0.155368 1.65078 37 38 33
-0.228402 -0.157851 1.67717 36 37 32
-0.223239 -0.160455 1.70483 36 37 32
-0.212449 -0.159062 1.69003 37 38 33
-0.198869 -0.155368 1.65078 37 38 34
-0.19645 -0.160455 1.70483 37 38 33
-0.182754 -0.156376 1.66149 37 38 34
-0.181621 -0.163176 1.73375 37 38 34
-0.17101 -0.161729 1.71838 37 38 34
-0.160732 -0.160455 1.70483 37 38 34
-0.14934 -0.157851 1.67717 37 38 34
-0.144008 -0.161729 1.71838 36 37 33
-0.129697 -0.155368 1.65078 36 37 33
-0.123928 -0.159062 1.69003 36 37 33
-0.114201 -0.157851 1.67717 36 37 33
-0.107155 -0.160455 1.70483 35 37 33
-0.0966315 -0.157851 1.67717 36 37 33
-0.0878468 -0.157851 1.67717 36 37 33
-0.079741 -0.159207 1.69157 36 37 33
-0.0720715 -0.161881 1.71999 36 37 33
-0.0613693 -0.157534 1.6738 37 38 35
-0.0550387 -0.164831 1.75133 37 38 35
-0.0432323 -0.155368 1.65078 37 38 35
-0.0350681 -0.157534 1.6738 37 38 35
-0.0256817 -0.153825 1.63439 36 37 34
-0.0171212 -0.153825 1.63439 36 37 34
-0.00842601 -0.151406 1.60869 36 37 34
0 -0.160455 1.70483 36 37 34
0.00878468 -0.157851 1.67717 37 38 34
0.0175694 -0.157851 1.67717 37 38 35
0.0270015 -0.161729 1.71838 36 37 34
0.0357183 -0.160455 1.70483 36 37 34
0.0442602 -0.159062 1.69003 36 37 33
0.0540537 -0.161881 1.71999 37 37 34
0.062507 -0.160455 1.70483 38 39 35
0.0702774 -0.157851 1.67717 38 39 36
0.0783231 -0.156376 1.66149 38 39 35
0.0870257 -0.156376 1.66149 37 38 35
0.093664 -0.153004 1.62567 37 38 34
0.106321 -0.159207 1.69157 37 38 34
0.118053 -0.163176 1.73375 37 38 35
0.121836 -0.156376 1.66149 37 38 34
0.132902 -0.159207 1.69157 37 38 35
0.139241 -0.156376 1.66149 37 38 34
0.151803 -0.160455 1.70483 37 38 34
0.156646 -0.156376 1.66149 36 37 34
0.169662 -0.160455 1.70483 36 37 33
0.177041 -0.159062 1.69003 36 37 34
0.190377 -0.162899 1.7308 37 37 34
0.189485 -0.154766 1.64438 37 37 34
0.196893 -0.153825 1.63439 37 37 34
0.202224 -0.151406 1.60869 37 37 34
0.227026 -0.163176 1.73375 37 38 35
0.230363 -0.159207 1.69157 38 39 35
0.23255 -0.154766 1.64438 38 39 35
0.24286 -0.155855 1.65596 36 37 34
0.258957 -0.160455 1.70483 36 36 33
0.265561 -0.159062 1.69003 37 37 34
0.276817 -0.160455 1.70483 38 38 35
0.283265 -0.159062 1.69003 38 39 35
0.289894 -0.157851 1.67717 38 39 35
0.316151 -0.167085 1.77528 38 38 35
0.306846 -0.157534 1.6738 38 38 35
0.321464 -0.160455 1.70483 37 38 35
0.320922 -0.155855 1.65596 36 37 34
0.333147 -0.157534 1.6738 36 37 34
0.351767 -0.162074 1.72203 37 37 34
0.363241 -0.163176 1.73375 36 37 34
0.366112 -0.160455 1.70483 36 36 33
0.375042 -0.160455 1.70483 36 37 34
0.401802 -0.167906 1.784 37 37 35
0.389489 -0.159062 1.69003 37 37 34
0.405885 -0.162074 1.72203 37 37 34
0.41076 -0.160455 1.70483 37 37 34
0.412051 -0.157534 1.6738 37 38 34
0.432429 -0.161881 1.71999 37 38 34
0.437549 -0.160455 1.70483 37 37 34
0.438352 -0.157534 1.6738 37 37 34
0.455408 -0.160455 1.70483 37 37 34
0.455886 -0.157534 1.6738 36 37 34
0.477474 -0.161881 1.71999 35 36 33
0.482197 -0.160455 1.70483 36 36 34
0.495028 -0.161729 1.71838 36 37 34
0.508538 -0.163176 1.73375 36 37 34
0.526615 -0.166013 1.76388 36 37 34
0.517915 -0.160455 1.70483 36 37 34
0.526844 -0.160455 1.70483 37 38 35
0.526022 -0.157534 1.6738 36 37 34
0.549546 -0.161881 1.71999 37 37 34
0.579342 -0.167906 1.784 36 37 34
0.542616 -0.154766 1.64438 36 36 34
0.581186 -0.163176 1.73375 36 36 34
0.559842 -0.154766 1.64438 36 37 35
0.599348 -0.163176 1.73375 36 38 35
0.598281 -0.160455 1.70483 36 38 35
0.618828 -0.163525 1.73745 36 38 35
0.610087 -0.158878 1.68808 36 38 35
0.67611 -0.173557 1.84404 36 38 35
0.667593 -0.168957 1.79517 36 37 34
0.669496 -0.167085 1.77528 36 37 34
0.674437 -0.166013 1.76388 36 37 35
0.678811 -0.164831 1.75133 36 37 34
0.669717 -0.160455 1.70483 37 38 35
0.659191 -0.155855 1.65596 37 38 36
0.70633 -0.164831 1.75133 36 38 35
0.742697 -0.171096 1.81789 36 37 34
0.698505 -0.158878 1.68808 35 37 34
0.776402 -0.174389 1.85288 35 37 34
0.751621 -0.166739 1.7716 36 38 35
0.760901 -0.166739 1.7716 36 38 35
0.755334 -0.163525 1.73745 36 38 36
0.773371 -0.165436 1.75776 35 37 35
0.788738 -0.166739 1.7716 34 36 33
0.808634 -0.168957 1.79517 35 36 34
0.811865 -0.167682 1.78162 35 37 35
0.837915 -0.171096 1.81789 35 37 35
0.836842 -0.168957 1.79517 34 37 35
0.832613 -0.166235 1.76625 35 37 35
0.861372 -0.170087 1.80718 35 37 36
0.923091 -0.180293 1.91561 35 37 35
0.860367 -0.166235 1.76625 34 36 35
0.897475 -0.17156 1.82283 34 36 35
0.917578 -0.173557 1.84404 34 36 35
0.952791 -0.17834 1.89486 34 36 35
0.966759 -0.179089 1.90282 34 36 35
0.972641 -0.17834 1.89486 34 36 35
0.94087 -0.170772 1.81445 35 37 36
0.965871 -0.173557 1.84404 35 37 36
1.00663 -0.179089 1.90282 34 36 35
0.910816 -0.160455 1.70483 34 36 34
1.01119 -0.176408 1.87433 33 35 34
0.997129 -0.172282 1.8305 33 36 34
0.987286 -0.168957 1.79517 34 36 34
0.996688 -0.168957 1.79517 33 36 34
1.05046 -0.176408 1.87433 33 35 34
1.06659 -0.177459 1.8855 33 35 34
1.14184 -0.188235 2 32 35 34
1.02072 -0.166739 1.7716 32 35 34
1.12183 -0.181605 1.92955 31 34 33
1.06933 -0.17156 1.82283 32 35 34
1.09143 -0.173557 1.84404 33 36 35
1.14028 -0.179733 1.90967 31 35 34
1.05878 -0.165436 1.75776 26 31 29
1.01436 -0.15713 1.6695 25 29 28
1.17713 -0.180784 1.92083 24 28 27
1.18029 -0.179733 1.90967 26 30 29
1.2466 -0.188235 2 29 34 34
-0.571757 -0.0808592 0.909666 38 36 30
-0.56952 -0.0812196 0.91372 38 38 33
-0.516811 -0.0743273 0.836183 38 39 34
-0.575778 -0.0835157 0.939552 36 38 32
-0.555162 -0.0812196 0.91372 35 37 30
-0.539018 -0.0795434 0.894863 36 38 32
-0.562646 -0.0837586 0.942284 36 38 32
-0.540805 -0.0812196 0.91372 36 38 32
-0.570406 -0.0864301 0.972338 36 38 32
-0.546251 -0.0835157 0.939552 36 38 33
-0.559497 -0.0863184 0.971083 36 38 34
-0.552762 -0.0860618 0.968195 37 39 35
-0.565682 -0.0888889 1 37 39 35
-0.544941 -0.0864301 0.972338 37 39 35
-0.519978 -0.0832488 0.936549 36 38 35
-0.535971 -0.0866266 0.974549 36 37 34
-0.544731 -0.0888889 1 37 38 35
-0.509703 -0.0839805 0.944781 36 37 35
-0.534255 -0.0888889 1 36 38 34
-0.529017 -0.0888889 1 36 38 34
-0.52378 -0.0888889 1 36 38 34
-0.54847 -0.0940192 1.05772 37 39 35
-0.527503 -0.0913477 1.02766 37 39 35
-0.525074 -0.0918645 1.03348 37 38 34
-0.534733 -0.094529 1.06345 36 37 33
-0.547198 -0.0977507 1.0997 37 37 33
-0.525226 -0.0948237 1.06677 37 38 34
-0.521431 -0.0951508 1.07045 38 39 35
-0.498008 -0.0918645 1.03348 38 39 35
-0.521818 -0.0973143 1.09479 38 38 35
-0.520963 -0.0982344 1.10514 37 38 34
-0.51035 -0.0973143 1.09479 37 38 34
-0.497416 -0.0959259 1.07917 37 38 34
-0.491764 -0.0959259 1.07917 37 38 33
-0.503602 -0.0993774 1.118 36 37 32
-0.497746 -0.0993774 1.118 36 37 32
-0.508593 -0.102752 1.15596 36 36 31
-0.529673 -0.1083 1.21838 36 37 32
-0.537446 -0.111229 1.25133 36 37 32
-0.506069 -0.106029 1.19282 36 37 32
-0.570204 -0.120959 1.36079 37 38 34
-0.504147 -0.1083 1.21838 36 38 34
-0.538423 -0.117146 1.31789 36 38 34
-0.504675 -0.111229 1.25133 37 38 34
-0.479611 -0.107096 1.20483 37 38 34
-0.499528 -0.113031 1.2716 37 38 34
-0.520946 -0.11947 1.34404 37 38 34
-0.520311 -0.120959 1.36079 36 37 32
-0.511231 -0.120499 1.35562 35 37 31
-0.491938 -0.117585 1.32283 35 37 32
-0.532049 -0.128989 1.45113 36 37 32
-0.457633 -0.112556 1.26625 37 38 34
-0.534255 -0.133333 1.5 36 38 33
-0.546653 -0.138464 1.55772 36 37 32
-0.505611 -0.130008 1.46259 35 36 32
-0.47993 -0.125304 1.40967 35 36 31
-0.502828 -0.133333 1.5 35 37 32
-0.542616 -0.146168 1.64438 35 36 32
-0.487115 -0.133333 1.5 34 36 32
-0.494874 -0.137678 1.54887 36 37 33
-0.48954 -0.138464 1.55772 35 38 33
-0.496035 -0.142679 1.60514 35 36 32
-0.517915 -0.151541 1.70483 36 36 32
-0.498437 -0.1484 1.6695 37 37 34
-0.423046 -0.128203 1.44228 37 37 34
-0.462406 -0.142679 1.60514 38 38 35
-0.438085 -0.137678 1.54887 39 39 36
-0.445591 -0.142679 1.60514 37 37 34
-0.433152 -0.141363 1.59033 36 36 33
-0.43426 -0.144504 1.62567 38 37 34
-0.425745 -0.144504 1.62567 38 38 35
-0.437549 -0.151541 1.70483 38 38 35
-0.424408 -0.150052 1.68808 37 37 34
-0.436126 -0.157476 1.7716 37 37 34
-0.414411 -0.152888 1.71999 37 38 35
-0.405402 -0.152888 1.71999 36 37 34
-0.392901 -0.151541 1.70483 36 37 33
-0.376983 -0.148782 1.6738 37 38 34
-0.378376 -0.152888 1.71999 38 39 35
-0.366112 -0.151541 1.70483 38 39 35
-0.36002 -0.152745 1.71838 37 38 35
-0.345544 -0.150362 1.69157 37 37 34
-0.342019 -0.152745 1.71838 36 37 34
-0.316742 -0.145279 1.63439 36 37 34
-0.311273 -0.146736 1.65078 35 37 33
-0.309821 -0.150225 1.69003 35 37 33
-0.311886 -0.155674 1.75133 36 37 34
-0.285333 -0.146736 1.65078 36 38 35
-0.290593 -0.154111 1.73375 36 38 35
-0.26978 -0.147688 1.66149 35 37 34
-0.26354 -0.149082 1.67717 35 36 31
-0.254244 -0.148782 1.6738 36 38 33
-0.247857 -0.150225 1.69003 38 39 35
-0.241098 -0.151541 1.70483 37 38 34
-0.227943 -0.148782 1.6738 37 38 33
-0.219617 -0.149082 1.67717 36 37 32
-0.216215 -0.152888 1.71999 37 38 33
-0.194747 -0.143695 1.61657 37 37 33
-0.198197 -0.152888 1.71999 36 37 33
-0.181576 -0.146736 1.65078 36 37 33
-0.178591 -0.151541 1.70483 36 37 33
-0.173788 -0.155226 1.74629 37 38 34
-0.159482 -0.150362 1.69157 37 38 34
-0.147944 -0.147688 1.66149 36 37 34
-0.135476 -0.143695 1.61657 36 37 32
-0.13278 -0.150225 1.69003 35 37 32
-0.120581 -0.146168 1.64438 35 37 32
-0.114944 -0.150052 1.68808 35 37 33
-0.105416 -0.149082 1.67717 35 37 33
-0.0957282 -0.147688 1.66149 36 38 34
-0.0885203 -0.150225 1.69003 37 38 34
-0.0790621 -0.149082 1.67717 36 38 34
-0.0731738 -0.155226 1.74629 35 37 33
-0.0602907 -0.146168 1.64438 36 38 34
-0.0508036 -0.143695 1.61657 37 38 35
-0.0423364 -0.143695 1.61657 37 38 35
-0.0345858 -0.146736 1.65078 37 38 35
-0.0256817 -0.145279 1.63439 36 38 34
-0.0174513 -0.14808 1.6659 36 37 34
-0.00861295 -0.146168 1.64438 36 37 34
0 -0.154111 1.73375 36 37 34
0.0090005 -0.152745 1.71838 37 38 34
0.0177202 -0.150362 1.69157 37 38 35
0.0261077 -0.147688 1.66149 36 37 34
0.0342423 -0.145279 1.63439 35 36 33
0.0446478 -0.151541 1.70483 36 36 33
0.0527081 -0.149082 1.67717 36 37 34
0.0620207 -0.150362 1.69157 37 38 34
0.0684846 -0.145279 1.63439 37 38 35
0.0778182 -0.146736 1.65078 38 39 35
0.090005 -0.152745 1.71838 37 38 35
0.0966315 -0.149082 1.67717 36 37 34
0.108972 -0.154111 1.73375 36 37 34
0.117007 -0.152745 1.71838 37 38 35
0.120581 -0.146168 1.64438 37 38 35
0.136215 -0.154111 1.73375 38 38 35
0.144143 -0.152888 1.71999 37 38 35
0.143242 -0.142995 1.60869 37 38 35
0.155033 -0.146168 1.64438 37 38 35
0.166574 -0.148782 1.6738 37 38 34
0.177202 -0.150362 1.69157 37 38 35
0.186062 -0.150362 1.69157 37 38 34
0.191456 -0.147688 1.66149 37 38 34
0.202048 -0.149082 1.67717 36 37 34
0.21431 -0.151541 1.70483 36 37 34
0.225224 -0.152888 1.71999 36 37 33
0.228402 -0.149082 1.67717 36 38 34
0.228616 -0.143695 1.61657 36 37 34
0.252014 -0.152745 1.71838 36 37 33
0.248257 -0.145279 1.63439 36 37 34
0.259394 -0.146736 1.65078 37 37 34
0.279277 -0.152888 1.71999 38 38 35
0.288286 -0.152888 1.71999 38 39 35
0.299674 -0.154111 1.73375 37 38 34
0.298079 -0.148782 1.6738 36 37 33
0.301453 -0.146168 1.64438 37 37 34
0.318673 -0.150225 1.69003 37 38 35
0.320922 -0.147196 1.65596 36 37 33
0.336377 -0.150225 1.69003 36 36 33
0.348253 -0.151541 1.70483 36 37 34
0.353673 -0.150052 1.68808 37 37 34
0.366112 -0.151541 1.70483 36 37 34
0.371357 -0.150052 1.68808 36 37 34
0.372964 -0.147196 1.65596 37 37 35
0.38575 -0.148782 1.6738 37 37 35
0.41279 -0.155674 1.75133 37 37 34
0.41076 -0.151541 1.70483 37 36 33
0.431137 -0.155674 1.75133 37 37 34
0.428619 -0.151541 1.70483 38 38 35
0.454685 -0.157476 1.7716 37 38 35
0.450447 -0.152888 1.71999 37 38 35
0.455408 -0.151541 1.70483 36 37 34
0.449616 -0.146736 1.65078 36 37 34
0.486175 -0.155674 1.75133 36 37 34
0.490376 -0.154111 1.73375 36 37 34
0.486862 -0.150225 1.69003 36 37 34
0.500056 -0.151541 1.70483 36 37 34
0.530017 -0.157803 1.77528 37 37 35
0.541965 -0.158578 1.784 37 38 35
0.536925 -0.15444 1.73745 36 37 34
0.557913 -0.157803 1.77528 36 36 33
0.553943 -0.154111 1.73375 37 37 34
0.54465 -0.149082 1.67717 37 37 35
0.567563 -0.152888 1.71999 36 37 34
0.571492 -0.151541 1.70483 35 36 33
0.600526 -0.15679 1.76388 37 38 35
0.589351 -0.151541 1.70483 37 39 37
0.620548 -0.157181 1.76828 36 38 35
0.628243 -0.15679 1.76388 35 37 34
0.598476 -0.147196 1.65596 35 37 34
0.64672 -0.15679 1.76388 35 37 35
0.651291 -0.155674 1.75133 35 37 34
0.660465 -0.155674 1.75133 35 37 34
0.662915 -0.154111 1.73375 35 36 34
0.683676 -0.15679 1.76388 35 36 34
0.700817 -0.158578 1.784 37 38 36
0.719388 -0.160638 1.80718 39 40 37
0.714504 -0.157476 1.7716 38 39 35
0.720631 -0.15679 1.76388 36 37 34
0.711706 -0.152888 1.71999 36 38 34
0.75725 -0.160638 1.80718 36 37 35
0.751621 -0.157476 1.7716 36 37 34
0.784914 -0.162445 1.82751 35 37 34
0.785647 -0.160638 1.80718 36 37 35
0.806956 -0.163031 1.8341 35 37 35
0.782578 -0.156246 1.75776 35 36 34
0.782636 -0.15444 1.73745 35 36 35
0.835776 -0.163031 1.8341 35 37 35
0.810198 -0.156246 1.75776 35 37 35
0.854989 -0.163031 1.8341 35 37 35
0.846245 -0.15957 1.79517 35 37 36
0.884459 -0.164944 1.85562 35 37 35
0.903199 -0.166607 1.87433 34 36 35
0.860367 -0.157 1.76625 34 36 34
0.891144 -0.160886 1.80997 34 36 34
0.893258 -0.15957 1.79517 34 35 34
0.956792 -0.16914 1.90282 34 36 35
0.952286 -0.166607 1.87433 34 36 35
0.952495 -0.164944 1.85562 33 36 34
0.94919 -0.162711 1.8305 35 37 36
0.996658 -0.16914 1.90282 36 38 37
0.940575 -0.158041 1.77797 35 37 36
0.985189 -0.163915 1.84404 34 36 35
0.987541 -0.162711 1.8305 34 36 34
1.00451 -0.163915 1.84404 34 36 35
1.0682 -0.172647 1.94228 34 36 35
1.06026 -0.169748 1.90967 34 36 35
0.99645 -0.158041 1.77797 33 36 35
1.0264 -0.161285 1.81445 33 35 35
1.0249 -0.15957 1.79517 33 36 35
1.0343 -0.15957 1.79517 33 35 35
1.1259 -0.172138 1.93655 32 35 34
1.06933 -0.162029 1.82283 32 36 35
1.23721 -0.185808 2.09033 32 36 35
1.14695 -0.170741 1.92083 31 35 34
0.979214 -0.144504 1.62567 30 34 33
1.21517 -0.177778 2 29 34 33
1.17029 -0.169748 1.90967 26 31 30
1.15845 -0.166607 1.87433 26 31 30
1.2466 -0.177778 2 28 34 33
-0.545508 -0.0726089 0.867904 39 38 33
-0.602433 -0.0808596 0.966525 38 38 34
-0.580699 -0.078603 0.939552 37 39 33
-0.559948 -0.076442 0.91372 36 38 32
-0.575425 -0.0792321 0.947071 36 37 31
-0.53017 -0.0736355 0.880174 37 38 33
-0.547805 -0.0767522 0.917429 37 38 33
-0.557711 -0.0788316 0.942284 36 38 32
-0.586633 -0.0836601 1 36 38 32
-0.564583 -0.0812409 0.971083 35 37 32
-0.542904 -0.0788316 0.942284 36 38 34
-0.57092 -0.0836601 1 37 39 35
-0.533033 -0.0788316 0.942284 37 39 35
-0.543467 -0.0811259 0.969708 38 40 36
-0.555206 -0.0836601 1 37 39 36
-0.565872 -0.0860794 1.02892 35 37 34
-0.560483 -0.0860794 1.02892 35 37 34
-0.52457 -0.0813459 0.972338 35 37 34
-0.549034 -0.0859743 1.02766 36 37 34
-0.529017 -0.0836601 1 36 38 34
-0.52378 -0.0836601 1 37 38 34
-0.518542 -0.0836601 1 37 39 35
-0.54293 -0.0884887 1.05772 37 39 35
-0.523457 -0.0861944 1.03029 38 39 35
-0.51806 -0.0861944 1.03029 37 38 34
-0.529163 -0.0889685 1.06345 37 37 33
-0.554225 -0.0941734 1.12567 37 38 34
-0.531118 -0.0912175 1.09033 37 37 34
-0.514051 -0.0892458 1.06677 36 37 33
-0.508463 -0.0892458 1.06677 36 37 33
-0.489034 -0.0867894 1.03741 37 37 34
-0.534744 -0.0959679 1.14712 37 37 34
-0.512181 -0.0929631 1.1112 37 37 33
-0.526757 -0.0967076 1.15596 37 38 33
-0.507057 -0.0941734 1.12567 37 37 33
-0.536407 -0.100796 1.20483 36 37 32
-0.523583 -0.0995581 1.19003 36 37 32
-0.480444 -0.0924559 1.10514 37 37 33
-0.517475 -0.100796 1.20483 37 38 33
-0.549489 -0.108354 1.29517 37 38 33
-0.498651 -0.0995581 1.19003 38 39 35
-0.498543 -0.100796 1.20483 37 39 35
-0.529138 -0.108354 1.29517 37 38 34
-0.504675 -0.104687 1.25133 36 38 34
-0.51557 -0.108354 1.29517 37 38 34
-0.508787 -0.108354 1.29517 37 38 34
-0.502003 -0.108354 1.29517 37 38 34
-0.559236 -0.122361 1.46259 36 38 33
-0.518291 -0.114977 1.37433 36 38 33
-0.491938 -0.110668 1.32283 36 38 33
-0.534431 -0.121945 1.45762 36 38 33
-0.485747 -0.112443 1.34404 37 38 34
-0.551663 -0.129579 1.54887 36 37 33
-0.489503 -0.116694 1.39486 35 36 32
-0.487314 -0.117933 1.40967 35 36 32
-0.510685 -0.12549 1.5 35 36 31
-0.472547 -0.117933 1.40967 35 36 31
-0.511099 -0.129579 1.54887 35 36 32
-0.487115 -0.12549 1.5 35 37 32
-0.501766 -0.131384 1.57045 35 37 33
-0.486761 -0.129579 1.54887 35 37 33
-0.508164 -0.137569 1.64438 35 36 31
-0.517915 -0.142627 1.70483 36 36 32
-0.479221 -0.134286 1.60514 37 37 34
-0.482325 -0.137569 1.64438 37 37 34
-0.501902 -0.145756 1.74224 38 38 35
-0.465099 -0.137569 1.64438 38 38 35
-0.465588 -0.140312 1.67717 37 37 34
-0.464337 -0.142627 1.70483 35 35 32
-0.473243 -0.148212 1.7716 36 36 32
-0.425745 -0.136003 1.62567 37 37 34
-0.443597 -0.144598 1.7284 38 38 35
-0.428619 -0.142627 1.70483 37 37 34
-0.412051 -0.140031 1.6738 36 37 34
-0.414411 -0.143894 1.71999 36 37 34
-0.41279 -0.146517 1.75133 36 37 34
-0.386526 -0.140312 1.67717 36 37 33
-0.376983 -0.140031 1.6738 36 37 34
-0.372125 -0.141517 1.69157 37 38 35
-0.360172 -0.140312 1.67717 38 38 35
-0.350681 -0.140031 1.6738 37 38 35
-0.3394 -0.139001 1.66149 36 37 34
-0.344492 -0.144799 1.7308 36 37 33
-0.319919 -0.138105 1.65078 36 37 33
-0.326917 -0.145046 1.73375 36 37 34
-0.312535 -0.142627 1.70483 35 37 34
-0.287887 -0.135243 1.61657 36 37 34
-0.285333 -0.138105 1.65078 36 38 35
-0.288286 -0.143894 1.71999 36 38 35
-0.279277 -0.143894 1.71999 35 37 33
-0.265803 -0.141517 1.69157 35 37 32
-0.254756 -0.140312 1.67717 36 38 33
-0.252014 -0.14376 1.71838 37 38 34
-0.241098 -0.142627 1.70483 37 38 33
-0.226267 -0.139001 1.66149 37 37 32
-0.219176 -0.140031 1.6738 36 37 32
-0.207515 -0.138105 1.65078 36 37 32
-0.207206 -0.143894 1.71999 37 37 33
-0.194745 -0.141388 1.69003 37 37 33
-0.187521 -0.142627 1.70483 36 37 33
-0.174513 -0.13937 1.6659 36 37 32
-0.168342 -0.141517 1.69157 37 38 34
-0.155636 -0.138105 1.65078 37 38 34
-0.151803 -0.142627 1.70483 37 38 34
-0.140555 -0.140312 1.67717 36 37 33
-0.13278 -0.141388 1.69003 35 37 32
-0.125014 -0.142627 1.70483 35 37 32
-0.115076 -0.141388 1.69003 35 37 33
-0.107155 -0.142627 1.70483 35 37 33
-0.0957282 -0.139001 1.66149 36 38 34
-0.0886011 -0.141517 1.69157 37 39 35
-0.0762055 -0.135243 1.61657 37 39 35
-0.0714365 -0.142627 1.70483 36 38 34
-0.062507 -0.142627 1.70483 36 38 34
-0.0520414 -0.138538 1.65596 37 38 35
-0.0442602 -0.141388 1.69003 37 38 36
-0.0366925 -0.146517 1.75133 37 38 35
-0.026354 -0.140312 1.67717 36 38 35
-0.0177041 -0.141388 1.69003 37 38 35
-0.00846727 -0.135243 1.61657 37 38 35
0 -0.141225 1.68808 37 38 35
0.00908103 -0.145046 1.73375 37 38 35
0.016852 -0.134583 1.60869 37 37 34
0.0267887 -0.142627 1.70483 35 36 33
0.0350681 -0.140031 1.6738 35 36 33
0.0439943 -0.140539 1.67988 35 36 33
0.0510894 -0.136003 1.62567 36 37 34
0.0610797 -0.13937 1.6659 37 38 34
0.0698053 -0.13937 1.6659 37 38 34
0.0810045 -0.14376 1.71838 37 38 35
0.0864646 -0.138105 1.65078 37 38 34
0.0945694 -0.137318 1.64138 36 37 34
0.105416 -0.140312 1.67717 36 37 34
0.111968 -0.137569 1.64438 37 38 35
0.126007 -0.14376 1.71838 37 38 35
0.133943 -0.142627 1.70483 38 39 35
0.142873 -0.142627 1.70483 37 38 35
0.155494 -0.146095 1.74629 38 39 35
0.164641 -0.146095 1.74629 37 38 35
0.166909 -0.140312 1.67717 37 38 35
0.177041 -0.141388 1.69003 37 38 35
0.184478 -0.140312 1.67717 36 37 34
0.190222 -0.138105 1.65078 36 37 34
0.208864 -0.145046 1.73375 36 37 34
0.212449 -0.141388 1.69003 36 37 34
0.219617 -0.140312 1.67717 35 36 32
0.238501 -0.146517 1.75133 36 37 33
0.237186 -0.140312 1.67717 36 37 34
0.247857 -0.141388 1.69003 36 38 34
0.253044 -0.13937 1.6659 37 38 35
0.263011 -0.140031 1.6738 37 37 34
0.276817 -0.142627 1.70483 36 37 33
0.292695 -0.146095 1.74629 37 37 34
0.299674 -0.145046 1.73375 36 37 33
0.300969 -0.141388 1.69003 36 37 33
0.309821 -0.141388 1.69003 36 37 34
0.324322 -0.143894 1.71999 36 37 33
0.327824 -0.141517 1.69157 35 36 32
0.333818 -0.140312 1.67717 35 36 33
0.345229 -0.141388 1.69003 36 37 34
0.357183 -0.142627 1.70483 37 38 35
0.378793 -0.147567 1.76388 37 38 35
0.371785 -0.141388 1.69003 37 38 35
0.390484 -0.145046 1.73375 37 38 35
0.392901 -0.142627 1.70483 38 37 35
0.40183 -0.142627 1.70483 38 37 35
0.414411 -0.143894 1.71999 37 37 34
0.441928 -0.150184 1.79517 37 37 34
0.435889 -0.145046 1.73375 37 37 35
0.441438 -0.143894 1.71999 37 38 35
0.435128 -0.139001 1.66149 36 38 35
0.447119 -0.140031 1.6738 36 37 34
0.464337 -0.142627 1.70483 36 37 34
0.482322 -0.145355 1.73745 36 37 34
0.490376 -0.145046 1.73375 36 37 34
0.504522 -0.146517 1.75133 36 37 34
0.500056 -0.142627 1.70483 36 37 34
0.508985 -0.142627 1.70483 37 37 35
0.532041 -0.146517 1.75133 37 38 35
0.541214 -0.146517 1.75133 36 37 34
0.544862 -0.145046 1.73375 36 37 34
0.553943 -0.145046 1.73375 37 37 35
0.575315 -0.148212 1.7716 37 37 35
0.573326 -0.145355 1.73745 37 37 35
0.581186 -0.145046 1.73375 37 37 35
0.585581 -0.143894 1.71999 37 38 35
0.605426 -0.146517 1.75133 36 38 35
0.603599 -0.143894 1.71999 35 37 34
0.628243 -0.147567 1.76388 35 37 34
0.632945 -0.146517 1.75133 35 37 34
0.630626 -0.143894 1.71999 36 38 35
0.667593 -0.150184 1.79517 36 37 35
0.680806 -0.151029 1.80527 35 36 33
0.657653 -0.143894 1.71999 34 35 32
0.671996 -0.145046 1.73375 34 35 32
0.687984 -0.146517 1.75133 37 38 35
0.714607 -0.150184 1.79517 39 40 37
0.711392 -0.147567 1.76388 38 40 36
0.72885 -0.14925 1.784 37 38 35
0.724676 -0.146517 1.75133 37 38 35
0.772697 -0.154273 1.84404 36 37 34
0.745751 -0.147055 1.75776 35 37 34
0.760901 -0.148212 1.7716 35 36 34
0.785647 -0.151189 1.80718 35 37 35
0.773371 -0.147055 1.75776 35 37 35
0.782578 -0.147055 1.75776 35 37 35
0.814044 -0.151189 1.80718 35 37 35
0.800991 -0.147055 1.75776 35 37 35
0.827439 -0.150184 1.79517 35 37 35
0.819405 -0.147055 1.75776 35 37 35
0.846245 -0.150184 1.79517 34 36 35
0.889225 -0.156077 1.86561 35 37 35
0.858524 -0.149051 1.78162 34 36 35
0.89826 -0.154273 1.84404 33 35 34
0.829884 -0.141013 1.68555 33 35 34
0.932651 -0.156807 1.87433 33 35 34
0.938084 -0.156077 1.86561 34 36 34
0.912064 -0.150184 1.79517 35 37 35
0.929065 -0.151422 1.80997 34 36 35
0.930869 -0.150184 1.79517 35 37 35
0.915917 -0.146294 1.74867 35 37 36
0.97553 -0.154273 1.84404 35 37 35
0.949887 -0.148745 1.77797 34 36 35
1.05043 -0.162892 1.94707 34 37 35
0.968512 -0.148745 1.77797 34 37 35
1.03697 -0.157741 1.8855 35 37 35
1.04064 -0.156807 1.87433 34 36 35
1.05046 -0.156807 1.87433 33 36 35
1.0264 -0.151797 1.81445 33 36 35
1.0528 -0.154273 1.84404 33 36 35
1.0343 -0.150184 1.79517 33 36 35
1.16279 -0.16732 2 32 36 35
1.08178 -0.154273 1.84404 32 36 35
1.18374 -0.16732 2 31 36 34
1.14028 -0.159763 1.90967 31 36 35
1.20469 -0.16732 2 31 36 35
1.16707 -0.160697 1.92083 31 35 35
1.13007 -0.154273 1.84404 27 33 32
1.18029 -0.159763 1.90967 26 32 31
1.09561 -0.147055 1.75776 27 33 33
-0.58657 -0.0731948 0.933233 37 36 31
-0.561158 -0.0706121 0.900304 36 36 30
-0.580699 -0.0736903 0.939552 35 36 30
-0.53939 -0.0690333 0.880174 36 37 31
-0.589179 -0.0760555 0.969708 35 37 31
-0.55261 -0.0719552 0.917429 36 38 32
-0.579842 -0.0761633 0.971083 37 39 33
-0.524103 -0.0694511 0.885502 36 38 32
-0.55424 -0.0741004 0.944781 36 38 32
-0.549291 -0.0741004 0.944781 36 38 33
-0.559497 -0.0761633 0.971083 35 37 33
-0.534694 -0.0734548 0.936549 35 38 34
-0.549324 -0.0761633 0.971083 35 38 34
-0.529497 -0.0741004 0.944781 37 39 36
-0.538388 -0.0760555 0.969708 37 39 36
-0.534065 -0.0761633 0.971083 35 37 34
-0.544731 -0.0784314 1 35 37 34
-0.539493 -0.0784314 1 36 38 35
-0.534255 -0.0784314 1 36 38 35
-0.544315 -0.0806994 1.02892 37 39 35
-0.538926 -0.0806994 1.02892 37 39 35
-0.53425 -0.0808072 1.03029 36 38 34
-0.529629 -0.0809258 1.0318 36 37 33
-0.508066 -0.0784314 1 36 37 34
-0.502828 -0.0784314 1 37 37 34
-0.513416 -0.0809258 1.0318 38 38 34
-0.507267 -0.0808072 1.03029 38 38 34
-0.535678 -0.0862507 1.0997 37 37 34
-0.514051 -0.083668 1.06677 36 36 32
-0.508463 -0.083668 1.06677 36 37 33
-0.50461 -0.0839566 1.07045 37 38 34
-0.521169 -0.087686 1.118 37 38 34
-0.532811 -0.0906634 1.15596 37 38 34
-0.512953 -0.0882875 1.12567 37 38 33
-0.537307 -0.0935547 1.19282 37 37 33
-0.524091 -0.0923271 1.17717 37 37 33
-0.517926 -0.0923271 1.17717 36 37 32
-0.552811 -0.0997333 1.2716 37 37 34
-0.505594 -0.0923271 1.17717 37 38 34
-0.499428 -0.0923271 1.17717 38 39 35
-0.510528 -0.0955589 1.21838 39 40 37
-0.487097 -0.0923271 1.17717 37 38 35
-0.49926 -0.0958458 1.22203 35 37 32
-0.504675 -0.0981437 1.25133 35 37 32
-0.51557 -0.101582 1.29517 36 38 33
-0.517714 -0.103364 1.31789 37 38 34
-0.538295 -0.108926 1.3888 36 37 33
-0.505796 -0.103751 1.32283 36 37 33
-0.506867 -0.105415 1.34404 36 38 33
-0.491938 -0.103751 1.32283 36 37 33
-0.503894 -0.107791 1.37433 35 37 32
-0.524448 -0.113814 1.45113 36 37 32
-0.516848 -0.113814 1.45113 36 37 33
-0.526398 -0.117647 1.5 36 37 33
-0.535437 -0.12148 1.54887 36 37 33
-0.510685 -0.117647 1.5 35 36 31
-0.465552 -0.108926 1.3888 35 36 31
-0.494972 -0.117647 1.5 35 36 32
-0.505858 -0.122174 1.55772 35 37 32
-0.533415 -0.130941 1.6695 35 37 33
-0.471402 -0.117647 1.5 35 37 33
-0.502379 -0.127503 1.62567 36 37 33
-0.507181 -0.130941 1.6695 36 36 32
-0.474801 -0.124732 1.59033 36 36 33
-0.491942 -0.131543 1.67717 37 37 33
-0.51036 -0.138949 1.7716 38 38 35
-0.490376 -0.13598 1.73375 38 38 35
-0.463459 -0.130941 1.6695 37 37 33
-0.447873 -0.128971 1.64438 35 35 31
-0.473243 -0.138949 1.7716 35 35 31
-0.421957 -0.126369 1.6112 35 35 32
-0.442653 -0.135272 1.72472 36 36 33
-0.420818 -0.131279 1.6738 37 37 34
-0.426808 -0.13598 1.73375 36 37 34
-0.407194 -0.132551 1.69003 36 37 34
-0.389091 -0.129473 1.65078 36 36 33
-0.399565 -0.13598 1.73375 35 36 32
-0.377741 -0.131543 1.67717 36 37 34
-0.397137 -0.14159 1.80527 37 38 34
-0.376098 -0.137359 1.75133 37 37 34
-0.354404 -0.132672 1.69157 36 37 34
-0.354916 -0.136271 1.73745 35 36 32
-0.325302 -0.128187 1.63439 35 36 32
-0.333019 -0.134775 1.71838 36 37 34
-0.321464 -0.133712 1.70483 37 38 35
-0.30459 -0.130313 1.66149 36 37 34
-0.303605 -0.133712 1.70483 35 37 34
-0.299674 -0.13598 1.73375 36 38 34
-0.281564 -0.131755 1.67988 36 38 35
-0.274413 -0.132551 1.69003 36 37 34
-0.272431 -0.13598 1.73375 36 37 33
-0.265255 -0.136964 1.74629 37 38 34
-0.247857 -0.132551 1.69003 36 38 33
-0.23671 -0.131279 1.6738 36 37 33
-0.234233 -0.134901 1.71999 36 37 32
-0.223239 -0.133712 1.70483 36 37 32
-0.21431 -0.133712 1.70483 36 36 31
-0.196893 -0.128187 1.63439 36 37 33
-0.199783 -0.13598 1.73375 37 38 34
-0.183239 -0.130659 1.6659 37 37 33
-0.171212 -0.128187 1.63439 35 37 32
-0.166574 -0.131279 1.6738 37 38 34
-0.157062 -0.130659 1.6659 37 39 35
-0.147944 -0.130313 1.66149 37 38 34
-0.142873 -0.133712 1.70483 37 38 34
-0.129194 -0.128971 1.64438 36 38 34
-0.124041 -0.132672 1.69157 36 37 34
-0.118053 -0.13598 1.73375 36 38 33
-0.108006 -0.134775 1.71838 36 38 34
-0.0966315 -0.131543 1.67717 37 39 35
-0.0878468 -0.131543 1.67717 38 40 36
-0.0783231 -0.130313 1.66149 36 38 34
-0.0714365 -0.133712 1.70483 35 37 33
-0.0599241 -0.128187 1.63439 36 38 34
-0.0522154 -0.130313 1.66149 37 39 36
-0.0446478 -0.133712 1.70483 36 38 35
-0.0348103 -0.130313 1.66149 36 37 35
-0.0256817 -0.128187 1.63439 36 38 36
-0.0178591 -0.133712 1.70483 38 39 36
-0.00892957 -0.133712 1.70483 37 39 35
0 -0.128971 1.64438 36 38 34
0.00870257 -0.130313 1.66149 37 38 34
0.0175341 -0.131279 1.6738 36 37 34
0.026354 -0.131543 1.67717 37 38 35
0.0348103 -0.130313 1.66149 37 38 35
0.0446478 -0.133712 1.70483 37 38 35
0.0513635 -0.128187 1.63439 37 38 34
0.0593231 -0.126902 1.618 36 37 34
0.0698053 -0.130659 1.6659 36 37 33
0.079741 -0.132672 1.69157 36 38 34
0.0878468 -0.131543 1.67717 37 38 35
0.0982252 -0.133712 1.70483 36 37 34
0.107155 -0.133712 1.70483 35 37 33
0.116084 -0.133712 1.70483 36 37 34
0.120361 -0.128736 1.64138 36 37 34
0.13278 -0.132551 1.69003 36 37 34
0.142873 -0.133712 1.70483 36 37 34
0.146153 -0.128736 1.64138 37 38 35
0.156646 -0.130313 1.66149 37 38 35
0.163646 -0.128971 1.64438 37 38 35
0.172259 -0.128971 1.64438 37 38 35
0.180872 -0.128971 1.64438 36 37 35
0.199783 -0.13598 1.73375 36 37 34
0.202048 -0.131543 1.67717 36 37 34
0.212449 -0.132551 1.69003 36 37 34
0.217564 -0.130313 1.66149 37 38 34
0.226267 -0.130313 1.66149 37 39 35
0.239005 -0.132551 1.69003 37 38 34
0.258688 -0.138344 1.76388 36 37 34
0.254244 -0.131279 1.6738 36 37 33
0.261077 -0.130313 1.66149 35 36 32
0.272765 -0.131755 1.67988 36 37 33
0.285746 -0.133712 1.70483 36 37 33
0.284227 -0.128971 1.64438 37 37 34
0.29284 -0.128971 1.64438 37 38 34
0.307464 -0.131543 1.67717 37 38 34
0.324322 -0.134901 1.71999 37 37 34
0.325033 -0.131543 1.67717 36 37 33
0.339324 -0.133712 1.70483 36 36 33
0.338269 -0.129879 1.65596 36 37 34
0.357183 -0.133712 1.70483 36 37 34
0.369367 -0.134901 1.71999 36 37 34
0.375042 -0.133712 1.70483 36 37 34
