ply
format ascii 1.0
element vertex 1326
property float x
property float y
property float z
property uchar red
property uchar green
property uchar blue
end_header
-0.499008 -0.28399 0.89038 39 37 37
-0.479545 -0.275489 0.863725 39 37 37
-0.471725 -0.273577 0.85773 38 37 37
-0.485017 -0.28399 0.89038 38 36 35
-0.494946 -0.292618 0.917429 36 35 33
-0.50342 -0.300546 0.942284 34 34 32
-0.487137 -0.293704 0.920833 36 36 34
-0.480531 -0.292618 0.917429 38 37 35
-0.489908 -0.301342 0.944781 35 35 32
-0.483678 -0.300546 0.942284 35 35 31
-0.466115 -0.292618 0.917429 37 37 34
-0.461309 -0.292618 0.917429 39 39 36
-0.454659 -0.291435 0.91372 39 39 36
-0.478115 -0.309731 0.971083 38 38 35
-0.487115 -0.318954 1 38 37 35
-0.468548 -0.310131 0.972338 37 37 34
-0.437283 -0.292618 0.917429 38 37 35
-0.456409 -0.30881 0.968195 39 38 36
-0.466164 -0.318954 1 39 38 35
-0.447597 -0.309731 0.971083 38 37 35
-0.455688 -0.318954 1 39 37 36
-0.45045 -0.318954 1 39 37 36
-0.445213 -0.318954 1 39 37 35
-0.465368 -0.337363 1.05772 38 37 35
-0.447309 -0.328178 1.02892 38 37 35
-0.44251 -0.328616 1.03029 38 37 35
-0.424261 -0.318954 1 38 37 35
-0.431717 -0.328616 1.03029 38 37 35
-0.442936 -0.341423 1.07045 38 37 36
-0.437329 -0.341423 1.07045 37 37 35
-0.430238 -0.34025 1.06677 37 37 35
-0.460155 -0.368698 1.15596 36 36 35
-0.419063 -0.34025 1.06677 37 37 36
-0.426239 -0.350753 1.0997 38 39 37
-0.432867 -0.361087 1.1321 38 38 37
-0.419057 -0.354422 1.1112 37 38 37
-0.386661 -0.331629 1.03974 38 38 37
-0.427474 -0.37187 1.1659 38 37 36
-0.421367 -0.37187 1.1659 37 37 37
-0.447977 -0.401169 1.25776 38 37 37
-0.409154 -0.37187 1.1659 37 37 36
-0.434801 -0.401169 1.25776 37 38 37
-0.400776 -0.375464 1.17717 37 37 36
-0.387499 -0.368698 1.15596 36 38 36
-0.412916 -0.399118 1.25133 37 38 37
-0.420597 -0.413099 1.29517 38 38 37
-0.413813 -0.413099 1.29517 38 37 36
-0.436455 -0.442964 1.3888 37 37 36
-0.408794 -0.421922 1.32283 37 37 36
-0.393462 -0.413099 1.29517 37 37 36
-0.386678 -0.413099 1.29517 37 37 36
-0.38656 -0.420348 1.31789 37 37 36
-0.381079 -0.421922 1.32283 37 37 36
-0.404336 -0.455962 1.42955 37 37 36
-0.391328 -0.449619 1.40967 37 37 36
-0.395236 -0.462843 1.45113 37 38 36
-0.413747 -0.49402 1.54887 37 36 35
-0.380035 -0.462843 1.45113 36 36 34
-0.384978 -0.478431 1.5 36 36 35
-0.413422 -0.524483 1.64438 37 36 35
-0.357233 -0.462843 1.45113 37 37 36
-0.361408 -0.478431 1.5 37 37 36
-0.353551 -0.478431 1.5 37 37 36
-0.356958 -0.49402 1.54887 36 36 35
-0.348846 -0.49402 1.54887 36 37 35
-0.340733 -0.49402 1.54887 37 37 36
-0.366112 -0.543764 1.70483 38 38 37
-0.357183 -0.543764 1.70483 38 38 37
-0.327888 -0.511965 1.60514 38 39 37
-0.323566 -0.518513 1.62567 39 40 38
-0.343333 -0.565059 1.7716 38 39 37
-0.321464 -0.543764 1.70483 36 37 35
-0.319392 -0.555694 1.74224 36 37 35
-0.298679 -0.534941 1.67717 35 37 35
-0.290747 -0.536515 1.68211 34 36 34
-0.276355 -0.525894 1.64881 33 35 33
-0.285411 -0.560646 1.75776 35 36 35
-0.263011 -0.533866 1.6738 36 38 36
-0.254756 -0.534941 1.67717 37 38 36
-0.256108 -0.556987 1.74629 37 38 36
-0.252294 -0.569014 1.784 36 37 35
-0.234233 -0.548597 1.71999 35 36 34
-0.221301 -0.539042 1.69003 36 36 34
-0.225665 -0.572576 1.79517 36 37 35
-0.207206 -0.548597 1.71999 37 38 36
-0.198197 -0.548597 1.71999 37 38 36
-0.185893 -0.539042 1.69003 37 38 36
-0.178591 -0.543764 1.70483 37 38 36
-0.172908 -0.554167 1.73745 36 37 35
-0.159337 -0.539042 1.69003 36 37 35
-0.158852 -0.569014 1.784 36 37 35
-0.144143 -0.548597 1.71999 36 37 35
-0.135134 -0.548597 1.71999 36 37 35
-0.126125 -0.548597 1.71999 37 37 35
-0.118907 -0.556987 1.74629 38 38 36
-0.111351 -0.565059 1.7716 39 39 37
-0.101275 -0.560646 1.75776 38 38 35
-0.0934423 -0.569014 1.784 38 38 35
-0.0810805 -0.548597 1.71999 37 38 34
-0.0747538 -0.569014 1.784 37 37 34
-0.0618929 -0.538421 1.68808 37 37 34
-0.0535774 -0.543764 1.70483 37 37 34
-0.0461943 -0.562598 1.76388 36 36 34
-0.0357183 -0.543764 1.70483 35 35 33
-0.0275194 -0.558595 1.75133 36 36 34
-0.0180179 -0.548597 1.71999 36 37 34
-0.00934422 -0.569014 1.784 36 36 34
0 -0.566233 1.77528 36 37 35
0.00885203 -0.539042 1.69003 37 37 35
0.0184136 -0.560646 1.75776 37 37 35
0.0270268 -0.548597 1.71999 37 38 36
0.0354081 -0.539042 1.69003 37 38 36
0.0458656 -0.558595 1.75133 37 38 36
0.0535774 -0.543764 1.70483 37 38 36
0.062507 -0.543764 1.70483 38 39 36
0.0720715 -0.548597 1.71999 38 39 36
0.0789033 -0.533866 1.6738 38 39 36
0.0884184 -0.538421 1.68808 37 38 35
0.0998913 -0.552987 1.73375 38 39 36
0.108107 -0.548597 1.71999 38 39 35
0.116084 -0.543764 1.70483 37 38 35
0.126275 -0.54925 1.72203 36 37 34
0.136506 -0.554167 1.73745 37 38 34
0.145607 -0.554167 1.73745 38 38 35
0.151803 -0.543764 1.70483 38 38 35
0.163459 -0.552987 1.73375 37 38 34
0.167995 -0.538421 1.68808 38 38 35
0.182008 -0.554167 1.73745 38 39 35
0.191109 -0.554167 1.73745 38 39 35
0.194745 -0.539042 1.69003 37 39 35
0.211756 -0.560646 1.75776 37 39 35
0.21431 -0.543764 1.70483 37 39 35
0.225224 -0.548597 1.71999 37 39 35
0.230153 -0.539042 1.69003 37 38 34
0.23671 -0.533866 1.6738 36 37 34
0.243672 -0.529941 1.66149 35 36 33
0.263912 -0.554167 1.73745 35 37 33
0.272431 -0.552987 1.73375 37 38 35
0.286405 -0.562598 1.76388 38 39 35
0.295644 -0.562598 1.76388 38 39 35
0.294676 -0.543764 1.70483 37 39 34
0.311886 -0.558595 1.75133 37 38 33
0.306846 -0.533866 1.6738 37 38 34
0.327615 -0.554167 1.73745 38 39 34
0.327525 -0.539042 1.69003 38 40 35
0.355081 -0.569014 1.784 37 39 34
0.360316 -0.562598 1.76388 38 39 34
0.369554 -0.562598 1.76388 38 39 35
0.38045 -0.565059 1.7716 37 38 34
0.381403 -0.552987 1.73375 36 38 34
0.406593 -0.575799 1.80527 37 39 35
0.41372 -0.572576 1.79517 38 39 35
0.425504 -0.575799 1.80527 37 39 34
0.426847 -0.565059 1.7716 37 39 34
0.431137 -0.558595 1.75133 39 40 35
0.448523 -0.569014 1.784 39 40 36
0.441438 -0.548597 1.71999 39 40 36
0.458656 -0.558595 1.75133 39 40 35
0.479539 -0.572576 1.79517 39 39 35
0.477002 -0.558595 1.75133 38 39 35
0.477474 -0.548597 1.71999 38 39 35
0.482197 -0.543764 1.70483 37 39 34
0.508137 -0.562598 1.76388 38 39 35
0.513695 -0.558595 1.75133 37 39 34
0.526615 -0.562598 1.76388 38 39 34
0.5267 -0.552987 1.73375 38 39 34
0.55476 -0.572576 1.79517 37 38 34
0.544862 -0.552987 1.73375 37 37 33
0.549546 -0.548597 1.71999 37 38 34
0.590349 -0.579825 1.81789 37 38 34
0.573326 -0.554167 1.73745 37 38 34
0.581186 -0.552987 1.73375 37 38 34
0.607375 -0.569014 1.784 38 38 34
0.628436 -0.579825 1.81789 38 38 34
0.634197 -0.576407 1.80718 37 39 34
0.634561 -0.568257 1.78162 37 39 35
0.682627 -0.602441 1.8888 37 38 34
0.653225 -0.568257 1.78162 36 38 34
0.667593 -0.572576 1.79517 38 39 35
0.672784 -0.569014 1.784 38 39 35
0.690991 -0.576407 1.80718 38 39 35
0.690552 -0.568257 1.78162 37 38 34
0.695946 -0.565059 1.7716 36 38 33
0.719388 -0.576407 1.80718 36 37 33
0.743721 -0.588165 1.84404 37 38 34
0.711788 -0.555694 1.74224 37 39 35
0.742815 -0.572576 1.79517 36 38 35
0.768529 -0.584992 1.8341 36 38 34
0.791508 -0.595045 1.86561 36 38 34
0.787743 -0.584992 1.8341 36 38 35
0.780426 -0.572576 1.79517 36 38 35
0.837193 -0.606913 1.90282 37 38 35
0.820991 -0.588165 1.84404 36 38 35
0.802533 -0.568257 1.78162 37 38 35
0.796848 -0.557745 1.74867 37 38 35
0.834262 -0.577298 1.80997 37 38 35
0.883317 -0.604375 1.89486 38 38 35
0.893242 -0.604375 1.89486 38 38 36
0.872488 -0.583845 1.8305 37 38 35
0.882076 -0.583845 1.8305 37 37 35
0.891663 -0.583845 1.8305 37 38 35
0.875386 -0.56709 1.77797 37 38 35
0.966462 -0.6195 1.94228 37 38 35
0.948084 -0.601389 1.8855 36 37 35
0.952286 -0.597827 1.87433 36 37 35
1.02661 -0.637909 2 36 37 35
0.945213 -0.581399 1.82283 36 37 35
1.08903 -0.663159 2.07917 36 37 35
1.02077 -0.615439 1.92955 37 38 35
0.994137 -0.593507 1.86079 36 38 36
1.07899 -0.637909 2 36 38 36
1.00451 -0.588165 1.84404 36 38 36
1.06119 -0.615439 1.92955 36 38 36
1.06646 -0.612658 1.92083 36 37 35
1.07026 -0.609096 1.90967 36 38 36
1.08658 -0.612658 1.92083 36 38 36
1.09664 -0.612658 1.92083 35 37 35
1.09174 -0.604375 1.89486 35 37 35
1.16279 -0.637909 2 35 37 35
1.17327 -0.637909 2 36 37 35
1.18374 -0.637909 2 36 38 35
1.07191 -0.572576 1.79517 36 37 35
1.20469 -0.637909 2 36 38 35
1.15129 -0.604375 1.89486 36 38 36
1.16121 -0.604375 1.89486 36 37 36
1.15845 -0.597827 1.87433 36 38 36
1.2466 -0.637909 2 36 38 36
-0.487291 -0.243225 0.775279 37 38 35
-0.540962 -0.272284 0.867904 37 38 35
-0.503381 -0.255515 0.814453 38 38 34
-0.525636 -0.269092 0.85773 37 38 34
-0.50888 -0.262759 0.837546 37 37 34
-0.504493 -0.262759 0.837546 37 38 34
-0.508256 -0.267041 0.851194 37 38 35
-0.454725 -0.24103 0.768284 37 38 35
-0.487198 -0.260549 0.830499 36 37 34
-0.472044 -0.254719 0.811916 36 36 33
-0.544343 -0.296402 0.944781 36 35 33
-0.493117 -0.270972 0.863725 37 36 35
-0.506208 -0.280741 0.894863 38 36 36
-0.484069 -0.270972 0.863725 37 35 35
-0.479545 -0.270972 0.863725 37 36 35
-0.478055 -0.272703 0.869241 37 36 35
-0.456237 -0.262759 0.837546 37 36 35
-0.480354 -0.279335 0.89038 37 36 34
-0.520092 -0.305408 0.973489 35 35 33
-0.487137 -0.288889 0.920833 36 36 34
-0.508633 -0.304653 0.971083 37 37 34
-0.473802 -0.286657 0.91372 35 35 32
-0.48496 -0.296402 0.944781 37 37 34
-0.480011 -0.296402 0.944781 39 40 36
-0.461309 -0.287821 0.917429 39 39 36
-0.484399 -0.305408 0.973489 38 38 36
-0.453375 -0.288889 0.920833 38 38 35
-0.473641 -0.305047 0.972338 38 38 35
-0.455268 -0.296402 0.944781 38 38 35
-0.462201 -0.304222 0.969708 38 38 35
-0.444194 -0.295619 0.942284 39 38 36
-0.452684 -0.304653 0.971083 39 38 35
-0.474255 -0.322798 1.02892 38 37 35
-0.468866 -0.322798 1.02892 39 37 36
-0.45045 -0.313726 1 40 38 36
-0.485431 -0.342066 1.09033 39 37 35
-0.414581 -0.295619 0.942284 38 36 35
-0.447309 -0.322798 1.02892 38 37 35
-0.441919 -0.322798 1.02892 38 37 35
-0.424261 -0.313726 1 38 38 36
-0.433051 -0.324228 1.03348 38 37 36
-0.426946 -0.323703 1.0318 38 38 36
-0.437329 -0.335826 1.07045 38 37 36
-0.40331 -0.313726 1 38 37 35
-0.442338 -0.348612 1.1112 37 36 35
-0.392835 -0.313726 1 37 37 36
-0.416494 -0.337115 1.07455 37 38 36
-0.410865 -0.337115 1.07455 37 37 35
-0.42162 -0.350744 1.118 37 38 36
-0.439606 -0.370857 1.18211 39 39 37
-0.433414 -0.370857 1.18211 38 38 36
-0.417773 -0.362654 1.15596 37 37 36
-0.395776 -0.348612 1.1112 37 36 35
-0.405663 -0.362654 1.15596 37 37 36
-0.403047 -0.365774 1.1659 36 37 36
-0.429843 -0.396094 1.26255 36 37 36
-0.398921 -0.373343 1.19003 36 37 36
-0.402041 -0.382236 1.21838 37 38 37
-0.391261 -0.377987 1.20483 38 38 37
-0.413813 -0.406327 1.29517 38 38 36
-0.384046 -0.383383 1.22203 37 37 36
-0.392962 -0.398933 1.2716 37 37 36
-0.408309 -0.42166 1.34404 37 37 36
-0.379642 -0.398933 1.2716 37 37 36
-0.39423 -0.42166 1.34404 37 37 36
-0.406095 -0.442248 1.40967 37 38 37
-0.398711 -0.442248 1.40967 38 39 37
-0.387218 -0.437604 1.39486 38 39 38
-0.360293 -0.415005 1.32283 38 38 37
-0.33825 -0.397255 1.26625 37 37 36
-0.405634 -0.485921 1.54887 36 36 35
-0.397522 -0.485921 1.54887 37 37 36
-0.377121 -0.470588 1.5 37 37 36
-0.369265 -0.470588 1.5 37 37 36
-0.361408 -0.470588 1.5 37 37 36
-0.353551 -0.470588 1.5 36 36 35
-0.345695 -0.470588 1.5 36 36 35
-0.370357 -0.515885 1.64438 36 37 35
-0.339304 -0.483883 1.54238 37 37 36
-0.360172 -0.526171 1.67717 38 38 37
-0.357183 -0.53485 1.70483 38 39 37
-0.348253 -0.53485 1.70483 38 39 37
-0.352612 -0.555796 1.7716 38 39 37
-0.330394 -0.53485 1.70483 37 38 36
-0.343714 -0.571868 1.82283 36 37 35
-0.301453 -0.515885 1.64438 35 37 34
-0.298679 -0.526171 1.67717 35 37 35
-0.298113 -0.541089 1.72472 34 36 34
-0.288629 -0.540246 1.72203 34 36 34
-0.27961 -0.540246 1.72203 35 36 35
-0.265803 -0.530689 1.69157 36 37 35
-0.256413 -0.529595 1.68808 36 37 35
-0.252014 -0.539098 1.71838 36 37 36
-0.245711 -0.545083 1.73745 36 37 35
-0.24021 -0.553375 1.76388 36 36 34
-0.229328 -0.549437 1.75133 36 37 35
-0.217945 -0.543922 1.73375 37 37 35
-0.208864 -0.543922 1.73375 37 38 36
-0.19645 -0.53485 1.70483 36 37 35
-0.187521 -0.53485 1.70483 35 36 34
-0.18001 -0.539098 1.71838 36 37 35
-0.17101 -0.539098 1.71838 36 37 35
-0.157807 -0.525115 1.6738 36 37 35
-0.151803 -0.53485 1.70483 36 37 35
-0.135476 -0.50716 1.61657 36 36 35
-0.13177 -0.526171 1.67717 35 36 34
-0.122986 -0.526171 1.67717 36 37 35
-0.120105 -0.553375 1.76388 37 38 35
-0.110866 -0.553375 1.76388 38 38 35
-0.101627 -0.553375 1.76388 37 37 34
-0.0923886 -0.553375 1.76388 38 38 35
-0.0796683 -0.530206 1.69003 38 38 35
-0.0733849 -0.549437 1.75133 38 38 34
-0.0618929 -0.529595 1.68808 37 37 34
-0.0546025 -0.545083 1.73745 37 37 34
-0.0455021 -0.545083 1.73745 36 36 33
-0.0342819 -0.513341 1.63628 35 35 33
-0.0275194 -0.549437 1.75133 35 35 32
-0.0182934 -0.547857 1.74629 36 36 34
-0.00900894 -0.539604 1.71999 36 36 34
0 -0.529595 1.68808 36 37 35
0.00886011 -0.530689 1.69157 37 37 35
0.0177041 -0.530206 1.69003 37 37 35
0.0267887 -0.53485 1.70483 37 37 35
0.0357183 -0.53485 1.70483 37 37 35
0.0435128 -0.521253 1.66149 37 38 36
0.0540537 -0.539604 1.71999 38 39 36
0.0613693 -0.525115 1.6738 37 38 35
0.0721573 -0.540246 1.72203 37 39 35
0.0819037 -0.545083 1.73745 37 39 35
0.092068 -0.551455 1.75776 38 39 35
0.102072 -0.555796 1.7716 39 40 37
0.109205 -0.545083 1.73745 38 39 36
0.118053 -0.543922 1.73375 37 38 35
0.127406 -0.545083 1.73745 37 37 34
0.129194 -0.515885 1.64438 37 37 34
0.142873 -0.53485 1.70483 37 38 35
0.153152 -0.539604 1.71999 38 38 35
0.157401 -0.523765 1.6695 37 38 34
0.169662 -0.53485 1.70483 37 37 34
0.182008 -0.545083 1.73745 38 38 35
0.189188 -0.539604 1.71999 38 39 35
0.199783 -0.543922 1.73375 37 39 35
0.199492 -0.519516 1.65596 38 39 35
0.217945 -0.543922 1.73375 37 39 35
0.223239 -0.53485 1.70483 37 39 35
0.227943 -0.525115 1.6738 37 38 35
0.241098 -0.53485 1.70483 36 37 34
0.250028 -0.53485 1.70483 36 38 34
0.256709 -0.530206 1.69003 37 38 35
0.272431 -0.543922 1.73375 37 38 34
0.279277 -0.539604 1.71999 37 39 35
0.291213 -0.545083 1.73745 37 39 35
0.302713 -0.549437 1.75133 38 39 35
0.309414 -0.545083 1.73745 37 38 34
0.321059 -0.549437 1.75133 37 38 34
0.330232 -0.549437 1.75133 37 39 34
0.333331 -0.539604 1.71999 38 39 34
0.348578 -0.549437 1.75133 37 39 34
0.361892 -0.555796 1.7716 37 39 34
0.360358 -0.539604 1.71999 37 39 34
0.385511 -0.56319 1.79517 36 38 33
0.381403 -0.543922 1.73375 37 38 34
0.390484 -0.543922 1.73375 38 39 35
0.389489 -0.530206 1.69003 38 39 35
0.417567 -0.555796 1.7716 37 39 34
0.414411 -0.539604 1.71999 38 39 34
0.423024 -0.539098 1.71838 39 41 36
0.432429 -0.539604 1.71999 39 40 36
0.429585 -0.525115 1.6738 40 41 36
0.450447 -0.539604 1.71999 39 40 35
0.451454 -0.530206 1.69003 39 40 35
0.47563 -0.547857 1.74629 38 39 35
0.482322 -0.545083 1.73745 38 39 35
0.514175 -0.57032 1.81789 37 39 35
0.491126 -0.53485 1.70483 38 39 35
0.519639 -0.555796 1.7716 38 39 35
0.535955 -0.56319 1.79517 38 39 35
0.539316 -0.55695 1.77528 38 39 35
0.557883 -0.56636 1.80527 37 38 34
0.554332 -0.553375 1.76388 37 38 34
0.583899 -0.573336 1.82751 38 38 35
0.572809 -0.553375 1.76388 37 38 34
0.573326 -0.545083 1.73745 37 38 34
0.59803 -0.559686 1.784 37 38 34
0.585033 -0.539098 1.71838 38 39 35
0.620579 -0.56319 1.79517 38 39 35
0.611408 -0.546584 1.74224 38 39 35
0.639385 -0.56319 1.79517 38 39 35
0.653128 -0.566958 1.80718 38 39 35
0.649549 -0.555796 1.7716 37 39 35
0.66344 -0.559686 1.784 38 40 35
0.676996 -0.56319 1.79517 38 40 35
0.672096 -0.551455 1.75776 37 39 34
0.695801 -0.56319 1.79517 36 37 33
0.705204 -0.56319 1.79517 36 37 32
0.719388 -0.566958 1.80718 36 37 33
0.724009 -0.56319 1.79517 36 37 34
0.721598 -0.554118 1.76625 37 38 34
0.758923 -0.575402 1.8341 37 38 35
0.772697 -0.578523 1.84404 37 38 35
0.755874 -0.558941 1.78162 37 38 35
0.782904 -0.571868 1.82283 37 38 35
0.806705 -0.582154 1.85562 36 38 35
0.795113 -0.566958 1.80718 37 38 35
0.799231 -0.56319 1.79517 37 38 36
0.857126 -0.596963 1.90282 37 39 36
0.785935 -0.541089 1.72472 37 38 35
0.87706 -0.596963 1.90282 38 38 35
0.830529 -0.558941 1.78162 38 39 36
0.8629 -0.574274 1.8305 38 38 36
0.872488 -0.574274 1.8305 37 38 36
0.856761 -0.557793 1.77797 37 38 35
0.918456 -0.59153 1.8855 37 38 35
0.893351 -0.56924 1.81445 37 38 35
0.925912 -0.583778 1.86079 37 38 36
0.942468 -0.588026 1.87433 36 37 35
0.921862 -0.56924 1.81445 36 37 35
0.967836 -0.59153 1.8855 37 38 35
0.964898 -0.583778 1.86079 37 38 36
0.965871 -0.578523 1.84404 37 38 35
1.01615 -0.602614 1.92083 37 38 36
1.02622 -0.602614 1.92083 37 38 36
0.994848 -0.578523 1.84404 36 37 35
1.04634 -0.602614 1.92083 36 37 36
1.03082 -0.588026 1.87433 36 38 36
1.01205 -0.571868 1.82283 36 38 36
1.03348 -0.578523 1.84404 36 37 35
1.13136 -0.627451 2 36 38 36
1.14184 -0.627451 2 36 37 35
1.05024 -0.571868 1.82283 36 37 35
1.11676 -0.602614 1.92083 36 37 35
1.08178 -0.578523 1.84404 36 38 36
1.04037 -0.551455 1.75776 36 38 36
1.07191 -0.56319 1.79517 35 37 35
1.20469 -0.627451 2 35 38 35
1.16707 -0.602614 1.92083 35 37 35
1.14863 -0.588026 1.87433 35 37 35
1.15845 -0.588026 1.87433 36 38 36
1.18106 -0.594467 1.89486 37 38 37
-0.511913 -0.251256 0.814453 38 39 36
-0.521191 -0.25796 0.836183 38 39 36
-0.526089 -0.262591 0.851194 38 38 34
-0.521631 -0.262591 0.851194 37 38 34
-0.512827 -0.260384 0.844042 37 37 34
-0.536317 -0.274679 0.89038 37 38 34
-0.519031 -0.268158 0.869241 37 38 34
-0.524103 -0.273174 0.885502 36 37 34
-0.499339 -0.262591 0.851194 35 37 33
-0.490722 -0.260384 0.844042 36 36 33
-0.50082 -0.268158 0.869241 36 35 33
-0.496267 -0.268158 0.869241 38 36 35
-0.503672 -0.274679 0.89038 38 36 36
-0.459189 -0.252761 0.819331 37 36 36
-0.491636 -0.273174 0.885502 37 35 35
-0.486998 -0.273174 0.885502 37 35 35
-0.463047 -0.262237 0.850047 37 36 35
-0.462739 -0.264607 0.85773 37 36 34
-0.490141 -0.283024 0.917429 36 36 34
-0.485336 -0.283024 0.917429 37 37 34
-0.49716 -0.292818 0.949179 38 38 35
-0.447877 -0.266456 0.863725 38 38 35
-0.47092 -0.283024 0.917429 39 39 36
-0.452372 -0.274679 0.89038 39 39 36
-0.477274 -0.292818 0.949179 39 38 36
-0.454659 -0.28188 0.91372 38 38 35
-0.466293 -0.292168 0.947071 37 37 35
-0.473641 -0.299963 0.972338 38 38 36
-0.429054 -0.274679 0.89038 38 38 36
-0.45032 -0.291462 0.944781 38 38 35
-0.471402 -0.308497 1 39 38 36
-0.440423 -0.291462 0.944781 38 37 35
-0.448176 -0.299963 0.972338 37 36 34
-0.481989 -0.326302 1.05772 39 37 36
-0.45045 -0.308497 1 40 38 37
-0.432897 -0.299963 0.972338 39 37 35
-0.439975 -0.308497 1 38 36 34
-0.434737 -0.308497 1 38 37 35
-0.417079 -0.299576 0.971083 38 37 35
-0.424261 -0.308497 1 38 37 35
-0.447 -0.329094 1.06677 37 36 35
-0.440041 -0.328071 1.06345 37 36 35
-0.420924 -0.317842 1.03029 38 37 35
-0.431722 -0.330229 1.07045 37 37 35
-0.437759 -0.339253 1.0997 37 36 34
-0.406714 -0.319396 1.03533 37 37 35
-0.413475 -0.329094 1.06677 38 38 36
-0.424877 -0.342801 1.1112 37 37 36
-0.390446 -0.319396 1.03533 36 37 35
-0.433581 -0.359678 1.1659 37 37 35
-0.393981 -0.331496 1.07455 37 37 35
-0.431095 -0.367982 1.19282 37 37 35
-0.41526 -0.359678 1.1659 37 36 35
-0.380546 -0.334529 1.08438 37 37 36
-0.421186 -0.375865 1.21838 37 38 36
-0.393554 -0.356609 1.15596 36 37 35
-0.398921 -0.36712 1.19003 36 36 35
-0.397572 -0.371687 1.20483 37 37 36
-0.391261 -0.371687 1.20483 39 39 37
-0.384951 -0.371687 1.20483 37 37 36
-0.399623 -0.392284 1.2716 36 36 35
-0.339061 -0.338476 1.09718 37 36 35
-0.408309 -0.414632 1.34404 37 37 36
-0.394936 -0.408088 1.32283 37 37 36
-0.407358 -0.42844 1.3888 36 37 35
-0.409312 -0.438322 1.42083 37 38 36
-0.388718 -0.423978 1.37433 38 39 37
-0.367222 -0.408088 1.32283 38 39 38
-0.362382 -0.410454 1.3305 38 39 38
-0.335983 -0.388015 1.25776 37 38 36
-0.3653 -0.430311 1.39486 37 37 36
-0.357994 -0.430311 1.39486 37 38 36
-0.377121 -0.462745 1.5 38 38 37
-0.395147 -0.49518 1.60514 37 38 36
-0.373184 -0.477823 1.54887 37 37 36
-0.36354 -0.475819 1.54238 36 37 35
-0.401521 -0.537475 1.74224 36 37 35
-0.390484 -0.534856 1.73375 36 37 35
-0.342678 -0.48055 1.55772 37 37 35
-0.353131 -0.507287 1.64438 38 38 36
-0.336295 -0.49518 1.60514 38 39 36
-0.316395 -0.477823 1.54887 38 39 36
-0.345079 -0.534856 1.73375 38 38 36
-0.325033 -0.517402 1.67717 37 38 36
-0.316248 -0.517402 1.67717 36 37 35
-0.274984 -0.462745 1.5 35 37 35
-0.319692 -0.553803 1.79517 35 38 35
-0.291342 -0.519986 1.68555 36 38 36
-0.285746 -0.525935 1.70483 36 38 36
-0.276817 -0.525935 1.70483 36 38 36
-0.276204 -0.542264 1.75776 36 38 36
-0.268595 -0.54551 1.76828 36 37 35
-0.254269 -0.534856 1.73375 37 37 36
-0.239005 -0.521369 1.69003 36 37 35
-0.228402 -0.517402 1.67717 36 37 35
-0.225224 -0.530611 1.71999 36 37 35
-0.21431 -0.525935 1.70483 36 37 35
-0.208864 -0.534856 1.73375 36 37 35
-0.198197 -0.530611 1.71999 36 37 35
-0.187521 -0.525935 1.70483 36 37 35
-0.181621 -0.534856 1.73375 37 38 36
-0.17254 -0.534856 1.73375 37 38 36
-0.164641 -0.538726 1.74629 36 38 36
-0.14642 -0.507287 1.64438 36 37 35
-0.144143 -0.530611 1.71999 37 37 35
-0.141835 -0.55692 1.80527 36 37 35
-0.126125 -0.530611 1.71999 37 37 35
-0.115181 -0.521844 1.69157 38 38 35
-0.106224 -0.521369 1.69003 38 38 35
-0.0982252 -0.525935 1.70483 38 38 35
-0.0929855 -0.547668 1.77528 38 39 36
-0.0796683 -0.521369 1.69003 38 39 35
-0.0701363 -0.516363 1.6738 38 38 35
-0.062507 -0.525935 1.70483 37 38 34
-0.0544862 -0.534856 1.73375 37 37 34
-0.0454051 -0.534856 1.73375 36 36 34
-0.0354081 -0.521369 1.69003 36 36 34
-0.0265255 -0.520768 1.68808 36 36 34
-0.0177041 -0.521369 1.69003 37 37 35
-0.00892957 -0.525935 1.70483 37 37 35
0 -0.534856 1.73375 37 37 35
0.00914672 -0.538726 1.74629 37 38 36
0.0174051 -0.512565 1.66149 38 38 36
0.0277166 -0.544152 1.76388 37 37 35
0.0362624 -0.533947 1.7308 35 36 34
0.0446478 -0.525935 1.70483 37 38 36
0.0527081 -0.517402 1.67717 38 39 37
0.0635672 -0.534856 1.73375 38 39 36
0.0720715 -0.530611 1.71999 37 38 34
0.0828612 -0.542264 1.75776 36 37 33
0.0910042 -0.535998 1.73745 36 37 33
0.0973724 -0.521369 1.69003 37 38 35
0.107155 -0.525935 1.70483 37 38 35
0.116084 -0.525935 1.70483 37 38 35
0.127406 -0.535998 1.73745 37 38 35
0.136506 -0.535998 1.73745 37 38 35
0.144143 -0.530611 1.71999 38 38 35
0.150485 -0.521369 1.69003 37 38 35
0.160732 -0.525935 1.70483 37 38 34
0.164798 -0.510858 1.65596 38 38 35
0.173471 -0.510858 1.65596 38 39 35
0.187521 -0.525935 1.70483 38 39 35
0.198197 -0.530611 1.71999 37 39 36
0.203597 -0.521369 1.69003 37 38 35
0.216215 -0.530611 1.71999 36 38 35
0.221301 -0.521369 1.69003 37 38 35
0.238501 -0.54028 1.75133 37 39 35
0.239005 -0.521369 1.69003 38 40 35
0.250028 -0.525935 1.70483 38 40 35
0.26602 -0.54028 1.75133 37 39 35
0.275194 -0.54028 1.75133 36 38 34
0.279277 -0.530611 1.71999 36 38 34
0.288286 -0.530611 1.71999 37 39 35
0.292117 -0.521369 1.69003 37 38 35
0.303605 -0.525935 1.70483 37 38 34
0.317836 -0.534856 1.73375 37 38 34
0.344596 -0.563781 1.82751 37 39 35
0.330394 -0.525935 1.70483 38 39 35
0.345816 -0.535998 1.73745 38 40 35
0.360316 -0.544152 1.76388 38 39 35
0.357183 -0.525935 1.70483 37 39 35
0.369021 -0.530113 1.71838 36 38 34
0.381403 -0.534856 1.73375 36 38 33
0.397271 -0.544152 1.76388 37 39 34
0.382913 -0.512565 1.66149 38 39 35
0.415749 -0.544152 1.76388 38 39 35
0.424988 -0.544152 1.76388 37 39 34
0.434226 -0.544152 1.76388 38 40 35
0.451331 -0.553803 1.79517 39 40 35
0.441438 -0.530611 1.71999 39 40 35
0.454051 -0.534856 1.73375 39 40 35
0.455408 -0.525935 1.70483 38 39 35
0.472214 -0.534856 1.73375 38 39 34
0.469158 -0.521369 1.69003 38 39 35
0.504588 -0.550358 1.784 37 39 35
0.51142 -0.547668 1.77528 39 40 36
0.526552 -0.553803 1.79517 39 41 36
0.526615 -0.544152 1.76388 38 40 36
0.522519 -0.530611 1.71999 38 39 35
0.55476 -0.553803 1.79517 39 40 36
0.556757 -0.546533 1.7716 39 40 36
0.56357 -0.544152 1.76388 39 40 36
0.60428 -0.574048 1.86079 38 39 35
0.572105 -0.534856 1.73375 38 39 35
0.571492 -0.525935 1.70483 37 38 35
0.618914 -0.560814 1.81789 37 39 35
0.612432 -0.546533 1.7716 37 39 35
0.633528 -0.55692 1.80527 37 38 35
0.630991 -0.546533 1.7716 37 38 35
0.627929 -0.535998 1.73745 37 39 35
0.649549 -0.546533 1.7716 37 39 34
0.685769 -0.568881 1.84404 37 39 34
0.676996 -0.553803 1.79517 38 39 35
0.677387 -0.546533 1.7716 36 38 33
0.660788 -0.525935 1.70483 36 37 33
0.69051 -0.542264 1.75776 36 37 33
0.699717 -0.542264 1.75776 36 37 33
0.743721 -0.568881 1.84404 36 38 34
0.765756 -0.578226 1.87433 37 38 35
0.758923 -0.565812 1.8341 37 38 35
0.736544 -0.542264 1.75776 37 38 35
0.773356 -0.562337 1.82283 37 38 35
0.805025 -0.578226 1.87433 37 38 35
0.780426 -0.553803 1.79517 36 38 35
0.820823 -0.575536 1.86561 36 38 35
0.778529 -0.539458 1.74867 37 38 36
0.795608 -0.544882 1.76625 38 39 36
0.824782 -0.55837 1.80997 37 38 35
0.827439 -0.553803 1.79517 37 37 35
0.836842 -0.553803 1.79517 37 38 35
0.828612 -0.542264 1.75776 37 37 35
0.878943 -0.568881 1.84404 37 38 35
0.851116 -0.544882 1.76625 37 38 36
0.891663 -0.564703 1.8305 37 38 36
0.901251 -0.564703 1.8305 37 38 36
0.995181 -0.616993 2 37 38 36
0.948084 -0.581671 1.8855 36 37 35
1.01613 -0.616993 2 36 37 35
0.967836 -0.581671 1.8855 37 38 36
1.00418 -0.597419 1.93655 37 37 35
1.04756 -0.616993 2 36 37 35
0.949675 -0.553803 1.79517 37 38 35
0.969381 -0.559753 1.81445 37 38 36
1.03628 -0.592571 1.92083 36 37 36
0.965045 -0.546533 1.7716 36 37 36
0.987286 -0.553803 1.79517 36 38 36
1.06646 -0.592571 1.92083 37 38 36
1.08141 -0.595261 1.92955 37 38 36
1.04314 -0.568881 1.84404 37 38 36
1.14184 -0.616993 2 36 38 35
1.07991 -0.578226 1.87433 35 37 35
1.0437 -0.553803 1.79517 36 37 36
1.17327 -0.616993 2 36 38 36
1.18374 -0.616993 2 36 37 36
1.19422 -0.616993 2 35 37 35
1.26802 -0.649428 2.10514 35 37 36
1.15129 -0.584559 1.89486 36 38 36
1.22564 -0.616993 2 36 38 37
1.13973 -0.568881 1.84404 37 39 37
1.2466 -0.616993 2 37 38 36
-0.480128 -0.231661 0.763883 39 40 37
-0.484904 -0.235932 0.777965 39 40 37
-0.517654 -0.254001 0.837546 38 38 35
-0.525636 -0.260122 0.85773 37 38 34
-0.483131 -0.241149 0.795167 38 38 34
-0.489055 -0.246228 0.811916 37 38 34
-0.515738 -0.26194 0.863725 36 37 34
-0.487009 -0.249538 0.822829 35 37 33
-0.491332 -0.254001 0.837546 35 36 33
-0.480347 -0.250559 0.826197 35 35 33
-0.489761 -0.257792 0.850047 37 35 34
-0.478171 -0.254001 0.837546 38 36 36
-0.473785 -0.254001 0.837546 38 36 36
-0.514168 -0.278227 0.917429 38 36 36
-0.496834 -0.271383 0.894863 37 36 35
-0.492147 -0.271383 0.894863 36 35 34
-0.489711 -0.272637 0.898997 36 35 34
-0.46895 -0.263613 0.869241 37 36 35
-0.464397 -0.263613 0.869241 37 37 35
-0.485336 -0.278227 0.917429 37 37 35
-0.496056 -0.287216 0.947071 38 38 35
-0.491096 -0.287216 0.947071 38 38 35
-0.474277 -0.28021 0.923969 38 38 35
-0.46423 -0.277102 0.91372 38 38 35
-0.476214 -0.287216 0.947071 38 37 35
-0.484399 -0.295228 0.973489 37 37 35
-0.451699 -0.278227 0.917429 38 38 35
-0.462359 -0.287855 0.949179 39 38 36
-0.440301 -0.277102 0.91372 38 38 35
-0.464508 -0.295549 0.974549 37 37 35
-0.471402 -0.303268 1 39 38 36
-0.466164 -0.303268 1 40 39 37
-0.460926 -0.303268 1 39 38 36
-0.430525 -0.286522 0.944781 38 36 35
-0.45045 -0.303268 1 38 37 35
-0.457528 -0.311657 1.02766 39 37 35
-0.465368 -0.320771 1.05772 38 37 35
-0.434737 -0.303268 1 38 37 35
-0.456751 -0.322511 1.06345 38 37 36
-0.438464 -0.31342 1.03348 37 36 34
-0.445611 -0.322511 1.06345 37 36 34
-0.42632 -0.312455 1.03029 36 36 34
-0.437329 -0.324632 1.07045 37 36 35
-0.41756 -0.313983 1.03533 37 37 35
-0.453488 -0.345486 1.13921 37 37 35
-0.447521 -0.345486 1.13921 38 38 36
-0.444619 -0.347884 1.14712 38 38 36
-0.424877 -0.336991 1.1112 38 38 36
-0.393103 -0.31612 1.04238 36 36 35
-0.415764 -0.339052 1.118 36 36 34
-0.423827 -0.350565 1.15596 37 37 35
-0.425439 -0.356998 1.17717 38 38 36
-0.400929 -0.341378 1.12567 37 37 35
-0.422815 -0.365387 1.20483 37 38 36
-0.403047 -0.353582 1.1659 37 37 36
-0.400776 -0.356998 1.17717 37 37 35
-0.413576 -0.374157 1.23375 36 36 35
-0.412916 -0.379489 1.25133 36 36 35
-0.395659 -0.369494 1.21838 36 36 35
-0.390447 -0.370604 1.22203 36 36 35
-0.431909 -0.416791 1.37433 36 36 35
-0.392962 -0.385635 1.2716 37 36 35
-0.408309 -0.407605 1.34404 37 37 36
-0.386678 -0.392783 1.29517 38 38 37
-0.397624 -0.411115 1.35562 37 38 36
-0.406095 -0.427506 1.40967 37 37 36
-0.404336 -0.433538 1.42955 37 38 36
-0.376323 -0.411115 1.35562 37 37 36
-0.408548 -0.454902 1.5 37 38 37
-0.387636 -0.44008 1.45113 37 38 36
-0.392835 -0.454902 1.5 37 37 36
-0.384978 -0.454902 1.5 37 38 37
-0.391632 -0.472405 1.55772 38 38 37
-0.395147 -0.486787 1.60514 37 38 37
-0.396196 -0.498689 1.64438 37 38 36
-0.383171 -0.493012 1.62567 36 37 36
-0.335928 -0.44205 1.45762 36 37 36
-0.370357 -0.498689 1.64438 37 37 35
-0.342678 -0.472405 1.55772 37 38 36
-0.349111 -0.493012 1.62567 38 39 37
-0.351387 -0.508632 1.67717 38 39 36
-0.324864 -0.482297 1.59033 38 39 37
-0.31948 -0.486787 1.60514 38 39 36
-0.335998 -0.525791 1.73375 37 38 36
-0.316248 -0.508632 1.67717 36 38 35
-0.291545 -0.482297 1.59033 36 38 35
-0.294901 -0.502199 1.65596 36 38 36
-0.294676 -0.517021 1.70483 37 39 36
-0.278482 -0.503878 1.66149 37 39 36
-0.274413 -0.512532 1.69003 37 39 37
-0.272431 -0.525791 1.73375 37 39 37
-0.254756 -0.508632 1.67717 37 38 36
-0.248083 -0.513 1.69157 37 38 36
-0.246962 -0.529595 1.74629 37 38 36
-0.234233 -0.521617 1.71999 37 38 36
-0.228668 -0.529595 1.74629 36 37 35
-0.217945 -0.525791 1.73375 36 37 35
-0.210982 -0.531123 1.75133 35 36 34
-0.19645 -0.517021 1.70483 36 37 35
-0.189188 -0.521617 1.71999 36 38 35
-0.184136 -0.533073 1.75776 37 38 36
-0.17117 -0.521617 1.71999 37 38 36
-0.169249 -0.544417 1.79517 37 38 36
-0.150311 -0.511942 1.68808 36 37 35
-0.139241 -0.503878 1.66149 37 38 35
-0.131506 -0.507611 1.6738 37 37 35
-0.125014 -0.517021 1.70483 37 38 35
-0.120105 -0.534929 1.76388 38 39 36
-0.108107 -0.521617 1.71999 38 38 35
-0.0982252 -0.517021 1.70483 38 38 35
-0.0885203 -0.512532 1.69003 38 39 35
-0.0831497 -0.534929 1.76388 38 39 35
-0.0698053 -0.505216 1.6659 38 38 35
-0.0613693 -0.507611 1.6738 37 38 34
-0.0531122 -0.512532 1.69003 37 38 35
-0.0442602 -0.512532 1.69003 37 37 34
-0.0364017 -0.526913 1.73745 37 37 34
-0.0267887 -0.517021 1.70483 37 37 35
-0.0183462 -0.531123 1.75133 37 37 35
-0.00900894 -0.521617 1.71999 37 38 35
0 -0.525791 1.73375 38 38 36
0.0090005 -0.521128 1.71838 38 38 36
0.0180179 -0.521617 1.71999 38 38 36
0.0270268 -0.521617 1.71999 37 37 35
0.0357183 -0.517021 1.70483 37 38 36
0.0433679 -0.502199 1.65596 37 38 36
0.053051 -0.511942 1.68808 37 38 36
0.0630626 -0.521617 1.71999 38 39 36
0.072004 -0.521128 1.71838 37 38 34
0.0789033 -0.507611 1.6738 34 35 31
0.0900894 -0.521617 1.71999 35 36 32
0.0998913 -0.525791 1.73375 36 37 33
0.105204 -0.507611 1.6738 37 38 34
0.113971 -0.507611 1.6738 37 38 35
0.122739 -0.507611 1.6738 37 38 35
0.140163 -0.54103 1.784 38 38 35
0.142873 -0.517021 1.70483 38 38 35
0.153152 -0.521617 1.71999 37 38 35
0.164641 -0.529595 1.74629 38 39 36
0.168189 -0.512532 1.69003 39 40 36
0.181621 -0.525791 1.73375 38 39 35
0.184478 -0.508632 1.67717 38 39 35
0.203255 -0.534929 1.76388 37 38 35
0.213867 -0.538385 1.77528 36 38 34
0.222703 -0.537269 1.7716 36 38 35
0.221301 -0.512532 1.69003 36 38 34
0.234233 -0.521617 1.71999 37 39 35
0.243241 -0.521617 1.71999 39 40 37
0.254269 -0.525791 1.73375 39 40 36
0.258957 -0.517021 1.70483 38 39 35
0.277166 -0.534929 1.76388 36 38 34
0.279016 -0.521128 1.71838 35 37 33
0.288286 -0.521617 1.71999 36 38 34
0.294676 -0.517021 1.70483 37 38 35
0.295887 -0.503878 1.66149 36 38 34
0.306846 -0.507611 1.6738 36 38 34
0.342783 -0.551309 1.81789 37 39 35
0.333728 -0.522238 1.72203 37 39 35
0.336377 -0.512532 1.69003 37 39 35
0.362643 -0.538385 1.77528 38 39 35
0.357183 -0.517021 1.70483 37 39 35
0.372322 -0.525791 1.73375 37 39 34
0.380755 -0.524897 1.7308 36 38 33
0.387385 -0.521617 1.71999 36 37 33
0.40651 -0.534929 1.76388 37 38 34
0.40183 -0.517021 1.70483 38 40 35
0.420749 -0.529595 1.74629 38 39 35
0.441928 -0.544417 1.79517 38 39 35
0.44031 -0.531123 1.75133 38 39 34
0.441438 -0.521617 1.71999 38 39 34
0.480877 -0.556855 1.83618 38 39 34
0.476555 -0.54103 1.784 38 39 34
0.488941 -0.544417 1.79517 38 38 34
0.486175 -0.531123 1.75133 38 39 35
0.490376 -0.525791 1.73375 38 39 36
0.491126 -0.517021 1.70483 39 40 36
0.517376 -0.534929 1.76388 39 40 36
0.533118 -0.541535 1.78567 38 40 36
0.545358 -0.544417 1.79517 39 40 36
0.545093 -0.534929 1.76388 39 40 36
0.574327 -0.554225 1.82751 39 40 36
0.549546 -0.521617 1.71999 38 39 36
0.579342 -0.54103 1.784 38 39 35
0.582048 -0.534929 1.76388 37 38 35
0.582427 -0.526913 1.73745 37 38 34
0.611177 -0.544417 1.79517 37 38 34
0.624731 -0.548059 1.80718 37 38 35
0.619004 -0.534929 1.76388 37 38 34
0.630991 -0.537269 1.7716 37 38 34
0.669647 -0.56192 1.85288 37 38 35
0.649549 -0.537269 1.7716 37 38 34
0.651291 -0.531123 1.75133 37 38 34
0.695427 -0.559239 1.84404 37 38 34
0.695088 -0.551309 1.81789 36 37 33
0.695801 -0.544417 1.79517 36 37 33
0.687984 -0.531123 1.75133 36 37 33
0.74073 -0.564318 1.86079 36 38 34
0.718547 -0.54031 1.78162 37 38 35
0.75338 -0.559239 1.84404 36 38 35
0.754261 -0.552806 1.82283 36 38 34
0.746543 -0.54031 1.78162 36 38 34
0.773356 -0.552806 1.82283 36 38 34
0.765206 -0.54031 1.78162 37 38 35
0.757415 -0.528365 1.74224 36 38 35
0.816424 -0.562749 1.85562 36 37 34
0.811546 -0.552806 1.82283 36 37 34
0.821094 -0.552806 1.82283 37 38 35
0.854112 -0.568426 1.87433 37 38 35
0.840189 -0.552806 1.82283 37 37 34
0.843742 -0.548906 1.80997 37 37 35
0.87474 -0.562749 1.85562 37 37 35
0.906959 -0.577064 1.90282 37 38 35
0.86505 -0.544417 1.79517 37 38 35
0.903898 -0.562749 1.85562 38 38 36
0.850983 -0.524168 1.7284 38 38 36
0.910839 -0.555132 1.8305 38 39 37
0.948084 -0.571812 1.8855 37 38 36
0.936895 -0.559239 1.84404 36 37 35
0.962103 -0.568426 1.87433 36 37 35
1.00055 -0.585172 1.92955 36 36 34
1.01432 -0.587293 1.93655 36 37 35
0.97553 -0.559239 1.84404 37 38 36
0.994137 -0.564318 1.86079 37 38 36
0.994848 -0.559239 1.84404 36 37 36
1.08946 -0.606536 2 36 37 36
1.02338 -0.564318 1.86079 36 37 36
1.0713 -0.585172 1.92955 37 38 36
1.07652 -0.582527 1.92083 37 39 37
1.08026 -0.57914 1.90967 37 39 36
1.09027 -0.57914 1.90967 37 38 36
1.05024 -0.552806 1.82283 36 38 36
1.0437 -0.544417 1.79517 35 37 35
1.12682 -0.582527 1.92083 36 37 36
1.07888 -0.552806 1.82283 36 38 36
1.08843 -0.552806 1.82283 36 37 36
1.20469 -0.606536 2 35 37 36
1.15129 -0.574651 1.89486 36 38 37
1.29007 -0.638421 2.10514 37 39 37
1.23612 -0.606536 2 36 38 36
1.2466 -0.606536 2 36 38 36
-0.511913 -0.242739 0.814453 36 37 34
-0.48323 -0.231064 0.775279 38 37 35
-0.496851 -0.23959 0.803887 38 37 34
-0.525636 -0.255637 0.85773 38 38 34
-0.540981 -0.265368 0.89038 38 38 35
-0.520262 -0.257424 0.863725 37 38 34
-0.515738 -0.257424 0.863725 36 37 33
-0.507666 -0.255637 0.85773 36 37 34
-0.538194 -0.27343 0.917429 36 37 35
-0.49868 -0.255637 0.85773 36 36 34
-0.482558 -0.249621 0.837546 37 35 34
-0.493117 -0.257424 0.863725 38 36 36
-0.465459 -0.245235 0.822829 38 36 36
-0.499008 -0.265368 0.89038 38 37 36
-0.509362 -0.27343 0.917429 38 37 36
-0.506429 -0.274444 0.920833 37 36 35
-0.470497 -0.257424 0.863725 36 35 34
-0.492946 -0.272325 0.91372 37 36 34
-0.493635 -0.275379 0.923969 38 37 35
-0.488796 -0.275379 0.923969 38 37 35
-0.496056 -0.282264 0.947071 37 37 34
-0.491096 -0.282264 0.947071 37 37 34
-0.486135 -0.282264 0.947071 37 37 34
-0.481175 -0.282264 0.947071 38 37 34
-0.466055 -0.276243 0.926867 37 37 34
-0.472302 -0.282892 0.949179 37 37 35
-0.454919 -0.275379 0.923969 38 37 35
-0.460217 -0.281582 0.944781 38 38 36
-0.458326 -0.283473 0.951125 38 38 36
-0.489275 -0.30594 1.02651 38 38 36
-0.458905 -0.290138 0.973489 39 39 36
-0.466164 -0.298039 1 40 39 37
-0.448176 -0.289795 0.972338 40 39 37
-0.481989 -0.315241 1.05772 38 37 35
-0.43799 -0.289795 0.972338 37 35 34
-0.431726 -0.289011 0.969708 37 36 35
-0.439975 -0.298039 1 38 37 35
-0.459828 -0.315241 1.05772 40 39 37
-0.440885 -0.30594 1.02651 39 39 37
-0.424261 -0.298039 1 38 37 36
-0.431717 -0.307067 1.03029 37 36 35
-0.45729 -0.329374 1.10514 37 36 35
-0.420924 -0.307067 1.03029 38 37 35
-0.428901 -0.31695 1.06345 39 38 36
-0.437759 -0.327752 1.0997 39 38 36
-0.423934 -0.321634 1.07917 38 38 36
-0.436305 -0.335493 1.12567 38 38 36
-0.435587 -0.339529 1.13921 37 37 35
-0.435937 -0.344521 1.15596 36 36 34
-0.426594 -0.341886 1.14712 35 35 34
-0.433414 -0.352314 1.18211 36 36 34
-0.427222 -0.352314 1.18211 36 36 35
-0.424848 -0.355508 1.19282 36 36 34
-0.405663 -0.344521 1.15596 37 37 35
-0.403047 -0.347485 1.1659 36 36 35
-0.420039 -0.367706 1.23375 36 37 35
-0.403883 -0.359087 1.20483 36 36 34
-0.392688 -0.354676 1.19003 36 35 34
-0.400652 -0.367706 1.23375 36 35 34
-0.413813 -0.386011 1.29517 36 36 35
-0.393253 -0.372946 1.25133 36 36 35
-0.383889 -0.370236 1.24224 37 37 36
-0.386302 -0.378986 1.2716 37 37 36
-0.410313 -0.409605 1.37433 37 37 36
-0.403115 -0.409605 1.37433 37 38 37
-0.411824 -0.426063 1.42955 37 38 37
-0.388718 -0.409605 1.37433 37 37 36
-0.416405 -0.447059 1.5 37 37 36
-0.369223 -0.404027 1.35562 37 38 37
-0.387636 -0.432492 1.45113 37 38 37
-0.377719 -0.429857 1.44228 37 38 36
-0.372434 -0.432492 1.45113 37 38 37
-0.389409 -0.461625 1.54887 38 38 37
-0.357233 -0.432492 1.45113 38 38 37
-0.375314 -0.46426 1.55772 38 38 37
-0.36354 -0.459689 1.54238 37 38 37
-0.358996 -0.46426 1.55772 37 38 36
-0.383971 -0.508107 1.70483 37 37 36
-0.340733 -0.461625 1.54887 37 38 36
-0.353131 -0.490091 1.64438 37 38 36
-0.344518 -0.490091 1.64438 37 37 35
-0.335905 -0.490091 1.64438 37 38 36
-0.349858 -0.523882 1.75776 38 39 36
-0.325033 -0.499863 1.67717 37 38 36
-0.316248 -0.499863 1.67717 37 38 36
-0.325942 -0.529903 1.77797 36 38 35
-0.314543 -0.526412 1.76625 37 38 36
-0.300314 -0.517829 1.73745 37 39 37
-0.285746 -0.508107 1.70483 37 39 37
-0.288255 -0.529103 1.77528 38 39 37
-0.263966 -0.50067 1.67988 39 40 38
-0.26335 -0.516725 1.73375 38 38 36
-0.252014 -0.512143 1.71838 37 37 35
-0.243241 -0.512624 1.71999 37 38 35
-0.236107 -0.516725 1.73375 37 38 36
-0.227026 -0.516725 1.73375 37 38 36
-0.21431 -0.508107 1.70483 37 38 36
-0.20538 -0.508107 1.70483 36 37 35
-0.194745 -0.503695 1.69003 36 37 35
-0.187521 -0.508107 1.70483 36 37 35
-0.182934 -0.520464 1.74629 36 37 35
-0.173788 -0.520464 1.74629 37 38 36
-0.160732 -0.508107 1.70483 37 39 36
-0.150485 -0.503695 1.69003 37 38 35
-0.140273 -0.498859 1.6738 37 38 35
-0.133943 -0.508107 1.70483 37 38 35
-0.127134 -0.516725 1.73375 37 38 35
-0.112756 -0.49354 1.65596 37 38 35
-0.110077 -0.521966 1.75133 37 37 34
-0.0982252 -0.508107 1.70483 37 37 34
-0.0908103 -0.516725 1.73375 37 38 35
-0.0810045 -0.512143 1.71838 37 38 35
-0.0720715 -0.512624 1.71999 37 37 34
-0.060918 -0.49519 1.66149 37 38 35
-0.0544862 -0.516725 1.73375 38 38 35
-0.0450447 -0.512624 1.71999 37 37 35
-0.0351387 -0.499863 1.67717 36 37 34
-0.0270015 -0.512143 1.71838 36 37 34
-0.0178591 -0.508107 1.70483 36 36 34
-0.00892957 -0.508107 1.70483 37 38 35
0 -0.512624 1.71999 38 39 36
0.00892957 -0.508107 1.70483 38 38 36
0.0178591 -0.508107 1.70483 37 37 35
0.0272431 -0.516725 1.73375 38 39 37
0.0360358 -0.512624 1.71999 39 40 38
0.0450447 -0.512624 1.71999 37 38 36
0.0531122 -0.503695 1.69003 35 36 34
0.0642118 -0.521966 1.75133 37 38 35
0.0693886 -0.49354 1.65596 37 38 35
0.0796683 -0.503695 1.69003 36 37 33
0.0910042 -0.517829 1.73745 35 36 32
0.0990984 -0.512624 1.71999 36 37 33
0.107155 -0.508107 1.70483 37 38 34
0.115076 -0.503695 1.69003 37 38 34
0.126125 -0.512624 1.71999 37 38 34
0.137201 -0.520464 1.74629 38 39 35
0.142873 -0.508107 1.70483 38 39 35
0.157061 -0.525706 1.76388 39 40 36
0.158124 -0.499863 1.67717 39 40 36
0.17117 -0.512624 1.71999 37 38 35
0.18251 -0.519255 1.74224 36 37 34
0.194016 -0.525706 1.76388 36 38 35
0.19645 -0.508107 1.70483 37 38 35
0.201642 -0.498859 1.6738 37 38 35
0.212449 -0.503695 1.69003 37 39 36
0.225013 -0.512143 1.71838 36 38 35
0.230153 -0.503695 1.69003 36 38 34
0.233454 -0.491998 1.65078 38 39 35
0.247857 -0.503695 1.69003 38 40 35
0.269658 -0.529103 1.77528 37 39 35
0.270268 -0.512624 1.71999 36 38 34
0.274413 -0.503695 1.69003 36 38 34
0.29354 -0.521966 1.75133 37 39 35
0.302713 -0.521966 1.75133 37 38 35
0.314121 -0.525706 1.76388 37 38 35
0.32336 -0.525706 1.76388 37 39 35
0.316248 -0.499863 1.67717 38 39 35
0.333331 -0.512624 1.71999 38 39 35
0.347576 -0.520464 1.74629 37 39 35
0.35102 -0.512143 1.71838 37 38 34
0.357183 -0.508107 1.70483 37 39 34
0.372322 -0.516725 1.73375 37 39 34
0.394914 -0.53503 1.79517 37 39 34
0.38982 -0.515847 1.7308 37 38 34
0.409136 -0.529103 1.77528 37 38 34
0.418435 -0.529103 1.77528 38 39 35
0.414411 -0.512624 1.71999 37 39 34
0.441928 -0.53503 1.79517 38 39 35
0.435889 -0.516725 1.73375 38 39 35
0.455629 -0.529103 1.77528 38 39 34
0.454051 -0.516725 1.73375 37 38 33
0.477001 -0.532198 1.78567 37 38 33
0.472214 -0.516725 1.73375 37 37 33
0.501149 -0.538042 1.80527 38 39 35
0.490376 -0.516725 1.73375 38 40 36
0.522705 -0.540778 1.81445 39 40 36
0.509623 -0.517829 1.73745 38 39 36
0.535955 -0.53503 1.79517 38 39 35
0.555183 -0.54467 1.82751 38 39 35
0.551309 -0.531702 1.784 38 39 35
0.564163 -0.53503 1.79517 38 39 35
0.55795 -0.520464 1.74629 38 39 35
0.548826 -0.503695 1.69003 38 39 36
0.588686 -0.531702 1.784 38 39 35
0.581186 -0.516725 1.73375 37 38 35
0.611177 -0.53503 1.79517 37 38 35
0.609765 -0.525706 1.76388 38 39 36
0.593086 -0.503695 1.69003 37 39 35
0.618828 -0.517829 1.73745 37 39 35
0.648788 -0.53503 1.79517 37 39 35
0.682251 -0.554589 1.86079 37 39 35
0.67206 -0.53861 1.80718 38 39 35
0.668108 -0.528006 1.7716 38 39 35
0.695088 -0.541804 1.81789 37 39 34
0.691473 -0.531702 1.784 37 38 34
0.705204 -0.53503 1.79517 36 37 34
0.734062 -0.549597 1.84404 36 38 34
0.714504 -0.528006 1.7716 36 38 34
0.711788 -0.519255 1.74224 36 38 34
0.730849 -0.526412 1.76625 36 38 35
0.736544 -0.523882 1.75776 36 38 35
0.798462 -0.560911 1.882 37 39 35
0.80128 -0.556026 1.86561 37 38 35
0.780426 -0.53503 1.79517 36 38 34
0.82466 -0.558625 1.87433 36 37 34
0.793202 -0.530994 1.78162 36 37 34
0.815302 -0.539442 1.80997 36 37 34
0.811865 -0.530994 1.78162 37 37 35
0.873392 -0.564744 1.89486 37 37 34
0.843742 -0.539442 1.80997 37 37 34
0.846245 -0.53503 1.79517 37 38 35
0.833484 -0.521172 1.74867 38 38 35
0.894179 -0.553046 1.85562 37 38 35
0.89826 -0.549597 1.84404 37 38 35
0.956289 -0.578877 1.94228 37 38 35
0.884699 -0.529903 1.77797 37 38 35
0.927237 -0.549597 1.84404 36 37 35
0.983895 -0.577168 1.93655 36 37 35
0.955151 -0.554589 1.86079 35 36 34
0.971921 -0.558625 1.87433 36 37 35
1.01733 -0.578877 1.94228 37 38 36
1.02077 -0.575083 1.92955 37 38 36
0.977953 -0.54556 1.8305 37 38 36
1.04098 -0.575083 1.92955 36 37 36
0.977883 -0.53503 1.79517 36 37 36
1.0564 -0.572484 1.92083 36 38 36
1.06646 -0.572484 1.92083 36 38 36
1.07652 -0.572484 1.92083 37 39 36
1.08658 -0.572484 1.92083 37 39 36
1.09027 -0.569155 1.90967 36 38 36
1.02072 -0.528006 1.7716 36 38 36
1.16279 -0.596078 2 35 37 35
1.0531 -0.53503 1.79517 35 37 35
1.18374 -0.596078 2 36 38 36
1.14028 -0.569155 1.90967 36 38 36
1.05878 -0.523882 1.75776 36 38 37
1.21517 -0.596078 2 37 39 37
1.04476 -0.508107 1.70483 36 38 36
1.23612 -0.596078 2 35 37 35
1.16827 -0.558625 1.87433 36 37 35
-0.535006 -0.249239 0.851194 37 36 34
-0.512867 -0.240933 0.822829 37 36 34
-0.526089 -0.249239 0.851194 37 36 33
-0.487296 -0.232833 0.795167 37 37 33
-0.488429 -0.235387 0.803887 38 37 34
-0.536317 -0.260713 0.89038 37 38 34
-0.515738 -0.252908 0.863725 36 37 34
-0.517493 -0.256014 0.874334 36 37 34
-0.498666 -0.248903 0.850047 37 38 35
-0.486945 -0.245242 0.837546 38 38 35
-0.497642 -0.252908 0.863725 38 36 35
-0.493117 -0.252908 0.863725 38 37 36
-0.506208 -0.262025 0.894863 38 37 36
-0.487161 -0.254523 0.869241 38 37 36
-0.482608 -0.254523 0.869241 38 37 36
-0.480856 -0.256014 0.874334 38 37 36
-0.485017 -0.260713 0.89038 37 36 35
-0.482772 -0.262025 0.894863 37 36 34
-0.473084 -0.259284 0.885502 37 36 34
-0.483374 -0.267547 0.91372 38 37 35
-0.470876 -0.263236 0.898997 38 37 34
-0.491096 -0.277312 0.947071 38 37 34
-0.45122 -0.257395 0.87905 38 37 35
-0.467844 -0.26963 0.920833 38 38 35
-0.475063 -0.276642 0.944781 37 37 34
-0.472302 -0.277929 0.949179 36 36 34
-0.480303 -0.285644 0.975527 36 36 34
-0.487115 -0.29281 1 37 37 35
-0.457388 -0.277929 0.949179 38 37 35
-0.476639 -0.29281 1 38 38 36
-0.458905 -0.285048 0.973489 38 38 36
-0.453269 -0.284711 0.972338 38 38 36
-0.449195 -0.285358 0.974549 38 37 36
-0.468293 -0.30091 1.02766 37 36 35
-0.437425 -0.284343 0.971083 38 37 35
-0.457528 -0.30091 1.02766 38 37 36
-0.452145 -0.30091 1.02766 39 38 37
-0.434737 -0.29281 1 41 40 38
-0.453216 -0.308979 1.05522 40 39 38
-0.424261 -0.29281 1 38 37 36
-0.433051 -0.302612 1.03348 37 36 35
-0.440041 -0.31139 1.06345 37 37 35
-0.434471 -0.31139 1.06345 39 38 37
-0.433379 -0.314641 1.07455 40 39 37
-0.411398 -0.302612 1.03348 39 38 37
-0.43007 -0.320565 1.09479 38 38 36
-0.414902 -0.313438 1.07045 38 38 36
-0.435587 -0.333572 1.13921 37 37 35
-0.435937 -0.338477 1.15596 35 36 34
-0.461968 -0.36374 1.24224 35 35 34
-0.393981 -0.314641 1.07455 35 35 34
-0.421367 -0.341389 1.1659 35 35 34
-0.429125 -0.352788 1.20483 36 36 35
-0.41762 -0.348453 1.19003 37 37 35
-0.406942 -0.344688 1.17717 37 37 35
-0.414804 -0.356753 1.21838 37 37 36
-0.421626 -0.368286 1.25776 36 36 35
-0.415038 -0.368286 1.25776 36 36 35
-0.420597 -0.379238 1.29517 36 36 35
-0.390447 -0.357824 1.22203 38 38 36
-0.400779 -0.373415 1.27528 38 37 36
-0.41292 -0.391248 1.33618 38 38 37
-0.393462 -0.379238 1.29517 37 37 36
-0.410313 -0.402419 1.37433 36 36 35
-0.427544 -0.426807 1.45762 36 37 36
-0.418038 -0.424905 1.45113 37 38 37
-0.383424 -0.396938 1.35562 37 38 37
-0.391328 -0.412765 1.40967 36 37 36
-0.383944 -0.412765 1.40967 37 38 36
-0.421839 -0.462397 1.57917 38 39 37
-0.403933 -0.451625 1.54238 37 38 37
-0.397522 -0.453527 1.54887 37 37 36
-0.391632 -0.456115 1.55772 37 38 36
-0.410992 -0.488847 1.6695 38 38 37
-0.396196 -0.481493 1.64438 38 38 37
-0.367155 -0.456115 1.55772 37 38 37
-0.366513 -0.465667 1.59033 37 38 36
-0.337838 -0.439216 1.5 37 37 35
-0.367269 -0.488847 1.6695 37 37 36
-0.372322 -0.50766 1.73375 37 37 35
-0.357183 -0.499193 1.70483 37 37 35
-0.335905 -0.481493 1.64438 37 37 35
-0.339324 -0.499193 1.70483 37 38 36
-0.347901 -0.525644 1.79517 37 38 35
-0.335254 -0.520607 1.77797 36 37 35
-0.316855 -0.506094 1.7284 36 37 35
-0.300622 -0.494288 1.68808 37 38 36
-0.287185 -0.486503 1.66149 37 39 36
-0.283523 -0.49531 1.69157 37 39 36
-0.285411 -0.514691 1.75776 38 39 36
-0.274402 -0.511333 1.74629 38 38 36
-0.254756 -0.491093 1.67717 38 39 36
-0.248083 -0.49531 1.69157 37 38 36
-0.249449 -0.516483 1.76388 37 37 35
-0.238501 -0.512808 1.75133 37 37 35
-0.229328 -0.512808 1.75133 36 37 35
-0.210409 -0.490107 1.6738 36 38 35
-0.208864 -0.50766 1.73375 36 37 35
-0.19645 -0.499193 1.70483 36 37 34
-0.189011 -0.503158 1.71838 36 37 35
-0.180179 -0.50363 1.71999 36 38 35
-0.161783 -0.476012 1.62567 36 38 35
-0.160732 -0.499193 1.70483 36 38 35
-0.14904 -0.490107 1.6738 36 37 34
-0.141633 -0.494859 1.69003 37 37 35
-0.137597 -0.512808 1.75133 37 38 35
-0.125014 -0.499193 1.70483 37 37 35
-0.113971 -0.490107 1.6738 36 37 34
-0.108787 -0.506797 1.7308 36 37 34
-0.0982252 -0.499193 1.70483 36 36 33
-0.0910042 -0.508744 1.73745 36 37 34
-0.0803661 -0.499193 1.70483 37 37 34
-0.0726482 -0.50766 1.73375 37 37 34
-0.0630626 -0.50363 1.71999 37 37 34
-0.0527081 -0.491093 1.67717 37 37 35
-0.0454051 -0.50766 1.73375 37 38 35
-0.0350681 -0.490107 1.6738 36 37 34
-0.0278957 -0.51982 1.77528 36 37 34
-0.0185971 -0.51982 1.77528 36 37 34
-0.00886011 -0.49531 1.69157 37 38 35
0 -0.481493 1.64438 37 38 35
0.00892957 -0.499193 1.70483 37 38 35
0.0177041 -0.494859 1.69003 38 38 35
0.0267887 -0.499193 1.70483 38 38 36
0.0354081 -0.494859 1.69003 37 38 36
0.0436283 -0.487794 1.6659 37 38 35
0.0535774 -0.499193 1.70483 37 38 35
0.0619642 -0.494859 1.69003 38 38 35
0.0733849 -0.512808 1.75133 38 39 35
0.0789033 -0.490107 1.6738 37 38 34
0.0892957 -0.499193 1.70483 36 37 33
0.0982252 -0.499193 1.70483 37 37 33
0.110077 -0.512808 1.75133 37 38 34
0.116084 -0.499193 1.70483 37 38 34
0.129344 -0.516483 1.76388 37 38 34
0.135134 -0.50363 1.71999 38 39 35
0.142873 -0.499193 1.70483 38 39 35
0.14904 -0.490107 1.6738 39 40 36
0.162161 -0.50363 1.71999 39 40 36
