ply
format ascii 1.0
element vertex 1362
property float x
property float y
property float z
property uchar red
property uchar green
property uchar blue
end_header
0.175694 0.114004 1.67717 38 37 35
0.182754 0.112938 1.66149 37 36 34
0.194922 0.114983 1.69157 37 36 34
0.20069 0.113238 1.6659 37 36 34
0.208166 0.112562 1.65596 37 36 34
0.215324 0.111775 1.64438 37 37 35
0.223937 0.111775 1.64438 37 37 35
0.234969 0.112938 1.66149 37 37 35
0.242101 0.11221 1.65078 36 37 34
0.254756 0.114004 1.67717 37 37 34
0.259394 0.11221 1.65078 37 38 35
0.265378 0.111096 1.63439 36 36 33
0.276687 0.11221 1.65078 35 35 32
0.301842 0.118702 1.74629 35 35 32
0.308755 0.11785 1.73375 35 35 32
0.305398 0.113238 1.6659 35 35 32
0.306537 0.110503 1.62567 35 36 33
0.32438 0.113775 1.6738 36 36 34
0.34234 0.116914 1.71999 36 36 34
0.337212 0.11221 1.65078 36 36 34
0.357183 0.115884 1.70483 36 36 34
0.366112 0.115884 1.70483 36 36 34
0.375042 0.115884 1.70483 36 37 35
0.380637 0.114878 1.69003 36 36 35
0.382913 0.112938 1.66149 36 36 34
0.397883 0.114746 1.68808 36 37 34
0.407565 0.114983 1.69157 36 36 34
0.416046 0.114878 1.69003 35 36 33
0.41503 0.11221 1.65078 35 35 32
0.437549 0.115884 1.70483 35 35 33
0.438352 0.113775 1.6738 35 35 33
0.448019 0.114004 1.67717 35 36 34
0.449616 0.11221 1.65078 35 35 34
0.473267 0.115884 1.70483 36 36 34
0.490376 0.11785 1.73375 36 36 35
0.482187 0.113775 1.6738 36 36 35
0.500056 0.115884 1.70483 37 36 35
0.530017 0.120673 1.77528 37 36 35
0.533994 0.119482 1.75776 36 35 34
0.541214 0.119045 1.75133 35 35 33
0.548803 0.118702 1.74629 35 35 34
0.544704 0.115884 1.70483 36 36 34
0.549327 0.114983 1.69157 35 36 34
0.580028 0.119482 1.75776 35 36 34
0.581186 0.11785 1.73375 35 35 34
0.600526 0.119898 1.76388 36 36 35
0.589351 0.115884 1.70483 36 37 35
0.612831 0.118702 1.74629 35 36 35
0.607211 0.115884 1.70483 35 36 35
0.631124 0.118702 1.74629 34 36 35
0.635672 0.11785 1.73375 35 36 35
0.644753 0.11785 1.73375 34 36 35
0.658564 0.118702 1.74629 33 35 34
0.678794 0.120673 1.77528 33 36 34
0.676858 0.118702 1.74629 33 36 34
0.692915 0.119898 1.76388 33 36 34
0.714607 0.122024 1.79517 33 36 34
0.711392 0.119898 1.76388 33 36 33
0.70832 0.11785 1.73375 34 35 34
0.711706 0.116914 1.71999 33 35 33
0.752218 0.122024 1.79517 32 35 33
0.743023 0.119045 1.75133 32 34 33
0.732224 0.115884 1.70483 31 34 33
0.755334 0.118101 1.73745 32 35 34
0.773371 0.119482 1.75776 33 36 35
0.773535 0.118101 1.73745 33 36 34
0.775691 0.117053 1.72203 33 36 34
0.811865 0.121104 1.78162 32 35 34
0.840189 0.123905 1.82283 30 33 33
0.830529 0.121104 1.78162 27 30 31
0.803661 0.115884 1.70483 26 29 31
0.862703 0.123031 1.80997 28 31 33
0.82152 0.115884 1.70483 30 34 35
0.860367 0.120059 1.76625 34 37 39
0.869618 0.120059 1.76625 36 40 40
0.886519 0.121104 1.78162 38 42 40
0.956792 0.129342 1.90282 38 42 41
0.919584 0.123031 1.80997 36 40 39
0.946554 0.125347 1.84404 35 38 37
0.911473 0.119482 1.75776 35 38 37
0.948025 0.123031 1.80997 35 38 37
0.940575 0.120855 1.77797 34 37 37
0.977953 0.124426 1.8305 33 36 36
0.887134 0.111775 1.64438 32 35 36
1.01363 0.126485 1.86079 31 35 36
0.997892 0.123335 1.81445 33 37 37
1.0074 0.123335 1.81445 34 39 38
1.05672 0.128165 1.8855 35 40 39
1.0264 0.123335 1.81445 36 40 40
1.04069 0.123905 1.82283 37 41 41
1.0343 0.122024 1.79517 38 42 42
1.07212 0.125347 1.84404 35 39 40
1.0531 0.122024 1.79517 32 37 37
1.07888 0.123905 1.82283 35 39 40
1.11109 0.126485 1.86079 37 42 42
1.09797 0.123905 1.82283 37 42 42
1.21517 0.135948 2 37 41 41
1.22564 0.135948 2 35 40 40
1.13973 0.125347 1.84404 35 39 39
1.11892 0.122024 1.79517 35 39 39
-0.581676 0.0677451 0.925446 37 37 31
-0.64532 0.075789 1.03533 36 37 32
-0.61806 0.0732026 1 36 37 34
-0.612822 0.0732026 1 37 38 35
-0.630311 0.0759408 1.03741 37 38 35
-0.551518 0.0670254 0.915615 37 38 35
-0.597109 0.0732026 1 37 38 35
-0.61539 0.0761115 1.03974 36 37 33
-0.630369 0.0786601 1.07455 36 37 34
-0.630456 0.0793798 1.08438 37 37 34
-0.62177 0.0789978 1.07917 37 37 34
-0.596837 0.0765257 1.0454 35 36 32
-0.58816 0.0761115 1.03974 35 36 32
-0.619368 0.0808989 1.10514 34 35 31
-0.641795 0.0846192 1.15596 35 36 31
-0.635741 0.0846192 1.15596 34 36 30
-0.605305 0.0813427 1.1112 35 36 31
-0.599485 0.0813427 1.1112 36 36 31
-0.571892 0.0783595 1.07045 37 37 32
-0.591439 0.0818402 1.118 37 37 33
-0.582024 0.0813427 1.1112 35 36 30
-0.576204 0.0813427 1.1112 35 34 29
-0.593358 0.0846192 1.15596 37 36 32
-0.576343 0.08304 1.13439 38 37 33
-0.632439 0.0920715 1.25776 37 36 32
-0.536983 0.0789978 1.07917 37 36 31
-0.585915 0.0871133 1.19003 37 37 32
-0.557447 0.083772 1.14438 38 37 33
-0.580581 0.0881969 1.20483 37 37 32
-0.596434 0.0916008 1.25133 38 38 34
-0.641479 0.0996135 1.36079 39 39 34
-0.579086 0.0909351 1.24224 40 39 35
-0.586113 0.0930844 1.2716 38 38 33
-0.542283 0.0871133 1.19003 37 36 31
-0.563663 0.0916008 1.25133 36 36 30
-0.632573 0.104009 1.42083 37 36 31
-0.569841 0.0948096 1.29517 36 36 30
-0.597474 0.100605 1.37433 37 36 31
-0.577265 0.0983874 1.34404 37 37 31
-0.636392 0.109804 1.5 37 37 31
-0.646293 0.112906 1.54238 36 37 31
-0.603143 0.106702 1.45762 36 37 31
-0.630136 0.112906 1.54238 37 38 33
-0.604965 0.109804 1.5 38 38 34
-0.577653 0.106226 1.45113 36 37 32
-0.608452 0.113382 1.54887 37 37 32
-0.600339 0.113382 1.54887 36 37 32
-0.651858 0.124798 1.70483 36 37 32
-0.54725 0.106226 1.45113 37 37 33
-0.658829 0.129686 1.7716 38 38 34
-0.596043 0.119003 1.62567 38 38 34
-0.562971 0.114029 1.55772 39 39 35
-0.585681 0.120373 1.64438 38 38 34
-0.577068 0.120373 1.64438 38 38 34
-0.599348 0.126915 1.73375 38 38 34
-0.568393 0.122212 1.6695 37 37 33
-0.551229 0.120373 1.64438 37 37 33
-0.542616 0.120373 1.64438 37 38 34
-0.51645 0.116417 1.59033 37 38 34
-0.564327 0.129294 1.76625 37 37 33
-0.529713 0.123386 1.68555 37 37 32
-0.517255 0.122527 1.6738 37 37 32
-0.5267 0.126915 1.73375 37 37 32
-0.516739 0.126699 1.7308 37 37 32
-0.495714 0.123715 1.69003 37 37 33
-0.495028 0.12579 1.71838 38 37 33
-0.493923 0.127833 1.74629 37 37 33
-0.469586 0.123827 1.69157 38 37 33
-0.471411 0.126699 1.7308 38 38 33
-0.448019 0.122773 1.67717 38 38 33
-0.457336 0.127833 1.74629 36 37 32
-0.437549 0.124798 1.70483 36 36 31
-0.425285 0.123827 1.69157 36 37 32
-0.416046 0.123715 1.69003 36 36 31
-0.417727 0.126915 1.73375 36 37 32
-0.395311 0.122773 1.67717 36 36 31
-0.383929 0.121949 1.6659 36 36 31
-0.387022 0.12579 1.71838 35 36 30
-0.363151 0.120842 1.65078 35 36 30
-0.363264 0.123827 1.69157 37 37 32
-0.363241 0.126915 1.73375 37 37 33
-0.335292 0.120153 1.64138 37 37 33
-0.336377 0.123715 1.69003 36 37 33
-0.32438 0.122527 1.6738 37 38 34
-0.316248 0.122773 1.67717 37 38 34
-0.309821 0.123715 1.69003 37 38 34
-0.300969 0.123715 1.69003 36 37 34
-0.287947 0.121949 1.6659 37 37 34
-0.276687 0.120842 1.65078 37 37 33
-0.272325 0.122773 1.67717 37 38 34
-0.26354 0.122773 1.67717 38 38 34
-0.254244 0.122527 1.6738 38 38 34
-0.245971 0.122773 1.67717 37 37 33
-0.239223 0.123827 1.69157 36 36 33
-0.221388 0.119003 1.62567 37 36 33
-0.221301 0.123715 1.69003 37 37 34
-0.209416 0.121949 1.6659 38 37 34
-0.202048 0.122773 1.67717 37 37 34
-0.191456 0.121626 1.66149 37 37 34
-0.185893 0.123715 1.69003 37 37 34
-0.178591 0.124798 1.70483 37 37 34
-0.163646 0.120373 1.64438 37 37 34
-0.155033 0.120373 1.64438 37 37 34
-0.141607 0.116417 1.59033 37 37 33
-0.141633 0.123715 1.69003 37 37 34
-0.127724 0.119003 1.62567 37 37 34
-0.12105 0.120842 1.65078 36 37 33
-0.113133 0.121626 1.66149 36 37 33
-0.103758 0.120842 1.65078 36 37 33
-0.093664 0.119003 1.62567 36 36 32
-0.0878468 0.122773 1.67717 36 36 32
-0.0766342 0.119003 1.62567 36 36 32
-0.072004 0.12579 1.71838 37 36 33
-0.0602907 0.120373 1.64438 37 37 34
-0.0535774 0.124798 1.70483 37 37 34
-0.0425745 0.119003 1.62567 37 37 33
-0.0344518 0.120373 1.64438 36 36 33
-0.0265803 0.123827 1.69157 37 37 33
-0.0175694 0.122773 1.67717 37 37 34
-0.00864646 0.120842 1.65078 36 36 32
0 0.123827 1.69157 36 36 32
0.00872567 0.121949 1.6659 36 36 32
0.0170298 0.119003 1.62567 37 36 34
0.0255447 0.119003 1.62567 37 37 34
0.0345858 0.120842 1.65078 37 37 34
0.0436283 0.121949 1.6659 37 37 34
0.0510894 0.119003 1.62567 37 37 34
0.0605252 0.120842 1.65078 36 36 32
0.0714365 0.124798 1.70483 36 35 31
0.0769831 0.119545 1.63307 35 35 31
0.0879887 0.122972 1.67988 35 35 31
0.0957282 0.121626 1.66149 35 35 31
0.102727 0.119641 1.63439 35 35 32
0.114201 0.122773 1.67717 36 36 33
0.121836 0.121626 1.66149 37 37 34
0.123824 0.11537 1.57603 38 38 35
0.140555 0.122773 1.67717 38 37 35
0.14934 0.122773 1.67717 37 37 34
0.158124 0.122773 1.67717 37 36 33
0.166909 0.122773 1.67717 37 36 34
0.174513 0.121949 1.6659 38 37 35
0.184776 0.122972 1.67988 37 36 34
0.193575 0.122972 1.67988 37 36 34
0.203782 0.123827 1.69157 36 35 33
0.202224 0.117761 1.60869 36 35 33
0.214015 0.119641 1.63439 37 36 34
0.226267 0.121626 1.66149 37 36 34
0.239223 0.123827 1.69157 37 37 35
0.245971 0.122773 1.67717 36 37 34
0.256943 0.123827 1.69157 37 37 34
0.255447 0.119003 1.62567 37 37 34
0.26978 0.121626 1.66149 36 36 33
0.288286 0.125908 1.71999 35 36 32
0.297295 0.125908 1.71999 35 36 33
0.29106 0.119641 1.63439 35 36 32
0.309821 0.123715 1.69003 35 36 32
0.318673 0.123715 1.69003 35 36 33
0.321995 0.121626 1.66149 36 37 34
0.336377 0.123715 1.69003 36 37 34
0.335905 0.120373 1.64438 36 36 34
0.365869 0.127833 1.74629 36 36 34
0.356805 0.121626 1.66149 35 36 34
0.361744 0.120373 1.64438 36 36 34
0.390484 0.126915 1.73375 36 36 34
0.382913 0.121626 1.66149 36 36 34
0.408646 0.126915 1.73375 35 36 33
0.404095 0.122773 1.67717 36 36 34
0.416425 0.123827 1.69157 35 36 33
0.410908 0.119641 1.63439 34 35 32
0.44497 0.126915 1.73375 35 35 33
0.454051 0.126915 1.73375 35 35 34
0.451454 0.123715 1.69003 35 36 34
0.472214 0.126915 1.73375 35 36 34
0.464653 0.122527 1.6738 35 36 34
0.469939 0.121626 1.66149 36 37 35
0.491126 0.124798 1.70483 36 36 35
0.504501 0.125908 1.71999 36 35 34
0.490938 0.120373 1.64438 35 35 33
0.522519 0.125908 1.71999 34 33 32
0.52227 0.123715 1.69003 34 34 32
0.531606 0.123827 1.69157 35 35 34
0.549031 0.12579 1.71838 35 36 34
0.563024 0.126915 1.73375 35 36 34
0.577906 0.128202 1.75133 35 36 34
0.598589 0.130715 1.78567 36 36 34
0.594537 0.127833 1.74629 36 36 35
0.605426 0.128202 1.75133 35 36 34
0.619004 0.129121 1.76388 35 36 35
0.639385 0.131411 1.79517 35 36 35
0.632945 0.128202 1.75133 35 36 34
0.640271 0.127833 1.74629 35 36 35
0.643657 0.126699 1.7308 35 36 35
0.648644 0.125908 1.71999 34 36 35
0.690262 0.132151 1.80527 34 36 35
0.671996 0.126915 1.73375 33 35 34
0.700817 0.130593 1.784 33 35 34
0.678647 0.124798 1.70483 33 35 34
0.70633 0.128202 1.75133 33 35 33
0.696506 0.124798 1.70483 34 35 34
0.722591 0.127833 1.74629 34 36 34
0.707347 0.123572 1.68808 33 35 33
0.751621 0.129686 1.7716 32 35 33
0.752196 0.128202 1.75133 32 35 33
0.77018 0.129686 1.7716 32 35 34
0.766541 0.127536 1.74224 32 35 34
0.782578 0.128673 1.75776 30 34 32
0.791785 0.128673 1.75776 31 34 33
0.818037 0.131411 1.79517 31 35 34
0.849967 0.134989 1.84404 29 32 32
0.825856 0.129686 1.7716 26 29 30
0.83986 0.13042 1.78162 27 30 31
0.874202 0.134261 1.8341 29 33 34
0.883809 0.134261 1.8341 32 35 36
0.881663 0.132495 1.80997 35 38 39
0.869618 0.129294 1.76625 36 40 40
0.900624 0.132495 1.80997 37 41 40
0.888121 0.129294 1.76625 37 42 41
0.912064 0.131411 1.79517 37 41 39
0.952495 0.135836 1.85562 35 38 37
0.938545 0.132495 1.80997 34 37 36
0.931262 0.130152 1.77797 34 37 36
0.981653 0.135836 1.85562 32 35 36
1.01234 0.138709 1.89486 31 35 35
1.00388 0.136215 1.86079 30 35 35
0.997129 0.133997 1.8305 31 35 36
0.987286 0.131411 1.79517 33 37 38
1.0074 0.132823 1.81445 34 38 38
1.03348 0.134989 1.84404 35 39 39
1.03114 0.133436 1.82283 35 39 39
1.07009 0.137206 1.87433 36 40 40
1.07991 0.137206 1.87433 36 40 40
1.07212 0.134989 1.84404 35 39 39
1.0916 0.136215 1.86079 34 38 38
1.18374 0.146405 2 35 39 40
1.14695 0.14061 1.92083 37 42 42
1.12084 0.136215 1.86079 39 43 43
1.09072 0.131411 1.79517 38 43 43
1.17713 0.14061 1.92083 36 41 41
1.12662 0.133436 1.82283 34 39 39
1.2466 0.146405 2 34 38 39
-0.628536 0.0784314 1 36 36 32
-0.623298 0.0784314 1 36 37 32
-0.61806 0.0784314 1 36 37 33
-0.637174 0.081548 1.03974 36 37 34
-0.631728 0.081548 1.03974 36 37 34
-0.602347 0.0784314 1 37 38 35
-0.64438 0.0846405 1.07917 38 38 35
-0.635997 0.0842787 1.07455 36 37 34
-0.609944 0.081548 1.03974 36 36 33
-0.604498 0.081548 1.03974 36 37 34
-0.576158 0.0784314 1 37 38 34
-0.622493 0.0855164 1.09033 36 37 33
-0.584618 0.0810569 1.03348 35 36 32
-0.560444 0.0784314 1 35 37 33
-0.620719 0.087686 1.118 36 38 34
-0.593508 0.0846405 1.07917 35 37 32
-0.587855 0.0846405 1.07917 35 36 31
-0.575513 0.083668 1.06677 36 36 32
-0.612853 0.0899699 1.14712 36 36 32
-0.616784 0.0914435 1.1659 36 36 31
-0.565246 0.0846405 1.07917 35 35 30
-0.540517 0.0817552 1.04238 37 36 32
-0.598464 0.0914435 1.1659 39 38 35
-0.598081 0.0923271 1.17717 37 37 32
-0.598381 0.0933357 1.19003 35 35 30
-0.606252 0.0955589 1.21838 36 36 31
-0.579583 0.0923271 1.17717 37 36 31
-0.573418 0.0923271 1.17717 37 36 31
-0.612755 0.0997333 1.2716 37 36 32
-0.588054 0.0967647 1.23375 38 37 33
-0.560982 0.0933357 1.19003 38 38 33
-0.583326 0.0981437 1.25133 38 38 33
-0.576771 0.0981437 1.25133 38 37 32
-0.600549 0.103364 1.31789 36 36 30
-0.601884 0.104799 1.33618 35 35 28
-0.58894 0.103751 1.32283 36 35 29
-0.582011 0.103751 1.32283 36 36 29
-0.617689 0.111438 1.42083 37 37 31
-0.599093 0.109401 1.39486 37 37 32
-0.598067 0.110562 1.40967 37 37 31
-0.595363 0.111438 1.42083 36 36 30
-0.603143 0.114323 1.45762 37 37 32
-0.612822 0.117647 1.5 38 38 34
-0.604965 0.117647 1.5 37 38 33
-0.597109 0.117647 1.5 36 37 31
-0.547951 0.109401 1.39486 36 37 32
-0.581395 0.117647 1.5 36 37 32
-0.592226 0.12148 1.54887 36 37 32
-0.605331 0.125893 1.60514 36 37 32
-0.633999 0.133712 1.70483 37 37 33
-0.567888 0.12148 1.54887 38 38 34
-0.629659 0.136646 1.74224 38 38 34
-0.594626 0.130941 1.6695 38 38 34
-0.577068 0.128971 1.64438 38 38 34
-0.602282 0.136646 1.74224 38 38 34
-0.537638 0.123856 1.57917 38 38 34
-0.56222 0.131543 1.67717 37 37 33
-0.580028 0.137864 1.75776 38 38 34
-0.537761 0.129879 1.65596 38 38 35
-0.556655 0.136646 1.74224 37 37 34
-0.54118 0.135062 1.72203 37 37 33
-0.539657 0.136964 1.74629 36 37 32
-0.525804 0.135749 1.7308 36 36 32
-0.500727 0.131543 1.67717 37 37 33
-0.488637 0.130659 1.6659 38 37 34
-0.487306 0.132672 1.69157 38 38 34
-0.489542 0.135749 1.7308 38 38 34
-0.477027 0.134775 1.71838 38 38 33
-0.464337 0.133712 1.70483 37 38 33
-0.459026 0.134775 1.71838 37 37 32
-0.46034 0.137864 1.75776 36 36 31
-0.412874 0.126172 1.60869 36 37 32
-0.410908 0.128187 1.63439 37 37 33
-0.41288 0.131543 1.67717 37 37 32
-0.41076 0.133712 1.70483 37 37 32
-0.414306 0.137864 1.75776 37 37 32
-0.370744 0.126172 1.60869 37 37 32
-0.390484 0.13598 1.73375 36 36 31
-0.371785 0.132551 1.69003 35 35 30
-0.360172 0.131543 1.67717 36 37 32
-0.357183 0.133712 1.70483 37 38 34
-0.343156 0.131755 1.67988 37 37 33
-0.330698 0.130313 1.66149 36 37 33
-0.327525 0.132551 1.69003 36 37 34
-0.318673 0.132551 1.69003 37 37 34
-0.312535 0.133712 1.70483 36 37 33
-0.301244 0.132672 1.69157 36 37 33
-0.285333 0.129473 1.65078 36 37 33
-0.261708 0.122464 1.56142 37 37 33
-0.272325 0.131543 1.67717 38 38 34
-0.267887 0.133712 1.70483 38 38 35
-0.253044 0.130659 1.6659 38 38 34
-0.250028 0.133712 1.70483 37 37 33
-0.231136 0.128187 1.63439 36 36 33
-0.225513 0.129879 1.65596 37 36 33
-0.219176 0.131279 1.6738 36 36 33
-0.212643 0.132672 1.69157 36 35 32
-0.207206 0.134901 1.71999 37 37 34
-0.190819 0.129879 1.65596 37 37 34
-0.180872 0.128971 1.64438 37 37 34
-0.177041 0.132551 1.69003 37 37 34
-0.161783 0.127503 1.62567 37 37 34
-0.152411 0.12679 1.61657 37 37 33
-0.155494 0.136964 1.74629 37 37 34
-0.135476 0.12679 1.61657 37 37 34
-0.132902 0.132672 1.69157 37 37 34
-0.119848 0.128187 1.63439 36 37 33
-0.117853 0.135749 1.7308 37 37 33
-0.102179 0.127503 1.62567 37 37 34
-0.0957282 0.130313 1.66149 37 37 33
-0.0856058 0.128187 1.63439 37 36 33
-0.0775166 0.128971 1.64438 37 37 33
-0.0691717 0.129473 1.65078 37 36 33
-0.0614928 0.131543 1.67717 37 37 33
-0.0508036 0.12679 1.61657 37 37 34
-0.0435128 0.130313 1.66149 36 37 33
-0.0345858 0.129473 1.65078 36 36 33
-0.0259394 0.129473 1.65078 37 38 34
-0.0174513 0.130659 1.6659 39 39 35
-0.00878468 0.131543 1.67717 38 38 35
0 0.130313 1.66149 37 37 34
0.00864646 0.129473 1.65078 36 36 34
0.0166597 0.124732 1.59033 37 37 34
0.0259394 0.129473 1.65078 38 37 34
0.0351387 0.131543 1.67717 38 38 35
0.0425745 0.127503 1.62567 37 37 34
0.0522154 0.130313 1.66149 37 37 34
0.0601806 0.128736 1.64138 36 36 32
0.0691717 0.129473 1.65078 36 35 32
0.0766342 0.127503 1.62567 36 36 32
0.0879887 0.131755 1.67988 36 36 33
0.0941664 0.128187 1.63439 36 36 33
0.106224 0.132551 1.69003 35 35 32
0.113133 0.130313 1.66149 36 36 33
0.124041 0.132672 1.69157 37 37 34
0.129697 0.129473 1.65078 38 37 34
0.141762 0.132672 1.69157 38 37 35
0.14934 0.131543 1.67717 37 37 34
0.158124 0.131543 1.67717 37 36 33
0.169662 0.133712 1.70483 38 37 34
0.181621 0.13598 1.73375 39 38 35
0.184478 0.131543 1.67717 38 37 34
0.189485 0.128971 1.64438 37 36 34
0.198869 0.129473 1.65078 36 35 33
0.216012 0.134775 1.71838 36 35 32
0.209748 0.125632 1.6018 37 36 34
0.234013 0.134775 1.71838 37 37 35
0.229902 0.127503 1.62567 37 37 34
0.250028 0.133712 1.70483 36 37 34
0.250747 0.129473 1.65078 37 37 34
0.26354 0.131543 1.67717 37 37 34
0.276817 0.133712 1.70483 36 36 33
0.273939 0.128187 1.63439 35 36 32
0.289312 0.131279 1.6738 35 36 33
0.295887 0.130313 1.66149 35 36 34
0.306846 0.131279 1.6738 35 36 34
0.308181 0.128187 1.63439 36 36 34
0.327525 0.132551 1.69003 36 37 34
0.34234 0.134901 1.71999 37 37 35
0.3394 0.130313 1.66149 36 36 34
0.360358 0.134901 1.71999 35 36 33
0.354505 0.129473 1.65078 36 36 34
0.368957 0.131543 1.67717 36 36 34
0.37421 0.130313 1.66149 36 36 34
0.392901 0.133712 1.70483 36 37 34
0.391615 0.130313 1.66149 36 37 34
0.41076 0.133712 1.70483 36 37 34
0.402347 0.128187 1.63439 35 35 32
0.428619 0.133712 1.70483 34 34 31
0.429585 0.131279 1.6738 35 35 33
0.457336 0.136964 1.74629 35 36 34
0.455408 0.133712 1.70483 35 35 34
0.468465 0.134901 1.71999 35 35 34
0.481295 0.13598 1.73375 36 36 35
0.486027 0.134775 1.71838 37 37 35
0.491126 0.133712 1.70483 35 35 34
0.491942 0.131543 1.67717 34 34 32
0.508985 0.133712 1.70483 33 33 31
0.535854 0.138344 1.76388 33 32 30
0.53103 0.134775 1.71838 34 34 32
0.535774 0.133712 1.70483 35 35 34
0.567212 0.139238 1.77528 34 35 34
0.58625 0.14159 1.80527 34 35 33
0.582048 0.138344 1.76388 35 36 34
0.589235 0.137864 1.75776 35 36 35
0.563782 0.129879 1.65596 35 36 34
0.599348 0.13598 1.73375 34 35 33
0.623003 0.139238 1.77528 35 36 34
0.61646 0.135749 1.7308 34 36 34
0.621035 0.134775 1.71838 34 36 34
0.642118 0.137359 1.75133 34 36 34
0.649417 0.136964 1.74629 34 36 34
0.648036 0.134775 1.71838 33 35 34
0.674437 0.138344 1.76388 32 35 34
0.699718 0.14159 1.80527 32 35 33
0.676475 0.135062 1.72203 33 35 34
0.702153 0.138344 1.76388 33 35 34
0.720178 0.140052 1.78567 33 36 34
0.715503 0.137359 1.75133 34 36 34
0.717401 0.13598 1.73375 33 35 34
0.714365 0.133712 1.70483 32 35 33
0.743023 0.137359 1.75133 33 35 33
0.766226 0.139922 1.784 33 35 34
0.775571 0.139922 1.784 33 36 35
0.750084 0.133712 1.70483 33 36 34
0.794259 0.139922 1.784 30 34 32
0.798018 0.138949 1.7716 28 31 30
0.776872 0.133712 1.70483 28 31 30
0.845382 0.143851 1.8341 28 31 30
0.819405 0.137864 1.75776 29 31 32
0.846245 0.140797 1.79517 30 33 34
0.855647 0.140797 1.79517 32 36 36
0.842643 0.13715 1.74867 33 36 37
0.867856 0.139735 1.78162 35 38 38
0.869618 0.138529 1.76625 36 40 39
0.866921 0.136646 1.74224 38 42 40
0.910104 0.141958 1.80997 38 42 41
0.903324 0.139448 1.77797 37 40 39
0.972641 0.148617 1.89486 34 37 36
0.956213 0.144631 1.84404 32 36 35
0.958778 0.143569 1.8305 33 36 36
0.934377 0.138529 1.76625 32 35 36
1.00734 0.147882 1.8855 31 35 35
0.9592 0.139448 1.77797 31 35 35
1.02709 0.147882 1.8855 31 35 35
1.00672 0.143569 1.8305 31 36 36
1.04684 0.147882 1.8855 32 36 37
1.02589 0.143569 1.8305 31 36 36
1.09151 0.151338 1.92955 30 35 35
1.0528 0.144631 1.84404 30 35 36
1.07211 0.145944 1.86079 32 36 37
1.11676 0.150654 1.92083 32 37 37
1.0531 0.140797 1.79517 32 36 37
1.18374 0.156863 2 35 39 40
1.07191 0.140797 1.79517 37 42 42
1.15701 0.150654 1.92083 39 43 44
1.09072 0.140797 1.79517 38 43 43
1.17029 0.149778 1.90967 34 39 40
1.17114 0.148617 1.89486 34 38 39
1.01327 0.127503 1.62567 33 38 38
-0.628536 0.0836601 1 35 37 32
-0.672642 0.0902832 1.07917 35 36 31
-0.5935 0.0803357 0.960263 35 37 33
-0.58847 0.0803357 0.960263 36 37 34
-0.607584 0.0836601 1 36 37 34
-0.602347 0.0836601 1 36 37 34
-0.64438 0.0902832 1.07917 37 37 34
-0.61401 0.0867894 1.03741 36 37 34
-0.609944 0.0869845 1.03974 37 37 34
-0.600858 0.0864607 1.03348 36 37 34
-0.599052 0.0869845 1.03974 37 38 35
-0.642665 0.0941734 1.12567 36 38 34
-0.628586 0.0929631 1.1112 36 38 34
-0.659739 0.0984823 1.17717 36 37 33
-0.616945 0.0929631 1.1112 36 37 33
-0.607791 0.0924559 1.10514 36 38 33
-0.609007 0.0935317 1.118 36 38 33
-0.582203 0.0902832 1.07917 37 37 33
-0.612853 0.0959679 1.14712 36 36 32
-0.584637 0.0924559 1.10514 35 36 30
-0.589601 0.0941734 1.12567 35 36 30
-0.612971 0.0988951 1.18211 37 36 32
-0.573872 0.0935317 1.118 37 37 33
-0.576343 0.0949029 1.13439 37 36 32
-0.620365 0.103216 1.23375 36 35 30
-0.625851 0.105225 1.25776 36 36 31
-0.60744 0.103216 1.23375 36 36 31
-0.56793 0.0975397 1.1659 36 36 31
-0.602988 0.104687 1.25133 37 36 31
-0.580726 0.101929 1.21838 37 37 32
-0.619635 0.109967 1.31445 37 37 32
-0.561649 0.100796 1.20483 37 37 32
-0.57258 0.103926 1.24224 37 37 31
-0.612464 0.112443 1.34404 36 36 30
-0.640015 0.118867 1.42083 35 35 29
-0.632573 0.118867 1.42083 36 35 29
-0.641317 0.121945 1.45762 36 36 30
-0.540047 0.103926 1.24224 38 37 32
-0.60545 0.117933 1.40967 37 37 31
-0.657128 0.129579 1.54887 37 37 31
-0.608056 0.121401 1.45113 37 37 31
-0.577175 0.116694 1.39486 37 38 33
-0.569869 0.116694 1.39486 36 37 32
-0.641398 0.133048 1.59033 35 36 30
-0.628623 0.132113 1.57917 35 36 31
-0.572604 0.121945 1.45762 36 36 31
-0.647094 0.139671 1.6695 36 37 32
-0.592226 0.129579 1.54887 36 37 33
-0.629605 0.139671 1.6695 36 36 32
-0.62086 0.139671 1.6695 36 36 32
-0.614928 0.140312 1.67717 36 36 32
-0.626591 0.145046 1.73375 37 36 32
-0.585681 0.137569 1.64438 37 37 32
-0.581129 0.138538 1.65596 38 38 34
-0.535437 0.129579 1.54887 38 38 34
-0.559842 0.137569 1.64438 39 39 35
-0.571492 0.142627 1.70483 38 38 34
-0.598735 0.151797 1.81445 38 39 35
-0.582969 0.150184 1.79517 38 38 34
-0.544704 0.142627 1.70483 37 37 33
-0.535774 0.142627 1.70483 37 37 33
-0.510141 0.138105 1.65078 37 37 33
-0.53051 0.146095 1.74629 36 36 32
-0.500727 0.140312 1.67717 36 36 32
-0.504028 0.14376 1.71838 37 37 34
-0.483157 0.140312 1.67717 38 38 35
-0.490376 0.145046 1.73375 38 38 34
-0.465588 0.140312 1.67717 37 37 32
-0.464337 0.142627 1.70483 37 37 32
-0.459026 0.14376 1.71838 37 37 32
-0.457336 0.146095 1.74629 36 36 31
-0.437549 0.142627 1.70483 36 36 31
-0.435889 0.145046 1.73375 37 37 32
-0.41969 0.142627 1.70483 37 37 32
-0.417727 0.145046 1.73375 37 37 32
-0.389091 0.138105 1.65078 37 37 33
-0.399565 0.145046 1.73375 37 37 32
-0.377741 0.140312 1.67717 37 37 33
-0.372125 0.141517 1.69157 36 37 32
-0.369021 0.14376 1.71838 37 37 34
-0.360358 0.143894 1.71999 36 37 34
-0.351349 0.143894 1.71999 36 37 33
-0.342019 0.14376 1.71838 36 37 33
-0.333019 0.14376 1.71838 36 37 33
-0.318306 0.141225 1.68808 36 36 33
-0.309821 0.141388 1.69003 35 35 31
-0.298679 0.140312 1.67717 35 36 32
-0.301842 0.146095 1.74629 36 36 33
-0.285746 0.142627 1.70483 37 37 33
-0.279016 0.14376 1.71838 38 38 34
-0.267887 0.142627 1.70483 38 38 34
-0.254756 0.140312 1.67717 38 38 34
-0.239696 0.136733 1.63439 37 37 33
-0.241098 0.142627 1.70483 36 35 32
-0.236107 0.145046 1.73375 36 35 32
-0.216162 0.138105 1.65078 36 35 32
-0.21431 0.142627 1.70483 37 36 33
-0.20538 0.142627 1.70483 37 36 34
-0.198011 0.14376 1.71838 36 36 33
-0.181576 0.138105 1.65078 36 36 33
-0.175341 0.140031 1.6738 37 37 34
-0.162651 0.136733 1.63439 37 37 34
-0.162009 0.14376 1.71838 37 37 34
-0.147944 0.139001 1.66149 37 37 34
-0.141762 0.141517 1.69157 37 37 34
-0.127009 0.135243 1.61657 37 36 33
-0.122986 0.140312 1.67717 37 37 33
-0.111968 0.137569 1.64438 37 36 33
-0.104431 0.139001 1.66149 37 37 33
-0.0966315 0.140312 1.67717 37 37 34
-0.0876704 0.140031 1.6738 38 37 34
-0.0783231 0.139001 1.66149 38 38 34
-0.0714365 0.142627 1.70483 37 37 33
-0.0605252 0.138105 1.65078 36 36 32
-0.0513221 0.136623 1.63307 36 37 33
-0.0428029 0.136733 1.63439 36 36 33
-0.0345858 0.138105 1.65078 36 36 33
-0.0255447 0.136003 1.62567 37 38 35
-0.0173471 0.138538 1.65596 39 39 36
-0.00872567 0.13937 1.6659 39 39 36
0 0.136003 1.62567 37 38 35
0.00832985 0.133048 1.59033 37 37 34
0.0171212 0.136733 1.63439 37 37 34
0.0256817 0.136733 1.63439 37 37 35
0.033704 0.134583 1.60869 37 37 34
0.0430648 0.137569 1.64438 37 37 34
0.0526022 0.140031 1.6738 36 36 33
0.0605252 0.138105 1.65078 36 36 32
0.0714365 0.142627 1.70483 36 36 32
0.0803661 0.142627 1.70483 36 36 32
0.0864646 0.138105 1.65078 36 36 33
0.0982252 0.142627 1.70483 37 37 34
0.104431 0.139001 1.66149 36 36 34
0.117116 0.143894 1.71999 36 36 33
0.119848 0.136733 1.63439 36 36 33
0.12639 0.134583 1.60869 36 36 33
0.139611 0.13937 1.6659 37 36 33
0.147944 0.139001 1.66149 37 37 34
0.156646 0.139001 1.66149 37 36 34
0.160094 0.134583 1.60869 37 37 34
0.174051 0.139001 1.66149 38 37 34
0.182754 0.139001 1.66149 38 37 35
0.191456 0.139001 1.66149 37 36 34
0.203782 0.141517 1.69157 36 36 33
0.210832 0.140312 1.67717 36 36 33
0.219617 0.140312 1.67717 37 36 34
0.232169 0.142627 1.70483 37 36 34
0.237186 0.140312 1.67717 37 36 34
0.253837 0.144799 1.7308 37 36 34
0.253044 0.13937 1.6659 37 37 34
0.261077 0.139001 1.66149 37 37 34
0.267001 0.137569 1.64438 36 36 33
0.28111 0.140312 1.67717 35 36 33
0.297017 0.14376 1.71838 35 36 33
0.298079 0.140031 1.6738 35 36 33
0.309821 0.141388 1.69003 36 36 34
0.329282 0.146095 1.74629 36 37 34
0.341838 0.147567 1.76388 36 37 34
0.34234 0.143894 1.71999 36 37 34
0.341914 0.140031 1.6738 36 36 33
0.354081 0.141388 1.69003 35 36 33
0.359448 0.140031 1.6738 35 36 33
0.36429 0.138538 1.65596 35 36 33
0.380637 0.141388 1.69003 36 36 34
0.382913 0.139001 1.66149 36 37 34
0.398705 0.141517 1.69157 36 37 34
0.407194 0.141388 1.69003 36 37 34
0.434226 0.147567 1.76388 36 36 34
0.441926 0.147055 1.75776 35 35 33
0.437549 0.142627 1.70483 36 36 34
0.442602 0.141388 1.69003 35 35 34
0.459026 0.14376 1.71838 35 35 33
0.472214 0.145046 1.73375 35 35 34
0.465588 0.140312 1.67717 36 36 34
0.47801 0.141388 1.69003 36 36 35
0.491126 0.142627 1.70483 35 35 33
0.500056 0.142627 1.70483 34 34 32
0.517619 0.145046 1.73375 34 34 31
0.522029 0.14376 1.71838 33 33 31
0.53103 0.14376 1.71838 34 35 33
0.54003 0.14376 1.71838 35 36 34
0.544704 0.142627 1.70483 34 35 33
0.548826 0.141388 1.69003 34 35 33
0.582048 0.147567 1.76388 35 36 34
0.58539 0.146095 1.74629 35 36 35
0.596253 0.146517 1.75133 35 36 35
0.589351 0.142627 1.70483 35 36 34
0.603034 0.14376 1.71838 35 37 35
0.612034 0.14376 1.71838 35 36 34
0.6416 0.14852 1.77528 35 36 34
0.630035 0.14376 1.71838 34 36 34
0.644753 0.145046 1.73375 33 35 33
0.632497 0.140312 1.67717 33 35 33
0.651858 0.142627 1.70483 31 34 33
0.671996 0.145046 1.73375 31 34 33
0.695946 0.148212 1.7716 33 35 34
0.684038 0.14376 1.71838 33 35 34
0.699239 0.145046 1.73375 34 36 34
0.709832 0.145355 1.73745 34 35 34
0.738194 0.14925 1.784 34 36 34
0.714365 0.142627 1.70483 33 35 34
0.76162 0.150184 1.79517 33 35 34
0.766226 0.14925 1.784 33 36 34
0.764164 0.147055 1.75776 34 36 35
0.799828 0.152085 1.81789 33 35 34
0.759013 0.142627 1.70483 29 32 30
0.808634 0.150184 1.79517 26 29 28
0.793917 0.145756 1.74224 24 27 27
0.845382 0.153441 1.8341 25 28 28
0.859626 0.154273 1.84404 30 33 33
0.813036 0.14429 1.72472 33 35 36
0.849192 0.149051 1.78162 34 37 37
0.870838 0.151189 1.80718 34 37 37
0.887927 0.152498 1.82283 34 38 38
0.91854 0.156077 1.86561 35 40 39
0.907022 0.152498 1.82283 38 41 40
0.927237 0.154273 1.84404 37 42 41
0.897372 0.147765 1.76625 36 40 39
0.897598 0.146294 1.74867 34 37 36
0.906758 0.146294 1.74867 31 35 35
0.987587 0.157741 1.8855 32 36 36
0.940575 0.148745 1.77797 32 36 36
0.949887 0.148745 1.77797 32 36 36
0.96848 0.150184 1.79517 32 36 37
0.988388 0.151797 1.81445 31 36 36
0.977825 0.148745 1.77797 31 36 36
1.04064 0.156807 1.87433 31 36 36
1.08854 0.162492 1.94228 30 35 36
1.00216 0.148212 1.7716 29 34 35
1.10162 0.161427 1.92955 28 34 34
1.02072 0.148212 1.7716 29 34 35
1.03 0.148212 1.7716 31 35 36
1.13941 0.162492 1.94228 32 36 37
1.02616 0.145046 1.73375 34 39 40
1.24149 0.173943 2.07917 36 41 42
1.15701 0.160697 1.92083 39 43 44
1.09072 0.150184 1.79517 37 43 43
1.22564 0.16732 2 34 39 39
1.10952 0.150184 1.79517 34 38 39
1.14939 0.154273 1.84404 34 38 39
-0.653512 0.0924211 1.03974 35 36 32
-0.672642 0.0959259 1.07917 35 36 31
-0.63875 0.0918645 1.03348 36 37 33
-0.634474 0.0920295 1.03533 36 38 34
-0.607584 0.0888889 1 36 38 34
-0.650032 0.0959259 1.07917 36 37 34
-0.64438 0.0959259 1.07917 36 36 33
-0.616954 0.0926559 1.04238 36 36 33
-0.615305 0.0932333 1.04887 36 37 34
-0.607788 0.0929241 1.0454 37 38 35
-0.624776 0.0963898 1.08438 38 39 35
-0.593606 0.0924211 1.03974 38 39 35
-0.628586 0.0987733 1.1112 38 39 35
-0.607737 0.0963898 1.08438 37 38 34
-0.575974 0.0922138 1.03741 36 38 33
-0.641211 0.103636 1.1659 37 38 34
-0.605305 0.0987733 1.1112 38 39 35
-0.627871 0.10345 1.16382 38 38 34
-0.631546 0.105076 1.18211 37 37 33
-0.591439 0.0993774 1.118 36 37 32
-0.582024 0.0987733 1.1112 36 37 32
-0.610412 0.104637 1.17717 36 36 31
-0.618445 0.107096 1.20483 36 36 31
-0.581423 0.101723 1.14438 35 35 29
-0.575429 0.101723 1.14438 35 35 29
-0.585749 0.104637 1.17717 36 36 31
-0.599871 0.1083 1.21838 37 37 32
-0.609542 0.111229 1.25133 38 37 34
-0.602988 0.111229 1.25133 38 38 34
-0.596434 0.111229 1.25133 38 38 33
-0.581592 0.109667 1.23375 37 37 32
-0.614354 0.117146 1.31789 36 36 31
-0.596976 0.115126 1.29517 36 36 31
-0.600549 0.117146 1.31789 36 36 31
-0.583409 0.115126 1.29517 36 36 30
-0.632573 0.126296 1.42083 36 36 31
-0.604672 0.122163 1.37433 37 36 31
-0.630858 0.128989 1.45113 37 36 31
-0.626047 0.129566 1.45762 36 36 29
-0.636392 0.133333 1.5 36 36 30
-0.554297 0.117585 1.32283 36 36 30
-0.620679 0.133333 1.5 36 36 30
-0.612822 0.133333 1.5 35 36 30
-0.622057 0.1371 1.54238 35 36 31
-0.667636 0.149082 1.67717 35 36 31
-0.611925 0.138464 1.55772 36 37 32
-0.562452 0.128989 1.45113 37 37 33
-0.613739 0.142679 1.60514 36 37 32
-0.613073 0.144504 1.62567 35 36 31
-0.557825 0.133333 1.5 36 36 32
-0.567888 0.137678 1.54887 36 36 32
-0.594294 0.146168 1.64438 36 36 32
-0.571702 0.142679 1.60514 36 36 31
-0.657764 0.166607 1.87433 37 37 33
-0.568455 0.146168 1.64438 38 37 33
-0.580422 0.151541 1.70483 38 37 33
-0.596008 0.158041 1.77797 37 37 33
-0.555063 0.149521 1.68211 37 37 33
-0.532322 0.145707 1.63921 36 36 32
-0.539352 0.150052 1.68808 36 36 32
-0.535774 0.151541 1.70483 36 37 32
-0.526844 0.151541 1.70483 37 37 33
-0.509511 0.149082 1.67717 37 36 32
-0.513029 0.152745 1.71838 37 36 32
-0.490954 0.148782 1.6738 37 36 32
-0.499457 0.154111 1.73375 37 37 33
-0.486027 0.152745 1.71838 36 37 32
-0.469586 0.150362 1.69157 36 36 32
-0.468465 0.152888 1.71999 36 36 32
-0.463133 0.154111 1.73375 36 36 32
-0.432323 0.146736 1.65078 36 36 31
-0.441025 0.152745 1.71838 37 37 32
-0.428619 0.151541 1.70483 37 37 32
-0.426083 0.153849 1.7308 37 37 33
-0.413709 0.152629 1.71707 37 37 32
-0.389091 0.146736 1.65078 36 36 31
-0.392901 0.151541 1.70483 35 36 31
-0.383971 0.151541 1.70483 36 37 32
-0.375042 0.151541 1.70483 36 37 32
-0.349111 0.144504 1.62567 36 36 33
-0.370476 0.157181 1.76828 36 37 34
-0.333863 0.145279 1.63439 36 37 33
-0.347576 0.155226 1.74629 36 37 34
-0.318679 0.146168 1.64438 37 37 34
-0.313292 0.147688 1.66149 36 37 34
-0.301453 0.146168 1.64438 36 36 33
-0.306304 0.152888 1.71999 36 36 33
-0.292117 0.150225 1.69003 36 37 33
-0.285746 0.151541 1.70483 37 37 33
-0.267001 0.146168 1.64438 37 38 33
-0.25278 0.142995 1.60869 37 38 34
-0.261259 0.152888 1.71999 37 37 33
-0.246368 0.149323 1.67988 37 37 33
-0.237186 0.149082 1.67717 36 36 33
-0.230153 0.150225 1.69003 36 35 32
-0.221503 0.150362 1.69157 36 35 32
-0.212449 0.150225 1.69003 36 36 33
-0.201642 0.148782 1.6738 36 36 33
-0.198197 0.152888 1.71999 36 36 33
-0.187521 0.151541 1.70483 37 37 34
-0.183462 0.155674 1.75133 37 38 35
-0.163646 0.146168 1.64438 36 36 33
-0.156646 0.147688 1.66149 36 35 32
-0.14934 0.149082 1.67717 36 36 32
-0.138777 0.147196 1.65596 37 36 33
-0.13177 0.149082 1.67717 37 37 34
-0.123928 0.150225 1.69003 37 37 33
-0.113133 0.147688 1.66149 37 37 33
-0.105416 0.149082 1.67717 37 37 34
-0.0973724 0.150225 1.69003 37 37 34
-0.0892957 0.151541 1.70483 37 37 34
-0.0810045 0.152745 1.71838 37 37 33
-0.0687778 0.145901 1.64138 36 37 33
-0.062507 0.151541 1.70483 36 36 32
-0.0518788 0.146736 1.65078 36 36 33
-0.0428029 0.145279 1.63439 36 36 33
-0.0348103 0.147688 1.66149 36 36 32
-0.026177 0.14808 1.6659 37 37 34
-0.0171944 0.145901 1.64138 38 38 35
-0.00872567 0.14808 1.6659 38 38 35
0 0.147196 1.65596 37 37 34
0.00864646 0.146736 1.65078 37 37 34
0.0175694 0.149082 1.67717 38 37 35
0.0258818 0.14641 1.64712 37 37 34
0.0354404 0.150362 1.69157 36 36 33
0.0432323 0.146736 1.65078 35 35 32
0.0531606 0.150362 1.69157 36 35 32
0.0596043 0.144504 1.62567 36 36 32
0.0698053 0.14808 1.6659 36 36 33
0.0770452 0.145279 1.63439 37 36 33
0.0859722 0.145901 1.64138 37 37 34
0.0951111 0.146736 1.65078 37 37 34
0.104708 0.14808 1.6659 37 37 34
0.112404 0.146736 1.65078 36 36 33
0.124041 0.150362 1.69157 36 36 33
0.128409 0.145279 1.63439 36 36 32
0.139241 0.147688 1.66149 36 35 32
0.153009 0.152745 1.71838 37 36 33
0.159482 0.150362 1.69157 37 37 34
0.161783 0.144504 1.62567 37 37 34
0.172929 0.146736 1.65078 36 36 33
0.181576 0.146736 1.65078 37 36 34
0.191456 0.147688 1.66149 37 37 34
0.20538 0.151541 1.70483 37 36 33
0.208166 0.147196 1.65596 36 36 33
0.219617 0.149082 1.67717 37 36 34
0.217311 0.141843 1.59573 37 36 34
0.23255 0.146168 1.64438 36 36 33
0.244319 0.14808 1.6659 36 36 33
0.244354 0.142995 1.60869 36 36 33
0.265803 0.150362 1.69157 36 36 33
0.279277 0.152888 1.71999 36 36 33
0.285746 0.151541 1.70483 36 36 33
0.294676 0.151541 1.70483 36 36 33
0.29398 0.146736 1.65078 36 36 33
0.315313 0.152888 1.71999 36 36 33
0.313292 0.147688 1.66149 36 36 34
0.330394 0.151541 1.70483 36 36 34
0.34234 0.152888 1.71999 36 36 34
0.345544 0.150362 1.69157 36 36 33
0.351387 0.149082 1.67717 36 36 34
0.376098 0.155674 1.75133 36 36 33
0.36429 0.147196 1.65596 35 35 32
0.380985 0.150362 1.69157 35 36 33
0.392901 0.151541 1.70483 35 36 33
0.408646 0.154111 1.73375 35 36 33
0.41076 0.151541 1.70483 35 36 33
0.413547 0.149323 1.67988 36 36 33
0.435889 0.154111 1.73375 35 35 32
0.426426 0.147688 1.66149 36 36 34
0.450983 0.15307 1.72203 36 36 34
0.467829 0.155674 1.75133 36 36 34
0.447873 0.146168 1.64438 35 35 34
0.477474 0.152888 1.71999 36 36 35
0.486483 0.152888 1.71999 36 36 35
0.498608 0.153849 1.7308 35 35 34
0.508538 0.154111 1.73375 35 35 33
0.500727 0.149082 1.67717 34 34 32
0.509511 0.149082 1.67717 33 33 31
0.53487 0.153849 1.7308 36 36 34
0.535774 0.151541 1.70483 37 37 35
0.540467 0.150362 1.69157 36 36 34
0.558554 0.152888 1.71999 35 36 34
0.572105 0.154111 1.73375 34 35 34
0.576032 0.152745 1.71838 34 36 34
0.571004 0.149082 1.67717 35 36 34
0.589351 0.151541 1.70483 35 36 34
0.614599 0.155674 1.75133 35 36 34
0.607211 0.151541 1.70483 34 36 34
0.635269 0.156246 1.75776 34 36 34
0.619642 0.150225 1.69003 33 35 33
0.667593 0.15957 1.79517 34 36 34
0.653834 0.154111 1.73375 34 36 34
0.674437 0.15679 1.76388 32 35 34
0.655648 0.150362 1.69157 31 34 32
0.675671 0.152888 1.71999 31 34 33
0.70669 0.157803 1.77528 32 35 33
0.711392 0.15679 1.76388 31 34 32
0.709832 0.15444 1.73745 31 34 32
0.72987 0.15679 1.76388 33 35 34
0.739109 0.15679 1.76388 33 36 34
0.765907 0.160469 1.80527 33 35 33
0.760901 0.157476 1.7716 32 35 33
0.808955 0.165404 1.86079 31 34 32
0.789828 0.15957 1.79517 29 32 30
0.824927 0.164701 1.85288 25 28 27
0.791785 0.156246 1.75776 23 26 26
0.811865 0.158367 1.78162 23 26 26
0.816576 0.157476 1.7716 22 25 25
0.794731 0.151541 1.70483 28 32 32
0.83986 0.158367 1.78162 33 35 36
0.862703 0.160886 1.80997 33 36 36
0.87838 0.162029 1.82283 31 36 36
0.881663 0.160886 1.80997 32 36 36
0.877188 0.158367 1.78162 33 37 36
0.893258 0.15957 1.79517 35 39 38
0.91657 0.162029 1.82283 36 40 39
0.912064 0.15957 1.79517 35 39 38
0.897598 0.155437 1.74867 34 37 37
0.977711 0.1676 1.8855 32 36 36
0.996658 0.16914 1.90282 32 36 36
1.03218 0.173433 1.95113 32 36 36
0.934235 0.155437 1.74867 32 36 37
0.935346 0.154111 1.73375 32 36 37
1.02709 0.1676 1.8855 32 36 37
0.953508 0.154111 1.73375 31 36 36
1.04064 0.166607 1.87433 31 36 36
1.05046 0.166607 1.87433 31 36 36
1.01549 0.15957 1.79517 31 36 36
1.10162 0.171516 1.92955 30 36 36
1.11173 0.171516 1.92955 31 36 36
1.03 0.157476 1.7716 32 36 37
1.13194 0.171516 1.92955 32 37 37
1.18374 0.177778 2 34 39 39
1.05784 0.157476 1.7716 34 39 40
1.11075 0.163915 1.84404 37 42 42
1.16707 0.170741 1.92083 38 43 43
1.17029 0.169748 1.90967 35 40 40
1.17114 0.168432 1.89486 34 38 39
1.13617 0.162029 1.82283 33 37 38
-0.605025 0.0905972 0.962595 35 36 31
-0.623298 0.0941176 1 35 36 31
-0.64262 0.0978576 1.03974 35 37 33
-0.635745 0.0976381 1.03741 37 38 35
-0.626908 0.097111 1.0318 36 37 34
-0.602347 0.0941176 1 36 37 34
-0.619444 0.0976381 1.03741 37 37 34
-0.635997 0.101134 1.07455 36 36 33
-0.586633 0.0941176 1 36 37 34
-0.604498 0.0978576 1.03974 37 37 34
-0.653585 0.106766 1.13439 37 38 34
-0.592275 0.0976381 1.03741 37 39 35
-0.610465 0.101569 1.07917 37 39 35
-0.602227 0.101134 1.07455 37 39 35
-0.616945 0.104584 1.1112 36 38 34
-0.588712 0.100748 1.07045 37 38 34
-0.629686 0.108796 1.15596 37 38 34
-0.563984 0.0983902 1.0454 38 38 34
-0.57655 0.101569 1.07917 37 38 34
-0.616784 0.109732 1.1659 37 38 33
-0.616578 0.110793 1.17717 37 38 33
-0.599413 0.108796 1.15596 37 37 33
-0.604247 0.110793 1.17717 37 37 32
-0.626827 0.116118 1.23375 35 35 30
-0.598381 0.112003 1.19003 35 35 30
-0.613903 0.116118 1.23375 36 36 31
-0.585915 0.112003 1.19003 37 37 33
-0.605113 0.116917 1.24224 38 38 34
-0.567252 0.110793 1.17717 38 38 34
-0.62816 0.124037 1.31789 38 38 33
-0.610544 0.121898 1.29517 37 38 32
-0.60376 0.121898 1.29517 36 36 30
-0.609726 0.124502 1.32283 36 36 30
-0.602798 0.124502 1.32283 36 37 31
-0.583409 0.121898 1.29517 37 37 32
-0.627601 0.132674 1.40967 37 37 33
-0.659962 0.141176 1.5 37 37 33
-0.612834 0.132674 1.40967 37 37 32
-0.568154 0.124502 1.32283 37 37 32
-0.636392 0.141176 1.5 36 36 31
-0.608056 0.136577 1.45113 36 36 31
-0.603143 0.137188 1.45762 36 36 30
-0.575916 0.132674 1.40967 36 36 31
-0.624677 0.145776 1.54887 36 37 32
-0.633068 0.149679 1.59033 36 37 32
-0.611925 0.146609 1.55772 36 37 33
-0.650066 0.157851 1.67717 37 37 33
-0.595607 0.146609 1.55772 36 37 32
-0.620132 0.154766 1.64438 36 36 32
-0.591419 0.149679 1.59033 37 37 33
-0.612116 0.15713 1.6695 37 37 32
-0.580109 0.151072 1.60514 37 37 32
-0.585681 0.154766 1.64438 36 36 32
-0.563294 0.151072 1.60514 37 37 33
-0.579789 0.157851 1.67717 37 37 33
-0.580422 0.160455 1.70483 37 36 32
-0.601774 0.168957 1.79517 36 36 32
-0.580028 0.165436 1.75776 36 36 32
-0.553633 0.160455 1.70483 35 36 32
-0.530857 0.156376 1.66149 35 36 31
-0.54003 0.161729 1.71838 36 37 32
-0.522746 0.159207 1.69157 37 37 34
-0.53051 0.164357 1.74629 37 37 33
-0.517619 0.163176 1.73375 37 37 33
-0.500056 0.160455 1.70483 37 36 32
-0.50307 0.164357 1.74629 36 36 31
-0.495348 0.164831 1.75133 36 36 32
-0.473267 0.160455 1.70483 35 36 31
-0.467671 0.161607 1.71707 36 36 31
-0.463133 0.163176 1.73375 36 36 32
-0.432323 0.155368 1.65078 37 36 32
-0.431145 0.158106 1.67988 37 37 32
-0.443465 0.166013 1.76388 37 37 32
-0.41288 0.157851 1.67717 37 37 33
-0.407194 0.159062 1.69003 36 37 32
-0.405023 0.161729 1.71838 34 35 29
-0.396393 0.161881 1.71999 35 36 30
-0.380637 0.159062 1.69003 36 37 32
-0.371785 0.159062 1.69003 36 36 32
-0.354505 0.155368 1.65078 35 36 31
-0.351387 0.157851 1.67717 35 36 33
-0.348253 0.160455 1.70483 35 36 32
-0.336684 0.159207 1.69157 36 37 34
-0.321995 0.156376 1.66149 37 38 35
-0.326917 0.163176 1.73375 36 37 34
-0.309821 0.159062 1.69003 36 37 34
-0.298679 0.157851 1.67717 36 37 33
-0.282499 0.153825 1.63439 37 37 34
-0.283523 0.159207 1.69157 37 38 34
-0.276817 0.160455 1.70483 37 38 34
-0.259394 0.155368 1.65078 37 37 34
-0.254756 0.157851 1.67717 37 37 33
-0.242101 0.155368 1.65078 37 37 34
-0.227502 0.151406 1.60869 37 37 34
-0.228402 0.157851 1.67717 36 35 32
-0.227026 0.163176 1.73375 35 35 31
-0.208862 0.156376 1.66149 36 36 33
-0.20069 0.156791 1.6659 36 36 33
-0.191456 0.156376 1.66149 36 37 34
-0.182754 0.156376 1.66149 38 38 35
-0.174051 0.156376 1.66149 37 37 34
-0.168189 0.159062 1.69003 35 35 31
-0.158124 0.157851 1.67717 35 35 31
-0.14642 0.154766 1.64438 36 35 32
-0.141633 0.159062 1.69003 37 37 34
-0.133943 0.160455 1.70483 38 38 35
-0.11712 0.150323 1.59718 37 37 34
-0.108288 0.149679 1.59033 37 37 33
-0.104431 0.156376 1.66149 37 37 33
-0.0940905 0.153701 1.63307 37 36 33
-0.0856058 0.153825 1.63439 37 36 33
-0.077375 0.154483 1.64138 35 36 32
-0.0698053 0.156791 1.6659 35 36 32
-0.0615921 0.158106 1.67988 35 36 32
-0.0527932 0.158106 1.67988 35 36 32
-0.0428029 0.153825 1.63439 35 36 32
-0.0345858 0.155368 1.65078 36 36 32
-0.0251698 0.150758 1.6018 36 36 33
-0.0171944 0.154483 1.64138 37 37 34
-0.00872567 0.156791 1.6659 37 37 34
0 0.155855 1.65596 36 36 33
0.00855368 0.153701 1.63307 37 37 33
0.0174513 0.156791 1.6659 36 36 33
0.0261077 0.156376 1.66149 36 36 32
0.0340596 0.153004 1.62567 36 36 32
0.0416492 0.149679 1.59033 35 35 32
0.0497921 0.149119 1.58438 36 36 32
0.0620207 0.159207 1.69157 36 36 33
0.0687778 0.154483 1.64138 36 36 33
0.0791898 0.158106 1.67988 37 37 34
0.0872567 0.156791 1.6659 37 37 34
0.0974612 0.159207 1.69157 37 37 34
0.105416 0.157851 1.67717 37 37 34
0.117007 0.161729 1.71838 36 36 33
0.122986 0.157851 1.67717 36 36 33
0.125849 0.150758 1.6018 36 36 33
0.141762 0.159207 1.69157 36 36 33
0.144753 0.153004 1.62567 37 37 34
0.155636 0.155368 1.65078 37 37 34
0.165349 0.156376 1.66149 37 37 34
0.174051 0.156376 1.66149 36 36 33
0.187521 0.160455 1.70483 36 36 33
0.19645 0.160455 1.70483 36 36 33
0.199492 0.155855 1.65596 37 36 34
0.207515 0.155368 1.65078 36 36 34
0.214931 0.154483 1.64138 36 36 33
0.230363 0.159207 1.69157 36 36 33
0.229902 0.153004 1.62567 36 35 32
0.239696 0.153825 1.63439 36 35 33
0.254756 0.157851 1.67717 37 36 33
0.255447 0.153004 1.62567 37 36 34
0.274413 0.159062 1.69003 37 37 34
0.279221 0.156791 1.6659 36 37 34
0.284227 0.154766 1.64438 36 36 34
0.298679 0.157851 1.67717 36 36 33
0.310104 0.159207 1.69157 36 36 33
0.318964 0.159207 1.69157 36 36 33
0.330394 0.160455 1.70483 36 36 33
0.336377 0.159062 1.69003 36 36 33
0.351349 0.161881 1.71999 36 36 33
0.338691 0.152148 1.61657 36 36 34
0.356805 0.156376 1.66149 36 36 34
0.378021 0.161729 1.71838 35 36 33
0.37421 0.156376 1.66149 35 36 33
0.380444 0.155368 1.65078 35 35 32
0.408646 0.163176 1.73375 35 35 32
0.400318 0.156376 1.66149 35 36 33
0.41969 0.160455 1.70483 36 36 34
0.417723 0.156376 1.66149 36 36 34
0.427558 0.156791 1.6659 36 36 34
0.439234 0.157851 1.67717 36 36 35
0.455408 0.160455 1.70483 37 36 35
0.481619 0.166427 1.76828 36 36 34
0.469158 0.159062 1.69003 35 36 34
0.47801 0.159062 1.69003 35 35 34
0.487306 0.159207 1.69157 34 35 33
0.508538 0.163176 1.73375 35 35 34
0.496046 0.156376 1.66149 35 35 33
0.532041 0.164831 1.75133 35 35 34
0.510141 0.155368 1.65078 37 37 36
0.531122 0.159062 1.69003 37 37 35
0.544704 0.160455 1.70483 36 36 35
0.553633 0.160455 1.70483 35 36 34
0.572105 0.163176 1.73375 34 35 33
0.576572 0.161881 1.71999 34 35 34
0.594537 0.164357 1.74629 34 35 34
0.602282 0.163975 1.74224 35 36 34
0.603599 0.161881 1.71999 36 37 35
0.621977 0.164357 1.74629 35 37 35
0.626591 0.163176 1.73375 34 36 34
0.661895 0.169908 1.80527 34 36 34
0.639036 0.161729 1.71838 34 36 34
0.658564 0.164357 1.74629 33 36 34
0.661788 0.162899 1.7308 33 36 35
0.65505 0.159062 1.69003 32 35 34
0.721316 0.172817 1.83618 31 34 33
0.702153 0.166013 1.76388 31 34 32
0.700732 0.163525 1.73745 30 34 31
0.733412 0.168957 1.79517 31 34 32
0.717401 0.163176 1.73375 33 36 34
0.733849 0.164831 1.75133 33 35 34
0.765907 0.169908 1.80527 32 35 33
0.752196 0.164831 1.75133 31 34 33
0.747742 0.161881 1.71999 29 32 31
0.784915 0.167906 1.784 27 30 29
0.813631 0.172001 1.82751 25 28 27
0.798018 0.166739 1.7716 24 27 27
0.835776 0.172621 1.8341 23 27 27
0.827439 0.168957 1.79517 24 28 29
0.819405 0.165436 1.75776 28 32 33
0.835135 0.166739 1.7716 31 35 35
0.861372 0.170087 1.80718 33 36 36
0.86505 0.168957 1.79517 31 35 35
0.893415 0.172621 1.8341 31 35 35
0.860962 0.164581 1.74867 31 35 35
0.878869 0.166235 1.76625 33 37 37
0.927237 0.173557 1.84404 34 38 38
0.912064 0.168957 1.79517 35 39 39
0.921467 0.168957 1.79517 34 38 38
0.986692 0.179089 1.90282 32 36 36
0.925126 0.166235 1.76625 32 36 36
0.991555 0.176408 1.87433 31 35 36
0.977953 0.172282 1.8305 32 36 36
0.978885 0.170772 1.81445 32 36 36
1.01363 0.175133 1.86079 31 36 37
1.03697 0.177459 1.8855 31 36 37
1.03312 0.175133 1.86079 31 36 37
1.05046 0.176408 1.87433 32 37 37
1.05262 0.175133 1.86079 32 37 37
1.0528 0.173557 1.84404 33 37 38
1.11173 0.181605 1.92955 34 38 38
1.05491 0.170772 1.81445 34 38 38
1.08178 0.173557 1.84404 33 38 38
1.12151 0.17834 1.89486 34 39 39
1.10109 0.173557 1.84404 34 39 40
1.12084 0.175133 1.86079 36 41 42
1.12041 0.173557 1.84404 37 42 42
1.11707 0.17156 1.82283 36 41 41
1.17114 0.17834 1.89486 34 38 39
1.13617 0.17156 1.82283 32 37 38
-0.628536 0.0993464 1 36 38 33
-0.623298 0.0993464 1 35 37 32
-0.61806 0.0993464 1 35 36 32
-0.612822 0.0993464 1 35 36 33
-0.607584 0.0993464 1 35 37 33
-0.650032 0.107211 1.07917 36 37 34
-0.619444 0.103062 1.03741 37 37 35
-0.641816 0.10773 1.08438 37 37 34
-0.633075 0.107211 1.07917 37 37 34
-0.630456 0.10773 1.08438 37 37 34
-0.597709 0.103062 1.03741 36 37 34
-0.593606 0.103294 1.03974 37 38 34
-0.613417 0.10773 1.08438 37 38 34
-0.626574 0.111069 1.118 36 38 33
-0.647318 0.115828 1.1659 36 37 33
-0.611125 0.110394 1.1112 36 37 33
-0.590698 0.10773 1.08438 37 38 34
-0.623631 0.11484 1.15596 37 38 34
-0.574086 0.106753 1.07455 37 38 33
-0.637377 0.119696 1.20483 37 38 33
-0.585584 0.111069 1.118 38 38 34
-0.624756 0.119696 1.20483 38 38 34
-0.582285 0.112697 1.13439 38 38 34
-0.619016 0.121041 1.21838 37 37 32
-0.612634 0.121041 1.21838 36 36 31
-0.580143 0.115828 1.1659 37 37 32
-0.60744 0.122569 1.23375 37 37 32
-0.619415 0.126329 1.2716 37 38 33
-0.633405 0.130586 1.31445 38 38 34
-0.596434 0.124315 1.25133 39 39 34
-0.56796 0.119696 1.20483 39 39 34
-0.579086 0.123412 1.24224 36 37 31
-0.607452 0.130928 1.31789 35 36 30
-0.579453 0.126329 1.2716 36 37 31
-0.634984 0.140045 1.40967 37 38 33
-0.648951 0.144809 1.45762 37 37 33
-0.604672 0.136535 1.37433 37 38 33
-0.589336 0.134676 1.35562 38 38 34
-0.590275 0.136535 1.37433 38 38 34
-0.611906 0.143286 1.44228 38 38 33
-0.604351 0.143286 1.44228 37 37 32
-0.603143 0.144809 1.45762 36 36 31
-0.592854 0.144164 1.45113 36 36 31
-0.604965 0.14902 1.5 36 36 32
-0.597109 0.14902 1.5 36 37 32
-0.624738 0.157994 1.59033 37 37 33
-0.630103 0.161504 1.62567 37 38 34
-0.621588 0.161504 1.62567 36 37 33
-0.620132 0.163364 1.64438 36 36 31
-0.557825 0.14902 1.5 36 37 32
-0.602907 0.163364 1.64438 37 37 32
-0.587529 0.161504 1.62567 37 37 32
-0.585681 0.163364 1.64438 36 36 32
-0.621711 0.176002 1.7716 36 36 32
-0.568455 0.163364 1.64438 36 36 32
-0.559842 0.163364 1.64438 36 36 32
-0.589235 0.174627 1.75776 36 36 32
-0.562563 0.169369 1.70483 36 36 33
-0.548194 0.167705 1.68808 36 36 33
-0.52539 0.163364 1.64438 36 36 32
-0.548803 0.173488 1.74629 36 37 34
-0.522746 0.168052 1.69157 37 37 33
