ply
format ascii 1.0
element vertex 1369
property float x
property float y
property float z
property uchar red
property uchar green
property uchar blue
end_header
0.686666 0.528006 1.7716 32 36 37
0.71607 0.543274 1.82283 31 35 37
0.734062 0.549597 1.84404 33 37 38
0.718547 0.530994 1.78162 35 39 40
0.696506 0.508107 1.70483 36 40 41
0.758923 0.546632 1.8341 35 40 41
0.75842 0.539442 1.80997 36 40 41
0.7679 0.539442 1.80997 33 37 39
0.792015 0.549597 1.84404 31 36 37
0.7514 0.515131 1.7284 33 37 39
0.78226 0.529903 1.77797 34 39 40
0.839449 0.561953 1.8855 35 40 41
0.849325 0.561953 1.8855 35 40 41
0.800991 0.523882 1.75776 35 40 41
0.843725 0.54556 1.8305 35 39 41
0.859626 0.549597 1.84404 34 38 40
0.828612 0.523882 1.75776 33 38 40
0.898704 0.561953 1.8855 34 38 40
0.882076 0.54556 1.8305 34 39 40
0.891663 0.54556 1.8305 35 39 40
0.901251 0.54556 1.8305 35 39 40
0.910839 0.54556 1.8305 34 39 39
0.935659 0.554589 1.86079 34 38 39
0.983895 0.577168 1.93655 34 38 39
0.921467 0.53503 1.79517 35 38 39
0.956213 0.549597 1.84404 35 39 39
0.940272 0.53503 1.79517 35 39 39
1.05803 0.596078 2 35 38 38
1.03087 0.575083 1.92955 34 38 38
1.00388 0.554589 1.86079 34 37 39
1.00451 0.549597 1.84404 34 37 39
0.974324 0.528006 1.7716 35 39 40
1.11041 0.596078 2 36 40 41
1.07026 0.569155 1.90967 36 39 41
1.08658 0.572484 1.92083 35 39 40
1.19341 0.623002 2.09033 36 39 40
1.10027 0.569155 1.90967 36 39 40
1.10166 0.564744 1.89486 36 40 41
1.09955 0.558625 1.87433 37 42 43
1.06251 0.53503 1.79517 37 41 42
1.14028 0.569155 1.90967 36 40 41
1.11075 0.549597 1.84404 31 36 36
1.13882 0.558625 1.87433 30 35 35
1.22564 0.596078 2 33 37 37
1.23612 0.596078 2 34 38 38
1.32492 0.633532 2.12567 34 38 39
-0.772093 0.372535 1.2284 35 35 31
-0.750969 0.365387 1.20483 35 35 31
-0.777372 0.381439 1.25776 35 35 32
-0.698132 0.345486 1.13921 35 35 32
-0.607584 0.303268 1 35 35 32
-0.696288 0.350565 1.15596 34 34 31
-0.773356 0.392783 1.29517 35 35 31
-0.684178 0.350565 1.15596 37 37 33
-0.678123 0.350565 1.15596 37 37 34
-0.819573 0.427506 1.40967 36 36 32
-0.666014 0.350565 1.15596 36 36 33
-0.804806 0.427506 1.40967 37 36 34
-0.711493 0.381439 1.25776 37 36 34
-0.770238 0.416791 1.37433 36 36 34
-0.83281 0.454902 1.5 36 35 32
-0.767131 0.423017 1.39486 35 35 31
-0.732141 0.407605 1.34404 36 36 32
-0.80924 0.454902 1.5 36 36 32
-0.801383 0.454902 1.5 36 36 32
-0.657165 0.376731 1.24224 36 36 32
-0.719848 0.416791 1.37433 35 36 31
-0.723295 0.423017 1.39486 36 36 32
-0.769956 0.454902 1.5 36 36 32
-0.797891 0.476266 1.57045 35 36 31
-0.754243 0.454902 1.5 35 35 31
-0.823989 0.502199 1.65596 34 35 30
-0.783006 0.482297 1.59033 35 36 32
-0.791886 0.493012 1.62567 36 37 34
-0.82152 0.517021 1.70483 36 37 33
-0.774856 0.493012 1.62567 36 37 33
-0.835135 0.537269 1.7716 36 37 33
-0.699246 0.454902 1.5 35 36 33
-0.749312 0.493012 1.62567 35 36 33
-0.740797 0.493012 1.62567 36 37 33
-0.784792 0.528365 1.74224 37 38 34
-0.743283 0.506306 1.6695 37 37 34
-0.779459 0.537269 1.7716 36 36 33
-0.801673 0.559239 1.84404 36 37 34
-0.771023 0.544417 1.79517 37 37 34
-0.739164 0.528365 1.74224 38 38 35
-0.772697 0.559239 1.84404 37 37 34
-0.742815 0.544417 1.79517 37 37 34
-0.788315 0.585172 1.92955 37 37 34
-0.724009 0.544417 1.79517 37 37 34
-0.705225 0.537269 1.7716 37 37 34
-0.717909 0.554225 1.82751 36 36 33
-0.70461 0.551309 1.81789 35 35 32
-0.690262 0.547481 1.80527 35 35 31
-0.680806 0.547481 1.80527 35 35 31
-0.679621 0.554225 1.82751 35 36 31
-0.654096 0.54103 1.784 36 36 32
-0.626591 0.525791 1.73375 36 37 33
-0.642984 0.547481 1.80527 36 37 33
-0.623003 0.538385 1.77528 35 37 33
-0.613704 0.538385 1.77528 36 37 33
-0.590267 0.525791 1.73375 36 38 34
-0.605161 0.547481 1.80527 36 38 34
-0.595706 0.547481 1.80527 36 37 34
-0.579342 0.54103 1.784 36 37 33
-0.55956 0.531123 1.75133 36 38 33
-0.546025 0.526913 1.73745 36 37 33
-0.561784 0.551309 1.81789 36 38 33
-0.555183 0.554225 1.82751 36 37 32
-0.532621 0.54103 1.784 36 37 32
-0.500056 0.517021 1.70483 34 36 31
-0.491126 0.517021 1.70483 36 36 32
-0.495348 0.531123 1.75133 36 36 32
-0.486175 0.531123 1.75133 36 37 32
-0.473222 0.526913 1.73745 35 36 31
-0.479539 0.544417 1.79517 35 36 30
-0.485251 0.56192 1.85288 35 35 31
-0.448189 0.529595 1.74629 35 35 31
-0.420818 0.507611 1.6738 35 36 32
-0.431137 0.531123 1.75133 35 37 33
-0.424988 0.534929 1.76388 36 37 34
-0.40183 0.517021 1.70483 36 37 34
-0.392901 0.517021 1.70483 37 37 34
-0.397271 0.534929 1.76388 37 38 34
-0.381403 0.525791 1.73375 37 37 34
-0.373117 0.526913 1.73745 37 38 34
-0.373769 0.54103 1.784 37 37 34
-0.35416 0.525791 1.73375 36 37 33
-0.34234 0.521617 1.71999 36 36 32
-0.330394 0.517021 1.70483 36 37 33
-0.318673 0.512532 1.69003 36 37 34
-0.329095 0.544417 1.79517 36 37 34
-0.303605 0.517021 1.70483 35 37 33
-0.292117 0.512532 1.69003 35 36 32
-0.295644 0.534929 1.76388 35 37 33
-0.274097 0.511942 1.68808 35 36 33
-0.270268 0.521617 1.71999 36 36 33
-0.26335 0.525791 1.73375 36 37 34
-0.254812 0.526913 1.73745 36 37 34
-0.243241 0.521617 1.71999 36 36 33
-0.230153 0.512532 1.69003 36 37 33
-0.238044 0.551309 1.81789 35 37 33
-0.208862 0.503878 1.66149 35 36 32
-0.20538 0.517021 1.70483 35 36 32
-0.198197 0.521617 1.71999 35 36 33
-0.189011 0.521128 1.71838 35 36 33
-0.182008 0.526913 1.73745 35 36 33
-0.17254 0.525791 1.73375 35 36 33
-0.157807 0.507611 1.6738 35 36 34
-0.151803 0.517021 1.70483 35 36 34
-0.138777 0.502199 1.65596 35 37 34
-0.131506 0.507611 1.6738 35 36 34
-0.127134 0.525791 1.73375 35 36 33
-0.111968 0.498689 1.64438 34 35 32
-0.110866 0.534929 1.76388 36 36 34
-0.0990984 0.521617 1.71999 35 35 33
-0.0876704 0.507611 1.6738 34 35 32
-0.0817293 0.525791 1.73375 35 35 32
-0.0714365 0.517021 1.70483 35 35 33
-0.0640271 0.529595 1.74629 35 36 33
-0.0531122 0.512532 1.69003 35 36 34
-0.0442092 0.511942 1.68808 36 37 34
-0.0357183 0.517021 1.70483 36 36 34
-0.0265255 0.511942 1.68808 36 36 34
-0.0177041 0.512532 1.69003 35 35 33
-0.00867357 0.502199 1.65596 34 34 32
0 0.512532 1.69003 34 34 32
0.00878468 0.508632 1.67717 35 35 33
0.0178591 0.517021 1.70483 35 36 34
0.0275194 0.531123 1.75133 36 36 34
0.0357183 0.517021 1.70483 35 35 33
0.0442602 0.512532 1.69003 34 34 32
0.0535774 0.517021 1.70483 34 35 33
0.0613693 0.507611 1.6738 35 35 33
0.0708163 0.512532 1.69003 35 35 34
0.0819037 0.526913 1.73745 36 36 35
0.0892957 0.517021 1.70483 36 36 35
0.0982252 0.517021 1.70483 36 36 34
0.109761 0.529595 1.74629 35 35 34
0.113971 0.507611 1.6738 35 35 33
0.127134 0.525791 1.73375 34 34 32
0.133943 0.517021 1.70483 34 34 32
0.136239 0.493012 1.62567 34 34 33
0.155943 0.531123 1.75133 34 34 33
0.163459 0.525791 1.73375 34 34 33
0.172908 0.526913 1.73745 34 34 33
0.174051 0.503878 1.66149 34 35 33
0.187521 0.517021 1.70483 35 35 33
0.198197 0.521617 1.71999 35 35 34
0.207206 0.521617 1.71999 35 36 34
0.21431 0.517021 1.70483 35 36 34
0.223239 0.517021 1.70483 34 35 33
0.238501 0.531123 1.75133 34 34 33
0.239005 0.512532 1.69003 34 34 33
0.261638 0.54103 1.784 34 34 33
0.26335 0.525791 1.73375 33 34 33
0.26354 0.508632 1.67717 34 34 34
0.274413 0.512532 1.69003 34 34 34
0.291213 0.526913 1.73745 33 34 34
0.312036 0.547481 1.80527 33 34 34
0.300969 0.512532 1.69003 32 35 34
0.309464 0.511942 1.68808 32 34 34
0.327615 0.526913 1.73745 33 35 34
0.333331 0.521617 1.71999 33 35 35
0.348578 0.531123 1.75133 33 34 34
0.361892 0.537269 1.7716 33 35 34
0.364017 0.526913 1.73745 33 34 34
0.373117 0.526913 1.73745 32 34 34
0.375042 0.517021 1.70483 33 35 35
0.399009 0.537269 1.7716 33 35 35
0.396865 0.522238 1.72203 33 35 35
0.409519 0.526913 1.73745 31 34 34
0.426847 0.537269 1.7716 31 34 34
0.412051 0.507611 1.6738 30 34 34
0.424898 0.512532 1.69003 30 34 34
0.441964 0.522238 1.72203 29 33 35
0.461943 0.534929 1.76388 30 34 36
0.476555 0.54103 1.784 33 37 38
0.477002 0.531123 1.75133 35 39 40
0.477474 0.521617 1.71999 36 39 40
0.501081 0.537269 1.7716 35 40 40
0.491126 0.517021 1.70483 36 39 39
0.500056 0.517021 1.70483 36 39 39
0.54274 0.551309 1.81789 36 39 39
0.553761 0.552806 1.82283 35 38 38
0.536925 0.526913 1.73745 33 36 37
0.560654 0.54103 1.784 33 36 37
0.569239 0.54031 1.78162 32 35 37
0.578571 0.54031 1.78162 32 35 36
0.580028 0.533073 1.75776 33 36 38
0.577259 0.522238 1.72203 34 38 39
0.615266 0.548059 1.80718 35 39 40
0.607649 0.533073 1.75776 35 40 41
0.621711 0.537269 1.7716 36 40 41
0.630991 0.537269 1.7716 36 40 40
0.635269 0.533073 1.75776 36 39 40
0.662594 0.548059 1.80718 36 39 40
0.653683 0.533073 1.75776 35 38 40
0.681525 0.548059 1.80718 34 37 39
0.672096 0.533073 1.75776 33 36 38
0.706523 0.552806 1.82283 33 37 38
0.699884 0.54031 1.78162 33 37 38
0.709216 0.54031 1.78162 34 38 39
0.695598 0.523053 1.72472 34 39 40
0.73946 0.548906 1.80997 35 40 40
0.730849 0.535647 1.76625 35 40 40
0.75842 0.548906 1.80997 34 39 40
0.723295 0.517021 1.70483 33 37 38
0.758603 0.535647 1.76625 32 36 38
0.786861 0.548906 1.80997 34 38 39
0.78226 0.5392 1.77797 35 39 40
0.830595 0.565781 1.86561 36 40 41
0.830649 0.559239 1.84404 35 40 41
0.810198 0.5392 1.77797 35 40 41
0.843725 0.555132 1.8305 34 39 41
0.883317 0.574651 1.89486 33 38 40
0.869284 0.559239 1.84404 33 38 40
0.855647 0.544417 1.79517 33 38 40
0.87838 0.552806 1.82283 34 38 40
0.906419 0.564318 1.86079 35 40 40
0.922834 0.568426 1.87433 35 39 40
0.893258 0.544417 1.79517 34 39 39
0.920427 0.555132 1.8305 35 39 39
0.912064 0.544417 1.79517 35 39 40
0.994038 0.587293 1.93655 36 40 40
0.956213 0.559239 1.84404 36 40 40
0.965871 0.559239 1.84404 36 40 40
0.901886 0.517021 1.70483 36 40 40
0.994137 0.564318 1.86079 35 39 40
0.994848 0.559239 1.84404 34 38 39
1.0549 0.587293 1.93655 34 38 39
1.05026 0.57914 1.90967 36 40 41
1.11041 0.606536 2 37 40 42
1.02159 0.552806 1.82283 36 39 41
1.13136 0.606536 2 37 39 41
1.09027 0.57914 1.90967 37 40 41
1.15232 0.606536 2 37 39 40
1.16279 0.606536 2 37 41 41
1.09955 0.568426 1.87433 39 42 43
1.10936 0.568426 1.87433 37 41 42
1.19422 0.606536 2 35 38 39
1.20469 0.606536 2 31 35 35
1.21517 0.606536 2 31 36 36
1.22564 0.606536 2 34 38 38
1.23612 0.606536 2 35 39 39
1.2466 0.606536 2 35 39 39
-0.790548 0.388015 1.25776 35 35 31
-0.774284 0.383226 1.24224 35 35 31
-0.61806 0.308497 1 34 35 31
-0.761271 0.383226 1.24224 36 36 33
-0.764197 0.388015 1.25776 37 37 34
-0.696288 0.356609 1.15596 36 36 33
-0.702899 0.363153 1.17717 35 35 31
-0.744433 0.388015 1.25776 35 35 31
-0.780515 0.410454 1.3305 36 36 32
-0.684402 0.363153 1.17717 36 36 33
-0.74622 0.399555 1.29517 37 36 33
-0.81616 0.441013 1.42955 37 36 34
-0.7603 0.414632 1.34404 37 36 34
-0.74567 0.410454 1.3305 36 35 33
-0.719085 0.399555 1.29517 35 35 32
-0.793211 0.44494 1.44228 36 36 32
-0.855471 0.484478 1.57045 37 37 33
-0.698734 0.399555 1.29517 36 36 33
-0.663672 0.383226 1.24224 36 36 32
-0.727047 0.423978 1.37433 35 35 30
-0.785669 0.462745 1.5 35 35 31
-0.814342 0.484478 1.57045 35 36 31
-0.733796 0.441013 1.42955 34 35 30
-0.762099 0.462745 1.5 35 35 31
-0.754243 0.462745 1.5 35 35 31
-0.781439 0.484478 1.57045 35 36 32
-0.815316 0.510858 1.65596 35 36 32
-0.758787 0.48055 1.55772 35 36 31
-0.756762 0.484478 1.57045 34 36 31
-0.855647 0.553803 1.79517 35 36 32
-0.740311 0.484478 1.57045 35 36 32
-0.771948 0.510858 1.65596 35 36 32
-0.749312 0.501513 1.62567 35 36 32
-0.776872 0.525935 1.70483 36 37 34
-0.767943 0.525935 1.70483 37 38 34
-0.759013 0.525935 1.70483 36 37 33
-0.734539 0.515036 1.6695 35 36 31
-0.77018 0.546533 1.7716 35 36 32
-0.74829 0.537475 1.74224 35 36 31
-0.769802 0.559753 1.81445 35 36 32
-0.702774 0.517402 1.67717 35 35 31
-0.717401 0.534856 1.73375 36 36 33
-0.726384 0.548497 1.77797 37 36 33
-0.702662 0.537475 1.74224 37 37 33
-0.710161 0.550358 1.784 37 37 34
-0.714132 0.560814 1.81789 36 36 33
-0.681303 0.542264 1.75776 36 36 32
-0.698765 0.563781 1.82751 35 36 32
-0.685567 0.560814 1.81789 36 36 32
-0.679621 0.563781 1.82751 35 36 31
-0.64672 0.544152 1.76388 35 35 31
-0.632945 0.54028 1.75133 35 36 32
-0.623772 0.54028 1.75133 36 37 33
-0.641332 0.563781 1.82751 36 37 33
-0.63176 0.563781 1.82751 36 37 34
-0.633519 0.574048 1.86079 37 38 34
-0.591287 0.544152 1.76388 37 38 34
-0.596335 0.557508 1.80718 36 37 34
-0.568733 0.54028 1.75133 36 37 32
-0.566036 0.546533 1.7716 36 37 32
-0.540537 0.530611 1.71999 36 37 32
-0.536925 0.535998 1.73745 36 37 32
-0.560205 0.568881 1.84404 35 36 31
-0.535955 0.553803 1.79517 34 35 31
-0.519639 0.546533 1.7716 34 35 30
-0.491126 0.525935 1.70483 35 36 31
-0.486483 0.530611 1.71999 35 36 31
-0.495244 0.550358 1.784 35 35 30
-0.488941 0.553803 1.79517 34 35 30
-0.473243 0.546533 1.7716 35 35 30
-0.476088 0.560814 1.81789 35 35 31
-0.449483 0.54028 1.75133 34 35 31
-0.435889 0.534856 1.73375 34 35 31
-0.423024 0.530113 1.71838 35 36 33
-0.41076 0.525935 1.70483 36 37 34
-0.411603 0.538726 1.74629 36 37 33
-0.396393 0.530611 1.71999 36 37 33
-0.387385 0.530611 1.71999 37 37 34
-0.371357 0.520768 1.68808 37 37 34
-0.376098 0.54028 1.75133 36 37 33
-0.357183 0.525935 1.70483 36 36 33
-0.35416 0.534856 1.73375 35 36 32
-0.34234 0.530611 1.71999 35 35 32
-0.333728 0.531242 1.72203 36 36 33
-0.327615 0.535998 1.73745 36 37 34
-0.318515 0.535998 1.73745 36 37 34
-0.303605 0.525935 1.70483 36 37 34
-0.294676 0.525935 1.70483 36 37 34
-0.288629 0.531242 1.72203 36 37 34
-0.285411 0.542264 1.75776 36 37 34
-0.267887 0.525935 1.70483 36 36 33
-0.26335 0.534856 1.73375 36 37 34
-0.241163 0.507287 1.64438 37 37 34
-0.243241 0.530611 1.71999 36 37 34
-0.227943 0.516363 1.6738 36 37 34
-0.22751 0.535998 1.73745 36 37 34
-0.216472 0.531242 1.72203 36 37 33
-0.207452 0.531242 1.72203 36 37 33
-0.198197 0.530611 1.71999 36 37 34
-0.187521 0.525935 1.70483 35 36 33
-0.181621 0.534856 1.73375 35 36 33
-0.168189 0.521369 1.69003 35 36 33
-0.157807 0.516363 1.6738 35 36 33
-0.151803 0.525935 1.70483 35 36 33
-0.145607 0.535998 1.73745 35 37 34
-0.138102 0.542264 1.75776 35 37 34
-0.131638 0.553803 1.79517 36 37 34
-0.122235 0.553803 1.79517 36 36 34
-0.107155 0.525935 1.70483 36 37 34
-0.0982252 0.525935 1.70483 35 36 33
-0.0892957 0.525935 1.70483 34 35 32
-0.0803661 0.525935 1.70483 35 36 33
-0.0720715 0.530611 1.71999 35 35 33
-0.0619642 0.521369 1.69003 35 36 33
-0.0535774 0.525935 1.70483 36 36 34
-0.0438352 0.516363 1.6738 35 36 34
-0.0363241 0.534856 1.73375 35 36 33
-0.0270268 0.530611 1.71999 36 36 34
-0.0177041 0.521369 1.69003 35 36 34
-0.00908103 0.534856 1.73375 35 35 33
0 0.525935 1.70483 34 35 32
0.0090005 0.530113 1.71838 35 35 33
0.0182008 0.535998 1.73745 35 36 34
0.0274402 0.538726 1.74629 35 36 34
0.0357183 0.525935 1.70483 35 35 34
0.0450447 0.530611 1.71999 35 36 34
0.0550387 0.54028 1.75133 36 36 34
0.0635672 0.534856 1.73375 34 35 33
0.0739109 0.544152 1.76388 33 34 32
0.0783231 0.512565 1.66149 36 36 34
0.0864646 0.509261 1.65078 37 37 36
0.100105 0.535998 1.73745 36 36 34
0.110866 0.544152 1.76388 35 35 34
0.111968 0.507287 1.64438 34 34 33
0.126007 0.530113 1.71838 34 34 32
0.130104 0.510858 1.65596 34 34 33
0.140273 0.516363 1.6738 35 35 34
0.147944 0.512565 1.66149 34 35 33
0.167027 0.546533 1.7716 33 34 32
0.169662 0.525935 1.70483 34 34 33
0.180179 0.530611 1.71999 34 35 34
0.185679 0.520768 1.68808 35 35 33
0.198197 0.530611 1.71999 34 34 33
0.208864 0.534856 1.73375 35 35 34
0.208862 0.512565 1.66149 36 36 34
0.227026 0.534856 1.73375 34 34 33
0.229888 0.520768 1.68808 34 34 33
0.245711 0.535998 1.73745 34 35 34
0.263276 0.553803 1.79517 34 34 33
0.261259 0.530611 1.71999 33 34 33
0.267887 0.525935 1.70483 34 35 34
0.274097 0.520768 1.68808 33 34 34
0.296937 0.546533 1.7716 32 34 34
0.284992 0.508651 1.64881 32 34 34
0.306304 0.530611 1.71999 32 34 34
0.312535 0.525935 1.70483 33 35 34
0.336392 0.550358 1.784 33 35 35
0.333728 0.531242 1.72203 32 34 34
0.361827 0.560814 1.81789 31 33 33
0.364425 0.550358 1.784 32 34 34
0.364017 0.535998 1.73745 32 34 34
0.366112 0.525935 1.70483 33 35 35
0.382217 0.535998 1.73745 33 35 35
0.391318 0.535998 1.73745 33 35 35
0.384758 0.515036 1.6695 33 35 35
0.405885 0.531242 1.72203 32 34 34
0.406724 0.520768 1.68808 31 33 34
0.441928 0.553803 1.79517 30 34 34
0.428619 0.525935 1.70483 30 34 35
0.451133 0.542264 1.75776 29 34 35
0.458656 0.54028 1.75133 30 35 36
0.464121 0.535998 1.73745 34 37 38
0.474525 0.537475 1.74224 37 40 41
0.48796 0.542264 1.75776 36 40 41
0.511144 0.557508 1.80718 37 40 41
0.504522 0.54028 1.75133 36 40 40
0.505101 0.531242 1.72203 36 39 40
0.524787 0.542264 1.75776 36 39 40
0.523141 0.531242 1.72203 35 38 38
0.53216 0.531242 1.72203 34 36 36
0.556757 0.546533 1.7716 34 36 37
0.589182 0.568881 1.84404 32 34 36
0.578571 0.549625 1.78162 31 34 36
0.580028 0.542264 1.75776 32 36 38
0.618158 0.568881 1.84404 34 38 39
0.615266 0.557508 1.80718 35 39 40
0.612432 0.546533 1.7716 35 40 40
0.625229 0.549625 1.78162 35 39 40
0.65325 0.565812 1.8341 35 39 39
0.666451 0.568881 1.84404 35 38 40
0.644476 0.542264 1.75776 35 39 40
0.662557 0.549625 1.78162 34 38 39
0.671888 0.549625 1.78162 34 37 38
0.701283 0.565812 1.8341 34 38 39
0.706523 0.562337 1.82283 35 38 40
0.711019 0.55837 1.80997 35 38 40
0.709216 0.549625 1.78162 35 39 40
0.702662 0.537475 1.74224 35 39 40
0.758108 0.572451 1.85562 36 40 41
0.715188 0.533206 1.7284 35 39 40
0.74501 0.548497 1.77797 35 38 40
0.791508 0.575536 1.86561 33 37 39
0.771023 0.553803 1.79517 33 37 38
0.741154 0.525935 1.70483 33 37 39
0.805373 0.564703 1.8305 34 38 40
0.799231 0.553803 1.79517 34 39 40
0.815302 0.55837 1.80997 35 40 41
0.867093 0.587014 1.90282 35 40 41
0.819511 0.548497 1.77797 34 39 41
0.836842 0.553803 1.79517 34 39 41
0.846245 0.553803 1.79517 35 39 41
0.844414 0.546533 1.7716 34 38 40
0.90858 0.581671 1.8855 34 38 39
0.946116 0.599188 1.94228 35 39 40
0.945728 0.592571 1.92083 36 41 41
0.960128 0.595261 1.92955 36 40 41
0.857238 0.525935 1.70483 36 40 41
0.88086 0.534856 1.73375 36 40 40
0.909369 0.546533 1.7716 36 40 40
1.00418 0.597419 1.93655 36 40 40
0.974644 0.574048 1.86079 36 40 40
0.984391 0.574048 1.86079 36 40 40
0.959077 0.553803 1.79517 35 39 40
1.03025 0.589126 1.90967 34 38 39
1.04634 0.592571 1.92083 34 37 39
1.0025 0.562337 1.82283 36 39 41
1.02382 0.568881 1.84404 37 41 42
1.07026 0.589126 1.90967 37 40 41
1.08026 0.589126 1.90967 36 39 40
1.14184 0.616993 2 36 39 39
1.15232 0.616993 2 35 38 38
1.16279 0.616993 2 39 42 42
1.11159 0.584559 1.89486 41 44 43
1.18374 0.616993 2 38 41 41
1.13144 0.584559 1.89486 34 37 37
1.11075 0.568881 1.84404 32 36 36
1.21517 0.616993 2 34 37 37
1.14863 0.578226 1.87433 35 39 39
1.23612 0.616993 2 36 40 40
1.39758 0.691723 2.24224 35 40 39
-0.726561 0.362654 1.15596 36 36 32
-0.829297 0.417411 1.3305 36 36 32
-0.767777 0.389722 1.24224 35 36 32
-0.738348 0.377987 1.20483 36 36 33
-0.702342 0.362654 1.15596 36 36 33
-0.780139 0.406327 1.29517 36 37 34
-0.719416 0.377987 1.20483 36 36 32
-0.744433 0.394592 1.25776 36 35 31
-0.80623 0.431164 1.37433 36 36 32
-0.838537 0.452481 1.44228 37 37 33
-0.678236 0.369309 1.17717 37 36 33
-0.630944 0.34671 1.10514 36 36 33
-0.808673 0.448487 1.42955 36 36 33
-0.74567 0.417411 1.3305 35 35 32
-0.793697 0.448487 1.42955 36 36 32
-0.793211 0.452481 1.44228 36 36 32
-0.817096 0.470588 1.5 36 36 32
-0.717795 0.417411 1.3305 35 35 31
-0.734245 0.431164 1.37433 35 35 30
-0.727047 0.431164 1.37433 33 33 28
-0.748771 0.448487 1.42955 34 35 30
-0.747885 0.452481 1.44228 36 36 32
-0.733796 0.448487 1.42955 35 36 32
-0.762099 0.470588 1.5 35 36 31
-0.817431 0.510013 1.62567 35 36 31
-0.775105 0.488695 1.55772 36 36 32
-0.738529 0.470588 1.5 35 36 32
-0.696357 0.448487 1.42955 35 36 31
-0.82152 0.53485 1.70483 34 36 31
-0.774856 0.510013 1.62567 35 36 32
-0.707102 0.470588 1.5 35 37 32
-0.732085 0.492689 1.57045 36 37 33
-0.785802 0.53485 1.70483 36 37 33
-0.760772 0.523765 1.6695 36 37 33
-0.808634 0.56319 1.79517 36 37 33
-0.699183 0.492689 1.57045 36 36 32
-0.789828 0.56319 1.79517 35 36 31
-0.757415 0.546584 1.74224 35 36 31
-0.74829 0.546584 1.74224 35 36 31
-0.782356 0.578523 1.84404 35 35 32
-0.779715 0.583778 1.86079 35 35 32
-0.750795 0.56924 1.81445 35 35 32
-0.721598 0.554118 1.76625 36 36 33
-0.708924 0.551455 1.75776 36 36 33
-0.714607 0.56319 1.79517 37 37 33
-0.705204 0.56319 1.79517 37 37 34
-0.695801 0.56319 1.79517 36 36 32
-0.690991 0.566958 1.80718 36 36 32
-0.692464 0.576057 1.83618 36 36 32
-0.633999 0.53485 1.70483 36 36 32
-0.654096 0.559686 1.784 35 36 31
-0.632945 0.549437 1.75133 35 36 31
-0.639385 0.56319 1.79517 35 37 33
-0.637958 0.57032 1.81789 35 37 33
-0.605426 0.549437 1.75133 35 37 33
-0.580422 0.53485 1.70483 36 37 34
-0.593874 0.555796 1.7716 36 37 33
-0.580028 0.551455 1.75776 35 35 31
-0.58625 0.56636 1.80527 34 35 30
-0.55795 0.547857 1.74629 34 35 30
-0.571306 0.57032 1.81789 35 36 32
-0.543201 0.551455 1.75776 36 38 33
-0.523141 0.540246 1.72203 35 36 32
-0.517619 0.543922 1.73375 34 35 30
-0.523277 0.559686 1.784 34 35 30
-0.51036 0.555796 1.7716 34 35 30
-0.482197 0.53485 1.70483 35 36 31
-0.486175 0.549437 1.75133 34 35 30
-0.477002 0.549437 1.75133 35 35 30
-0.467829 0.549437 1.75133 36 36 31
-0.450447 0.539604 1.71999 35 36 31
-0.449483 0.549437 1.75133 35 35 32
-0.44031 0.549437 1.75133 34 35 31
-0.42342 0.539604 1.71999 34 35 32
-0.417727 0.543922 1.73375 35 37 33
-0.405402 0.539604 1.71999 35 36 32
-0.416048 0.56636 1.80527 36 36 33
-0.409436 0.57032 1.81789 36 37 33
-0.394914 0.56319 1.79517 36 36 32
-0.373117 0.545083 1.73745 35 36 32
-0.360358 0.539604 1.71999 36 36 32
-0.35416 0.543922 1.73375 35 36 32
-0.357303 0.56319 1.79517 35 36 33
-0.333728 0.540246 1.72203 35 36 33
-0.324322 0.539604 1.71999 36 36 33
-0.318515 0.545083 1.73745 35 36 33
-0.298079 0.525115 1.6738 36 37 34
-0.304882 0.553375 1.76388 37 38 34
-0.29354 0.549437 1.75133 37 38 35
-0.267001 0.515885 1.64438 37 38 35
-0.275194 0.549437 1.75133 37 38 35
-0.258957 0.53485 1.70483 37 37 34
-0.254812 0.545083 1.73745 36 36 34
-0.247674 0.549437 1.75133 35 35 32
-0.232169 0.53485 1.70483 36 37 33
-0.219176 0.525115 1.6738 37 38 34
-0.220155 0.549437 1.75133 36 37 34
-0.20538 0.53485 1.70483 35 37 33
-0.204144 0.555796 1.7716 35 36 32
-0.185679 0.529595 1.68808 34 35 32
-0.178591 0.53485 1.70483 34 36 32
-0.165349 0.521253 1.66149 35 36 33
-0.166299 0.553375 1.76388 35 36 33
-0.150311 0.529595 1.68808 35 36 33
-0.141469 0.529595 1.68808 35 36 34
-0.132628 0.529595 1.68808 35 36 34
-0.127406 0.545083 1.73745 36 37 34
-0.116084 0.53485 1.70483 36 37 35
-0.107155 0.53485 1.70483 36 37 34
-0.0990984 0.539604 1.71999 36 37 34
-0.0908103 0.543922 1.73375 36 36 34
-0.0803661 0.53485 1.70483 36 37 34
-0.0696205 0.521253 1.66149 35 36 33
-0.0619642 0.530206 1.69003 36 36 34
-0.0544862 0.543922 1.73375 36 36 34
-0.0446478 0.53485 1.70483 35 36 33
-0.0369554 0.553375 1.76388 35 36 34
-0.0274402 0.547857 1.74629 35 36 34
-0.0178591 0.53485 1.70483 35 36 34
-0.00876704 0.525115 1.6738 35 36 34
0 0.53485 1.70483 35 35 33
0.00923886 0.553375 1.76388 35 35 34
0.0177041 0.530206 1.69003 35 36 34
0.0272431 0.543922 1.73375 35 36 34
0.0357183 0.53485 1.70483 35 36 34
0.0446478 0.53485 1.70483 36 36 35
0.054118 0.540246 1.72203 35 36 34
0.0613693 0.525115 1.6738 35 35 33
0.0677382 0.50716 1.61657 34 35 33
0.0810805 0.539604 1.71999 35 36 34
0.0885203 0.530206 1.69003 36 36 35
0.0973724 0.530206 1.69003 35 35 34
0.106224 0.530206 1.69003 35 35 34
0.110694 0.510013 1.62567 34 35 33
0.123786 0.529595 1.68808 34 34 33
0.137597 0.549437 1.75133 35 35 34
0.141633 0.530206 1.69003 35 35 34
0.154707 0.545083 1.73745 34 35 34
0.160732 0.53485 1.70483 34 34 33
0.172908 0.545083 1.73745 34 34 33
0.184777 0.553375 1.76388 34 35 33
0.183635 0.523765 1.6695 35 35 34
0.192875 0.525115 1.6738 35 35 33
0.199492 0.519516 1.65596 35 35 34
0.212449 0.530206 1.69003 35 34 33
0.217564 0.521253 1.66149 33 33 31
0.232169 0.53485 1.70483 34 34 33
0.243531 0.540246 1.72203 34 35 34
0.254269 0.543922 1.73375 34 35 34
0.261259 0.539604 1.71999 33 34 33
0.265561 0.530206 1.69003 34 34 34
0.287658 0.555796 1.7716 33 34 34
0.296937 0.555796 1.7716 32 34 34
0.297649 0.540246 1.72203 32 34 34
0.300969 0.530206 1.69003 32 35 34
0.322238 0.551455 1.75776 33 35 34
0.321464 0.53485 1.70483 32 35 34
0.339405 0.549437 1.75133 31 34 33
0.34234 0.539604 1.71999 31 34 33
0.334249 0.513341 1.63628 33 35 34
0.364017 0.545083 1.73745 33 35 35
0.366112 0.53485 1.70483 33 35 35
0.385271 0.549437 1.75133 33 35 35
0.399009 0.555796 1.7716 32 35 35
0.401521 0.546584 1.74224 33 35 35
0.41279 0.549437 1.75133 32 34 35
0.418619 0.545083 1.73745 31 34 35
0.439179 0.559686 1.784 30 34 34
0.43682 0.545083 1.73745 30 34 35
0.44592 0.545083 1.73745 30 34 35
0.455021 0.545083 1.73745 32 35 37
0.473243 0.555796 1.7716 33 37 38
0.477002 0.549437 1.75133 35 38 40
0.478042 0.540246 1.72203 35 39 40
0.501081 0.555796 1.7716 36 39 40
0.51715 0.56319 1.79517 36 39 40
0.523277 0.559686 1.784 36 39 39
0.514121 0.540246 1.72203 37 40 40
0.545358 0.56319 1.79517 35 38 38
0.545824 0.554118 1.76625 33 35 35
0.546025 0.545083 1.73745 34 35 36
0.569239 0.558941 1.78162 32 34 36
0.578571 0.558941 1.78162 30 34 35
0.592371 0.56319 1.79517 32 36 38
0.597234 0.558941 1.78162 34 38 39
0.587193 0.541089 1.72472 36 40 41
0.612432 0.555796 1.7716 36 40 41
0.63969 0.571868 1.82283 35 39 40
0.620533 0.546584 1.74224 35 38 39
0.638337 0.554118 1.76625 34 38 39
0.632361 0.541089 1.72472 35 38 39
0.662557 0.558941 1.78162 34 38 39
0.671888 0.558941 1.78162 34 38 39
0.675342 0.554118 1.76625 36 39 41
0.668496 0.541089 1.72472 37 39 41
0.711019 0.567834 1.80997 36 39 40
0.709216 0.558941 1.78162 36 39 40
0.705256 0.548602 1.74867 35 39 39
0.73946 0.567834 1.80997 36 39 40
0.713665 0.541089 1.72472 36 39 40
0.75842 0.567834 1.80997 35 38 39
0.773356 0.571868 1.82283 34 37 39
0.796985 0.582154 1.85562 34 37 39
0.811051 0.585291 1.86561 33 37 39
0.750084 0.53485 1.70483 32 37 39
0.807817 0.56924 1.81445 32 37 39
0.800885 0.557793 1.77797 34 39 41
0.859201 0.59153 1.8855 36 40 42
0.873392 0.594467 1.89486 35 40 41
0.845832 0.56924 1.81445 35 39 41
0.917852 0.610846 1.94707 35 39 41
0.923036 0.607545 1.93655 35 38 40
0.903199 0.588026 1.87433 34 38 40
0.862973 0.555796 1.7716 34 38 39
0.839379 0.53485 1.70483 35 40 40
0.932651 0.588026 1.87433 36 40 41
0.902661 0.56319 1.79517 36 40 40
0.90009 0.555796 1.7716 35 39 40
0.955151 0.583778 1.86079 35 39 39
0.964898 0.583778 1.86079 36 40 40
0.974644 0.583778 1.86079 36 40 40
0.991555 0.588026 1.87433 36 40 40
1.03461 0.607545 1.93655 35 39 40
1.01119 0.588026 1.87433 34 38 39
1.02101 0.588026 1.87433 33 37 38
1.05026 0.599111 1.90967 35 38 40
1.06026 0.599111 1.90967 36 40 41
1.02159 0.571868 1.82283 36 39 41
1.13136 0.627451 2 35 38 39
1.08181 0.594467 1.89486 36 38 39
1.01275 0.551455 1.75776 36 39 39
1.16279 0.627451 2 39 42 42
1.00011 0.53485 1.70483 40 43 42
1.25812 0.666876 2.12567 38 41 41
1.257 0.660435 2.10514 34 38 37
1.20469 0.627451 2 33 37 37
1.33962 0.691712 2.20483 35 38 39
1.22564 0.627451 2 36 39 40
1.13973 0.578523 1.84404 35 39 40
1.06262 0.53485 1.70483 35 39 39
-0.726561 0.368698 1.15596 38 37 34
-0.679603 0.347767 1.09033 37 37 33
-0.727562 0.375464 1.17717 36 36 33
-0.793707 0.413099 1.29517 35 35 32
-0.764197 0.401169 1.25776 35 35 31
-0.739923 0.391804 1.2284 35 36 32
-0.773356 0.413099 1.29517 35 35 32
-0.744433 0.401169 1.25776 36 36 32
-0.759788 0.413099 1.29517 36 36 32
-0.722231 0.396217 1.24224 37 36 33
-0.74622 0.413099 1.29517 37 37 34
-0.687863 0.384287 1.20483 37 36 33
-0.777436 0.43835 1.37433 36 36 33
-0.840666 0.478431 1.5 36 36 33
-0.719085 0.413099 1.29517 37 37 34
-0.69173 0.401169 1.25776 36 36 32
-0.817096 0.478431 1.5 36 36 32
-0.857974 0.507244 1.59033 36 36 32
-0.801383 0.478431 1.5 36 36 32
-0.762993 0.460023 1.44228 36 36 31
-0.748771 0.455962 1.42955 36 37 33
-0.777813 0.478431 1.5 36 37 33
-0.769956 0.478431 1.5 36 37 33
-0.952286 0.597827 1.87433 35 36 31
-0.832663 0.528175 1.65596 35 35 31
-0.781439 0.500901 1.57045 35 36 31
-0.676657 0.43835 1.37433 35 36 32
-0.856232 0.560646 1.75776 35 36 31
-0.66226 0.43835 1.37433 34 36 31
-0.714959 0.478431 1.5 35 36 32
-0.821294 0.555694 1.74224 35 36 32
-0.778261 0.532495 1.6695 36 37 32
-0.827439 0.572576 1.79517 36 37 33
-0.776872 0.543764 1.70483 36 37 33
-0.732282 0.518513 1.62567 36 37 33
-0.723767 0.518513 1.62567 36 37 33
-0.779459 0.565059 1.7716 36 37 33
-0.757415 0.555694 1.74224 35 36 32
-0.8202 0.609096 1.90967 35 36 32
-0.751621 0.565059 1.7716 34 35 31
-0.742342 0.565059 1.7716 34 35 31
-0.750795 0.578727 1.81445 36 36 33
-0.744713 0.581399 1.82283 37 37 34
-0.724009 0.572576 1.79517 36 36 33
-0.719388 0.576407 1.80718 36 36 33
-0.724404 0.588165 1.84404 36 36 33
-0.700456 0.576407 1.80718 36 35 32
-0.682128 0.569014 1.784 36 36 32
-0.662889 0.560646 1.75776 36 37 33
-0.676045 0.579825 1.81789 37 37 33
-0.67611 0.588165 1.84404 36 37 33
-0.658785 0.581399 1.82283 35 37 33
-0.64748 0.579825 1.81789 36 37 33
-0.621711 0.565059 1.7716 35 36 32
-0.595298 0.54925 1.72203 34 35 31
-0.596253 0.558595 1.75133 35 36 32
-0.593874 0.565059 1.7716 35 36 32
-0.596335 0.576407 1.80718 35 35 31
-0.58625 0.575799 1.80527 34 35 30
-0.589182 0.588165 1.84404 34 35 30
-0.560654 0.569014 1.784 35 36 31
-0.55476 0.572576 1.79517 35 37 32
-0.545358 0.572576 1.79517 35 37 32
-0.518724 0.554167 1.73745 35 36 32
-0.519639 0.565059 1.7716 35 36 32
-0.506374 0.560646 1.75776 35 37 32
-0.487062 0.54925 1.72203 36 37 33
-0.48966 0.562598 1.76388 36 36 31
-0.473222 0.554167 1.73745 35 36 31
-0.476555 0.569014 1.784 36 37 32
-0.470136 0.572576 1.79517 36 36 33
-0.441438 0.548597 1.71999 36 36 33
-0.445405 0.565059 1.7716 35 36 33
-0.412051 0.533866 1.6738 36 37 34
-0.414411 0.548597 1.71999 36 37 34
-0.415749 0.562598 1.76388 36 37 33
-0.408288 0.565059 1.7716 36 37 33
-0.401802 0.569014 1.784 35 36 32
-0.397556 0.576407 1.80718 35 36 31
-0.376098 0.558595 1.75133 35 36 32
-0.369554 0.562598 1.76388 36 36 33
-0.357752 0.558595 1.75133 36 36 33
-0.342747 0.54925 1.72203 36 37 33
-0.345736 0.569014 1.784 36 36 33
-0.334054 0.565059 1.7716 36 37 34
-0.318515 0.554167 1.73745 36 37 34
-0.309414 0.554167 1.73745 36 37 34
-0.297649 0.54925 1.72203 37 38 34
-0.282939 0.538421 1.68808 36 38 35
-0.284367 0.558595 1.75133 37 38 35
-0.273012 0.554167 1.73745 37 37 34
-0.265255 0.556987 1.74629 36 36 33
-0.254812 0.554167 1.73745 35 35 32
-0.23873 0.538421 1.68808 35 35 32
-0.234511 0.54925 1.72203 36 37 34
-0.231982 0.565059 1.7716 36 37 34
-0.21431 0.543764 1.70483 36 37 34
-0.20538 0.543764 1.70483 35 37 33
-0.19452 0.538421 1.68808 35 36 33
-0.198569 0.575799 1.80527 34 35 32
-0.181621 0.552987 1.73375 34 35 32
-0.172908 0.554167 1.73745 34 35 32
-0.160732 0.543764 1.70483 34 35 32
-0.157748 0.565059 1.7716 35 36 33
-0.144143 0.548597 1.71999 35 36 33
-0.133943 0.543764 1.70483 35 36 33
-0.122423 0.532495 1.6695 35 36 33
-0.113971 0.533866 1.6738 35 36 34
-0.105204 0.533866 1.6738 36 37 34
-0.0964374 0.533866 1.6738 36 36 34
-0.0874451 0.532495 1.6695 35 36 33
-0.0803661 0.543764 1.70483 35 36 33
-0.0728033 0.554167 1.73745 35 36 33
-0.0635672 0.552987 1.73375 35 36 33
-0.0535774 0.543764 1.70483 35 36 34
-0.0455021 0.554167 1.73745 36 36 34
-0.0364017 0.554167 1.73745 36 37 34
-0.0267887 0.543764 1.70483 35 36 33
-0.0180179 0.548597 1.71999 34 35 33
-0.00885203 0.539042 1.69003 35 35 33
0 0.552987 1.73375 34 35 33
0.00885203 0.539042 1.69003 35 36 34
0.0180179 0.548597 1.71999 35 36 34
0.027059 0.54925 1.72203 35 36 34
0.0354404 0.539534 1.69157 35 36 34
0.0454051 0.552987 1.73375 35 36 34
0.0535774 0.543764 1.70483 35 35 34
0.0630626 0.548597 1.71999 35 35 34
0.0720715 0.548597 1.71999 35 35 34
0.0825581 0.558595 1.75133 35 36 34
0.0923886 0.562598 1.76388 36 36 35
0.0990055 0.548083 1.71838 36 36 34
0.109205 0.554167 1.73745 36 36 34
0.119251 0.558595 1.75133 35 35 34
0.126125 0.548597 1.71999 35 35 34
0.130538 0.529941 1.66149 35 35 34
0.14677 0.558595 1.75133 35 36 35
0.150311 0.538421 1.68808 35 35 34
0.162161 0.548597 1.71999 34 35 34
0.179847 0.576407 1.80718 35 35 34
0.176837 0.538421 1.68808 34 35 33
0.187521 0.543764 1.70483 34 34 33
0.19645 0.543764 1.70483 34 34 32
0.199492 0.528175 1.65596 34 34 32
0.220963 0.560646 1.75776 34 34 32
0.233606 0.569014 1.784 34 34 33
0.24295 0.569014 1.784 35 35 34
0.23671 0.533866 1.6738 34 35 34
0.241163 0.524483 1.64438 34 35 34
0.243814 0.511965 1.60514 33 34 34
0.27059 0.54925 1.72203 34 35 34
0.276817 0.543764 1.70483 32 34 34
0.274255 0.521897 1.63628 31 33 33
0.308359 0.569014 1.784 32 34 34
0.306669 0.54925 1.72203 32 35 35
0.312535 0.543764 1.70483 33 35 35
0.336392 0.569014 1.784 33 35 35
0.340652 0.560646 1.75776 32 34 34
0.33599 0.538421 1.68808 31 34 34
0.354916 0.554167 1.73745 32 34 34
0.364017 0.554167 1.73745 33 35 35
0.390392 0.579825 1.81789 34 35 36
0.382217 0.554167 1.73745 33 35 36
0.401802 0.569014 1.784 32 34 35
0.411146 0.569014 1.784 31 34 35
0.410647 0.555694 1.74224 31 34 34
0.406724 0.538421 1.68808 31 34 35
0.45396 0.588165 1.84404 31 34 35
0.44031 0.558595 1.75133 31 34 35
0.437549 0.543764 1.70483 32 35 36
0.46034 0.560646 1.75776 34 37 38
0.48561 0.579825 1.81789 33 36 38
0.451026 0.528175 1.65596 32 36 37
0.478042 0.54925 1.72203 32 35 36
0.497167 0.560646 1.75776 33 35 36
0.491126 0.543764 1.70483 35 37 38
0.530075 0.576407 1.80718 36 38 39
0.508985 0.543764 1.70483 36 38 39
0.527824 0.554167 1.73745 35 37 37
0.526844 0.543764 1.70483 35 37 37
0.54118 0.54925 1.72203 34 36 37
0.539352 0.538421 1.68808 30 33 35
0.575315 0.565059 1.7716 28 32 34
0.580028 0.560646 1.75776 32 36 38
0.614823 0.584992 1.8341 34 38 39
0.620594 0.581399 1.82283 36 40 41
0.602282 0.555694 1.74224 36 40 41
0.598281 0.543764 1.70483 35 39 40
0.634561 0.568257 1.78162 35 39 40
0.622357 0.54925 1.72203 35 38 40
0.672463 0.584992 1.8341 35 38 40
0.662557 0.568257 1.78162 34 38 39
0.706851 0.597827 1.87433 34 37 38
0.659463 0.550107 1.72472 35 38 40
0.706523 0.581399 1.82283 37 40 41
0.732878 0.595045 1.86561 36 39 40
0.696097 0.557745 1.74867 35 38 39
0.712347 0.563353 1.76625 36 39 39
0.75338 0.588165 1.84404 36 39 39
0.715188 0.551281 1.7284 35 39 39
0.772697 0.588165 1.84404 35 38 38
0.754322 0.56709 1.77797 35 38 39
0.771023 0.572576 1.79517 34 37 39
0.772947 0.56709 1.77797 33 37 39
0.798314 0.578727 1.81445 32 37 39
0.799231 0.572576 1.79517 33 37 39
0.808634 0.572576 1.79517 34 39 41
0.863467 0.604375 1.89486 35 39 41
0.873392 0.604375 1.89486 34 39 41
0.865021 0.591856 1.85562 34 39 40
0.893242 0.604375 1.89486 35 39 40
0.893382 0.597827 1.87433 35 39 41
0.913091 0.604375 1.89486 36 39 41
0.891663 0.583845 1.8305 35 39 40
0.922834 0.597827 1.87433 35 38 39
0.925912 0.593507 1.86079 34 38 39
0.902661 0.572576 1.79517 34 38 39
0.97591 0.612658 1.92083 34 38 39
0.955151 0.593507 1.86079 34 38 39
0.996032 0.612658 1.92083 35 39 39
0.912549 0.555694 1.74224 36 40 40
0.917184 0.552987 1.73375 36 40 40
0.973856 0.581399 1.82283 35 39 39
1.03628 0.612658 1.92083 34 38 39
0.957507 0.560646 1.75776 32 36 37
0.987286 0.572576 1.79517 33 37 38
1.11041 0.637909 2 34 38 39
1.03348 0.588165 1.84404 33 36 38
1.07189 0.604375 1.89486 32 36 37
1.14184 0.637909 2 34 37 38
1.07991 0.597827 1.87433 35 39 39
0.962766 0.528175 1.65596 37 41 40
1.09955 0.597827 1.87433 38 41 41
1.09143 0.588165 1.84404 36 39 39
1.31652 0.703241 2.20483 34 38 38
1.14136 0.604375 1.89486 35 39 39
1.13882 0.597827 1.87433 36 40 40
1.13007 0.588165 1.84404 35 39 39
1.10952 0.572576 1.79517 35 38 39
1.09561 0.560646 1.75776 34 38 38
-0.726561 0.374742 1.15596 38 37 33
-0.679603 0.353468 1.09033 38 37 33
-0.849421 0.445536 1.37433 36 37 33
-0.721396 0.381619 1.17717 35 35 32
-0.786923 0.419871 1.29517 35 35 32
-0.827825 0.445536 1.37433 35 36 33
-0.751021 0.407745 1.25776 36 36 32
-0.766572 0.419871 1.29517 36 36 32
-0.826957 0.45699 1.40967 36 36 33
-0.700484 0.390586 1.20483 37 37 34
-0.904825 0.509112 1.57045 37 37 34
-0.81616 0.463437 1.42955 37 37 34
-0.7603 0.435715 1.34404 37 36 34
-0.790039 0.45699 1.40967 37 37 34
-0.782655 0.45699 1.40967 37 36 33
-0.824953 0.486275 1.5 36 36 32
-0.732141 0.435715 1.34404 36 36 31
-0.847245 0.509112 1.57045 37 37 32
-0.763746 0.463437 1.42955 37 37 32
-0.841314 0.515559 1.59033 37 37 33
-0.785669 0.486275 1.5 36 37 33
-0.671598 0.419871 1.29517 37 37 33
-0.816325 0.515559 1.59033 36 36 33
-0.797891 0.509112 1.57045 35 35 31
-0.754243 0.486275 1.5 34 35 30
-0.823989 0.536833 1.65596 34 35 30
-0.839379 0.552678 1.70483 35 36 31
-0.856232 0.569837 1.75776 35 37 32
-0.920224 0.619081 1.90967 36 37 32
-0.748537 0.509112 1.57045 36 37 32
-0.859285 0.59093 1.82283 36 36 32
-0.771948 0.536833 1.65596 36 37 32
-0.785802 0.552678 1.70483 36 36 32
-0.793917 0.564804 1.74224 36 36 32
-0.784792 0.564804 1.74224 36 36 32
-0.799231 0.581963 1.79517 37 37 33
-0.811332 0.597807 1.84404 37 37 33
-0.757415 0.564804 1.74224 35 36 32
-0.8202 0.619081 1.90967 35 35 32
-0.751621 0.574322 1.7716 34 35 31
-0.779715 0.603237 1.86079 35 35 32
-0.735697 0.576386 1.77797 36 36 34
-0.727879 0.577572 1.78162 37 37 34
-0.724009 0.581963 1.79517 36 36 32
-0.723654 0.58933 1.81789 36 36 32
-0.727877 0.600673 1.85288 36 36 32
-0.729459 0.610114 1.882 36 36 32
-0.68122 0.577572 1.78162 35 36 31
-0.681525 0.585856 1.80718 36 37 33
-0.662557 0.577572 1.78162 36 37 34
-0.644476 0.569837 1.75776 35 37 33
-0.629659 0.564804 1.74224 35 37 32
-0.643663 0.585856 1.80718 36 37 33
-0.626063 0.578342 1.784 35 36 32
-0.620579 0.581963 1.79517 35 36 31
-0.646971 0.616046 1.9003 35 36 32
-0.6058 0.585856 1.80718 36 37 33
-0.611416 0.600673 1.85288 36 36 33
-0.590349 0.58933 1.81789 35 36 31
-0.586004 0.594582 1.8341 35 36 32
-0.560654 0.578342 1.784 35 36 31
-0.547477 0.574322 1.7716 35 36 31
-0.5267 0.562052 1.73375 35 36 32
-0.522868 0.567752 1.75133 36 37 34
-0.513695 0.567752 1.75133 36 38 34
-0.504522 0.567752 1.75133 36 37 33
-0.504588 0.578342 1.784 36 37 33
-0.501678 0.585856 1.80718 37 37 34
-0.473222 0.563252 1.73745 37 37 34
-0.460003 0.558254 1.72203 37 38 34
-0.470136 0.581963 1.79517 37 37 34
-0.457867 0.578342 1.784 37 37 34
-0.44031 0.567752 1.75133 37 38 35
-0.434226 0.571821 1.76388 37 38 35
-0.418619 0.563252 1.73745 37 38 34
-0.415749 0.571821 1.76388 36 37 34
-0.416488 0.585856 1.80718 36 37 34
-0.391318 0.563252 1.73745 35 36 32
-0.382217 0.563252 1.73745 35 36 32
-0.373117 0.563252 1.73745 35 36 32
-0.366925 0.567752 1.75133 35 36 32
-0.354916 0.563252 1.73745 35 36 32
-0.349858 0.569837 1.75776 35 36 33
-0.343333 0.574322 1.7716 35 35 32
-0.327615 0.563252 1.73745 35 36 33
-0.315688 0.558254 1.72203 36 37 34
-0.311886 0.567752 1.75133 36 37 34
-0.286228 0.536833 1.65596 37 38 35
-0.300887 0.581963 1.79517 36 38 35
-0.285411 0.569837 1.75776 36 37 34
-0.265255 0.547248 1.68808 36 36 33
-0.256413 0.547248 1.68808 34 35 32
-0.254812 0.563252 1.73745 35 35 32
-0.241098 0.552678 1.70483 34 35 31
-0.238501 0.567752 1.75133 35 36 33
-0.22751 0.563252 1.73745 36 37 34
-0.208862 0.538628 1.66149 36 37 34
-0.210982 0.567752 1.75133 35 37 33
-0.19645 0.552678 1.70483 35 36 33
-0.194865 0.574322 1.7716 34 35 32
-0.176837 0.547248 1.68808 34 35 32
-0.17117 0.557591 1.71999 35 36 32
-0.159153 0.547248 1.68808 34 35 32
-0.157748 0.574322 1.7716 34 35 32
-0.142873 0.552678 1.70483 34 35 32
-0.141984 0.585856 1.80718 34 35 32
-0.123786 0.547248 1.68808 35 35 33
-0.118305 0.563252 1.73745 35 36 33
-0.111351 0.574322 1.7716 35 36 34
-0.100105 0.563252 1.73745 35 36 34
-0.0910042 0.563252 1.73745 35 36 33
-0.0819037 0.563252 1.73745 34 35 32
-0.0714365 0.552678 1.70483 34 35 32
-0.0637029 0.563252 1.73745 34 35 32
-0.0552408 0.569837 1.75776 35 36 33
-0.0446478 0.552678 1.70483 36 36 34
-0.0364017 0.563252 1.73745 36 37 34
-0.027059 0.558254 1.72203 35 36 33
-0.0186884 0.578342 1.784 34 35 33
-0.00910042 0.563252 1.73745 35 35 33
0 0.563252 1.73745 35 35 34
0.00876704 0.542618 1.6738 35 36 34
0.0176837 0.547248 1.68808 35 36 34
0.0273012 0.563252 1.73745 36 36 35
0.0357183 0.552678 1.70483 35 36 34
0.0454051 0.562052 1.73375 35 35 34
0.054118 0.558254 1.72203 35 36 34
0.0619642 0.547879 1.69003 35 36 34
0.0714365 0.552678 1.70483 35 35 34
0.0831497 0.571821 1.76388 35 35 34
0.0910042 0.563252 1.73745 36 36 34
0.0982252 0.552678 1.70483 36 36 35
0.107155 0.552678 1.70483 36 36 35
0.118305 0.563252 1.73745 36 36 35
0.126275 0.558254 1.72203 35 35 34
0.137597 0.567752 1.75133 34 35 34
0.14677 0.567752 1.75133 35 36 35
0.147944 0.538628 1.66149 34 35 34
0.157807 0.542618 1.6738 34 35 34
0.169662 0.552678 1.70483 36 36 35
0.183462 0.567752 1.75133 35 36 34
0.184108 0.542618 1.6738 34 34 32
0.18855 0.530453 1.63628 33 33 31
0.199492 0.536833 1.65596 33 33 31
0.21431 0.552678 1.70483 34 34 32
0.219176 0.542618 1.6738 35 35 33
0.238501 0.567752 1.75133 34 35 34
0.239005 0.547879 1.69003 34 35 33
0.244846 0.541224 1.6695 33 34 34
0.256709 0.547879 1.69003 33 35 34
0.263011 0.542618 1.6738 33 34 34
0.291484 0.581963 1.79517 32 34 33
0.3029 0.585856 1.80718 31 33 33
0.291781 0.547248 1.68808 32 34 34
0.303605 0.552678 1.70483 32 34 35
0.318515 0.563252 1.73745 33 35 35
0.340763 0.585856 1.80718 33 35 35
0.330394 0.552678 1.70483 32 34 35
0.335485 0.546426 1.68555 31 34 34
0.354916 0.563252 1.73745 31 34 34
0.353673 0.547248 1.68808 33 35 35
0.366112 0.552678 1.70483 34 36 36
0.382217 0.563252 1.73745 33 35 36
0.383971 0.552678 1.70483 31 33 34
0.416488 0.585856 1.80718 30 33 34
0.423122 0.581963 1.79517 29 32 34
0.414411 0.557591 1.71999 30 33 34
0.451511 0.594582 1.8341 32 35 35
0.461118 0.594582 1.8341 32 35 36
0.452704 0.571821 1.76388 33 36 37
0.455021 0.563252 1.73745 34 36 38
0.48561 0.58933 1.81789 33 36 37
0.482522 0.574322 1.7716 32 35 36
0.498344 0.581963 1.79517 32 34 36
0.491422 0.563252 1.73745 33 35 36
0.51715 0.581963 1.79517 34 36 37
0.523277 0.578342 1.784 35 36 37
0.531912 0.577572 1.78162 36 37 38
0.533994 0.569837 1.75776 36 37 38
0.538404 0.564804 1.74224 36 37 38
0.559907 0.577572 1.78162 34 35 37
0.573566 0.581963 1.79517 30 33 35
0.578571 0.577572 1.78162 29 33 34
0.587902 0.577572 1.78162 32 35 37
0.589235 0.569837 1.75776 33 38 39
0.586278 0.558254 1.72203 36 40 40
0.634037 0.594582 1.8341 36 40 41
0.60526 0.559125 1.72472 35 39 40
0.620533 0.564804 1.74224 35 38 39
0.662857 0.594582 1.8341 35 38 40
0.663618 0.586761 1.80997 35 38 40
0.626827 0.546426 1.68555 35 38 39
0.671888 0.577572 1.78162 35 38 39
0.692058 0.586761 1.80997 35 38 39
0.684593 0.572588 1.76625 36 39 40
0.705204 0.581963 1.79517 35 38 40
0.714607 0.581963 1.79517 35 38 39
0.712347 0.572588 1.76625 36 39 39
0.75338 0.597807 1.84404 36 39 39
0.742815 0.581963 1.79517 35 38 39
0.732733 0.566889 1.74867 35 38 39
0.7679 0.586761 1.80997 35 38 39
0.796985 0.601559 1.85562 34 38 40
0.827227 0.616862 1.90282 34 38 40
0.816424 0.601559 1.85562 34 38 40
0.805821 0.586761 1.80997 34 38 40
0.824549 0.593417 1.8305 34 39 40
0.796848 0.566889 1.74867 34 39 41
0.827439 0.581963 1.79517 34 39 40
0.845832 0.588215 1.81445 33 38 39
0.8629 0.593417 1.8305 34 38 39
0.855647 0.581963 1.79517 35 39 40
0.896673 0.603237 1.86079 36 40 41
0.926892 0.616862 1.90282 36 40 41
0.893351 0.588215 1.81445 35 39 40
0.938208 0.611248 1.8855 33 37 38
0.935659 0.603237 1.86079 33 37 38
0.945405 0.603237 1.86079 34 38 39
0.946554 0.597807 1.84404 34 38 39
0.903423 0.564804 1.74224 35 39 39
0.927928 0.574322 1.7716 35 39 39
1.05803 0.648366 2 35 39 39
1.02622 0.622701 1.92083 34 38 39
0.955765 0.574322 1.7716 34 38 39
1.00451 0.597807 1.84404 33 37 38
1.09994 0.648366 2 32 36 37
1.0713 0.625528 1.92955 33 37 38
1.06196 0.614282 1.89486 31 36 37
1.08026 0.619081 1.90967 31 36 37
1.0528 0.597807 1.84404 34 37 39
1.09174 0.614282 1.89486 35 39 39
1.01293 0.564804 1.74224 35 39 39
1.17327 0.648366 2 35 38 38
1.24597 0.68245 2.10514 34 38 38
1.26925 0.689105 2.12567 34 38 38
1.129 0.607627 1.87433 36 40 40
1.21517 0.648366 2 36 40 40
0.974592 0.515559 1.59033 35 38 39
1.13973 0.597807 1.84404 34 38 39
1.16827 0.607627 1.87433 34 38 38
-0.942803 0.494118 1.5 40 39 35
-0.765659 0.40465 1.2284 39 39 35
-0.744659 0.396886 1.20483 37 37 34
-0.842222 0.452722 1.37433 35 35 31
-0.715231 0.387774 1.17717 34 35 31
-0.739923 0.40465 1.2284 36 36 33
-0.820627 0.452722 1.37433 36 37 33
-0.591871 0.329412 1 36 36 33
-0.706795 0.396886 1.20483 36 36 33
-0.831136 0.470912 1.42955 36 36 33
-0.77438 0.442743 1.34404 36 36 33
-0.739437 0.426643 1.29517 37 36 33
-0.7603 0.442743 1.34404 37 36 33
-0.725869 0.426643 1.29517 37 37 33
-0.689698 0.409208 1.24224 37 37 33
-0.739181 0.442743 1.34404 37 36 32
-0.732141 0.442743 1.34404 36 36 31
-0.771234 0.470912 1.42955 36 36 31
-0.718061 0.442743 1.34404 37 36 31
-0.685166 0.426643 1.29517 36 36 31
-0.755439 0.475105 1.44228 35 36 31
-0.982566 0.62419 1.89486 36 36 32
-0.689902 0.442743 1.34404 36 37 32
-0.762099 0.494118 1.5 35 36 31
-0.701377 0.459484 1.39486 34 35 30
-0.808916 0.535513 1.62567 35 36 31
-0.839379 0.561592 1.70483 36 36 32
-0.686669 0.46436 1.40967 36 37 33
-0.82152 0.561592 1.70483 37 38 34
-0.774856 0.535513 1.62567 36 37 33
-0.780621 0.545492 1.65596 36 37 32
-0.859626 0.607449 1.84404 36 36 31
-0.769517 0.549953 1.6695 35 36 31
-0.807297 0.583586 1.7716 35 36 31
-0.745927 0.545492 1.65596 35 36 31
-0.811546 0.600461 1.82283 37 37 33
-0.779459 0.583586 1.7716 37 38 34
-0.757415 0.573914 1.74224 36 37 33
-0.782904 0.600461 1.82283 35 36 33
-0.751621 0.583586 1.7716 35 35 32
-0.772697 0.607449 1.84404 35 35 33
-0.78736 0.626811 1.90282 36 36 34
-0.711788 0.573914 1.74224 37 37 34
-0.739709 0.604173 1.8341 36 36 33
-0.749174 0.619954 1.882 36 36 32
-0.720496 0.604173 1.8341 36 36 33
-0.690552 0.586888 1.78162 37 37 33
-0.672096 0.579027 1.75776 36 36 32
-0.668108 0.583586 1.7716 35 35 31
-0.699886 0.619954 1.882 35 35 31
-0.670049 0.602003 1.82751 34 35 31
-0.629659 0.573914 1.74224 35 37 32
-0.630991 0.583586 1.7716 37 38 34
-0.598281 0.561592 1.70483 36 37 33
-0.637475 0.607449 1.84404 34 35 31
-0.622188 0.602003 1.82751 35 36 32
-0.589235 0.579027 1.75776 36 37 34
-0.577906 0.576909 1.75133 35 36 32
-0.59884 0.607449 1.84404 34 35 31
-0.601311 0.619954 1.882 35 36 31
-0.550387 0.576909 1.75133 35 36 31
-0.547477 0.583586 1.7716 34 36 31
-0.533994 0.579027 1.75776 35 36 31
-0.54274 0.598836 1.81789 36 38 34
-0.526552 0.591349 1.79517 37 38 34
-0.51036 0.583586 1.7716 37 38 34
-0.487062 0.567258 1.72203 36 37 33
-0.509151 0.604173 1.8341 37 38 34
-0.474525 0.573914 1.74224 38 38 34
-0.460003 0.567258 1.72203 37 38 34
-0.470136 0.591349 1.79517 36 37 34
-0.454685 0.583586 1.7716 36 37 34
-0.445405 0.583586 1.7716 37 38 35
-0.436126 0.583586 1.7716 37 38 35
-0.423513 0.579027 1.75776 36 38 34
-0.42049 0.58767 1.784 37 38 34
-0.416488 0.595306 1.80718 37 38 34
-0.391318 0.572337 1.73745 36 37 33
-0.36429 0.545492 1.65596 36 37 33
-0.390392 0.598836 1.81789 36 37 33
-0.378625 0.595306 1.80718 36 37 34
-0.354916 0.572337 1.73745 36 37 34
-0.345816 0.572337 1.73745 36 37 34
-0.343333 0.583586 1.7716 35 35 32
-0.321464 0.561592 1.70483 35 35 32
-0.327048 0.58767 1.784 35 36 33
-0.300622 0.556075 1.68808 35 37 34
-0.308359 0.58767 1.784 36 37 34
-0.296937 0.583586 1.7716 36 38 35
-0.274097 0.556075 1.68808 36 37 34
-0.278378 0.583586 1.7716 36 36 34
-0.274503 0.595306 1.80718 35 36 33
-0.254812 0.572337 1.73745 35 35 32
-0.248584 0.579027 1.75776 35 35 33
-0.232169 0.561592 1.70483 35 36 33
-0.221046 0.556075 1.68808 36 37 33
-0.216472 0.567258 1.72203 36 37 34
-0.20931 0.572337 1.73745 36 37 34
-0.20255 0.579027 1.75776 36 37 34
-0.191109 0.572337 1.73745 35 36 33
-0.184777 0.581044 1.76388 35 36 33
-0.17754 0.58767 1.784 35 36 32
-0.160732 0.561592 1.70483 34 35 32
-0.154707 0.572337 1.73745 34 35 32
-0.142873 0.561592 1.70483 34 35 32
-0.133943 0.561592 1.70483 35 35 33
-0.125014 0.561592 1.70483 35 36 33
-0.113971 0.55137 1.6738 35 36 34
-0.108236 0.567258 1.72203 35 37 34
-0.0992163 0.567258 1.72203 36 37 34
-0.0901967 0.567258 1.72203 35 36 34
-0.0819037 0.572337 1.73745 35 36 33
-0.0714365 0.561592 1.70483 35 35 33
-0.062507 0.561592 1.70483 35 36 33
-0.052467 0.549953 1.6695 35 36 34
-0.0463964 0.583586 1.7716 36 36 34
-0.0350681 0.55137 1.6738 36 37 34
-0.0267887 0.561592 1.70483 35 36 34
-0.0184136 0.579027 1.75776 35 36 34
-0.00901967 0.567258 1.72203 35 36 34
0 0.567258 1.72203 35 35 34
0.00917312 0.576909 1.75133 35 36 34
0.0180179 0.566584 1.71999 35 36 34
