ply
format ascii 1.0
element vertex 1327
property float x
property float y
property float z
property uchar red
property uchar green
property uchar blue
end_header
-0.271968 -0.479647 1.7308 36 36 34
-0.256709 -0.468348 1.69003 36 36 34
-0.253837 -0.479647 1.7308 36 36 34
-0.245188 -0.480464 1.73375 37 37 35
-0.230153 -0.468348 1.69003 37 38 35
-0.223239 -0.47245 1.70483 36 37 34
-0.219521 -0.48394 1.74629 35 36 33
-0.207012 -0.476204 1.71838 36 37 34
-0.199783 -0.480464 1.73375 36 36 33
-0.187521 -0.47245 1.70483 36 37 34
-0.18001 -0.476204 1.71838 37 38 35
-0.173788 -0.48394 1.74629 37 38 35
-0.159337 -0.468348 1.69003 37 38 35
-0.150733 -0.469122 1.69282 37 38 35
-0.145296 -0.480464 1.73375 37 38 36
-0.133943 -0.47245 1.70483 37 37 35
-0.12105 -0.457472 1.65078 36 37 35
-0.115076 -0.468348 1.69003 36 36 34
-0.106102 -0.467809 1.68808 35 36 34
-0.0998913 -0.480464 1.73375 37 38 35
-0.0892957 -0.47245 1.70483 37 38 36
-0.079741 -0.468775 1.69157 37 38 35
-0.0747538 -0.494389 1.784 37 38 36
-0.0630035 -0.476204 1.71838 37 38 36
-0.0531122 -0.468348 1.69003 37 38 36
-0.0470136 -0.497484 1.79517 37 38 36
-0.0357183 -0.47245 1.70483 37 38 36
-0.0271968 -0.479647 1.7308 36 38 35
-0.018001 -0.476204 1.71838 36 38 35
-0.0090005 -0.476204 1.71838 37 38 36
0 -0.47245 1.70483 37 38 35
0.00914672 -0.48394 1.74629 37 38 36
0.0181621 -0.480464 1.73375 37 39 36
0.0270015 -0.476204 1.71838 37 38 36
0.0357183 -0.47245 1.70483 36 38 36
0.0464928 -0.491973 1.77528 36 36 34
0.0540537 -0.47665 1.71999 36 36 34
0.0619642 -0.468348 1.69003 36 36 35
0.0726482 -0.480464 1.73375 37 37 35
0.0823205 -0.48394 1.74629 37 38 35
0.0908103 -0.480464 1.73375 37 39 36
0.0973724 -0.468348 1.69003 37 38 35
0.106224 -0.468348 1.69003 36 37 34
0.120631 -0.490953 1.7716 36 37 34
0.128054 -0.48394 1.74629 36 38 35
0.13177 -0.464785 1.67717 37 38 35
0.140555 -0.464785 1.67717 37 38 35
0.156516 -0.487118 1.75776 36 38 35
0.162354 -0.477217 1.72203 36 38 35
0.169662 -0.47245 1.70483 37 39 36
0.180179 -0.47665 1.71999 37 39 36
0.187521 -0.47245 1.70483 37 39 36
0.199783 -0.480464 1.73375 37 38 36
0.20538 -0.47245 1.70483 37 38 36
0.21431 -0.47245 1.70483 37 38 36
0.223239 -0.47245 1.70483 36 38 35
0.234233 -0.47665 1.71999 36 38 35
0.246962 -0.48394 1.74629 36 38 35
0.252014 -0.476204 1.71838 37 39 36
0.261259 -0.47665 1.71999 38 39 36
0.283669 -0.500284 1.80527 38 39 36
0.293125 -0.500284 1.80527 37 39 36
0.288016 -0.476204 1.71838 37 39 36
0.301842 -0.48394 1.74629 37 38 35
0.308755 -0.480464 1.73375 37 38 36
0.315313 -0.47665 1.71999 37 38 35
0.329282 -0.48394 1.74629 37 38 35
0.338429 -0.48394 1.74629 37 38 35
0.330698 -0.46044 1.66149 36 38 35
0.356722 -0.48394 1.74629 38 39 37
0.363241 -0.480464 1.73375 39 40 38
0.374145 -0.482816 1.74224 38 40 37
0.386686 -0.487118 1.75776 38 39 37
0.392396 -0.482816 1.74224 37 39 37
0.40651 -0.488815 1.76388 37 39 37
0.415749 -0.488815 1.76388 37 38 36
0.421963 -0.485336 1.75133 37 38 36
0.437032 -0.491973 1.77528 37 38 36
0.453871 -0.500284 1.80527 38 39 37
0.44497 -0.480464 1.73375 38 39 37
0.472782 -0.500284 1.80527 37 38 36
0.474226 -0.491973 1.77528 36 38 36
0.481619 -0.490034 1.76828 36 38 36
0.503698 -0.502829 1.81445 37 38 36
0.493923 -0.48394 1.74629 38 39 36
0.491126 -0.47245 1.70483 38 39 36
0.495714 -0.468348 1.69003 38 39 35
0.535955 -0.497484 1.79517 38 39 35
0.539316 -0.491973 1.77528 37 39 35
0.545093 -0.488815 1.76388 37 39 35
0.54003 -0.476204 1.71838 37 38 35
0.549546 -0.47665 1.71999 35 36 33
0.558031 -0.476204 1.71838 34 36 32
0.582048 -0.488815 1.76388 36 37 34
0.595107 -0.491973 1.77528 37 39 36
0.633519 -0.51567 1.86079 37 39 36
0.624072 -0.500284 1.80527 37 39 36
0.629982 -0.497484 1.79517 36 38 35
0.601245 -0.467809 1.68808 36 37 34
0.648788 -0.497484 1.79517 37 38 35
0.654096 -0.494389 1.784 37 38 36
0.658829 -0.490953 1.7716 37 38 35
0.680806 -0.500284 1.80527 37 38 35
0.702081 -0.508851 1.83618 38 39 35
0.695801 -0.497484 1.79517 38 39 36
0.700817 -0.494389 1.784 37 39 35
0.723654 -0.503782 1.81789 37 39 36
0.747287 -0.513479 1.85288 37 39 36
0.742697 -0.503782 1.81789 38 40 36
0.754261 -0.50515 1.82283 37 39 36
0.772697 -0.511029 1.84404 37 39 36
0.745751 -0.487118 1.75776 36 38 35
0.805025 -0.519423 1.87433 35 37 35
0.811051 -0.517007 1.86561 36 38 36
0.789828 -0.497484 1.79517 37 39 37
0.799231 -0.497484 1.79517 36 38 36
0.844295 -0.519423 1.87433 36 38 36
0.824782 -0.501586 1.80997 35 37 35
0.834262 -0.501586 1.80997 35 37 35
0.869682 -0.517007 1.86561 35 38 35
0.853223 -0.501586 1.80997 35 38 36
0.889225 -0.517007 1.86561 36 38 37
0.872183 -0.501586 1.80997 37 39 37
0.903898 -0.514236 1.85562 35 37 36
0.936859 -0.527318 1.90282 34 36 35
0.946826 -0.527318 1.90282 35 37 35
0.894011 -0.492717 1.77797 36 38 36
0.878142 -0.478982 1.7284 37 38 36
0.967836 -0.522518 1.8855 37 38 36
0.911473 -0.487118 1.75776 37 39 36
0.987587 -0.522518 1.8855 37 39 36
1.02077 -0.534726 1.92955 37 39 36
1.00734 -0.522518 1.8855 36 38 35
1.01119 -0.519423 1.87433 36 38 35
1.02101 -0.519423 1.87433 36 38 35
1.09994 -0.554248 2 35 37 34
1.0713 -0.534726 1.92955 35 37 34
1.04287 -0.51567 1.86079 35 37 35
1.13136 -0.554248 2 35 37 35
1.14184 -0.554248 2 35 37 35
1.11173 -0.534726 1.92955 35 37 35
1.16279 -0.554248 2 35 36 34
1.00011 -0.47245 1.70483 34 36 34
1.18374 -0.554248 2 35 37 35
1.10109 -0.511029 1.84404 35 36 34
1.15701 -0.532309 1.92083 35 37 34
1.21517 -0.554248 2 35 37 34
1.22564 -0.554248 2 36 37 35
1.23612 -0.554248 2 36 38 35
1.09561 -0.487118 1.75776 35 37 34
-0.54955 -0.237727 0.874334 34 35 34
-0.530548 -0.231436 0.851194 35 36 34
-0.550308 -0.24209 0.89038 36 36 35
-0.520928 -0.231124 0.850047 37 37 36
-0.540981 -0.24209 0.89038 37 37 36
-0.526652 -0.237727 0.874334 36 36 35
-0.512158 -0.233213 0.85773 36 37 35
-0.499564 -0.229491 0.844042 37 37 36
-0.51568 -0.23901 0.87905 36 37 36
-0.49868 -0.233213 0.85773 36 37 36
-0.515582 -0.243309 0.894863 37 37 36
-0.489695 -0.233213 0.85773 37 37 36
-0.497263 -0.23901 0.87905 37 38 36
-0.492658 -0.23901 0.87905 39 39 36
-0.501252 -0.245473 0.90282 38 39 36
-0.49442 -0.244433 0.898997 38 38 36
-0.506356 -0.252741 0.929553 38 38 35
-0.485003 -0.244433 0.898997 37 37 34
-0.519477 -0.264374 0.972338 37 36 34
-0.487137 -0.25037 0.920833 37 37 34
-0.494857 -0.256882 0.944781 37 37 34
-0.491096 -0.257504 0.947071 37 36 34
-0.487217 -0.258077 0.949179 37 37 34
-0.508066 -0.271895 1 37 37 34
-0.502828 -0.271895 1 37 37 35
-0.472302 -0.258077 0.949179 37 37 34
-0.492353 -0.271895 1 37 36 34
-0.450079 -0.251223 0.923969 37 36 34
-0.481877 -0.271895 1 37 36 34
-0.464003 -0.264687 0.973489 38 37 35
-0.471402 -0.271895 1 37 37 34
-0.466164 -0.271895 1 37 37 34
-0.460926 -0.271895 1 37 37 35
-0.455688 -0.271895 1 38 38 35
-0.464096 -0.280132 1.03029 38 38 36
-0.480459 -0.293421 1.07917 39 39 36
-0.477936 -0.295354 1.08628 38 38 35
-0.446763 -0.279416 1.02766 36 36 34
-0.44138 -0.279416 1.02766 36 37 34
-0.448748 -0.287588 1.05772 37 37 35
-0.445611 -0.289147 1.06345 37 37 35
-0.453007 -0.297667 1.09479 37 38 35
-0.435825 -0.290049 1.06677 37 37 35
-0.462644 -0.311896 1.14712 36 37 34
-0.423331 -0.289147 1.06345 37 37 34
-0.434136 -0.300482 1.10514 37 37 34
-0.433332 -0.303978 1.118 37 38 35
-0.418601 -0.297667 1.09479 38 38 35
-0.416771 -0.300482 1.10514 38 37 35
-0.448057 -0.327588 1.20483 38 37 34
-0.431605 -0.320067 1.17717 37 37 34
-0.468084 -0.35215 1.29517 37 36 33
-0.419273 -0.320067 1.17717 37 36 33
-0.395033 -0.306063 1.12567 37 36 34
-0.421186 -0.331271 1.21838 37 37 35
-0.420039 -0.335451 1.23375 37 37 35
-0.427498 -0.346743 1.27528 37 37 35
-0.403248 -0.332266 1.22203 37 37 35
-0.420597 -0.35215 1.29517 38 37 35
-0.419975 -0.357394 1.31445 38 37 35
-0.397941 -0.344288 1.26625 38 37 35
-0.43908 -0.386318 1.42083 37 36 34
-0.393462 -0.35215 1.29517 37 36 34
-0.435179 -0.396321 1.45762 37 37 35
-0.388008 -0.359671 1.32283 37 38 36
-0.442894 -0.418013 1.53741 38 38 36
-0.398711 -0.383282 1.40967 37 38 35
-0.402837 -0.394554 1.45113 36 37 34
-0.42186 -0.421132 1.54887 36 37 34
-0.400691 -0.407843 1.5 37 37 35
-0.416492 -0.432405 1.59033 38 38 36
-0.405296 -0.429368 1.57917 38 39 36
-0.399833 -0.432405 1.59033 38 38 36
-0.410992 -0.45393 1.6695 37 38 35
-0.396196 -0.447101 1.64438 38 38 35
-0.408646 -0.471399 1.73375 38 39 36
-0.384758 -0.45393 1.6695 38 38 35
-0.377741 -0.456015 1.67717 37 37 35
-0.319229 -0.394554 1.45113 37 37 34
-0.353131 -0.447101 1.64438 36 36 34
-0.357183 -0.463536 1.70483 36 36 33
-0.353067 -0.469944 1.7284 36 36 33
-0.327292 -0.447101 1.64438 37 37 35
-0.308204 -0.432405 1.59033 38 38 36
-0.317828 -0.458293 1.68555 37 37 35
-0.324775 -0.48169 1.7716 36 36 33
-0.303605 -0.463536 1.70483 36 36 34
-0.299165 -0.470597 1.7308 36 37 34
-0.283523 -0.459931 1.69157 36 37 35
-0.270496 -0.452952 1.6659 36 36 34
-0.274402 -0.474809 1.74629 35 36 34
-0.261015 -0.467219 1.71838 36 37 34
-0.261883 -0.485514 1.78567 37 38 35
-0.248584 -0.477927 1.75776 37 38 35
-0.234013 -0.467219 1.71838 37 38 35
-0.223239 -0.463536 1.70483 36 37 34
-0.221733 -0.479592 1.76388 36 37 33
-0.211756 -0.477927 1.75776 35 36 33
-0.199443 -0.470597 1.7308 35 36 33
-0.186062 -0.459931 1.69157 36 37 34
-0.178591 -0.463536 1.70483 37 38 35
-0.17254 -0.471399 1.73375 37 38 36
-0.160732 -0.463536 1.70483 37 37 35
-0.159 -0.485514 1.78567 36 37 34
-0.146348 -0.474809 1.74629 36 37 34
-0.138583 -0.479592 1.76388 36 37 34
-0.126918 -0.470597 1.7308 37 37 35
-0.119688 -0.477927 1.75776 37 37 35
-0.108006 -0.467219 1.71838 37 37 35
-0.101275 -0.477927 1.75776 37 38 36
-0.0886011 -0.459931 1.69157 37 38 35
-0.0803661 -0.463536 1.70483 36 37 35
-0.0731738 -0.474809 1.74629 36 37 35
-0.0630035 -0.467219 1.71838 36 37 35
-0.0531122 -0.459511 1.69003 36 38 36
-0.0436283 -0.452952 1.6659 37 38 36
-0.0363241 -0.471399 1.73375 36 38 36
-0.0274402 -0.474809 1.74629 36 38 35
-0.0181312 -0.470597 1.7308 37 38 36
-0.00876704 -0.455099 1.6738 37 38 36
0 -0.48269 1.77528 36 37 35
0.00935296 -0.485514 1.78567 36 37 35
0.0178591 -0.463536 1.70483 37 38 36
0.0272431 -0.471399 1.73375 37 38 36
0.0360358 -0.467657 1.71999 36 37 35
0.0446478 -0.463536 1.70483 35 35 34
0.0535774 -0.463536 1.70483 36 36 35
0.065819 -0.488098 1.79517 37 37 35
0.0726482 -0.471399 1.73375 37 37 35
0.0819037 -0.472405 1.73745 38 38 35
0.0908103 -0.471399 1.73375 38 39 36
0.100904 -0.476179 1.75133 37 38 35
0.104431 -0.451753 1.66149 36 37 34
0.116084 -0.463536 1.70483 36 37 34
0.121836 -0.451753 1.66149 36 38 35
0.136215 -0.471399 1.73375 37 38 35
0.144143 -0.467657 1.71999 37 38 35
0.154377 -0.471399 1.73375 37 38 36
0.158124 -0.456015 1.67717 37 39 36
0.168189 -0.459511 1.69003 38 39 37
0.178591 -0.463536 1.70483 38 40 37
0.187521 -0.463536 1.70483 38 39 37
0.194745 -0.459511 1.69003 38 39 37
0.20538 -0.463536 1.70483 38 39 37
0.221733 -0.479592 1.76388 38 39 37
0.230972 -0.479592 1.76388 37 39 36
0.24295 -0.485061 1.784 37 38 35
0.239005 -0.459511 1.69003 37 38 35
0.261638 -0.485061 1.784 37 38 35
0.261259 -0.467657 1.71999 38 39 36
0.277166 -0.479592 1.76388 38 39 36
0.274413 -0.459511 1.69003 38 39 36
0.29354 -0.476179 1.75133 38 39 36
0.304882 -0.479592 1.76388 37 38 36
0.309414 -0.472405 1.73745 38 39 36
0.322238 -0.477927 1.75776 37 38 36
0.321464 -0.463536 1.70483 37 37 35
0.335998 -0.471399 1.73375 36 37 35
0.345079 -0.471399 1.73375 36 38 36
0.35416 -0.471399 1.73375 37 39 36
0.370476 -0.480788 1.76828 37 39 37
0.375016 -0.474809 1.74629 37 39 36
0.39113 -0.483421 1.77797 37 39 36
0.398262 -0.480788 1.76828 37 38 36
0.41153 -0.485514 1.78567 37 38 36
0.40183 -0.463536 1.70483 36 38 35
0.414023 -0.467219 1.71838 36 38 35
0.429896 -0.474809 1.74629 36 37 35
0.432024 -0.467219 1.71838 37 38 35
0.448189 -0.474809 1.74629 37 39 36
0.464928 -0.48269 1.77528 36 38 36
0.471182 -0.479592 1.76388 36 37 35
0.483525 -0.48269 1.77528 36 38 36
0.486175 -0.476179 1.75133 37 38 36
0.50506 -0.485514 1.78567 38 39 36
0.514413 -0.485514 1.78567 38 39 36
0.520719 -0.48269 1.77528 37 38 35
0.538972 -0.490845 1.80527 37 38 35
0.548427 -0.490845 1.80527 37 39 35
0.545093 -0.479592 1.76388 38 39 36
0.531122 -0.459511 1.69003 37 39 35
0.553943 -0.471399 1.73375 37 38 35
0.558554 -0.467657 1.71999 36 37 34
0.580028 -0.477927 1.75776 37 39 36
0.567047 -0.459931 1.69157 37 39 35
0.600526 -0.479592 1.76388 37 39 35
0.624072 -0.490845 1.80527 37 39 36
0.619004 -0.479592 1.76388 37 38 36
0.623772 -0.476179 1.75133 37 38 35
0.637481 -0.479592 1.76388 37 39 36
0.670049 -0.496892 1.82751 38 39 36
0.671351 -0.490845 1.80527 38 39 36
0.665198 -0.479592 1.76388 38 39 35
0.690991 -0.491363 1.80718 38 39 36
0.691473 -0.485061 1.784 38 39 35
0.669717 -0.463536 1.70483 38 39 35
0.714607 -0.488098 1.79517 37 39 35
0.714504 -0.48169 1.7716 37 39 36
0.723784 -0.48169 1.7716 38 39 36
0.724676 -0.476179 1.75133 38 40 37
0.772697 -0.501387 1.84404 38 39 36
0.76162 -0.488098 1.79517 37 39 36
0.776181 -0.491363 1.80718 37 39 36
0.805517 -0.50379 1.85288 37 40 37
0.806956 -0.498682 1.8341 36 39 36
0.788738 -0.48169 1.7716 35 38 36
0.776901 -0.468944 1.72472 36 38 36
0.82351 -0.491363 1.80718 35 38 36
0.845382 -0.498682 1.8341 36 38 36
0.849737 -0.495619 1.82283 36 39 36
0.832613 -0.480235 1.76625 36 38 36
0.868832 -0.495619 1.82283 36 39 37
0.894179 -0.504533 1.85562 36 38 37
0.874453 -0.488098 1.79517 34 36 35
0.932941 -0.515205 1.89486 34 36 35
0.917578 -0.501387 1.84404 35 36 35
0.960234 -0.519229 1.90967 37 38 37
0.966759 -0.517368 1.90282 37 39 37
0.921467 -0.488098 1.79517 36 38 36
0.94919 -0.497704 1.8305 37 39 36
0.950373 -0.493341 1.81445 37 39 36
0.97553 -0.501387 1.84404 37 39 36
0.969381 -0.493341 1.81445 36 38 35
1.04785 -0.528098 1.94228 35 37 35
1.05109 -0.524637 1.92955 35 37 34
1.01416 -0.501387 1.84404 35 37 34
1.01205 -0.495619 1.82283 35 37 35
1.04287 -0.505941 1.86079 36 37 35
1.06028 -0.509623 1.87433 35 37 35
1.14184 -0.543791 2 34 36 34
1.07211 -0.505941 1.86079 35 37 35
1.11676 -0.522266 1.92083 35 36 34
1.13194 -0.524637 1.92955 35 37 35
1.13028 -0.519229 1.90967 36 38 35
1.08843 -0.495619 1.82283 35 37 35
1.15028 -0.519229 1.90967 35 36 34
1.21517 -0.543791 2 35 36 34
1.22564 -0.543791 2 35 37 34
1.23612 -0.543791 2 36 37 35
1.2466 -0.543791 2 35 37 34
-0.542882 -0.230327 0.863725 32 34 32
-0.551931 -0.236134 0.885502 33 34 33
-0.537243 -0.231798 0.869241 35 35 34
-0.517247 -0.225078 0.844042 36 36 35
-0.512827 -0.225078 0.844042 36 37 35
-0.512023 -0.226679 0.850047 36 37 35
-0.507571 -0.226679 0.850047 36 36 35
-0.546871 -0.246392 0.923969 36 37 35
-0.495143 -0.225078 0.844042 36 37 35
-0.508334 -0.233156 0.874334 37 38 36
-0.517964 -0.239733 0.898997 37 38 37
-0.508335 -0.237435 0.89038 37 37 36
-0.510709 -0.240752 0.90282 37 37 35
-0.516076 -0.245556 0.920833 38 38 35
-0.514603 -0.247165 0.926867 37 38 35
-0.480856 -0.233156 0.874334 38 38 36
-0.504893 -0.247165 0.926867 39 39 36
-0.512075 -0.253114 0.949179 37 37 35
-0.478085 -0.23863 0.894863 37 36 34
-0.501017 -0.252552 0.947071 36 36 34
-0.483956 -0.246392 0.923969 37 36 34
-0.491096 -0.252552 0.947071 37 37 34
-0.499696 -0.259597 0.973489 37 37 35
-0.508066 -0.266667 1 37 37 34
-0.490031 -0.25988 0.974549 37 36 34
-0.485413 -0.26014 0.975527 38 37 35
-0.466293 -0.252552 0.947071 38 38 35
-0.511871 -0.280219 1.05082 37 37 35
-0.470084 -0.26014 0.975527 37 36 34
-0.48877 -0.273454 1.02545 36 36 34
-0.458905 -0.259597 0.973489 36 36 34
-0.478522 -0.273736 1.02651 37 37 35
-0.449195 -0.25988 0.974549 37 37 34
-0.455688 -0.266667 1 38 38 35
-0.476449 -0.282058 1.05772 37 38 35
-0.458699 -0.274745 1.03029 38 38 35
-0.481678 -0.291943 1.09479 37 38 35
-0.474009 -0.290756 1.09033 37 37 35
-0.455462 -0.282786 1.06045 37 37 35
-0.448748 -0.282058 1.05772 37 37 35
-0.453623 -0.288686 1.08257 37 38 35
-0.468445 -0.301892 1.1321 37 37 35
-0.434471 -0.283587 1.06345 37 37 35
-0.445713 -0.294703 1.10514 37 37 35
-0.426115 -0.285452 1.07045 37 37 35
-0.447521 -0.303789 1.13921 38 38 35
-0.444619 -0.305898 1.14712 38 38 35
-0.460679 -0.321289 1.20483 37 37 34
-0.454368 -0.321289 1.20483 36 36 32
-0.433581 -0.310908 1.1659 37 36 33
-0.455461 -0.331263 1.24224 37 37 34
-0.425439 -0.313912 1.17717 37 36 33
-0.404034 -0.302503 1.13439 37 36 33
-0.41762 -0.317341 1.19003 37 37 34
-0.399608 -0.308256 1.15596 37 37 35
-0.426024 -0.333688 1.25133 38 37 35
-0.427498 -0.340074 1.27528 37 37 35
-0.412916 -0.333688 1.25133 38 37 35
-0.386454 -0.317341 1.19003 38 38 35
-0.419975 -0.350521 1.31445 37 37 35
-0.414172 -0.351438 1.31789 37 37 34
-0.408794 -0.352754 1.32283 36 36 34
-0.384677 -0.337667 1.26625 36 36 34
-0.435179 -0.388699 1.45762 37 37 35
-0.409136 -0.371963 1.39486 37 38 36
-0.432118 -0.4 1.5 37 38 36
-0.404336 -0.381214 1.42955 37 38 36
-0.402837 -0.386967 1.45113 36 37 34
-0.408548 -0.4 1.5 36 37 34
-0.413747 -0.413033 1.54887 37 38 35
-0.456274 -0.464597 1.74224 38 39 36
-0.397522 -0.413033 1.54887 38 38 36
-0.403554 -0.428037 1.60514 37 38 35
-0.381296 -0.413033 1.54887 38 39 36
-0.375314 -0.415391 1.55772 38 39 36
-0.378332 -0.428037 1.60514 38 39 36
-0.37897 -0.438503 1.64438 38 38 35
-0.377741 -0.447246 1.67717 37 38 35
-0.35311 -0.428037 1.60514 37 38 35
-0.366112 -0.454622 1.70483 37 37 35
-0.371171 -0.472427 1.7716 37 37 34
-0.380111 -0.496211 1.86079 36 36 33
-0.345079 -0.462333 1.73375 36 36 33
-0.330394 -0.454622 1.70483 37 37 34
-0.31373 -0.443685 1.66382 36 36 34
-0.32336 -0.470369 1.76388 36 36 34
-0.316151 -0.473408 1.77528 37 37 35
-0.312036 -0.481406 1.80527 37 37 35
-0.283523 -0.451086 1.69157 37 38 36
-0.279016 -0.458234 1.71838 36 37 35
-0.274402 -0.465678 1.74629 35 36 34
-0.265255 -0.465678 1.74629 37 38 35
-0.254269 -0.462333 1.73375 38 39 36
-0.253873 -0.478711 1.79517 38 38 35
-0.239377 -0.468737 1.75776 37 37 34
-0.218142 -0.444241 1.6659 36 36 33
-0.217945 -0.462333 1.73375 35 36 32
-0.203597 -0.450675 1.69003 35 36 32
-0.199783 -0.462333 1.73375 35 36 33
-0.189011 -0.458234 1.71838 36 37 34
-0.177041 -0.450675 1.69003 37 38 35
-0.172246 -0.461547 1.7308 37 37 35
-0.160732 -0.454622 1.70483 36 37 34
-0.154377 -0.462333 1.73375 36 36 34
-0.139241 -0.443065 1.66149 35 36 34
-0.136882 -0.464597 1.74224 37 37 35
-0.125014 -0.454622 1.70483 37 38 36
-0.122235 -0.478711 1.79517 37 38 36
-0.106321 -0.451086 1.69157 37 38 35
-0.0974612 -0.451086 1.69157 38 38 36
-0.0876704 -0.446347 1.6738 38 38 36
-0.079741 -0.451086 1.69157 37 38 36
-0.0708163 -0.450675 1.69003 37 37 35
-0.0640271 -0.465678 1.74629 37 37 35
-0.052354 -0.444241 1.6659 37 38 36
-0.0435128 -0.443065 1.66149 36 38 36
-0.0357183 -0.454622 1.70483 36 37 35
-0.0272431 -0.462333 1.73375 37 38 36
-0.0181621 -0.462333 1.73375 38 40 37
-0.00878468 -0.447246 1.67717 37 38 36
0 -0.458663 1.71999 36 37 34
0.00878468 -0.447246 1.67717 36 37 34
0.0174051 -0.443065 1.66149 36 37 34
0.0272431 -0.462333 1.73375 36 37 34
0.0357183 -0.454622 1.70483 35 36 34
0.0450025 -0.458234 1.71838 36 37 35
0.0554332 -0.470369 1.76388 37 37 35
0.060918 -0.443065 1.66149 37 37 35
0.0721573 -0.459209 1.72203 37 37 35
0.0825581 -0.467022 1.75133 37 38 35
0.0914672 -0.465678 1.74629 38 39 36
0.102786 -0.475733 1.784 38 39 36
0.106224 -0.450675 1.69003 37 38 35
0.119251 -0.467022 1.75133 37 38 35
0.129344 -0.470369 1.76388 37 38 35
0.137597 -0.467022 1.75133 37 38 35
0.142873 -0.454622 1.70483 37 38 35
0.156516 -0.468737 1.75776 36 38 35
0.159337 -0.450675 1.69003 36 38 36
0.172246 -0.461547 1.7308 37 39 37
0.178591 -0.454622 1.70483 38 40 37
0.182754 -0.443065 1.66149 38 39 37
0.199783 -0.462333 1.73375 38 39 37
0.208864 -0.462333 1.73375 38 39 37
0.219521 -0.465678 1.74629 39 40 37
0.225224 -0.458663 1.71999 38 39 36
0.232169 -0.454622 1.70483 37 38 35
0.243014 -0.458234 1.71838 37 38 35
0.25225 -0.458663 1.71999 37 38 35
0.26335 -0.462333 1.73375 37 38 35
0.275194 -0.467022 1.75133 37 38 35
0.281512 -0.462333 1.73375 37 39 36
0.295644 -0.470369 1.76388 38 39 36
0.297295 -0.458663 1.71999 37 39 36
0.300969 -0.450675 1.69003 38 39 36
0.315313 -0.458663 1.71999 38 39 36
0.321464 -0.454622 1.70483 38 39 36
0.338429 -0.465678 1.74629 37 38 36
0.336377 -0.450675 1.69003 37 38 36
0.348253 -0.454622 1.70483 37 39 36
0.36002 -0.458234 1.71838 38 39 37
0.360172 -0.447246 1.67717 37 39 36
0.38327 -0.464597 1.74224 38 39 37
0.387022 -0.458234 1.71838 37 38 35
0.405099 -0.468737 1.75776 36 37 35
0.425504 -0.481406 1.80527 38 38 36
0.413709 -0.457886 1.71707 38 39 37
0.428898 -0.464597 1.74224 38 39 36
0.448942 -0.476178 1.78567 36 38 35
0.44497 -0.462333 1.73375 37 38 36
0.470136 -0.478711 1.79517 37 38 36
0.463133 -0.462333 1.73375 37 38 36
0.47563 -0.465678 1.74629 37 38 37
0.495707 -0.476178 1.78567 37 38 36
0.502122 -0.473408 1.77528 38 38 36
0.51142 -0.473408 1.77528 37 38 35
0.504028 -0.458234 1.71838 36 37 34
0.521363 -0.465678 1.74629 37 38 35
0.539316 -0.473408 1.77528 37 39 35
0.563309 -0.486088 1.82283 37 38 35
0.564163 -0.478711 1.79517 36 38 35
0.583899 -0.487336 1.82751 36 38 35
0.59884 -0.491744 1.84404 36 37 34
0.592371 -0.478711 1.79517 37 38 35
0.605161 -0.481406 1.80527 37 39 35
0.585581 -0.458663 1.71999 38 39 36
0.599348 -0.462333 1.73375 38 40 37
0.619004 -0.470369 1.76388 38 39 36
0.61751 -0.462333 1.73375 37 39 36
0.632945 -0.467022 1.75133 37 39 36
0.673228 -0.489649 1.83618 38 39 35
0.66406 -0.476178 1.78567 38 39 35
0.685567 -0.484772 1.81789 37 38 35
0.682128 -0.475733 1.784 38 39 35
0.678811 -0.467022 1.75133 38 39 35
0.700817 -0.475733 1.784 37 38 35
0.727481 -0.487336 1.82751 37 38 35
0.733175 -0.484772 1.81789 37 39 35
0.733412 -0.478711 1.79517 37 39 35
0.747784 -0.481914 1.80718 38 39 36
0.772697 -0.491744 1.84404 38 40 37
0.771262 -0.484772 1.81789 38 39 36
0.775363 -0.481406 1.80527 37 39 36
0.821131 -0.50368 1.8888 37 39 36
0.811332 -0.491744 1.84404 36 38 36
0.799231 -0.478711 1.79517 36 39 36
0.821094 -0.486088 1.82283 37 39 37
0.854112 -0.499822 1.87433 37 40 38
0.821197 -0.4751 1.78162 37 40 38
0.869682 -0.497497 1.86561 37 39 37
0.814771 -0.460907 1.7284 36 39 37
0.889225 -0.497497 1.86561 37 39 37
0.898997 -0.497497 1.86561 37 40 38
0.881663 -0.482659 1.80997 36 38 36
0.913617 -0.494831 1.85562 35 37 35
0.917578 -0.491744 1.84404 35 37 36
0.927237 -0.491744 1.84404 37 39 37
0.942775 -0.494831 1.85562 36 38 36
1.02661 -0.533333 2 35 37 35
0.921949 -0.474124 1.77797 36 38 35
0.92068 -0.468737 1.75776 36 38 35
0.959877 -0.483854 1.81445 36 38 36
0.985189 -0.491744 1.84404 36 38 36
1.00388 -0.496211 1.86079 36 38 35
1.02101 -0.499822 1.87433 36 37 34
0.974324 -0.472427 1.7716 35 37 34
1.06646 -0.512222 1.92083 35 37 34
1.07652 -0.512222 1.92083 35 37 35
1.04314 -0.491744 1.84404 35 37 35
1.0528 -0.491744 1.84404 35 37 35
1.10027 -0.509244 1.90967 36 37 35
1.11676 -0.512222 1.92083 36 37 35
1.08178 -0.491744 1.84404 36 37 35
1.13689 -0.512222 1.92083 36 37 35
1.19422 -0.533333 2 35 37 35
1.20469 -0.533333 2 35 36 34
1.10752 -0.486088 1.82283 35 36 34
1.22564 -0.533333 2 35 37 34
1.15845 -0.499822 1.87433 36 37 35
1.09561 -0.468737 1.75776 35 37 34
-0.542882 -0.22581 0.863725 32 34 33
-0.557766 -0.233951 0.894863 33 34 33
-0.540391 -0.228584 0.874334 35 35 34
-0.506312 -0.215999 0.826197 36 36 34
-0.499938 -0.215119 0.822829 36 37 35
-0.536317 -0.232779 0.89038 36 37 35
-0.519031 -0.227253 0.869241 36 37 35
-0.517493 -0.228584 0.874334 36 37 36
-0.495143 -0.220664 0.844042 36 37 36
-0.494214 -0.222235 0.850047 37 38 37
-0.520167 -0.236031 0.90282 37 38 37
-0.508335 -0.232779 0.89038 36 36 35
-0.508546 -0.235032 0.898997 36 37 35
-0.490015 -0.228584 0.874334 36 37 34
-0.494345 -0.232779 0.89038 36 37 34
-0.49442 -0.235032 0.898997 38 38 35
-0.489711 -0.235032 0.898997 38 38 35
-0.498475 -0.241561 0.923969 37 37 34
-0.482336 -0.236031 0.90282 37 36 34
-0.487137 -0.240741 0.920833 36 35 32
-0.496056 -0.2476 0.947071 36 36 33
-0.480619 -0.242318 0.926867 37 36 34
-0.486135 -0.2476 0.947071 37 37 35
-0.481175 -0.2476 0.947071 37 37 35
-0.490523 -0.25504 0.975527 37 37 35
-0.474168 -0.249132 0.952929 38 38 36
-0.454919 -0.241561 0.923969 38 38 36
-0.487115 -0.261438 1 38 38 36
-0.494652 -0.268369 1.02651 37 37 35
-0.476639 -0.261438 1 35 35 33
-0.483399 -0.268092 1.02545 36 36 34
-0.453806 -0.254507 0.973489 37 37 35
-0.485323 -0.275276 1.05293 37 37 35
-0.455688 -0.261438 1 38 38 35
-0.45045 -0.261438 1 38 38 35
-0.445213 -0.261438 1 38 38 36
-0.46657 -0.277241 1.06045 37 38 35
-0.472246 -0.283995 1.08628 37 37 35
-0.454288 -0.276527 1.05772 37 38 35
-0.451181 -0.278026 1.06345 37 37 35
-0.458741 -0.286219 1.09479 37 37 35
-0.455039 -0.287502 1.0997 37 37 35
-0.462516 -0.295973 1.1321 37 37 35
-0.443519 -0.287502 1.0997 38 37 35
-0.439925 -0.288925 1.10514 38 38 35
-0.439188 -0.292287 1.118 38 38 35
-0.458181 -0.309047 1.18211 38 38 35
-0.438611 -0.2999 1.14712 37 37 34
-0.424513 -0.294292 1.12567 36 36 33
-0.439606 -0.309047 1.18211 36 36 33
-0.423827 -0.302211 1.15596 37 36 33
-0.376724 -0.272517 1.04238 37 36 34
-0.419273 -0.307757 1.17717 38 37 34
-0.441389 -0.328827 1.25776 38 37 35
-0.426501 -0.322549 1.23375 38 37 35
-0.447514 -0.343648 1.31445 38 37 35
-0.447914 -0.349329 1.33618 38 38 35
-0.471726 -0.373739 1.42955 38 38 35
-0.433916 -0.349329 1.33618 38 37 35
-0.406283 -0.332444 1.2716 37 37 34
-0.446522 -0.37146 1.42083 37 36 34
-0.407269 -0.344547 1.31789 36 36 34
-0.408309 -0.351383 1.34404 36 36 34
-0.435179 -0.381077 1.45762 36 37 34
-0.413478 -0.36854 1.40967 37 38 35
-0.390524 -0.354409 1.35562 37 37 35
-0.40187 -0.37146 1.42083 37 37 35
-0.416405 -0.392157 1.5 36 37 34
-0.397006 -0.381077 1.45762 37 37 34
-0.413747 -0.404935 1.54887 37 37 34
-0.405634 -0.404935 1.54887 37 37 35
-0.408163 -0.415774 1.59033 36 37 34
-0.419736 -0.436471 1.6695 37 38 35
-0.369265 -0.392157 1.5 38 39 36
-0.383173 -0.415774 1.59033 38 39 35
-0.378332 -0.419644 1.60514 38 38 35
-0.366513 -0.415774 1.59033 37 38 35
-0.370357 -0.429904 1.64438 37 37 34
-0.375042 -0.445708 1.70483 37 37 34
-0.360172 -0.438476 1.67717 38 37 34
-0.363241 -0.453268 1.73375 37 36 34
-0.366706 -0.469325 1.79517 36 35 31
-0.361142 -0.474367 1.81445 36 35 31
-0.326656 -0.440666 1.68555 37 36 34
-0.321464 -0.445708 1.70483 37 37 34
-0.32336 -0.461146 1.76388 37 37 34
-0.300969 -0.441838 1.69003 37 37 35
-0.294676 -0.445708 1.70483 36 37 35
-0.281564 -0.439184 1.67988 36 37 34
-0.287119 -0.462296 1.76828 36 36 34
-0.26981 -0.448908 1.71707 37 37 35
-0.268595 -0.462296 1.76828 38 38 36
-0.248083 -0.442241 1.69157 38 38 35
-0.244771 -0.452497 1.7308 37 38 35
-0.234013 -0.449249 1.71838 36 37 34
-0.225013 -0.449249 1.71838 36 37 33
-0.216215 -0.44967 1.71999 35 36 32
-0.211756 -0.459546 1.75776 34 36 32
-0.193263 -0.438476 1.67717 35 36 32
-0.184478 -0.438476 1.67717 36 37 34
-0.178591 -0.445708 1.70483 36 37 35
-0.166909 -0.438476 1.67717 36 37 34
-0.160732 -0.445708 1.70483 36 37 34
-0.153009 -0.449249 1.71838 36 36 34
-0.144008 -0.449249 1.71838 36 37 34
-0.136215 -0.453268 1.73375 37 37 35
-0.126007 -0.449249 1.71838 37 38 36
-0.118053 -0.453268 1.73375 37 38 36
-0.108006 -0.449249 1.71838 37 38 36
-0.102284 -0.464125 1.77528 38 38 36
-0.0906559 -0.452497 1.7308 38 39 36
-0.0803661 -0.445708 1.70483 38 39 37
-0.072004 -0.449249 1.71838 37 38 36
-0.0640271 -0.456547 1.74629 36 37 35
-0.0539621 -0.448908 1.71707 36 37 35
-0.0454051 -0.453268 1.73375 36 37 35
-0.0351387 -0.438476 1.67717 36 37 35
-0.0272431 -0.453268 1.73375 37 38 36
-0.0183462 -0.457865 1.75133 38 39 37
-0.00908103 -0.453268 1.73375 37 38 36
0 -0.445708 1.70483 37 38 35
0.00885203 -0.441838 1.69003 36 37 34
0.0180179 -0.44967 1.71999 36 37 34
0.0267887 -0.445708 1.70483 36 37 34
0.0360358 -0.44967 1.71999 36 37 35
0.0450025 -0.449249 1.71838 37 38 36
0.0544862 -0.453268 1.73375 37 37 36
0.0619642 -0.441838 1.69003 36 37 35
0.0720715 -0.44967 1.71999 37 37 34
0.0796683 -0.441838 1.69003 36 37 34
0.0940272 -0.469325 1.79517 37 38 35
0.100614 -0.456547 1.74629 38 39 36
0.107155 -0.445708 1.70483 38 39 36
0.116084 -0.445708 1.70483 37 39 36
0.125014 -0.445708 1.70483 37 38 35
0.129194 -0.429904 1.64438 36 38 35
0.145296 -0.453268 1.73375 36 37 35
0.151803 -0.445708 1.70483 36 38 35
0.164641 -0.456547 1.74629 36 38 35
0.17117 -0.44967 1.71999 36 37 35
0.18001 -0.449249 1.71838 36 38 36
0.189188 -0.44967 1.71999 37 38 36
0.199783 -0.453268 1.73375 38 38 36
0.210375 -0.456547 1.74629 38 38 36
0.210832 -0.438476 1.67717 38 39 36
0.232464 -0.464125 1.77528 38 39 36
0.235705 -0.452497 1.7308 38 39 36
0.243241 -0.44967 1.71999 38 39 35
0.25225 -0.44967 1.71999 37 38 35
0.274214 -0.471966 1.80527 36 37 34
0.267887 -0.445708 1.70483 36 37 34
0.286405 -0.461146 1.76388 37 38 35
0.280545 -0.437595 1.6738 37 38 36
0.304882 -0.461146 1.76388 37 38 35
0.303605 -0.445708 1.70483 37 38 35
0.32336 -0.461146 1.76388 38 39 36
0.324018 -0.449249 1.71838 38 39 37
0.330394 -0.445708 1.70483 39 40 37
0.345079 -0.453268 1.73375 38 39 37
0.362643 -0.464125 1.77528 37 39 36
0.354404 -0.442241 1.69157 38 39 36
0.360172 -0.438476 1.67717 38 39 36
0.384162 -0.456547 1.74629 38 39 36
0.375204 -0.435531 1.6659 37 38 35
0.392901 -0.445708 1.70483 37 37 35
0.416786 -0.462296 1.76828 39 39 37
0.428381 -0.464828 1.77797 39 39 37
0.416425 -0.442241 1.69157 39 40 38
0.443465 -0.461146 1.76388 38 39 36
0.458295 -0.466841 1.78567 37 39 36
0.470136 -0.469325 1.79517 37 39 36
0.466483 -0.456547 1.74629 37 38 36
0.47563 -0.456547 1.74629 37 39 36
0.48796 -0.459546 1.75776 37 38 36
0.490376 -0.453268 1.73375 37 38 35
0.509405 -0.462296 1.76828 37 38 35
0.520719 -0.464125 1.77528 37 38 35
0.533118 -0.466841 1.78567 37 39 35
0.517915 -0.445708 1.70483 36 38 35
0.543201 -0.459546 1.75776 36 37 34
0.577053 -0.480048 1.83618 36 38 35
0.567212 -0.464125 1.77528 36 38 35
0.558031 -0.449249 1.71838 36 38 35
0.595249 -0.471605 1.80389 37 39 36
0.591287 -0.461146 1.76388 37 39 36
0.614617 -0.471966 1.80527 38 39 36
0.634758 -0.480048 1.83618 38 39 36
0.612831 -0.456547 1.74629 37 39 36
0.642984 -0.471966 1.80527 37 38 35
0.64027 -0.463163 1.7716 37 38 35
0.642118 -0.457865 1.75133 37 38 35
0.655959 -0.461146 1.76388 38 39 35
0.680806 -0.471966 1.80527 37 38 35
0.662915 -0.453268 1.73375 38 38 35
0.708337 -0.47778 1.82751 37 38 35
0.717909 -0.47778 1.82751 37 38 35
0.702153 -0.461146 1.76388 37 38 35
0.733175 -0.475266 1.81789 37 39 36
0.709832 -0.454236 1.73745 37 39 36
0.733063 -0.463163 1.7716 38 39 36
0.730039 -0.455487 1.74224 38 39 36
0.775342 -0.47778 1.82751 37 39 36
0.776181 -0.472465 1.80718 37 39 36
0.780426 -0.469325 1.79517 36 38 35
0.831025 -0.493804 1.8888 37 38 36
0.782578 -0.459546 1.75776 36 38 36
0.784792 -0.455487 1.74224 36 39 36
0.840308 -0.482102 1.84404 37 39 37
0.845382 -0.479502 1.8341 37 39 37
0.849737 -0.476557 1.82283 37 39 37
0.83986 -0.465784 1.78162 37 39 37
0.868832 -0.476557 1.82283 37 40 37
0.851116 -0.461765 1.76625 37 39 37
0.926892 -0.497469 1.90282 36 38 36
0.913617 -0.485128 1.85562 35 37 36
0.950232 -0.499259 1.90967 35 37 35
0.869089 -0.451869 1.7284 37 38 37
0.912064 -0.469325 1.79517 37 39 37
0.929065 -0.473195 1.80997 36 38 36
0.977711 -0.492942 1.8855 36 38 35
1.04756 -0.522876 2 37 38 35
0.991555 -0.490022 1.87433 36 38 35
1.03768 -0.507787 1.94228 37 39 36
0.978885 -0.474367 1.81445 37 39 36
0.977883 -0.469325 1.79517 36 38 35
0.953508 -0.453268 1.73375 35 36 34
0.996688 -0.469325 1.79517 35 37 34
1.0169 -0.474367 1.81445 35 37 35
1.13136 -0.522876 2 36 37 35
1.14184 -0.522876 2 37 38 36
1.1067 -0.502179 1.92083 37 38 36
1.07212 -0.482102 1.84404 36 38 36
1.17327 -0.522876 2 36 38 35
1.13028 -0.499259 1.90967 36 37 35
1.24149 -0.543573 2.07917 35 37 34
1.20469 -0.522876 2 35 37 34
1.09072 -0.469325 1.79517 35 37 34
1.22564 -0.522876 2 36 37 34
1.15845 -0.490022 1.87433 35 37 34
1.2466 -0.522876 2 35 37 34
-0.510318 -0.20802 0.811916 32 34 32
-0.52204 -0.214587 0.837546 34 35 34
-0.537243 -0.222708 0.869241 35 36 35
-0.52931 -0.221294 0.863725 37 38 36
-0.546216 -0.230331 0.898997 37 38 36
-0.526652 -0.224012 0.874334 36 37 35
-0.503985 -0.216251 0.844042 36 37 35
-0.517493 -0.224012 0.874334 36 37 36
-0.506689 -0.221294 0.863725 36 37 36
-0.537191 -0.236729 0.923969 37 38 37
-0.546876 -0.243188 0.949179 37 38 37
-0.513255 -0.230331 0.898997 36 37 36
-0.506208 -0.229272 0.894863 36 37 35
-0.501521 -0.229272 0.894863 36 36 33
-0.511252 -0.235926 0.920833 35 36 33
-0.49442 -0.230331 0.898997 37 37 34
-0.530867 -0.249688 0.974549 39 38 35
-0.498475 -0.236729 0.923969 38 38 35
-0.508144 -0.243687 0.951125 37 37 34
-0.488796 -0.236729 0.923969 36 36 33
-0.496056 -0.242648 0.947071 37 36 34
-0.475725 -0.235054 0.917429 37 37 34
-0.500742 -0.249939 0.975527 38 37 35
-0.496092 -0.250171 0.976432 38 37 35
-0.515134 -0.262479 1.02447 37 37 34
-0.497591 -0.256209 1 38 38 36
-0.478733 -0.249122 0.972338 39 38 36
-0.474717 -0.249688 0.974549 39 38 36
-0.481877 -0.256209 1 39 39 37
-0.476639 -0.256209 1 37 37 35
-0.471402 -0.256209 1 37 36 34
-0.466164 -0.256209 1 37 37 35
-0.473676 -0.263296 1.02766 36 36 34
-0.455688 -0.256209 1 37 36 34
-0.45045 -0.256209 1 38 38 36
-0.457528 -0.263296 1.02766 39 39 36
-0.46657 -0.271697 1.06045 38 38 36
-0.472246 -0.278315 1.08628 38 38 36
-0.455462 -0.271697 1.06045 38 38 36
-0.468867 -0.283146 1.10514 38 37 35
-0.448542 -0.274258 1.07045 37 37 35
-0.441413 -0.273315 1.06677 37 37 35
-0.462516 -0.290053 1.1321 38 38 35
-0.449489 -0.285545 1.1145 38 37 35
-0.439925 -0.283146 1.10514 38 38 35
-0.450627 -0.293902 1.14712 38 38 35
-0.433332 -0.286441 1.118 38 38 35
-0.427476 -0.286441 1.118 37 37 34
-0.45858 -0.31155 1.216 37 36 34
-0.429882 -0.296167 1.15596 37 36 33
-0.446712 -0.312159 1.21838 37 36 33
-0.448955 -0.318273 1.24224 38 37 35
-0.442448 -0.318273 1.24224 38 38 35
-0.41762 -0.304897 1.19003 38 37 35
-0.406942 -0.301602 1.17717 38 37 35
-0.410193 -0.308689 1.20483 38 38 36
-0.434165 -0.331834 1.29517 39 39 36
-0.427381 -0.331834 1.29517 38 38 35
-0.427977 -0.337656 1.31789 37 37 34
-0.429429 -0.344356 1.34404 37 37 34
-0.384046 -0.313096 1.22203 37 37 34
-0.42471 -0.352117 1.37433 37 37 35
-0.428245 -0.361169 1.40967 38 38 36
-0.424196 -0.36403 1.42083 38 38 36
-0.427544 -0.373456 1.45762 38 38 36
-0.418038 -0.371792 1.45113 37 37 34
-0.412275 -0.373456 1.45762 37 37 34
-0.40464 -0.373456 1.45762 37 37 34
-0.420091 -0.395171 1.54238 37 37 35
-0.389371 -0.373456 1.45762 37 37 35
-0.403933 -0.395171 1.54238 37 37 34
-0.395855 -0.395171 1.54238 37 37 35
-0.389409 -0.396836 1.54887 38 38 35
-0.400201 -0.41651 1.62567 37 37 34
-0.386739 -0.411251 1.60514 36 36 33
-0.40183 -0.436794 1.70483 36 36 33
-0.37897 -0.421306 1.64438 36 37 33
-0.366141 -0.41651 1.62567 36 36 33
-0.375042 -0.436794 1.70483 36 36 33
-0.38045 -0.4539 1.7716 37 37 34
-0.363241 -0.444203 1.73375 37 36 33
-0.373923 -0.468991 1.8305 35 35 31
-0.3348 -0.430971 1.68211 35 35 31
-0.342296 -0.452529 1.76625 37 36 34
-0.330232 -0.448707 1.75133 37 37 35
-0.307464 -0.429707 1.67717 37 37 34
-0.314121 -0.451923 1.76388 37 37 35
-0.297017 -0.440264 1.71838 35 36 34
-0.285746 -0.436794 1.70483 34 35 33
-0.279277 -0.440677 1.71999 36 37 35
-0.274402 -0.447416 1.74629 37 38 36
-0.258957 -0.436794 1.70483 37 38 35
-0.259333 -0.45305 1.76828 36 37 34
-0.248584 -0.450355 1.75776 36 36 33
-0.237815 -0.447416 1.74629 35 36 33
-0.223239 -0.436794 1.70483 35 36 32
-0.216012 -0.440264 1.71838 35 36 32
-0.210375 -0.447416 1.74629 35 36 32
-0.201228 -0.447416 1.74629 35 36 33
-0.187521 -0.436794 1.70483 36 37 34
-0.184136 -0.450355 1.75776 37 38 35
-0.17117 -0.440677 1.71999 37 37 35
-0.164641 -0.447416 1.74629 36 37 34
-0.151803 -0.436794 1.70483 36 37 34
-0.144008 -0.440264 1.71838 37 37 35
-0.132902 -0.433396 1.69157 37 37 35
-0.125014 -0.436794 1.70483 36 37 35
-0.115181 -0.433396 1.69157 37 37 35
-0.109761 -0.447416 1.74629 37 38 36
-0.0966315 -0.429707 1.67717 37 37 35
-0.090005 -0.440264 1.71838 37 37 35
-0.0846245 -0.459938 1.79517 37 37 35
-0.0725247 -0.443448 1.7308 37 37 35
-0.0640271 -0.447416 1.74629 36 37 35
-0.0527081 -0.429707 1.67717 36 37 34
-0.0454051 -0.444203 1.73375 36 37 34
-0.0363241 -0.444203 1.73375 36 37 35
-0.0271968 -0.443448 1.7308 37 38 36
-0.0180393 -0.441201 1.72203 38 39 36
-0.00892957 -0.436794 1.70483 38 39 36
0 -0.436794 1.70483 38 38 36
0.00914672 -0.447416 1.74629 37 38 35
0.018001 -0.440264 1.71838 37 38 35
0.0270268 -0.440677 1.71999 37 37 35
0.0376109 -0.459938 1.79517 37 37 35
0.0442602 -0.433001 1.69003 37 37 35
0.0540537 -0.440677 1.71999 37 37 35
0.062507 -0.436794 1.70483 36 36 34
0.0739109 -0.451923 1.76388 37 37 34
0.0766342 -0.41651 1.62567 36 37 34
0.0900894 -0.440677 1.71999 36 37 34
0.0990055 -0.440264 1.71838 37 39 36
0.110077 -0.448707 1.75133 38 39 36
0.115076 -0.433001 1.69003 37 38 35
0.130819 -0.457077 1.784 36 37 34
0.133943 -0.436794 1.70483 35 36 33
0.141762 -0.433396 1.69157 35 36 33
0.152893 -0.43993 1.71707 36 37 35
0.160732 -0.436794 1.70483 37 38 36
0.172246 -0.443448 1.7308 37 38 36
0.181312 -0.443448 1.7308 37 39 36
0.192081 -0.447416 1.74629 37 38 36
0.198011 -0.440264 1.71838 37 37 35
0.20538 -0.436794 1.70483 38 38 35
0.217574 -0.443448 1.7308 38 38 35
0.228668 -0.447416 1.74629 38 39 35
0.234233 -0.440677 1.71999 38 39 36
0.239005 -0.433001 1.69003 39 39 36
0.256108 -0.447416 1.74629 39 39 36
0.256709 -0.433001 1.69003 37 38 35
0.275194 -0.448707 1.75133 36 37 34
0.281512 -0.444203 1.73375 37 38 36
0.292695 -0.447416 1.74629 38 39 37
0.304882 -0.451923 1.76388 37 38 36
0.316151 -0.454843 1.77528 36 37 35
0.312535 -0.436794 1.70483 37 37 35
0.327615 -0.445151 1.73745 37 38 36
0.338429 -0.447416 1.74629 38 39 37
0.342019 -0.440264 1.71838 38 38 36
0.360316 -0.451923 1.76388 37 38 36
0.363241 -0.444203 1.73375 38 39 36
0.381241 -0.454843 1.77528 38 39 36
0.375042 -0.436794 1.70483 38 39 36
0.387022 -0.440264 1.71838 37 37 35
0.396022 -0.440264 1.71838 36 36 34
0.405023 -0.440264 1.71838 37 38 35
0.430236 -0.457504 1.78567 38 38 36
0.428898 -0.446377 1.74224 38 39 36
0.441926 -0.450355 1.75776 37 39 36
0.466566 -0.465761 1.81789 37 39 36
0.47738 -0.467025 1.82283 37 39 36
0.474226 -0.454843 1.77528 38 39 36
0.486354 -0.457504 1.78567 37 39 36
0.492823 -0.454843 1.77528 37 38 36
0.516895 -0.468225 1.82751 36 37 35
0.50307 -0.447416 1.74629 37 38 36
0.523765 -0.457504 1.78567 38 39 36
0.522868 -0.448707 1.75133 37 38 35
0.525804 -0.443448 1.7308 36 38 35
0.56072 -0.464879 1.81445 36 38 35
0.561177 -0.457504 1.78567 37 38 35
0.561615 -0.450355 1.75776 37 38 35
0.567097 -0.447416 1.74629 36 38 35
0.580028 -0.450355 1.75776 36 38 35
0.608239 -0.464879 1.81445 36 38 35
0.598442 -0.450355 1.75776 36 38 35
0.589351 -0.436794 1.70483 36 38 35
0.629982 -0.459938 1.79517 37 38 35
0.632301 -0.454843 1.77528 36 37 34
0.652439 -0.462527 1.80527 36 38 34
0.635672 -0.444203 1.73375 37 38 34
0.649417 -0.447416 1.74629 37 38 34
0.689193 -0.468225 1.82751 37 38 34
0.674437 -0.451923 1.76388 37 38 34
0.683676 -0.451923 1.76388 37 38 34
0.681077 -0.444203 1.73375 37 38 35
0.723654 -0.465761 1.81789 38 39 36
0.714504 -0.4539 1.7716 38 39 36
0.742697 -0.465761 1.81789 37 39 36
0.72987 -0.451923 1.76388 37 38 35
0.779715 -0.476752 1.86079 37 38 35
0.766716 -0.463015 1.80718 37 39 36
0.738733 -0.440677 1.71999 37 38 35
0.821131 -0.483928 1.8888 36 38 35
0.789828 -0.459938 1.79517 36 38 35
0.852856 -0.490798 1.91561 35 36 34
0.802533 -0.456468 1.78162 34 36 33
0.793917 -0.446377 1.74224 35 37 34
0.821197 -0.456468 1.78162 35 37 35
0.849737 -0.467025 1.82283 37 39 37
0.900219 -0.489274 1.90967 37 39 37
0.833484 -0.448025 1.74867 36 39 36
0.872183 -0.463731 1.80997 36 38 36
0.887927 -0.467025 1.82283 36 39 36
0.891144 -0.463731 1.80997 36 38 36
0.900624 -0.463731 1.80997 36 38 36
0.956792 -0.48752 1.90282 37 38 36
0.930015 -0.468991 1.8305 37 39 37
0.929065 -0.463731 1.80997 37 39 36
1.00964 -0.498857 1.94707 37 38 36
0.940272 -0.459938 1.79517 37 38 36
0.997463 -0.483083 1.8855 37 39 36
1.00137 -0.480222 1.87433 37 39 36
1.01721 -0.483083 1.8855 37 38 36
0.988388 -0.464879 1.81445 36 38 35
1.00672 -0.468991 1.8305 36 37 34
1.0713 -0.494369 1.92955 35 37 34
1.08141 -0.494369 1.92955 36 37 36
1.09547 -0.496162 1.93655 36 38 35
1.0528 -0.47246 1.84404 36 38 36
1.1067 -0.492135 1.92083 37 38 36
1.11027 -0.489274 1.90967 36 38 36
1.12682 -0.492135 1.92083 36 38 35
1.13028 -0.489274 1.90967 36 37 34
1.04957 -0.450355 1.75776 35 36 33
1.15701 -0.492135 1.92083 36 37 34
1.09072 -0.459938 1.79517 36 38 35
1.22564 -0.512418 2 35 37 34
1.3011 -0.539355 2.10514 35 37 34
1.16827 -0.480222 1.87433 35 37 34
-0.510318 -0.203775 0.811916 35 36 35
-0.47887 -0.192824 0.768284 35 36 35
-0.540391 -0.219441 0.874334 36 38 36
-0.542655 -0.222244 0.885502 38 39 37
-0.505858 -0.208959 0.832572 38 39 38
-0.559913 -0.2333 0.929553 36 37 35
-0.522073 -0.219441 0.874334 36 37 35
-0.550176 -0.2333 0.929553 36 37 36
-0.506689 -0.216778 0.863725 37 38 37
-0.497451 -0.214743 0.855615 37 38 37
-0.512999 -0.223468 0.89038 37 37 36
-0.525722 -0.231111 0.920833 36 36 35
-0.522673 -0.231898 0.923969 36 37 35
-0.516076 -0.231111 0.920833 36 37 34
-0.512994 -0.231898 0.923969 36 37 34
-0.523089 -0.238714 0.951125 37 37 35
-0.489711 -0.225631 0.898997 38 38 35
-0.525191 -0.244327 0.973489 39 39 36
-0.496619 -0.2333 0.929553 38 37 35
-0.503162 -0.238714 0.951125 37 36 34
-0.49818 -0.238714 0.951125 37 36 34
-0.479117 -0.231898 0.923969 38 37 35
-0.500742 -0.244838 0.975527 38 37 35
-0.519613 -0.256684 1.02273 38 38 36
-0.490523 -0.244838 0.975527 37 37 35
-0.52191 -0.263247 1.04887 37 37 35
-0.467331 -0.238225 0.949179 37 37 35
-0.474717 -0.244593 0.974549 37 37 35
-0.481877 -0.25098 1 38 37 35
-0.488304 -0.257123 1.02447 39 38 36
-0.445371 -0.237121 0.944781 39 38 36
-0.453269 -0.244038 0.972338 38 37 36
-0.460926 -0.25098 1 36 36 34
-0.455688 -0.25098 1 35 35 33
-0.462911 -0.257923 1.02766 37 37 34
-0.458087 -0.258238 1.02892 39 39 36
-0.452698 -0.258238 1.02892 39 39 36
-0.459828 -0.265466 1.05772 39 38 35
-0.480964 -0.281054 1.11983 38 38 35
-0.464476 -0.27477 1.09479 38 37 35
-0.463079 -0.277368 1.10514 37 37 35
-0.441413 -0.267738 1.06677 38 38 35
-0.449279 -0.276002 1.0997 38 38 36
-0.456586 -0.284134 1.1321 37 37 35
-0.456636 -0.287904 1.14712 37 37 35
-0.447521 -0.285919 1.13921 37 37 34
-0.441554 -0.285919 1.13921 37 37 34
-0.424877 -0.278889 1.1112 37 37 34
-0.454368 -0.302389 1.20483 37 37 34
-0.439606 -0.296685 1.18211 37 37 34
-0.427474 -0.292619 1.1659 37 37 34
-0.421367 -0.292619 1.1659 38 38 35
-0.423853 -0.298674 1.19003 38 37 35
-0.427567 -0.305788 1.21838 37 37 35
-0.426501 -0.309647 1.23375 37 37 35
-0.432925 -0.319147 1.2716 37 37 35
-0.41947 -0.31406 1.25133 38 38 35
-0.449035 -0.341532 1.36079 38 37 35
-0.433916 -0.335356 1.33618 37 37 35
-0.453964 -0.356601 1.42083 38 37 35
-0.407029 -0.325062 1.29517 37 37 34
-0.418926 -0.340233 1.35562 37 37 35
-0.401865 -0.332004 1.32283 38 38 36
-0.410313 -0.344931 1.37433 39 39 37
-0.427544 -0.365834 1.45762 38 38 36
-0.40183 -0.350083 1.39486 37 37 34
-0.410438 -0.364204 1.45113 37 37 34
-0.441482 -0.399143 1.59033 37 37 34
-0.433152 -0.399143 1.59033 37 37 35
-0.424822 -0.399143 1.59033 37 37 35
-0.405634 -0.388737 1.54887 37 37 35
-0.408163 -0.399143 1.59033 37 37 35
-0.387776 -0.387107 1.54238 37 38 35
-0.404809 -0.412708 1.64438 36 37 33
-0.371619 -0.387107 1.54238 35 36 33
-0.393503 -0.419012 1.6695 35 36 32
-0.36193 -0.394151 1.57045 36 36 33
-0.404317 -0.450552 1.79517 36 36 33
-0.399157 -0.455392 1.81445 36 36 33
-0.38045 -0.444637 1.7716 38 38 35
-0.380149 -0.455392 1.81445 38 37 34
-0.338269 -0.415613 1.65596 36 36 33
-0.33116 -0.417585 1.66382 37 36 33
-0.326656 -0.423039 1.68555 37 37 34
-0.329282 -0.438285 1.74629 37 36 34
-0.307464 -0.420937 1.67717 37 36 34
-0.306017 -0.431279 1.71838 36 36 34
-0.294676 -0.42788 1.70483 35 36 34
-0.285746 -0.42788 1.70483 36 36 34
-0.276817 -0.42788 1.70483 37 38 35
-0.26177 -0.418109 1.6659 36 37 35
-0.256709 -0.424164 1.69003 36 37 34
-0.261883 -0.448167 1.78567 36 37 34
-0.244771 -0.434398 1.7308 35 36 33
-0.234013 -0.431279 1.71838 35 36 33
-0.231548 -0.443805 1.76828 35 36 32
-0.217574 -0.434398 1.7308 35 36 33
-0.20538 -0.42788 1.70483 35 36 33
-0.20255 -0.441164 1.75776 36 37 34
-0.189011 -0.431279 1.71838 37 38 35
-0.178591 -0.42788 1.70483 37 37 35
-0.168342 -0.424551 1.69157 36 37 34
-0.160732 -0.42788 1.70483 36 36 34
-0.154377 -0.435137 1.73375 36 37 34
-0.145296 -0.435137 1.73375 37 37 35
-0.138102 -0.441164 1.75776 37 37 35
-0.127134 -0.435137 1.73375 36 37 35
-0.114201 -0.420937 1.67717 36 37 35
-0.110482 -0.441164 1.75776 36 37 35
-0.0941664 -0.410199 1.63439 36 36 34
-0.0886011 -0.424551 1.69157 36 36 34
-0.0810045 -0.431279 1.71838 36 36 34
-0.0725247 -0.434398 1.7308 37 37 35
-0.0640271 -0.438285 1.74629 36 37 35
-0.0543936 -0.434398 1.7308 36 37 34
-0.0442602 -0.424164 1.69003 36 36 34
-0.0357183 -0.42788 1.70483 36 37 34
-0.0272431 -0.435137 1.73375 36 37 35
-0.0175694 -0.420937 1.67717 37 37 35
-0.00856058 -0.410199 1.63439 38 38 36
0 -0.423676 1.68808 38 38 36
0.00901967 -0.432197 1.72203 38 38 36
0.0180179 -0.431683 1.71999 38 38 35
0.0270015 -0.431279 1.71838 37 37 35
0.0354081 -0.424164 1.69003 37 37 35
0.0443005 -0.424551 1.69157 37 37 34
0.0544862 -0.435137 1.73375 36 36 34
0.0630035 -0.431279 1.71838 36 36 34
0.0714365 -0.42788 1.70483 37 37 34
0.0803661 -0.42788 1.70483 37 37 35
0.0906559 -0.434398 1.7308 36 38 35
0.0997215 -0.434398 1.7308 37 38 35
0.104431 -0.417002 1.66149 37 38 35
0.112404 -0.414314 1.65078 36 37 34
0.12105 -0.414314 1.65078 36 36 34
0.133943 -0.42788 1.70483 34 35 31
0.145296 -0.435137 1.73375 36 36 33
0.14934 -0.420937 1.67717 36 37 35
0.158124 -0.420937 1.67717 36 38 35
0.175538 -0.4427 1.76388 37 38 36
0.18001 -0.431279 1.71838 37 38 36
0.192081 -0.438285 1.74629 37 38 36
0.200209 -0.436066 1.73745 38 38 36
0.20538 -0.42788 1.70483 38 38 36
0.217945 -0.435137 1.73375 38 38 36
0.228668 -0.438285 1.74629 38 38 35
0.234013 -0.431279 1.71838 38 39 35
0.241098 -0.42788 1.70483 39 39 36
0.253837 -0.434398 1.7308 39 39 36
0.265255 -0.438285 1.74629 38 38 36
0.267887 -0.42788 1.70483 37 38 35
0.284367 -0.43955 1.75133 37 38 36
0.288286 -0.431683 1.71999 38 38 36
0.297295 -0.431683 1.71999 38 39 36
0.308755 -0.435137 1.73375 37 38 36
0.320135 -0.438285 1.74629 36 37 35
0.328517 -0.437268 1.74224 37 38 36
0.349859 -0.453088 1.80527 38 38 36
0.34234 -0.431683 1.71999 37 38 36
0.360316 -0.4427 1.76388 37 38 36
0.365869 -0.438285 1.74629 37 38 36
0.383471 -0.448167 1.78567 38 39 36
0.375042 -0.42788 1.70483 38 39 36
0.397271 -0.4427 1.76388 37 37 35
0.41153 -0.448167 1.78567 36 36 34
0.405023 -0.431279 1.71838 36 36 34
0.420749 -0.438285 1.74629 37 37 35
0.423024 -0.431279 1.71838 37 37 35
0.428619 -0.42788 1.70483 37 38 36
0.426426 -0.417002 1.66149 37 39 36
0.470136 -0.450552 1.79517 37 39 36
0.482238 -0.453088 1.80527 38 39 36
0.472214 -0.435137 1.73375 37 39 36
0.484776 -0.438285 1.74629 36 38 36
0.495348 -0.43955 1.75133 36 37 35
0.531229 -0.462818 1.84404 37 38 36
0.508538 -0.435137 1.73375 37 39 36
0.538972 -0.453088 1.80527 36 38 35
0.548427 -0.453088 1.80527 36 37 34
0.551824 -0.448167 1.78567 36 38 35
0.564163 -0.450552 1.79517 37 38 35
0.57053 -0.448167 1.78567 37 39 36
0.57651 -0.44556 1.77528 36 38 35
0.585809 -0.44556 1.77528 36 38 35
0.618158 -0.462818 1.84404 36 38 35
0.607942 -0.448167 1.78567 36 37 35
0.613704 -0.44556 1.77528 37 38 35
0.608429 -0.435137 1.73375 37 39 36
0.646254 -0.455392 1.81445 36 38 34
0.606143 -0.420937 1.67717 36 37 34
0.640271 -0.438285 1.74629 36 37 34
0.660197 -0.44556 1.77528 36 37 34
0.684269 -0.455392 1.81445 36 37 34
0.662915 -0.435137 1.73375 37 38 34
0.699718 -0.453088 1.80527 37 38 34
0.705204 -0.450552 1.79517 38 39 35
0.70669 -0.44556 1.77528 38 39 36
0.737053 -0.458669 1.82751 37 38 35
0.720631 -0.4427 1.76388 36 38 35
0.718933 -0.436066 1.73745 36 37 34
0.752218 -0.450552 1.79517 37 38 35
0.771262 -0.456256 1.81789 38 39 36
0.760901 -0.444637 1.7716 37 39 36
0.77018 -0.444637 1.7716 35 37 34
0.779459 -0.444637 1.7716 35 37 34
0.775666 -0.437268 1.74224 34 36 34
0.830649 -0.462818 1.84404 34 36 34
0.854112 -0.470421 1.87433 35 37 35
0.845382 -0.460322 1.8341 36 38 36
0.843742 -0.454267 1.80997 37 39 37
0.864596 -0.460322 1.8341 37 39 36
0.893382 -0.470421 1.87433 35 37 35
0.87838 -0.457494 1.82283 36 38 35
0.881663 -0.454267 1.80997 37 39 37
0.860962 -0.438881 1.74867 37 38 36
0.923337 -0.465723 1.85562 36 38 36
0.938084 -0.468232 1.86561 37 38 36
