ply
format ascii 1.0
element vertex 1325
property float x
property float y
property float z
property uchar red
property uchar green
property uchar blue
end_header
1.07652 -0.632745 1.92083 36 39 36
1.04314 -0.607449 1.84404 37 39 36
1.08181 -0.62419 1.89486 36 38 36
1.01275 -0.579027 1.75776 36 38 35
1.11027 -0.629066 1.90967 36 38 34
1.17327 -0.658824 2 36 38 34
1.13028 -0.629066 1.90967 37 38 35
1.10109 -0.607449 1.84404 37 38 36
1.20469 -0.658824 2 36 38 36
1.15129 -0.62419 1.89486 36 38 36
1.16121 -0.62419 1.89486 36 39 37
1.23612 -0.658824 2 36 39 36
1.16827 -0.617428 1.87433 35 37 35
-0.545508 -0.28136 0.867904 35 34 24
-0.507647 -0.264032 0.814453 35 34 25
-0.497706 -0.261055 0.805271 36 36 29
-0.508948 -0.269234 0.830499 37 38 34
-0.512827 -0.273624 0.844042 35 37 33
-0.520262 -0.280005 0.863725 35 36 32
-0.495898 -0.269234 0.830499 36 37 34
-0.545014 -0.298518 0.920833 36 37 35
-0.503173 -0.278062 0.85773 36 38 36
-0.522673 -0.29144 0.898997 36 38 36
-0.463166 -0.260607 0.803887 36 38 36
-0.496267 -0.281793 0.869241 35 37 35
-0.500912 -0.287065 0.885502 35 37 34
-0.484069 -0.280005 0.863725 36 38 36
-0.501252 -0.292679 0.90282 36 38 35
-0.506429 -0.298518 0.920833 35 37 34
-0.499752 -0.297415 0.917429 36 38 35
-0.477722 -0.287065 0.885502 36 37 35
-0.48816 -0.296213 0.91372 36 37 35
-0.485336 -0.297415 0.917429 37 38 36
-0.478588 -0.296213 0.91372 37 38 36
-0.48564 -0.303613 0.936549 36 38 35
-0.451797 -0.285338 0.880174 37 38 35
-0.475829 -0.303613 0.936549 37 38 35
-0.473807 -0.305472 0.942284 37 38 35
-0.452641 -0.294898 0.909666 37 37 34
-0.451699 -0.297415 0.917429 37 37 33
-0.473029 -0.314808 0.971083 38 38 35
-0.452749 -0.304587 0.939552 38 38 35
-0.476639 -0.324183 1 37 37 34
-0.471402 -0.324183 1 36 37 33
-0.452043 -0.314363 0.969708 36 37 34
-0.448176 -0.315216 0.972338 36 37 34
-0.455688 -0.324183 1 36 38 35
-0.437425 -0.314808 0.971083 36 38 35
-0.472125 -0.343779 1.06045 37 39 35
-0.427252 -0.314808 0.971083 36 39 35
-0.44929 -0.335035 1.03348 37 39 36
-0.415839 -0.313873 0.968195 37 39 36
-0.437755 -0.334493 1.0318 37 38 35
-0.419024 -0.324183 1 37 38 34
-0.455039 -0.356503 1.0997 36 37 34
-0.437329 -0.347021 1.07045 37 38 35
-0.445713 -0.358267 1.10514 37 38 35
-0.429587 -0.349848 1.07917 36 37 34
-0.436518 -0.360232 1.1112 36 37 34
-0.416494 -0.348352 1.07455 37 38 35
-0.414624 -0.351539 1.08438 37 38 36
-0.391228 -0.336309 1.03741 37 38 35
-0.433581 -0.377966 1.1659 37 37 35
-0.366646 -0.324183 1 37 38 35
-0.406825 -0.364922 1.12567 36 37 35
-0.442448 -0.402712 1.24224 37 38 35
-0.422815 -0.390586 1.20483 37 38 36
-0.403047 -0.377966 1.1659 38 38 36
-0.414804 -0.394977 1.21838 37 38 36
-0.421626 -0.407745 1.25776 38 38 37
-0.407114 -0.399961 1.23375 38 39 37
-0.396848 -0.396163 1.22203 38 39 36
-0.384951 -0.390586 1.20483 38 39 35
-0.37864 -0.390586 1.20483 38 38 35
-0.383889 -0.402712 1.24224 38 38 35
-0.386302 -0.412231 1.2716 37 38 35
-0.40127 -0.435715 1.34404 37 37 35
-0.379894 -0.419871 1.29517 37 38 35
-0.392015 -0.441145 1.36079 37 38 35
-0.383424 -0.439467 1.35562 37 38 35
-0.391328 -0.45699 1.40967 37 38 35
-0.383944 -0.45699 1.40967 37 38 35
-0.400691 -0.486275 1.5 37 38 35
-0.403933 -0.500013 1.54238 37 38 35
-0.374101 -0.472536 1.45762 37 38 35
-0.377121 -0.486275 1.5 37 38 35
-0.347026 -0.45699 1.40967 37 38 35
-0.336076 -0.452191 1.39486 37 38 35
-0.378332 -0.520358 1.60514 38 38 35
-0.358996 -0.504985 1.55772 38 38 35
-0.348846 -0.502119 1.54887 37 38 35
-0.38327 -0.564804 1.74224 37 38 35
-0.353131 -0.533081 1.64438 36 38 35
-0.336295 -0.520358 1.60514 37 38 35
-0.342602 -0.54371 1.67717 38 39 36
-0.333818 -0.54371 1.67717 38 40 37
-0.323547 -0.541224 1.6695 39 40 36
-0.325908 -0.560318 1.7284 38 38 35
-0.301453 -0.533081 1.64438 37 38 35
-0.285851 -0.520358 1.60514 37 37 35
-0.303824 -0.569837 1.75776 36 37 34
-0.285746 -0.552678 1.70483 36 37 35
-0.274097 -0.547248 1.68808 36 37 35
-0.270268 -0.557591 1.71999 36 36 34
-0.256709 -0.547879 1.69003 35 36 33
-0.254269 -0.562052 1.73375 36 36 34
-0.241098 -0.552678 1.70483 38 38 35
-0.237815 -0.566118 1.74629 39 39 36
-0.229328 -0.567752 1.75133 39 40 37
-0.221733 -0.571821 1.76388 39 39 37
-0.20538 -0.552678 1.70483 38 39 37
-0.199783 -0.562052 1.73375 37 38 36
-0.190702 -0.562052 1.73375 37 37 35
-0.188054 -0.581963 1.79517 36 37 35
-0.17254 -0.562052 1.73375 35 36 34
-0.160732 -0.552678 1.70483 36 37 34
-0.151803 -0.552678 1.70483 36 37 35
-0.140555 -0.54371 1.67717 37 38 35
-0.137597 -0.567752 1.75133 38 39 37
-0.123928 -0.547879 1.69003 37 38 36
-0.118053 -0.562052 1.73375 38 38 36
-0.110077 -0.567752 1.75133 38 38 35
-0.100105 -0.563252 1.73745 37 38 35
-0.0892957 -0.552678 1.70483 37 37 34
-0.0817293 -0.562052 1.73375 37 38 34
-0.0693886 -0.536833 1.65596 38 39 35
-0.0630626 -0.557591 1.71999 38 39 36
-0.0531122 -0.547879 1.69003 37 38 35
-0.0454051 -0.562052 1.73375 36 37 34
-0.0353673 -0.547248 1.68808 37 38 35
-0.0267887 -0.552678 1.70483 36 38 35
-0.0177041 -0.547879 1.69003 38 39 36
-0.00900894 -0.557591 1.71999 39 40 36
0 -0.567752 1.75133 38 39 35
0.00917312 -0.567752 1.75133 37 39 35
0.0182008 -0.563252 1.73745 37 38 34
0.0273012 -0.563252 1.73745 37 38 34
0.0342423 -0.52984 1.63439 36 38 34
0.0446478 -0.552678 1.70483 37 38 34
0.0540537 -0.557591 1.71999 37 38 34
0.0637029 -0.563252 1.73745 36 37 33
0.0707347 -0.547248 1.68808 36 37 33
0.0819037 -0.563252 1.73745 37 38 35
0.0892957 -0.552678 1.70483 38 39 36
0.102284 -0.575515 1.77528 39 40 37
0.106102 -0.547248 1.68808 39 40 37
0.112756 -0.536833 1.65596 37 39 36
0.127134 -0.562052 1.73375 37 38 35
0.13278 -0.547879 1.69003 36 37 35
0.139241 -0.538628 1.66149 36 38 35
0.14904 -0.542618 1.6738 36 38 36
0.162161 -0.557591 1.71999 36 38 36
0.169662 -0.552678 1.70483 37 38 36
0.178591 -0.552678 1.70483 37 38 36
0.196229 -0.578342 1.784 36 37 35
0.200209 -0.563252 1.73745 36 37 34
0.208864 -0.562052 1.73375 36 37 34
0.21841 -0.563252 1.73745 36 38 35
0.223239 -0.552678 1.70483 37 39 35
0.236107 -0.562052 1.73375 37 38 35
0.241098 -0.552678 1.70483 36 37 34
0.25225 -0.557591 1.71999 36 37 34
0.258957 -0.552678 1.70483 35 36 33
0.270268 -0.557591 1.71999 36 38 35
0.274663 -0.548379 1.69157 37 38 36
0.306308 -0.592448 1.82751 37 38 35
0.300314 -0.563252 1.73745 36 38 35
0.325452 -0.592448 1.82751 37 39 35
0.321059 -0.567752 1.75133 38 39 35
0.332599 -0.571821 1.76388 38 39 35
0.341838 -0.571821 1.76388 38 39 35
0.339324 -0.552678 1.70483 37 38 34
0.360316 -0.571821 1.76388 37 39 35
0.360358 -0.557591 1.71999 37 39 35
0.366112 -0.552678 1.70483 37 39 35
0.371357 -0.547248 1.68808 37 39 35
0.376983 -0.542618 1.6738 37 39 35
0.396393 -0.557591 1.71999 37 39 35
0.397883 -0.547248 1.68808 37 39 35
0.423513 -0.569837 1.75776 37 38 35
0.444884 -0.585856 1.80718 37 39 35
0.43682 -0.563252 1.73745 37 39 35
0.437549 -0.552678 1.70483 37 39 35
0.458656 -0.567752 1.75133 37 39 35
0.466483 -0.566118 1.74629 37 39 36
0.477002 -0.567752 1.75133 38 39 36
0.495244 -0.578342 1.784 37 39 36
0.498898 -0.571821 1.76388 38 40 36
0.504522 -0.567752 1.75133 39 41 37
0.504501 -0.557591 1.71999 38 40 36
0.498437 -0.541224 1.6695 37 38 34
0.5267 -0.562052 1.73375 38 39 36
0.561784 -0.58933 1.81789 38 39 37
0.560654 -0.578342 1.784 38 39 37
0.544704 -0.552678 1.70483 39 40 37
0.579342 -0.578342 1.784 39 40 37
0.577906 -0.567752 1.75133 38 40 37
0.59803 -0.578342 1.784 38 39 36
0.627816 -0.597807 1.84404 38 39 35
0.612432 -0.574322 1.7716 38 39 35
0.609728 -0.563252 1.73745 37 38 34
0.635407 -0.578342 1.784 37 38 34
0.64027 -0.574322 1.7716 37 38 34
0.618929 -0.547248 1.68808 38 39 35
0.667593 -0.581963 1.79517 40 40 36
0.676996 -0.581963 1.79517 40 40 36
0.690991 -0.585856 1.80718 40 40 36
0.700456 -0.585856 1.80718 39 39 36
0.700817 -0.578342 1.784 38 38 35
0.719388 -0.585856 1.80718 38 37 34
0.718547 -0.577572 1.78162 37 37 34
0.714415 -0.566889 1.74867 37 38 35
0.730849 -0.572588 1.76625 36 37 34
0.740101 -0.572588 1.76625 37 38 35
0.755874 -0.577572 1.78162 37 38 35
0.796985 -0.601559 1.85562 37 38 34
0.786861 -0.586761 1.80997 37 38 35
0.820823 -0.6048 1.86561 37 38 35
0.748895 -0.54531 1.68211 37 38 35
0.815302 -0.586761 1.80997 37 38 35
0.824782 -0.586761 1.80997 36 38 34
0.827439 -0.581963 1.79517 36 37 34
0.887026 -0.616862 1.90282 35 36 33
0.846245 -0.581963 1.79517 35 36 33
0.878943 -0.597807 1.84404 34 36 33
0.86505 -0.581963 1.79517 36 37 34
0.891663 -0.593417 1.8305 37 38 35
0.893351 -0.588215 1.81445 37 38 36
0.925912 -0.603237 1.86079 38 39 36
0.942468 -0.607627 1.87433 37 38 35
0.90009 -0.574322 1.7716 36 37 34
0.962103 -0.607627 1.87433 36 37 34
0.956213 -0.597807 1.84404 37 38 35
0.940272 -0.581963 1.79517 37 38 35
0.97553 -0.597807 1.84404 37 39 36
0.946486 -0.574322 1.7716 36 38 35
0.994848 -0.597807 1.84404 35 37 34
1.05109 -0.625528 1.92955 36 38 35
1.09994 -0.648366 2 37 40 37
1.11041 -0.648366 2 37 39 36
0.976427 -0.564804 1.74224 36 39 36
1.13136 -0.648366 2 36 38 36
1.0249 -0.581963 1.79517 36 38 35
1.1067 -0.622701 1.92083 36 38 35
1.16279 -0.648366 2 35 37 34
1.17327 -0.648366 2 36 38 35
1.06251 -0.581963 1.79517 37 38 35
1.19422 -0.648366 2 36 38 35
1.15028 -0.619081 1.90967 36 38 36
1.27905 -0.68245 2.10514 36 38 36
1.17029 -0.619081 1.90967 37 38 36
1.13973 -0.597807 1.84404 36 38 36
1.18106 -0.614282 1.89486 36 38 35
-0.506142 -0.256845 0.805271 38 37 28
-0.507647 -0.259773 0.814453 37 36 27
-0.508558 -0.262445 0.822829 36 36 29
-0.493488 -0.256845 0.805271 35 35 30
-0.499938 -0.262445 0.822829 34 35 29
-0.495628 -0.262445 0.822829 35 36 32
-0.491318 -0.262445 0.822829 36 37 34
-0.503797 -0.271492 0.851194 37 38 36
-0.503173 -0.273577 0.85773 37 38 36
-0.531233 -0.291435 0.91372 37 38 36
-0.497642 -0.275489 0.863725 36 38 36
-0.493117 -0.275489 0.863725 35 37 35
-0.469798 -0.264891 0.830499 34 37 34
-0.509817 -0.290142 0.909666 35 37 34
-0.468617 -0.269211 0.844042 35 37 34
-0.489681 -0.28399 0.89038 36 38 35
-0.499752 -0.292618 0.917429 37 38 35
-0.477722 -0.282435 0.885502 36 37 34
-0.470238 -0.280735 0.880174 35 37 34
-0.514993 -0.310499 0.973489 36 37 35
-0.468711 -0.28542 0.894863 37 38 36
-0.461699 -0.28399 0.89038 37 38 36
-0.454532 -0.282435 0.885502 37 39 36
-0.46423 -0.291435 0.91372 38 39 36
-0.473807 -0.300546 0.942284 38 39 35
-0.470114 -0.301342 0.944781 37 38 34
-0.478115 -0.309731 0.971083 37 37 33
-0.487115 -0.318954 1 38 39 35
-0.454065 -0.300546 0.942284 38 38 35
-0.462201 -0.309292 0.969708 37 38 34
-0.485033 -0.328178 1.02892 36 37 33
-0.452684 -0.309731 0.971083 37 38 35
-0.447597 -0.309731 0.971083 38 39 36
-0.455688 -0.318954 1 37 38 35
-0.436805 -0.309292 0.969708 36 38 35
-0.459372 -0.329098 1.0318 36 38 35
-0.439975 -0.318954 1 36 38 35
-0.461016 -0.338234 1.06045 36 38 35
-0.44251 -0.328616 1.03029 37 39 36
-0.449907 -0.338234 1.06045 37 38 36
-0.447 -0.34025 1.06677 37 38 35
-0.451165 -0.347767 1.09033 36 37 34
-0.422983 -0.330223 1.03533 37 37 35
-0.431722 -0.341423 1.07045 37 37 35
-0.412962 -0.330885 1.03741 36 37 34
-0.419063 -0.34025 1.06677 37 37 35
-0.418282 -0.344205 1.07917 37 38 35
-0.445794 -0.37187 1.1659 37 38 35
-0.42162 -0.35659 1.118 37 38 35
-0.415764 -0.35659 1.118 37 38 35
-0.423827 -0.368698 1.15596 37 38 35
-0.390019 -0.344205 1.07917 37 38 36
-0.41526 -0.37187 1.1659 38 39 36
-0.380546 -0.345869 1.08438 38 39 37
-0.421186 -0.388606 1.21838 38 39 37
-0.414804 -0.388606 1.21838 38 38 37
-0.383619 -0.365006 1.14438 38 38 37
-0.407114 -0.39351 1.23375 38 38 36
-0.400652 -0.39351 1.23375 38 38 35
-0.380221 -0.379565 1.19003 39 39 35
-0.414172 -0.420348 1.31789 39 39 36
-0.377645 -0.389773 1.22203 38 39 35
-0.380145 -0.399118 1.25133 38 38 35
-0.424196 -0.453181 1.42083 37 38 35
-0.379894 -0.413099 1.29517 37 38 35
-0.37311 -0.413099 1.29517 37 38 35
-0.398711 -0.449619 1.40967 37 38 35
-0.402837 -0.462843 1.45113 36 38 35
-0.344883 -0.403876 1.26625 36 38 34
-0.389371 -0.464915 1.45762 36 37 34
-0.380035 -0.462843 1.45113 36 37 34
-0.347921 -0.432379 1.35562 36 37 34
-0.387776 -0.491948 1.54238 37 38 35
-0.343382 -0.444898 1.39486 37 38 35
-0.361408 -0.478431 1.5 37 38 34
-0.353551 -0.478431 1.5 38 38 35
-0.366513 -0.507244 1.59033 38 39 35
-0.358183 -0.507244 1.59033 38 38 35
-0.361744 -0.524483 1.64438 37 38 35
-0.341524 -0.507244 1.59033 37 38 35
-0.314268 -0.478431 1.5 37 38 35
-0.348253 -0.543764 1.70483 38 40 36
-0.327292 -0.524483 1.64438 39 40 37
-0.335998 -0.552987 1.73375 39 40 36
-0.302666 -0.511965 1.60514 38 38 35
-0.306058 -0.532495 1.6695 37 38 35
-0.315495 -0.565059 1.7716 37 38 35
-0.290747 -0.536515 1.68211 37 37 35
-0.282514 -0.537612 1.68555 37 38 35
-0.274413 -0.539042 1.69003 38 38 36
-0.261077 -0.529941 1.66149 38 39 36
-0.258957 -0.543764 1.70483 38 38 36
-0.245971 -0.534941 1.67717 37 38 35
-0.243241 -0.548597 1.71999 37 38 35
-0.230153 -0.539042 1.69003 37 38 35
-0.22751 -0.554167 1.73745 38 39 36
-0.21431 -0.543764 1.70483 38 39 36
-0.207452 -0.54925 1.72203 38 39 36
-0.19645 -0.543764 1.70483 37 38 36
-0.19527 -0.566233 1.77528 36 37 35
-0.174051 -0.529941 1.66149 36 37 35
-0.168189 -0.539042 1.69003 36 36 34
-0.159337 -0.539042 1.69003 36 37 35
-0.154707 -0.554167 1.73745 36 37 35
-0.153154 -0.582892 1.82751 36 37 35
-0.133943 -0.543764 1.70483 37 38 36
-0.130819 -0.569014 1.784 37 38 35
-0.118305 -0.554167 1.73745 37 38 35
-0.104083 -0.528175 1.65596 38 38 35
-0.0982252 -0.543764 1.70483 38 38 35
-0.0892957 -0.543764 1.70483 37 38 35
-0.0796683 -0.539042 1.69003 37 38 35
-0.0714365 -0.543764 1.70483 37 38 35
-0.0635672 -0.552987 1.73375 37 39 35
-0.0556757 -0.565059 1.7716 38 39 36
-0.0450447 -0.548597 1.71999 38 39 36
-0.0353673 -0.538421 1.68808 38 39 36
-0.0275194 -0.558595 1.75133 36 38 35
-0.0178591 -0.543764 1.70483 36 38 34
-0.00908103 -0.552987 1.73375 37 39 35
0 -0.539042 1.69003 37 39 35
0.00900894 -0.548597 1.71999 37 38 35
0.0175341 -0.533866 1.6738 37 38 35
0.0272431 -0.552987 1.73375 37 38 35
0.0366925 -0.558595 1.75133 37 38 35
0.0450447 -0.548597 1.71999 37 38 35
0.0531122 -0.539042 1.69003 37 38 35
0.062507 -0.543764 1.70483 36 37 34
0.0739109 -0.562598 1.76388 36 37 33
0.0846245 -0.572576 1.79517 38 39 35
0.0863611 -0.525894 1.64881 39 40 37
0.0982252 -0.543764 1.70483 39 40 37
0.103758 -0.526524 1.65078 38 40 36
0.117116 -0.548597 1.71999 37 39 36
0.126275 -0.54925 1.72203 37 39 36
0.133943 -0.543764 1.70483 36 37 35
0.142873 -0.543764 1.70483 35 36 34
0.154707 -0.554167 1.73745 35 37 34
0.160732 -0.543764 1.70483 36 38 35
0.17254 -0.552987 1.73375 37 38 36
0.176837 -0.538421 1.68808 37 39 36
0.184108 -0.533866 1.6738 36 37 35
0.192875 -0.533866 1.6738 35 37 34
0.207012 -0.548083 1.71838 36 37 34
0.216215 -0.548597 1.71999 37 38 35
0.221301 -0.539042 1.69003 36 38 34
0.24021 -0.562598 1.76388 36 37 34
0.245711 -0.554167 1.73745 36 38 34
0.25225 -0.548597 1.71999 37 38 35
0.269658 -0.566233 1.77528 37 38 35
0.272431 -0.552987 1.73375 37 39 36
0.283548 -0.556987 1.74629 38 39 36
0.282939 -0.538421 1.68808 38 39 36
0.302713 -0.558595 1.75133 37 39 35
0.308755 -0.552987 1.73375 38 39 35
0.317836 -0.552987 1.73375 38 39 35
0.334748 -0.566233 1.77528 37 38 35
0.333331 -0.548597 1.71999 37 38 34
0.352612 -0.565059 1.7716 37 37 34
0.351349 -0.548597 1.71999 37 38 35
0.360358 -0.548597 1.71999 37 39 35
0.372322 -0.552987 1.73375 37 38 35
0.388032 -0.562598 1.76388 37 38 35
0.399838 -0.566233 1.77528 37 38 35
0.403617 -0.558595 1.75133 37 38 35
0.409519 -0.554167 1.73745 37 38 34
0.406724 -0.538421 1.68808 36 38 34
0.434226 -0.562598 1.76388 37 39 35
0.44031 -0.558595 1.75133 38 39 35
0.441438 -0.548597 1.71999 37 39 35
0.446478 -0.543764 1.70483 37 39 35
0.479539 -0.572576 1.79517 37 39 36
0.477002 -0.558595 1.75133 38 39 36
0.477474 -0.548597 1.71999 38 39 36
0.495348 -0.558595 1.75133 38 39 36
0.491126 -0.543764 1.70483 39 40 36
0.508538 -0.552987 1.73375 39 40 36
0.528919 -0.565059 1.7716 38 39 35
0.555183 -0.582892 1.82751 38 39 36
0.52227 -0.539042 1.69003 37 38 35
0.531122 -0.539042 1.69003 36 37 35
0.56357 -0.562598 1.76388 38 39 36
0.564226 -0.554167 1.73745 39 40 37
0.596335 -0.576407 1.80718 38 39 36
0.582427 -0.554167 1.73745 37 39 35
0.591527 -0.554167 1.73745 38 39 35
0.612432 -0.565059 1.7716 38 39 35
0.603599 -0.548597 1.71999 38 39 35
0.618828 -0.554167 1.73745 37 38 34
0.643893 -0.568257 1.78162 38 39 35
0.65819 -0.572576 1.79517 38 39 35
0.651291 -0.558595 1.75133 39 39 35
0.672784 -0.569014 1.784 38 39 35
0.705086 -0.588165 1.84404 38 38 35
0.706523 -0.581399 1.82283 37 37 34
0.699884 -0.568257 1.78162 37 37 34
0.685495 -0.54925 1.72203 37 38 35
0.718547 -0.568257 1.78162 38 39 36
0.727879 -0.568257 1.78162 38 39 36
0.727337 -0.560646 1.75776 37 38 35
0.742342 -0.565059 1.7716 37 38 35
0.778136 -0.584992 1.8341 36 37 34
0.787743 -0.584992 1.8341 36 37 34
0.780426 -0.572576 1.79517 36 38 35
0.78387 -0.568257 1.78162 37 38 35
0.820991 -0.588165 1.84404 37 38 35
0.821094 -0.581399 1.82283 37 38 35
0.824782 -0.577298 1.80997 37 38 35
0.85991 -0.595045 1.86561 37 38 35
0.865021 -0.591856 1.85562 36 37 35
0.869284 -0.588165 1.84404 35 37 34
0.855647 -0.572576 1.79517 36 37 34
0.832877 -0.551281 1.7284 36 37 34
0.856232 -0.560646 1.75776 37 38 35
0.928332 -0.601389 1.8855 37 38 36
0.925912 -0.593507 1.86079 37 38 35
0.902661 -0.572576 1.79517 36 37 34
0.90009 -0.565059 1.7716 36 37 34
0.946554 -0.588165 1.84404 36 37 34
0.94087 -0.578727 1.81445 36 37 34
1.00609 -0.612658 1.92083 36 38 35
1.01615 -0.612658 1.92083 36 37 34
0.985189 -0.588165 1.84404 35 37 34
1.03628 -0.612658 1.92083 35 37 34
1.04634 -0.612658 1.92083 35 37 35
1.0564 -0.612658 1.92083 35 37 35
1.11041 -0.637909 2 35 38 35
1.02159 -0.581399 1.82283 36 38 36
1.08658 -0.612658 1.92083 36 38 36
1.09664 -0.612658 1.92083 36 38 36
1.1067 -0.612658 1.92083 36 38 35
1.0437 -0.572576 1.79517 36 38 35
1.06933 -0.581399 1.82283 36 38 35
1.18374 -0.637909 2 36 38 35
1.19422 -0.637909 2 36 38 35
1.05878 -0.560646 1.75776 36 38 36
1.10752 -0.581399 1.82283 36 38 36
1.22564 -0.637909 2 36 38 36
1.17114 -0.604375 1.89486 35 37 35
1.2466 -0.637909 2 35 38 35
-0.487291 -0.243225 0.775279 38 37 28
-0.495626 -0.249464 0.795167 37 37 28
-0.497706 -0.252634 0.805271 36 37 30
-0.470821 -0.24103 0.768284 35 35 30
-0.521143 -0.269092 0.85773 34 35 30
-0.489055 -0.254719 0.811916 36 37 33
-0.480008 -0.2522 0.803887 37 38 35
-0.491548 -0.260549 0.830499 38 39 36
-0.482699 -0.258142 0.822829 37 38 36
-0.517663 -0.279335 0.89038 37 39 37
-0.482558 -0.262759 0.837546 37 39 36
-0.48188 -0.264797 0.844042 36 38 35
-0.488593 -0.270972 0.863725 35 37 34
-0.503838 -0.282038 0.898997 35 37 34
-0.465011 -0.262759 0.837546 35 38 35
-0.471725 -0.269092 0.85773 37 39 36
-0.485017 -0.279335 0.89038 37 39 36
-0.485003 -0.282038 0.898997 36 38 35
-0.50196 -0.294761 0.939552 35 36 34
-0.487137 -0.288889 0.920833 35 36 33
-0.478588 -0.286657 0.91372 36 38 35
-0.491096 -0.29712 0.947071 37 39 36
-0.483678 -0.295619 0.942284 38 39 36
-0.478743 -0.295619 0.942284 39 40 36
-0.452041 -0.282038 0.898997 38 39 36
-0.483202 -0.304653 0.971083 38 38 35
-0.478733 -0.305047 0.972338 38 38 34
-0.473029 -0.304653 0.971083 39 39 35
-0.438347 -0.285385 0.909666 39 39 35
-0.491078 -0.323229 1.03029 39 38 35
-0.498609 -0.331832 1.05772 38 38 34
-0.466164 -0.313726 1 38 38 35
-0.436529 -0.29712 0.947071 37 39 35
-0.442511 -0.304653 0.971083 37 38 35
-0.45045 -0.313726 1 36 38 35
-0.445213 -0.313726 1 35 37 34
-0.46657 -0.33269 1.06045 36 37 35
-0.446763 -0.322404 1.02766 35 37 34
-0.454288 -0.331832 1.05772 36 38 35
-0.449907 -0.33269 1.06045 37 38 35
-0.460799 -0.345003 1.0997 37 38 35
-0.428405 -0.32481 1.03533 36 37 34
-0.437329 -0.335826 1.07045 37 37 35
-0.433379 -0.337115 1.07455 36 37 34
-0.398072 -0.313726 1 37 37 34
-0.450627 -0.35988 1.14712 37 38 35
-0.416494 -0.337115 1.07455 37 38 35
-0.441991 -0.362654 1.15596 37 38 36
-0.432602 -0.35988 1.14712 37 38 35
-0.443591 -0.374219 1.19282 38 38 36
-0.409908 -0.350744 1.118 38 39 36
-0.406825 -0.35315 1.12567 39 39 37
-0.439425 -0.387059 1.23375 38 39 37
-0.432963 -0.387059 1.23375 38 39 36
-0.411387 -0.373343 1.19003 38 39 37
-0.420039 -0.387059 1.23375 37 38 36
-0.39461 -0.369309 1.17717 37 37 35
-0.412916 -0.392575 1.25133 36 36 35
-0.412943 -0.398933 1.2716 38 38 35
-0.406283 -0.398933 1.2716 39 39 35
-0.414172 -0.413457 1.31789 38 39 36
-0.407269 -0.413457 1.31789 39 39 35
-0.400366 -0.413457 1.31789 38 38 35
-0.410313 -0.431164 1.37433 37 38 35
-0.347741 -0.371936 1.18555 37 38 36
-0.406095 -0.442248 1.40967 37 38 35
-0.366326 -0.406327 1.29517 37 38 35
-0.387218 -0.437604 1.39486 37 38 35
-0.408548 -0.470588 1.5 37 38 35
-0.33825 -0.397255 1.26625 36 38 35
-0.380035 -0.455255 1.45113 36 37 34
-0.370165 -0.452481 1.44228 35 36 33
-0.377121 -0.470588 1.5 36 37 34
-0.381296 -0.485921 1.54887 37 38 35
-0.336076 -0.437604 1.39486 37 38 35
-0.342031 -0.455255 1.45113 37 38 35
-0.369925 -0.503572 1.60514 38 38 35
-0.358183 -0.498928 1.59033 38 39 36
-0.340733 -0.485921 1.54887 38 38 35
-0.358525 -0.523765 1.6695 37 38 35
-0.357183 -0.53485 1.70483 37 38 35
-0.335905 -0.515885 1.64438 39 39 36
-0.316534 -0.498928 1.59033 39 40 36
-0.340652 -0.551455 1.75776 39 40 37
-0.331445 -0.551455 1.75776 38 39 36
-0.307464 -0.526171 1.67717 38 38 36
-0.307802 -0.542243 1.7284 37 38 35
-0.305291 -0.554118 1.76625 37 38 35
-0.300887 -0.56319 1.79517 38 38 36
-0.295175 -0.57032 1.81789 37 38 35
-0.272431 -0.543922 1.73375 38 39 36
-0.256943 -0.530689 1.69157 39 39 37
-0.261883 -0.560209 1.78567 38 39 36
-0.245188 -0.543922 1.73375 37 37 35
-0.223937 -0.515885 1.64438 37 38 35
-0.215324 -0.515885 1.64438 37 38 35
-0.216215 -0.539604 1.71999 37 38 35
-0.20538 -0.53485 1.70483 37 38 35
-0.198433 -0.540246 1.72203 37 38 36
-0.192081 -0.547857 1.74629 36 37 35
-0.181621 -0.543922 1.73375 36 37 35
-0.172908 -0.545083 1.73745 36 37 35
-0.152411 -0.50716 1.61657 36 37 35
-0.150485 -0.530206 1.69003 36 37 35
-0.147822 -0.553375 1.76388 36 38 35
-0.138583 -0.553375 1.76388 37 38 35
-0.121836 -0.521253 1.66149 36 38 35
-0.117116 -0.539604 1.71999 37 37 35
-0.107155 -0.53485 1.70483 37 38 35
-0.0972602 -0.529595 1.68808 38 38 35
-0.0885203 -0.530206 1.69003 38 38 35
-0.0803661 -0.53485 1.70483 38 38 35
-0.0733849 -0.549437 1.75133 37 38 35
-0.0644476 -0.551455 1.75776 37 38 35
-0.0531122 -0.530206 1.69003 37 39 36
-0.0442092 -0.529595 1.68808 37 38 36
-0.0354081 -0.530206 1.69003 36 38 35
-0.0263011 -0.525115 1.6738 36 38 35
-0.0180179 -0.539604 1.71999 36 38 35
-0.00874451 -0.523765 1.6695 37 39 35
0 -0.539604 1.71999 37 39 35
0.00908103 -0.543922 1.73375 37 38 35
0.0178591 -0.53485 1.70483 37 38 35
0.0265803 -0.530689 1.69157 37 39 35
0.0354404 -0.530689 1.69157 38 39 35
0.0442602 -0.530206 1.69003 38 39 36
0.0535774 -0.53485 1.70483 38 39 35
0.0635672 -0.543922 1.73375 38 39 35
0.0708163 -0.530206 1.69003 38 39 36
0.0819037 -0.545083 1.73745 39 40 36
0.0892957 -0.53485 1.70483 39 40 37
0.101275 -0.551455 1.75776 38 40 36
0.107155 -0.53485 1.70483 38 39 36
0.115181 -0.530689 1.69157 37 38 35
0.122423 -0.523765 1.6695 37 38 35
0.135134 -0.539604 1.71999 36 37 35
0.142873 -0.53485 1.70483 35 37 34
0.14904 -0.525115 1.6738 35 37 34
0.162354 -0.540246 1.72203 35 37 35
0.169662 -0.53485 1.70483 36 38 35
0.175341 -0.525115 1.6738 37 38 36
0.204675 -0.583778 1.86079 37 38 36
0.19645 -0.53485 1.70483 36 38 35
0.20931 -0.545083 1.73745 36 38 35
0.208166 -0.519516 1.65596 37 38 35
0.225224 -0.539604 1.71999 37 38 35
0.241762 -0.55695 1.77528 36 38 35
0.252294 -0.559686 1.784 37 38 35
0.25225 -0.539604 1.71999 37 38 35
0.269099 -0.555796 1.7716 38 39 36
0.272431 -0.543922 1.73375 38 39 36
0.276817 -0.53485 1.70483 38 40 37
0.285746 -0.53485 1.70483 38 40 36
0.294676 -0.53485 1.70483 38 39 36
0.306304 -0.539604 1.71999 38 39 36
0.321059 -0.549437 1.75133 38 39 35
0.330232 -0.549437 1.75133 38 39 35
0.320922 -0.519516 1.65596 38 39 35
0.345079 -0.543922 1.73375 37 38 35
0.356722 -0.547857 1.74629 37 38 35
0.372505 -0.557793 1.77797 37 38 35
0.369367 -0.539604 1.71999 36 38 34
0.385271 -0.549437 1.75133 37 38 35
0.394444 -0.549437 1.75133 37 39 35
0.41372 -0.56319 1.79517 37 38 35
0.405402 -0.539604 1.71999 37 38 34
0.43496 -0.56636 1.80527 37 38 34
0.434226 -0.553375 1.76388 37 39 35
0.435148 -0.542997 1.7308 37 39 35
0.469034 -0.573336 1.82751 38 40 35
0.454051 -0.543922 1.73375 37 39 35
0.474226 -0.55695 1.77528 37 38 35
0.473222 -0.545083 1.73745 37 38 35
0.473267 -0.53485 1.70483 37 38 35
0.498898 -0.553375 1.76388 37 38 34
0.508137 -0.553375 1.76388 38 39 35
0.517376 -0.553375 1.76388 38 39 35
0.508985 -0.53485 1.70483 38 39 35
0.527824 -0.545083 1.73745 37 38 35
0.557883 -0.56636 1.80527 36 37 35
0.557913 -0.55695 1.77528 36 37 35
0.55956 -0.549437 1.75133 37 38 35
0.582969 -0.56319 1.79517 38 39 36
0.599871 -0.57032 1.81789 38 39 36
0.571492 -0.53485 1.70483 38 39 35
0.596253 -0.549437 1.75133 38 39 36
0.624072 -0.56636 1.80527 38 40 36
0.641332 -0.573336 1.82751 39 40 36
0.656793 -0.578523 1.84404 38 39 35
0.64027 -0.555796 1.7716 39 40 36
0.638784 -0.546584 1.74224 38 40 36
0.676045 -0.57032 1.81789 39 39 35
0.676996 -0.56319 1.79517 38 38 35
0.686399 -0.56319 1.79517 37 38 35
0.681303 -0.551455 1.75776 35 36 33
0.69051 -0.551455 1.75776 35 36 33
0.730103 -0.575402 1.8341 36 37 34
0.752421 -0.585291 1.86561 38 39 36
0.738319 -0.566958 1.80718 38 39 36
0.74894 -0.567834 1.80997 37 38 35
0.781736 -0.585291 1.86561 36 37 34
0.755874 -0.558941 1.78162 35 37 34
0.777381 -0.567834 1.80997 36 37 34
0.780426 -0.56319 1.79517 36 38 35
0.750084 -0.53485 1.70483 37 38 35
0.793202 -0.558941 1.78162 38 39 36
0.821094 -0.571868 1.82283 37 39 36
0.796848 -0.548602 1.74867 37 38 35
0.840189 -0.571868 1.82283 37 39 36
0.823362 -0.554118 1.76625 37 39 36
0.846245 -0.56319 1.79517 37 38 35
0.862703 -0.567834 1.80997 37 38 35
0.882076 -0.574274 1.8305 36 37 34
0.883847 -0.56924 1.81445 36 37 35
0.907919 -0.578523 1.84404 36 37 34
0.881531 -0.555796 1.7716 36 37 34
0.973752 -0.607545 1.93655 36 37 34
0.962716 -0.594467 1.89486 36 37 34
0.985971 -0.602614 1.92083 36 37 34
0.996032 -0.602614 1.92083 35 37 34
0.927928 -0.555796 1.7716 35 37 34
1.01615 -0.602614 1.92083 36 38 35
0.994137 -0.583778 1.86079 37 38 35
0.983403 -0.571868 1.82283 37 39 36
0.977883 -0.56319 1.79517 35 37 35
1.09994 -0.627451 2 34 37 34
0.983603 -0.555796 1.7716 35 37 35
1.02159 -0.571868 1.82283 36 38 36
1.08026 -0.599111 1.90967 36 38 36
1.06236 -0.583778 1.86079 35 38 36
1.01275 -0.551455 1.75776 36 38 36
1.11027 -0.599111 1.90967 37 39 36
1.09955 -0.588026 1.87433 37 39 36
1.2306 -0.652288 2.07917 36 38 35
1.19422 -0.627451 2 36 38 36
1.09797 -0.571868 1.82283 36 38 36
1.21517 -0.627451 2 36 38 36
1.22564 -0.627451 2 36 39 37
1.15845 -0.588026 1.87433 36 38 36
1.14939 -0.578523 1.84404 36 38 36
-0.541038 -0.265551 0.860791 39 38 28
-0.507647 -0.251256 0.814453 38 38 29
-0.517654 -0.25838 0.837546 38 38 31
-0.52931 -0.266456 0.863725 36 37 33
-0.504598 -0.256206 0.830499 35 36 32
-0.500248 -0.256206 0.830499 36 38 34
-0.491318 -0.25384 0.822829 37 38 35
-0.475798 -0.247997 0.803887 37 38 35
-0.503173 -0.264607 0.85773 36 38 35
-0.517663 -0.274679 0.89038 36 38 35
-0.453378 -0.242756 0.7869 36 38 35
-0.48188 -0.260384 0.844042 36 38 36
-0.491714 -0.268158 0.869241 36 38 35
-0.496274 -0.273174 0.885502 36 38 35
-0.496834 -0.276062 0.894863 35 38 35
-0.486998 -0.273174 0.885502 37 39 36
-0.501606 -0.284074 0.920833 38 40 37
-0.494946 -0.283024 0.917429 37 38 35
-0.504754 -0.291462 0.944781 35 36 33
-0.456925 -0.266456 0.863725 36 37 34
-0.452401 -0.266456 0.863725 37 39 36
-0.489908 -0.291462 0.944781 37 39 36
-0.469016 -0.28188 0.91372 37 39 35
-0.495135 -0.300645 0.974549 38 39 35
-0.475063 -0.291462 0.944781 38 39 35
-0.458198 -0.284074 0.920833 37 37 33
-0.479822 -0.300645 0.974549 36 36 31
-0.474201 -0.300318 0.973489 38 37 34
-0.457388 -0.292818 0.949179 38 38 35
-0.452416 -0.292818 0.949179 38 38 34
-0.446451 -0.292168 0.947071 38 38 34
-0.479644 -0.317418 1.02892 38 39 35
-0.473676 -0.31703 1.02766 38 39 35
-0.443083 -0.299963 0.972338 37 39 35
-0.438986 -0.300645 0.974549 37 38 35
-0.4183 -0.289849 0.939552 37 38 35
-0.439975 -0.308497 1 37 38 36
-0.434737 -0.308497 1 36 38 35
-0.441919 -0.317418 1.02892 36 37 35
-0.440131 -0.320036 1.03741 37 38 35
-0.458741 -0.337738 1.09479 37 38 35
-0.453007 -0.337738 1.09479 37 38 35
-0.434471 -0.328071 1.06345 38 38 35
-0.416811 -0.318824 1.03348 37 38 35
-0.450656 -0.349248 1.1321 37 38 35
-0.422122 -0.331496 1.07455 37 37 35
-0.401291 -0.319396 1.03533 37 37 35
-0.424877 -0.342801 1.1112 37 38 36
-0.405237 -0.331496 1.07455 38 38 36
-0.403265 -0.334529 1.08438 38 38 36
-0.412721 -0.347264 1.12567 38 39 36
-0.421367 -0.359678 1.1659 38 39 37
-0.411718 -0.356609 1.15596 39 39 37
-0.405663 -0.356609 1.15596 38 39 37
-0.403047 -0.359678 1.1659 39 39 37
-0.39694 -0.359678 1.1659 38 38 37
-0.380268 -0.349954 1.13439 37 38 36
-0.392688 -0.36712 1.19003 37 37 36
-0.395659 -0.375865 1.21838 38 38 35
-0.380221 -0.36712 1.19003 38 38 35
-0.415722 -0.408088 1.32283 38 38 35
-0.392962 -0.392284 1.2716 38 38 34
-0.400366 -0.406566 1.31789 37 38 34
-0.386678 -0.399555 1.29517 37 38 35
-0.38656 -0.406566 1.31789 38 39 36
-0.37311 -0.399555 1.29517 37 39 36
-0.383424 -0.418203 1.35562 37 38 35
-0.416405 -0.462745 1.5 37 38 35
-0.379912 -0.430311 1.39486 37 39 36
-0.400691 -0.462745 1.5 37 38 35
-0.3653 -0.430311 1.39486 37 38 35
-0.411962 -0.49518 1.60514 37 38 35
-0.377121 -0.462745 1.5 37 38 35
-0.395147 -0.49518 1.60514 38 38 35
-0.349632 -0.447667 1.45113 38 38 35
-0.36354 -0.475819 1.54238 38 38 35
-0.366513 -0.490613 1.59033 38 38 35
-0.347383 -0.475819 1.54238 38 38 35
-0.361744 -0.507287 1.64438 37 37 34
-0.33262 -0.477823 1.54887 37 38 34
-0.336295 -0.49518 1.60514 37 37 34
-0.324864 -0.490613 1.59033 37 38 34
-0.339324 -0.525935 1.70483 37 38 34
-0.315052 -0.501513 1.62567 38 38 35
-0.326917 -0.534856 1.73375 37 38 35
-0.298022 -0.501513 1.62567 37 37 35
-0.298679 -0.517402 1.67717 37 37 35
-0.298113 -0.532071 1.72472 38 38 36
-0.291213 -0.535998 1.73745 38 39 36
-0.274413 -0.521369 1.69003 38 38 36
-0.272431 -0.534856 1.73375 37 37 35
-0.261259 -0.530611 1.71999 38 38 36
-0.248083 -0.521844 1.69157 38 39 36
-0.249449 -0.544152 1.76388 38 38 36
-0.234233 -0.530611 1.71999 37 38 35
-0.216162 -0.509261 1.65078 37 38 35
-0.21431 -0.525935 1.70483 37 38 35
-0.20538 -0.525935 1.70483 38 38 36
-0.19645 -0.525935 1.70483 38 39 36
-0.190702 -0.534856 1.73375 37 38 36
-0.178591 -0.525935 1.70483 36 37 35
-0.174289 -0.54028 1.75133 37 37 35
-0.162009 -0.530113 1.71838 37 38 36
-0.14934 -0.517402 1.67717 37 39 36
-0.140273 -0.516363 1.6738 37 38 36
-0.13278 -0.521369 1.69003 37 38 35
-0.122739 -0.516363 1.6738 36 37 35
-0.113133 -0.512565 1.66149 37 37 35
-0.111583 -0.547668 1.77528 37 38 35
-0.0982252 -0.525935 1.70483 38 39 36
-0.0900894 -0.530611 1.71999 39 39 36
-0.0819037 -0.535998 1.73745 38 38 35
-0.0752218 -0.553803 1.79517 37 37 35
-0.0635672 -0.534856 1.73375 37 38 35
-0.0544862 -0.534856 1.73375 37 38 35
-0.0458656 -0.54028 1.75133 36 37 34
-0.0360358 -0.530611 1.71999 35 37 34
-0.0273012 -0.535998 1.73745 36 37 34
-0.0177041 -0.521369 1.69003 36 37 34
-0.00876704 -0.516363 1.6738 37 39 35
0 -0.535998 1.73745 38 39 35
0.00861295 -0.507287 1.64438 38 39 36
0.0177041 -0.521369 1.69003 38 39 36
0.026354 -0.517402 1.67717 39 40 36
0.0360358 -0.530611 1.71999 39 40 37
0.0443005 -0.521844 1.69157 38 39 35
0.0544862 -0.534856 1.73375 37 38 35
0.0630626 -0.530611 1.71999 38 39 35
0.0701363 -0.516363 1.6738 38 40 36
0.0825581 -0.54028 1.75133 38 40 36
0.0900894 -0.530611 1.71999 38 40 36
0.0973724 -0.521369 1.69003 38 40 36
0.110077 -0.54028 1.75133 38 39 36
0.116084 -0.525935 1.70483 38 39 36
0.127406 -0.535998 1.73745 38 39 36
0.135134 -0.530611 1.71999 37 38 36
0.145296 -0.534856 1.73375 36 37 35
0.154377 -0.534856 1.73375 36 37 35
0.162161 -0.530611 1.71999 36 37 35
0.17117 -0.530611 1.71999 36 38 35
0.18001 -0.530113 1.71838 37 39 36
0.194016 -0.544152 1.76388 37 38 36
0.19645 -0.525935 1.70483 37 38 35
0.213867 -0.547668 1.77528 37 38 35
0.21431 -0.525935 1.70483 37 39 36
0.223239 -0.525935 1.70483 37 38 35
0.238501 -0.54028 1.75133 36 38 35
0.248584 -0.542264 1.75776 37 38 35
0.25225 -0.530611 1.71999 37 38 35
0.26602 -0.54028 1.75133 38 39 36
0.265561 -0.521369 1.69003 38 39 36
0.294616 -0.559753 1.81445 39 40 37
0.295644 -0.544152 1.76388 39 40 37
0.297295 -0.530611 1.71999 38 39 36
0.311886 -0.54028 1.75133 38 40 36
0.315313 -0.530611 1.71999 38 39 35
0.327615 -0.535998 1.73745 37 38 35
0.321995 -0.512565 1.66149 38 39 35
0.345079 -0.534856 1.73375 38 38 35
0.366706 -0.553803 1.79517 38 39 35
0.373769 -0.550358 1.784 38 39 36
0.376098 -0.54028 1.75133 38 39 35
0.375042 -0.525935 1.70483 38 39 35
0.383971 -0.525935 1.70483 37 39 35
0.41153 -0.550872 1.78567 37 38 35
0.398342 -0.521369 1.69003 36 38 34
0.423513 -0.542264 1.75776 36 39 34
0.429896 -0.538726 1.74629 36 38 34
0.44031 -0.54028 1.75133 36 38 34
0.441438 -0.530611 1.71999 37 39 35
0.446478 -0.525935 1.70483 38 40 36
0.467829 -0.54028 1.75133 37 39 35
0.478754 -0.542264 1.75776 37 38 35
0.498344 -0.553803 1.79517 37 38 34
0.490376 -0.534856 1.73375 37 37 34
0.508137 -0.544152 1.76388 38 39 35
0.504028 -0.530113 1.71838 37 38 35
0.538972 -0.55692 1.80527 37 38 34
0.545358 -0.553803 1.79517 37 38 34
0.526844 -0.525935 1.70483 37 38 35
0.564163 -0.553803 1.79517 37 38 35
0.580827 -0.560814 1.81789 38 39 36
0.553633 -0.525935 1.70483 39 39 37
0.592371 -0.553803 1.79517 39 39 36
0.59803 -0.550358 1.784 38 39 36
0.574719 -0.520768 1.68808 37 38 35
0.616719 -0.550358 1.784 37 38 34
0.637958 -0.560814 1.81789 38 39 35
0.639385 -0.553803 1.79517 37 38 34
0.662857 -0.565812 1.8341 39 40 36
0.631377 -0.531242 1.72203 39 40 36
0.658829 -0.546533 1.7716 38 39 35
0.668108 -0.546533 1.7716 37 38 35
0.701283 -0.565812 1.8341 36 37 34
0.660788 -0.525935 1.70483 34 35 33
0.699884 -0.549625 1.78162 35 36 34
0.714607 -0.553803 1.79517 36 37 34
0.702662 -0.537475 1.74224 37 38 35
0.715503 -0.54028 1.75133 37 38 35
0.727337 -0.542264 1.75776 35 37 34
0.752218 -0.553803 1.79517 35 36 33
0.778136 -0.565812 1.8341 35 36 34
0.782904 -0.562337 1.82283 36 37 34
0.827227 -0.587014 1.90282 37 38 35
0.796341 -0.55837 1.80997 37 38 35
0.84716 -0.587014 1.90282 37 38 35
0.840367 -0.575536 1.86561 37 38 35
0.824782 -0.55837 1.80997 38 39 36
0.873392 -0.584559 1.89486 38 39 36
0.887026 -0.587014 1.90282 37 39 36
0.87474 -0.572451 1.85562 37 38 35
0.847448 -0.548497 1.77797 37 38 35
0.847025 -0.542264 1.75776 36 37 34
0.883847 -0.559753 1.81445 36 37 34
0.928332 -0.581671 1.8855 35 37 33
0.902855 -0.559753 1.81445 36 37 34
0.912358 -0.559753 1.81445 36 38 35
0.893059 -0.542264 1.75776 37 38 35
0.912637 -0.548497 1.77797 37 38 35
0.94087 -0.559753 1.81445 36 37 34
0.950373 -0.559753 1.81445 35 37 34
0.949675 -0.553803 1.79517 36 38 35
1.02025 -0.589126 1.90967 37 39 36
1.03628 -0.592571 1.92083 36 38 35
0.988388 -0.559753 1.81445 35 37 34
0.937604 -0.525935 1.70483 35 38 35
1.06646 -0.592571 1.92083 36 38 36
1.07652 -0.592571 1.92083 36 38 36
1.08658 -0.592571 1.92083 36 38 36
0.994678 -0.537475 1.74224 36 38 36
1.06246 -0.568881 1.84404 36 38 36
1.05978 -0.562337 1.82283 36 39 36
1.12027 -0.589126 1.90967 37 39 36
0.980114 -0.510858 1.65596 36 38 35
1.11918 -0.578226 1.87433 36 38 35
1.20469 -0.616993 2 36 38 36
1.29152 -0.655761 2.12567 36 38 36
1.14863 -0.578226 1.87433 36 38 36
1.31379 -0.655761 2.12567 36 38 36
1.2466 -0.616993 2 36 38 36
-0.511913 -0.246997 0.814453 40 38 30
-0.521191 -0.253587 0.836183 39 39 30
-0.526089 -0.25814 0.851194 39 39 33
-0.521631 -0.25814 0.851194 37 37 34
-0.504598 -0.251864 0.830499 36 37 33
-0.512714 -0.25814 0.851194 37 38 34
-0.495898 -0.251864 0.830499 37 38 35
-0.524103 -0.268544 0.885502 36 37 35
-0.506689 -0.26194 0.863725 36 37 35
-0.490722 -0.255971 0.844042 36 38 35
-0.503754 -0.265158 0.874334 36 38 35
-0.525722 -0.279259 0.920833 36 38 35
-0.485203 -0.260122 0.85773 36 38 35
-0.512089 -0.277102 0.91372 36 38 35
-0.485436 -0.265158 0.874334 35 38 35
-0.492147 -0.271383 0.894863 35 37 34
-0.499752 -0.278227 0.917429 37 38 35
-0.482772 -0.271383 0.894863 37 39 36
-0.49196 -0.279259 0.920833 36 38 34
-0.471026 -0.270024 0.89038 36 37 34
-0.494857 -0.286522 0.944781 37 38 34
-0.489908 -0.286522 0.944781 37 38 35
-0.487217 -0.287855 0.949179 36 38 34
-0.494012 -0.294879 0.972338 36 37 34
-0.475063 -0.286522 0.944781 36 37 34
-0.484399 -0.295228 0.973489 37 37 34
-0.479822 -0.295549 0.974549 37 37 33
-0.450079 -0.28021 0.923969 37 37 34
-0.47052 -0.296121 0.976432 38 38 34
-0.476639 -0.303268 1 38 38 34
-0.446451 -0.287216 0.947071 38 38 35
-0.466164 -0.303268 1 39 39 35
-0.460926 -0.303268 1 38 39 35
-0.455688 -0.303268 1 38 39 35
-0.476449 -0.320771 1.05772 38 38 35
-0.470909 -0.320771 1.05772 37 38 35
-0.439975 -0.303268 1 37 38 35
-0.447309 -0.312038 1.02892 37 38 35
-0.429499 -0.303268 1 37 38 35
-0.43653 -0.312038 1.02892 37 37 34
-0.455177 -0.329434 1.08628 37 37 34
-0.453007 -0.332014 1.09479 37 38 35
-0.449279 -0.333503 1.0997 38 39 36
-0.453993 -0.341378 1.12567 38 38 35
-0.412137 -0.313983 1.03533 37 37 35
-0.450627 -0.347884 1.14712 36 37 34
-0.428348 -0.335153 1.10514 37 37 35
-0.424877 -0.336991 1.1112 38 38 36
-0.419057 -0.336991 1.1112 38 38 35
-0.423653 -0.345486 1.13921 38 38 35
-0.431605 -0.356998 1.17717 38 39 36
-0.448955 -0.376731 1.24224 38 39 36
-0.384367 -0.327277 1.07917 38 39 36
-0.427567 -0.369494 1.21838 38 39 36
-0.374866 -0.328859 1.08438 38 39 37
-0.386209 -0.344023 1.13439 38 39 37
-0.403883 -0.365387 1.20483 38 38 36
-0.392688 -0.360898 1.19003 38 38 36
-0.40845 -0.381439 1.25776 38 38 35
-0.380221 -0.360898 1.19003 38 39 35
-0.399623 -0.385635 1.2716 37 38 35
-0.3941 -0.386751 1.27528 37 37 34
-0.413398 -0.412684 1.36079 37 37 34
-0.373591 -0.379489 1.25133 37 38 35
-0.388008 -0.401172 1.32283 37 39 36
-0.36478 -0.384013 1.26625 38 39 36
-0.424261 -0.454902 1.5 37 38 35
-0.376323 -0.411115 1.35562 36 37 35
-0.433152 -0.482297 1.59033 36 38 35
-0.400691 -0.454902 1.5 36 38 35
-0.369177 -0.427506 1.40967 37 38 35
-0.411962 -0.486787 1.60514 38 39 36
-0.377121 -0.454902 1.5 38 39 36
-0.369265 -0.454902 1.5 39 39 36
-0.361408 -0.454902 1.5 38 38 35
-0.36354 -0.467754 1.54238 38 38 35
-0.345695 -0.454902 1.5 38 38 35
-0.350837 -0.472405 1.55772 38 38 35
-0.375042 -0.517021 1.70483 38 37 35
-0.360172 -0.508632 1.67717 37 37 35
-0.357183 -0.517021 1.70483 37 38 35
-0.366706 -0.544417 1.79517 37 37 34
-0.339324 -0.517021 1.70483 37 38 35
-0.311073 -0.486787 1.60514 37 38 35
-0.326917 -0.525791 1.73375 37 37 35
-0.312535 -0.517021 1.70483 37 37 34
-0.299558 -0.510129 1.68211 37 38 35
-0.291342 -0.511172 1.68555 39 39 36
-0.285746 -0.517021 1.70483 39 39 36
-0.288255 -0.538385 1.77528 38 39 36
-0.270268 -0.521617 1.71999 37 38 35
-0.256709 -0.512532 1.69003 37 37 35
-0.25225 -0.521617 1.71999 37 38 35
-0.243014 -0.521128 1.71838 38 38 35
-0.248875 -0.554225 1.82751 37 38 35
-0.235068 -0.544417 1.79517 37 38 35
-0.21431 -0.517021 1.70483 37 38 35
-0.203597 -0.512532 1.69003 37 38 35
-0.198197 -0.521617 1.71999 38 39 36
-0.192636 -0.531123 1.75133 37 38 36
-0.180179 -0.521617 1.71999 37 37 35
-0.173788 -0.529595 1.74629 37 38 35
-0.162161 -0.521617 1.71999 37 38 36
-0.153152 -0.521617 1.71999 38 39 36
-0.142873 -0.517021 1.70483 37 38 36
-0.132902 -0.513 1.69157 37 38 35
-0.127134 -0.525791 1.73375 37 38 35
-0.115076 -0.512532 1.69003 37 38 35
-0.106224 -0.512532 1.69003 38 38 35
-0.0973724 -0.512532 1.69003 39 39 36
-0.0900894 -0.521617 1.71999 39 39 36
-0.0789033 -0.507611 1.6738 38 38 36
-0.0731738 -0.529595 1.74629 37 37 35
-0.0630626 -0.521617 1.71999 36 37 34
-0.0527081 -0.508632 1.67717 36 37 34
-0.0446478 -0.517021 1.70483 35 37 34
-0.0365869 -0.529595 1.74629 36 37 34
-0.0270268 -0.521617 1.71999 36 38 35
-0.0173471 -0.502199 1.65596 36 38 34
-0.00885203 -0.512532 1.69003 37 38 35
0 -0.525791 1.73375 37 39 35
0.00876704 -0.507611 1.6738 38 39 36
0.0170298 -0.493012 1.62567 38 40 36
0.0272431 -0.525791 1.73375 39 40 37
0.0365869 -0.529595 1.74629 38 40 36
0.0458656 -0.531123 1.75133 37 38 35
0.0526022 -0.507611 1.6738 37 38 35
0.0635672 -0.525791 1.73375 37 38 35
0.0714365 -0.517021 1.70483 37 38 35
0.0789033 -0.507611 1.6738 38 39 36
0.0917312 -0.531123 1.75133 38 39 36
0.100904 -0.531123 1.75133 39 40 37
0.109205 -0.526913 1.73745 39 40 36
0.116084 -0.517021 1.70483 39 40 37
0.122739 -0.507611 1.6738 38 39 36
0.138583 -0.534929 1.76388 37 39 36
0.142873 -0.517021 1.70483 37 38 36
0.144753 -0.493012 1.62567 36 38 35
0.167027 -0.537269 1.7716 36 38 35
0.174289 -0.531123 1.75133 38 39 37
0.175694 -0.508632 1.67717 38 39 37
0.185893 -0.512532 1.69003 38 39 36
0.199783 -0.525791 1.73375 37 39 36
0.203597 -0.512532 1.69003 36 38 35
0.21841 -0.526913 1.73745 37 38 35
0.235068 -0.544417 1.79517 37 38 35
0.225513 -0.502199 1.65596 37 39 36
0.251061 -0.538385 1.77528 38 39 36
0.247857 -0.512532 1.69003 37 39 35
0.26602 -0.531123 1.75133 38 39 36
0.272431 -0.525791 1.73375 38 40 37
0.272325 -0.508632 1.67717 39 40 37
0.29354 -0.531123 1.75133 39 40 36
0.306852 -0.538385 1.77528 38 39 35
0.311886 -0.531123 1.75133 37 39 35
0.317836 -0.525791 1.73375 37 38 34
0.324322 -0.521617 1.71999 37 38 34
0.335998 -0.525791 1.73375 37 39 34
0.345079 -0.525791 1.73375 38 39 35
0.348253 -0.517021 1.70483 38 39 35
0.365869 -0.529595 1.74629 38 39 36
0.369021 -0.521128 1.71838 38 39 36
0.389 -0.536264 1.76828 38 39 35
0.397271 -0.534929 1.76388 38 39 35
0.399565 -0.525791 1.73375 37 38 34
0.40183 -0.517021 1.70483 36 38 34
0.41076 -0.517021 1.70483 37 39 35
0.412051 -0.507611 1.6738 36 38 34
0.439043 -0.529595 1.74629 36 38 34
0.455629 -0.538385 1.77528 37 39 34
0.464928 -0.538385 1.77528 38 39 35
0.471182 -0.534929 1.76388 38 39 36
0.468465 -0.521617 1.71999 38 39 35
0.469158 -0.512532 1.69003 38 39 35
0.498898 -0.534929 1.76388 38 39 35
0.504522 -0.531123 1.75133 38 39 35
0.490954 -0.507611 1.6738 38 39 35
0.545611 -0.554225 1.82751 38 39 34
0.539316 -0.538385 1.77528 38 39 35
0.561784 -0.551309 1.81789 38 39 36
0.560654 -0.54103 1.784 38 38 36
0.549546 -0.521617 1.71999 39 39 36
0.558554 -0.521617 1.71999 39 39 36
0.592371 -0.544417 1.79517 39 39 36
0.601774 -0.544417 1.79517 38 39 35
0.630826 -0.56192 1.85288 37 38 34
0.609765 -0.534929 1.76388 37 38 34
0.641332 -0.554225 1.82751 37 38 35
0.623772 -0.531123 1.75133 37 38 34
0.627929 -0.526913 1.73745 38 39 35
0.637029 -0.526913 1.73745 38 39 36
0.667593 -0.544417 1.79517 37 38 35
0.691676 -0.556222 1.8341 36 37 34
0.677387 -0.537269 1.7716 36 37 34
0.700456 -0.548059 1.80718 36 37 34
0.705204 -0.544417 1.79517 37 38 35
0.730103 -0.556222 1.8341 36 38 35
0.728853 -0.548059 1.80718 36 37 34
0.723784 -0.537269 1.7716 36 37 34
0.758923 -0.556222 1.8341 35 36 33
0.752218 -0.544417 1.79517 35 36 33
0.745751 -0.533073 1.75776 35 37 34
0.776181 -0.548059 1.80718 37 38 35
0.774538 -0.54031 1.78162 37 38 36
0.78387 -0.54031 1.78162 36 38 35
0.775666 -0.528365 1.74224 36 38 34
0.821094 -0.552806 1.82283 37 38 35
0.850138 -0.565781 1.86561 37 39 36
0.85991 -0.565781 1.86561 37 38 35
0.823362 -0.535647 1.76625 36 37 34
0.846245 -0.544417 1.79517 36 38 35
0.889225 -0.565781 1.86561 37 38 35
0.882076 -0.555132 1.8305 37 38 35
0.856232 -0.533073 1.75776 37 38 35
0.901251 -0.555132 1.8305 36 37 34
0.966462 -0.589033 1.94228 36 38 35
0.912358 -0.550265 1.81445 37 38 35
0.903324 -0.5392 1.77797 38 39 36
0.962103 -0.568426 1.87433 37 39 36
0.971921 -0.568426 1.87433 36 38 35
0.974644 -0.564318 1.86079 36 38 35
0.984391 -0.564318 1.86079 36 38 36
0.959077 -0.544417 1.79517 36 39 36
1.01119 -0.568426 1.87433 36 38 35
1.05109 -0.585172 1.92955 36 38 36
1.09994 -0.606536 2 36 38 36
1.01205 -0.552806 1.82283 36 38 36
1.07026 -0.57914 1.90967 36 38 37
1.09151 -0.585172 1.92955 36 38 36
1.14184 -0.606536 2 36 38 36
1.10027 -0.57914 1.90967 36 38 36
1.16279 -0.606536 2 36 38 35
1.12027 -0.57914 1.90967 36 38 36
1.18374 -0.606536 2 36 38 35
1.19422 -0.606536 2 36 38 36
1.09797 -0.552806 1.82283 35 37 35
1.15129 -0.574651 1.89486 35 37 35
1.10012 -0.544417 1.79517 35 37 35
1.15845 -0.568426 1.87433 36 38 36
1.2466 -0.606536 2 35 38 35
-0.553221 -0.262326 0.880174 40 39 30
-0.548611 -0.262326 0.880174 39 39 30
-0.491461 -0.236991 0.795167 39 39 33
-0.521631 -0.253689 0.851194 37 37 33
-0.499938 -0.245235 0.822829 36 37 33
-0.478966 -0.236991 0.795167 37 38 34
-0.469865 -0.234527 0.7869 37 38 34
-0.52095 -0.262326 0.880174 37 38 35
-0.522326 -0.265368 0.89038 38 39 36
-0.505373 -0.259068 0.869241 37 38 35
-0.463963 -0.240002 0.805271 35 37 34
-0.527512 -0.275379 0.923969 35 38 34
-0.491714 -0.259068 0.869241 36 38 35
-0.469398 -0.249621 0.837546 37 39 36
-0.485436 -0.260586 0.874334 37 39 36
-0.475021 -0.257424 0.863725 36 38 35
-0.501606 -0.274444 0.920833 36 37 34
-0.485003 -0.267936 0.898997 36 37 34
-0.454142 -0.253347 0.850047 36 38 34
-0.471026 -0.265368 0.89038 36 37 34
-0.455291 -0.259068 0.869241 36 37 33
-0.464024 -0.266704 0.894863 36 38 34
-0.474277 -0.275379 0.923969 36 37 33
-0.481175 -0.282264 0.947071 36 37 33
-0.463021 -0.274444 0.920833 36 37 33
-0.458198 -0.274444 0.920833 36 37 33
-0.466293 -0.282264 0.947071 37 37 34
-0.487115 -0.298039 1 37 37 33
-0.470084 -0.290745 0.975527 37 36 32
-0.438905 -0.274444 0.920833 38 38 34
-0.483899 -0.30594 1.02651 38 38 34
-0.454299 -0.290454 0.974549 39 39 35
-0.436529 -0.282264 0.947071 38 38 35
-0.443083 -0.289795 0.972338 38 38 35
-0.45045 -0.298039 1 37 38 35
-0.445213 -0.298039 1 37 38 34
-0.452145 -0.306283 1.02766 36 37 34
-0.458743 -0.314497 1.05522 37 38 35
-0.44251 -0.307067 1.03029 37 38 35
-0.451181 -0.31695 1.06345 36 37 34
-0.431717 -0.307067 1.03029 36 36 33
-0.468445 -0.337409 1.1321 38 38 35
-0.433244 -0.316055 1.06045 39 39 36
-0.430238 -0.317938 1.06677 38 38 35
-0.412962 -0.309187 1.03741 37 37 34
-0.434136 -0.329374 1.10514 36 36 33
-0.438797 -0.337409 1.1321 36 37 34
-0.445794 -0.347485 1.1659 37 38 35
-0.414719 -0.327752 1.0997 38 38 35
-0.401324 -0.321634 1.07917 38 39 35
-0.397585 -0.323189 1.08438 38 38 35
-0.425439 -0.350843 1.17717 37 38 34
-0.419273 -0.350843 1.17717 36 37 34
-0.422815 -0.359087 1.20483 37 37 35
-0.429435 -0.370236 1.24224 37 38 36
-0.405154 -0.354676 1.19003 38 38 36
-0.403883 -0.359087 1.20483 38 38 36
-0.407114 -0.367706 1.23375 38 38 36
-0.400652 -0.367706 1.23375 38 38 35
-0.39419 -0.367706 1.23375 38 38 35
-0.407029 -0.386011 1.29517 38 38 35
-0.3941 -0.380083 1.27528 37 37 33
-0.400366 -0.392784 1.31789 37 37 34
-0.386678 -0.386011 1.29517 37 38 35
-0.379894 -0.386011 1.29517 38 39 36
-0.406095 -0.420136 1.40967 37 38 35
-0.383424 -0.404027 1.35562 37 38 35
-0.40464 -0.434428 1.45762 36 38 35
-0.397006 -0.434428 1.45762 36 37 35
-0.400691 -0.447059 1.5 36 37 34
-0.405634 -0.461625 1.54887 36 38 35
-0.41723 -0.484512 1.62567 37 38 35
-0.403554 -0.478394 1.60514 37 38 35
-0.369265 -0.447059 1.5 38 38 35
-0.375314 -0.46426 1.55772 38 38 35
-0.353551 -0.447059 1.5 38 38 34
-0.366513 -0.473982 1.59033 37 37 34
-0.370357 -0.490091 1.64438 38 37 35
-0.367269 -0.497577 1.6695 38 37 35
-0.358525 -0.497577 1.6695 38 38 35
-0.314268 -0.447059 1.5 38 38 36
-0.366706 -0.53503 1.79517 37 38 35
-0.308282 -0.461625 1.54887 37 38 35
-0.308204 -0.473982 1.59033 36 37 34
-0.321464 -0.508107 1.70483 36 37 34
-0.301453 -0.490091 1.64438 36 37 34
-0.314543 -0.526412 1.76625 37 37 35
-0.297295 -0.512624 1.71999 38 39 36
-0.290593 -0.516725 1.73375 39 39 36
-0.293125 -0.538042 1.80527 38 38 35
-0.261077 -0.49519 1.66149 36 37 34
-0.258957 -0.508107 1.70483 37 37 35
-0.250028 -0.508107 1.70483 37 38 35
-0.249449 -0.525706 1.76388 37 37 35
-0.234013 -0.512143 1.71838 36 37 34
-0.223239 -0.508107 1.70483 37 37 34
-0.212449 -0.503695 1.69003 36 37 34
-0.200159 -0.49519 1.66149 38 38 36
-0.200209 -0.517829 1.73745 39 39 37
-0.189011 -0.512143 1.71838 38 39 36
-0.18251 -0.519255 1.74224 37 37 35
-0.17101 -0.512143 1.71838 37 37 35
-0.164641 -0.520464 1.74629 37 38 35
-0.151803 -0.508107 1.70483 37 38 35
-0.145296 -0.516725 1.73375 37 38 35
-0.130538 -0.49519 1.66149 37 38 35
-0.125014 -0.508107 1.70483 37 38 35
-0.115076 -0.503695 1.69003 37 38 35
-0.108107 -0.512624 1.71999 37 37 35
-0.0998913 -0.516725 1.73375 37 38 35
-0.0923886 -0.525706 1.76388 38 38 35
-0.0783231 -0.49519 1.66149 38 38 35
