ply
format ascii 1.0
element vertex 1309
property float x
property float y
property float z
property uchar red
property uchar green
property uchar blue
end_header
-0.583749 -0.0734548 0.936549 36 38 34
-0.582388 -0.0739046 0.942284 36 38 34
-0.542655 -0.0694511 0.885502 36 37 34
-0.53478 -0.0690333 0.880174 36 37 33
-0.526652 -0.0685752 0.874334 37 38 34
-0.540511 -0.0709972 0.905214 37 38 34
-0.557711 -0.0739046 0.942284 36 37 34
-0.551172 -0.0736903 0.939552 36 36 32
-0.549291 -0.0741004 0.944781 35 37 33
-0.542904 -0.0739046 0.942284 35 37 33
-0.553625 -0.0760555 0.969708 35 37 33
-0.565682 -0.0784314 1 35 37 33
-0.560444 -0.0784314 1 36 38 35
-0.570564 -0.0806009 1.02766 36 38 34
-0.549969 -0.0784314 1 35 38 34
-0.52823 -0.0760555 0.969708 35 37 34
-0.523892 -0.0761633 0.971083 35 37 34
-0.549034 -0.0806009 1.02766 36 37 34
-0.55955 -0.0829581 1.05772 37 39 36
-0.538268 -0.0806009 1.02766 38 39 36
-0.503547 -0.0761633 0.971083 36 38 35
-0.528147 -0.0806994 1.02892 35 37 34
-0.538778 -0.0831724 1.06045 35 37 34
-0.502828 -0.0784314 1 36 37 34
-0.513416 -0.0809258 1.0318 37 38 35
-0.536829 -0.0855164 1.09033 37 38 36
-0.529143 -0.0851984 1.08628 36 37 35
-0.529918 -0.0862507 1.0997 35 37 34
-0.512175 -0.0842787 1.07455 36 38 35
-0.523821 -0.0871529 1.1112 36 38 34
-0.512638 -0.0862507 1.0997 36 38 35
-0.497416 -0.0846405 1.07917 36 38 35
-0.522728 -0.0899699 1.14712 36 38 35
-0.484033 -0.0842787 1.07455 36 38 35
-0.519076 -0.0914435 1.1659 36 38 36
-0.482731 -0.0860533 1.09718 37 39 37
-0.476985 -0.0860533 1.09718 37 39 36
-0.500755 -0.0914435 1.1659 36 38 35
-0.51691 -0.0955589 1.21838 37 38 35
-0.498651 -0.0933357 1.19003 37 39 35
-0.517783 -0.0981437 1.25133 37 38 35
-0.492232 -0.0944967 1.20483 37 38 34
-0.512849 -0.0997333 1.2716 37 38 35
-0.51557 -0.101582 1.29517 37 38 35
-0.517714 -0.103364 1.31789 36 38 34
-0.532688 -0.107791 1.37433 37 38 35
-0.503909 -0.103364 1.31789 37 38 35
-0.506867 -0.105415 1.34404 37 39 35
-0.518727 -0.109401 1.39486 37 38 35
-0.534431 -0.114323 1.45762 37 38 35
-0.504115 -0.109401 1.39486 37 37 34
-0.471152 -0.103751 1.32283 36 37 33
-0.526398 -0.117647 1.5 36 37 33
-0.503892 -0.114323 1.45762 36 37 34
-0.474891 -0.109401 1.39486 36 37 33
-0.488622 -0.114323 1.45762 35 37 33
-0.494972 -0.117647 1.5 36 37 33
-0.502987 -0.12148 1.54887 36 37 34
-0.508121 -0.124732 1.59033 36 37 34
-0.535774 -0.133712 1.70483 35 36 33
-0.481381 -0.122174 1.55772 36 37 34
-0.473222 -0.122174 1.55772 36 38 34
-0.48535 -0.127503 1.62567 37 38 34
-0.466471 -0.124732 1.59033 37 38 35
-0.432118 -0.117647 1.5 37 38 35
-0.465099 -0.128971 1.64438 36 38 34
-0.441482 -0.124732 1.59033 37 39 35
-0.464337 -0.133712 1.70483 39 40 37
-0.448019 -0.131543 1.67717 38 39 36
-0.425745 -0.127503 1.62567 37 38 34
-0.441964 -0.135062 1.72203 36 37 33
-0.428619 -0.133712 1.70483 36 37 33
-0.41288 -0.131543 1.67717 36 37 33
-0.400318 -0.130313 1.66149 37 37 34
-0.398342 -0.132551 1.69003 37 38 34
-0.382913 -0.130313 1.66149 37 38 34
-0.380637 -0.132551 1.69003 37 38 34
-0.368957 -0.131543 1.67717 37 37 33
-0.375016 -0.136964 1.74629 37 38 33
-0.360787 -0.135062 1.72203 36 37 32
-0.341914 -0.131279 1.6738 36 37 32
-0.336377 -0.132551 1.69003 37 37 33
-0.330394 -0.133712 1.70483 36 37 32
-0.316248 -0.131543 1.67717 35 36 31
-0.302626 -0.129473 1.65078 36 36 31
-0.306304 -0.134901 1.71999 37 37 33
-0.280992 -0.127503 1.62567 38 39 35
-0.273939 -0.128187 1.63439 39 39 35
-0.276817 -0.133712 1.70483 38 38 34
-0.270268 -0.134901 1.71999 37 37 33
-0.254756 -0.131543 1.67717 36 37 33
-0.238417 -0.127503 1.62567 36 37 34
-0.239005 -0.132551 1.69003 37 38 34
-0.226267 -0.130313 1.66149 37 38 34
-0.215324 -0.128971 1.64438 37 38 34
-0.207515 -0.129473 1.65078 37 37 34
-0.203782 -0.132672 1.69157 37 38 34
-0.199783 -0.13598 1.73375 37 38 34
-0.186062 -0.132672 1.69157 36 37 34
-0.178591 -0.133712 1.70483 35 37 34
-0.166909 -0.131543 1.67717 35 37 34
-0.151019 -0.125632 1.6018 36 37 34
-0.14934 -0.131543 1.67717 36 37 33
-0.139241 -0.130313 1.66149 35 36 32
-0.127009 -0.12679 1.61657 36 37 33
-0.117703 -0.125893 1.60514 36 37 34
-0.108754 -0.125269 1.59718 37 38 34
-0.104431 -0.130313 1.66149 37 38 35
-0.0966315 -0.131543 1.67717 36 38 34
-0.0876704 -0.131279 1.6738 35 37 32
-0.0790621 -0.131543 1.67717 36 38 33
-0.0701363 -0.131279 1.6738 37 38 35
-0.060918 -0.130313 1.66149 36 38 33
-0.0526022 -0.131279 1.6738 35 37 33
-0.0423364 -0.12679 1.61657 35 37 34
-0.0342423 -0.128187 1.63439 35 37 34
-0.0259394 -0.129473 1.65078 36 37 35
-0.0177041 -0.132551 1.69003 36 38 35
-0.00827135 -0.123856 1.57917 37 39 35
0 -0.130313 1.66149 37 39 35
0.00856058 -0.128187 1.63439 36 38 34
0.0177041 -0.132551 1.69003 36 37 34
0.0259394 -0.129473 1.65078 36 38 35
0.0342423 -0.128187 1.63439 37 38 35
0.0439234 -0.131543 1.67717 37 38 35
0.052354 -0.130659 1.6659 36 37 34
0.0593231 -0.126902 1.618 36 37 34
0.0681193 -0.127503 1.62567 36 36 33
0.0790621 -0.131543 1.67717 36 37 34
0.0861295 -0.128971 1.64438 36 36 34
0.0982252 -0.133712 1.70483 36 37 34
0.105416 -0.131543 1.67717 36 37 34
0.115076 -0.132551 1.69003 36 37 34
0.120361 -0.128736 1.64138 37 38 35
0.128409 -0.128187 1.63439 37 37 35
0.136969 -0.128187 1.63439 36 36 34
0.14699 -0.129473 1.65078 36 37 35
0.153268 -0.127503 1.62567 37 39 36
0.158948 -0.125269 1.59718 38 39 36
0.172259 -0.128971 1.64438 37 38 36
0.181576 -0.129473 1.65078 37 38 36
0.191456 -0.130313 1.66149 37 37 35
0.200159 -0.130313 1.66149 37 38 36
0.205454 -0.128187 1.63439 37 38 35
0.211682 -0.12679 1.61657 37 38 36
0.215055 -0.123856 1.57917 37 38 36
0.237186 -0.131543 1.67717 37 37 35
0.248083 -0.132672 1.69157 37 37 35
0.250747 -0.129473 1.65078 36 36 34
0.265561 -0.132551 1.69003 35 36 34
0.262485 -0.12679 1.61657 36 37 35
0.273939 -0.128187 1.63439 36 37 35
0.292117 -0.132551 1.69003 36 37 35
0.298679 -0.131543 1.67717 36 37 35
0.307464 -0.131543 1.67717 35 37 34
0.302666 -0.125893 1.60514 35 36 34
0.316742 -0.128187 1.63439 35 37 35
0.327292 -0.128971 1.64438 36 37 35
0.335905 -0.128971 1.64438 36 37 35
0.369554 -0.138344 1.76388 36 37 35
0.35139 -0.128335 1.63628 36 38 35
0.368957 -0.131543 1.67717 36 38 35
0.370357 -0.128971 1.64438 36 38 36
0.382913 -0.130313 1.66149 37 39 36
0.385226 -0.128187 1.63439 35 38 35
0.403284 -0.131279 1.6738 35 37 35
0.416046 -0.132551 1.69003 35 38 36
0.413422 -0.128971 1.64438 36 38 36
0.44497 -0.13598 1.73375 36 38 36
0.450025 -0.134775 1.71838 36 38 36
0.443831 -0.130313 1.66149 36 38 37
0.460306 -0.132551 1.69003 36 38 36
0.464653 -0.131279 1.6738 36 38 37
0.47801 -0.132551 1.69003 37 38 37
0.499457 -0.13598 1.73375 36 38 37
0.500056 -0.133712 1.70483 36 37 36
0.508985 -0.133712 1.70483 35 37 36
0.513418 -0.132551 1.69003 35 37 35
0.531528 -0.134901 1.71999 36 38 36
0.544862 -0.13598 1.73375 37 38 37
0.535865 -0.131543 1.67717 36 38 36
0.563024 -0.13598 1.73375 36 37 36
0.582048 -0.138344 1.76388 36 37 36
0.576032 -0.134775 1.71838 37 38 37
0.585581 -0.134901 1.71999 37 38 38
0.616719 -0.139922 1.784 37 39 38
0.608429 -0.13598 1.73375 37 38 36
0.61751 -0.13598 1.73375 37 37 35
0.637481 -0.138344 1.76388 37 38 35
0.642118 -0.137359 1.75133 36 37 36
0.660197 -0.139238 1.77528 35 36 35
0.660465 -0.137359 1.75133 34 36 34
0.661788 -0.135749 1.7308 35 37 35
0.660788 -0.133712 1.70483 35 37 35
0.705204 -0.140797 1.79517 35 37 35
0.68468 -0.134901 1.71999 35 37 34
0.704298 -0.136964 1.74629 35 37 34
0.713444 -0.136964 1.74629 35 37 34
0.738194 -0.139922 1.784 35 37 34
0.747538 -0.139922 1.784 34 37 34
0.737134 -0.136271 1.73745 33 36 34
0.754957 -0.137864 1.75776 33 36 34
0.741154 -0.133712 1.70483 34 36 35
0.789828 -0.140797 1.79517 34 37 35
0.782578 -0.137864 1.75776 34 36 35
0.784792 -0.136646 1.74224 34 37 35
0.800991 -0.137864 1.75776 35 38 36
0.803043 -0.136646 1.74224 35 38 36
0.80275 -0.135062 1.72203 34 37 35
0.846245 -0.140797 1.79517 33 36 35
0.868832 -0.142967 1.82283 33 36 35
0.86505 -0.140797 1.79517 32 36 35
0.893415 -0.143851 1.8341 34 37 36
0.849171 -0.135272 1.72472 34 37 36
0.886519 -0.139735 1.78162 35 38 37
0.888121 -0.138529 1.76625 35 38 37
0.897372 -0.138529 1.76625 36 38 37
0.946554 -0.144631 1.84404 35 37 36
0.930869 -0.140797 1.79517 36 38 37
0.940272 -0.140797 1.79517 36 38 37
0.997463 -0.147882 1.8855 35 37 37
0.985189 -0.144631 1.84404 34 37 36
0.994848 -0.144631 1.84404 33 37 36
0.952553 -0.13715 1.74867 34 37 36
0.987286 -0.140797 1.79517 33 37 36
0.987138 -0.139448 1.77797 33 36 36
1.05672 -0.147882 1.8855 32 36 35
1.09547 -0.151886 1.93655 32 35 35
1.00354 -0.137864 1.75776 32 36 36
1.0343 -0.140797 1.79517 33 36 36
1.0437 -0.140797 1.79517 33 37 36
1.06933 -0.142967 1.82283 33 37 37
1.13689 -0.150654 1.92083 32 37 37
1.14028 -0.149778 1.90967 30 36 36
1.0269 -0.133712 1.70483 31 37 36
1.16028 -0.149778 1.90967 31 36 37
1.10012 -0.140797 1.79517 28 34 36
1.13973 -0.144631 1.84404 28 35 36
1.19725 -0.150654 1.92083 27 34 35
-0.545508 -0.0635328 0.867904 36 38 34
-0.566992 -0.0665899 0.909666 36 38 33
-0.544001 -0.0644311 0.880174 36 38 34
-0.594258 -0.0709851 0.969708 37 38 34
-0.527325 -0.0635328 0.867904 37 38 34
-0.545252 -0.066264 0.905214 37 38 35
-0.561015 -0.0687777 0.939552 37 38 34
-0.557711 -0.0689777 0.942284 37 37 34
-0.536019 -0.0668867 0.91372 36 37 33
-0.511729 -0.0644311 0.880174 37 37 34
-0.559497 -0.0710858 0.971083 36 38 34
-0.536409 -0.0687777 0.939552 36 38 34
-0.549324 -0.0710858 0.971083 35 37 34
-0.509817 -0.0665899 0.909666 35 37 34
-0.537548 -0.0708744 0.968195 36 38 34
-0.516724 -0.0687777 0.939552 35 37 33
-0.561232 -0.0754201 1.03029 35 37 33
-0.539493 -0.0732026 1 35 37 33
-0.549704 -0.0753194 1.02892 36 38 34
-0.545843 -0.0755308 1.0318 37 38 35
-0.508633 -0.0710858 0.971083 37 39 36
-0.535034 -0.0755308 1.0318 36 37 34
-0.547576 -0.0780901 1.06677 35 37 34
-0.53739 -0.0774276 1.05772 35 36 33
-0.552958 -0.0805006 1.0997 35 37 34
-0.54254 -0.0798153 1.09033 36 38 35
-0.541438 -0.0805006 1.0997 36 38 35
-0.503421 -0.0756531 1.03348 35 37 34
-0.517803 -0.0786601 1.07455 36 37 34
-0.510217 -0.0783595 1.07045 36 38 34
-0.520963 -0.0808989 1.10514 36 38 34
-0.518001 -0.0813427 1.1112 36 37 34
-0.544863 -0.0865332 1.18211 36 38 34
-0.531289 -0.0853473 1.1659 36 38 34
-0.53248 -0.0865332 1.18211 36 38 35
-0.546899 -0.0899221 1.2284 36 38 35
-0.49189 -0.0818402 1.118 37 38 35
-0.536357 -0.0903137 1.23375 37 38 35
-0.500755 -0.0853473 1.1659 37 38 35
-0.494648 -0.0853473 1.1659 38 39 35
-0.479524 -0.083772 1.14438 38 39 35
-0.498543 -0.0881969 1.20483 38 39 35
-0.511229 -0.0916008 1.25133 37 39 35
-0.504675 -0.0916008 1.25133 38 39 35
-0.479611 -0.0881969 1.20483 37 39 35
-0.499528 -0.0930844 1.2716 36 38 34
-0.473657 -0.0894561 1.22203 36 38 34
-0.557335 -0.106702 1.45762 36 38 34
-0.518291 -0.100605 1.37433 37 38 35
-0.491938 -0.0968345 1.32283 36 37 34
-0.516848 -0.103191 1.40967 36 37 34
-0.48993 -0.0992346 1.35562 36 37 34
-0.489497 -0.100605 1.37433 36 37 33
-0.464223 -0.0968345 1.32283 36 37 33
-0.503892 -0.106702 1.45762 36 37 33
-0.494045 -0.106226 1.45113 35 36 32
-0.519212 -0.113382 1.54887 35 36 32
-0.514017 -0.114029 1.55772 35 36 32
-0.487115 -0.109804 1.5 36 37 34
-0.501766 -0.114961 1.57045 36 37 34
-0.486761 -0.113382 1.54887 35 36 33
-0.496035 -0.1175 1.60514 35 36 33
-0.470536 -0.113382 1.54887 36 37 34
-0.508985 -0.124798 1.70483 38 39 36
-0.466471 -0.116417 1.59033 38 39 35
-0.458142 -0.116417 1.59033 37 39 35
-0.424261 -0.109804 1.5 36 38 34
-0.463459 -0.122212 1.6695 36 37 34
-0.456803 -0.122773 1.67717 37 38 35
-0.448019 -0.122773 1.67717 38 39 35
-0.418944 -0.117102 1.5997 37 38 34
-0.437549 -0.124798 1.70483 36 37 33
-0.417723 -0.121626 1.66149 36 37 33
-0.409021 -0.121626 1.66149 36 37 33
-0.414411 -0.125908 1.71999 37 38 34
-0.391615 -0.121626 1.66149 37 38 34
-0.382913 -0.121626 1.66149 37 37 34
-0.371798 -0.120842 1.65078 37 37 34
-0.375042 -0.124798 1.70483 37 38 34
-0.366112 -0.124798 1.70483 37 38 34
-0.354081 -0.123715 1.69003 36 37 32
-0.348253 -0.124798 1.70483 36 37 32
-0.333818 -0.122773 1.67717 37 38 34
-0.313289 -0.118337 1.61657 38 39 35
-0.318964 -0.123827 1.69157 37 38 34
-0.320135 -0.127833 1.74629 36 37 31
-0.300969 -0.123715 1.69003 36 37 33
-0.297295 -0.125908 1.71999 37 38 34
-0.279221 -0.121949 1.6659 38 38 34
-0.265378 -0.119641 1.63439 37 38 34
-0.254018 -0.118337 1.61657 36 37 33
-0.250747 -0.120842 1.65078 36 36 33
-0.247857 -0.123715 1.69003 36 37 34
-0.241098 -0.124798 1.70483 37 38 35
-0.230153 -0.123715 1.69003 37 38 35
-0.215324 -0.120373 1.64438 37 38 34
-0.207515 -0.120842 1.65078 36 37 34
-0.200159 -0.121626 1.66149 36 37 33
-0.191456 -0.121626 1.66149 36 37 34
-0.181576 -0.120842 1.65078 35 36 33
-0.175694 -0.122773 1.67717 35 36 33
-0.163646 -0.120373 1.64438 34 35 32
-0.157062 -0.121949 1.6659 35 36 33
-0.14904 -0.122527 1.6738 36 37 33
-0.140273 -0.122527 1.6738 36 37 33
-0.130538 -0.121626 1.66149 37 38 34
-0.118542 -0.118337 1.61657 37 37 34
-0.109538 -0.117761 1.60869 36 37 34
-0.0981406 -0.1143 1.56142 36 37 34
-0.0964374 -0.122527 1.6738 37 38 35
-0.0872567 -0.121949 1.6659 36 37 34
-0.0803661 -0.124798 1.70483 36 38 34
-0.0691717 -0.120842 1.65078 36 38 34
-0.0619642 -0.123715 1.69003 35 37 33
-0.0527081 -0.122773 1.67717 35 37 34
-0.0430648 -0.120373 1.64438 36 38 35
-0.0338691 -0.118337 1.61657 36 38 34
-0.0259394 -0.120842 1.65078 36 38 35
-0.0174051 -0.121626 1.66149 36 38 35
-0.00864646 -0.120842 1.65078 37 39 35
0 -0.122773 1.67717 37 38 35
0.00856058 -0.119641 1.63439 36 38 33
0.0172929 -0.120842 1.65078 35 37 33
0.026354 -0.122773 1.67717 36 37 34
0.0345858 -0.120842 1.65078 37 38 35
0.0428029 -0.119641 1.63439 37 38 35
0.0527081 -0.122773 1.67717 37 38 35
0.0575798 -0.114961 1.57045 36 37 34
0.0714365 -0.124798 1.70483 36 37 34
0.0778182 -0.120842 1.65078 36 37 34
0.0856058 -0.119641 1.63439 35 36 33
0.09314 -0.118337 1.61657 35 36 34
0.104431 -0.121626 1.66149 35 36 34
0.112404 -0.120842 1.65078 35 36 34
0.117964 -0.117761 1.60869 36 37 34
0.133943 -0.124798 1.70483 36 37 35
0.138343 -0.120842 1.65078 35 36 34
0.151803 -0.124798 1.70483 36 37 35
0.156646 -0.121626 1.66149 37 38 36
0.166574 -0.122527 1.6738 38 39 37
0.170298 -0.119003 1.62567 37 38 36
0.183239 -0.121949 1.6659 37 38 35
0.191456 -0.121626 1.66149 37 37 35
0.203597 -0.123715 1.69003 37 37 35
0.203215 -0.118337 1.61657 37 37 35
0.205642 -0.114961 1.57045 37 37 35
0.228402 -0.122773 1.67717 37 37 35
0.234969 -0.121626 1.66149 36 37 35
0.243672 -0.121626 1.66149 36 37 35
0.261259 -0.125908 1.71999 36 36 34
0.254018 -0.118337 1.61657 36 37 35
0.274663 -0.123827 1.69157 37 37 35
0.272477 -0.119003 1.62567 36 38 35
0.284227 -0.120373 1.64438 36 37 35
0.303605 -0.124798 1.70483 36 37 35
0.301453 -0.120373 1.64438 36 38 36
0.315613 -0.122527 1.6738 37 38 36
0.330394 -0.124798 1.70483 37 38 36
0.33599 -0.123572 1.68808 36 38 36
0.35102 -0.12579 1.71838 35 37 35
0.369554 -0.129121 1.76388 35 37 35
0.362933 -0.123715 1.69003 36 38 35
0.371785 -0.123715 1.69003 36 38 35
0.359725 -0.116918 1.59718 37 38 36
0.382913 -0.121626 1.66149 37 38 36
0.397883 -0.123572 1.68808 36 38 35
0.406724 -0.123572 1.68808 34 37 34
0.416046 -0.123715 1.69003 34 36 34
0.428619 -0.124798 1.70483 34 36 35
0.414896 -0.118337 1.61657 35 38 36
0.442602 -0.123715 1.69003 36 38 36
0.443831 -0.121626 1.66149 36 38 36
0.472214 -0.126915 1.73375 36 38 36
0.464653 -0.122527 1.6738 36 38 36
0.482197 -0.124798 1.70483 36 38 36
0.491126 -0.124798 1.70483 36 37 36
0.500056 -0.124798 1.70483 36 37 36
0.508985 -0.124798 1.70483 36 38 36
0.513418 -0.123715 1.69003 36 38 36
0.52227 -0.123715 1.69003 36 37 35
0.535774 -0.124798 1.70483 36 38 36
0.553943 -0.126915 1.73375 36 38 36
0.563024 -0.126915 1.73375 36 37 36
0.562563 -0.124798 1.70483 35 36 36
0.595107 -0.129955 1.77528 36 37 36
0.575907 -0.123827 1.69157 37 38 37
0.584234 -0.123715 1.69003 38 39 38
0.598281 -0.124798 1.70483 38 39 37
0.601938 -0.123715 1.69003 38 38 36
0.61614 -0.124798 1.70483 37 38 36
0.650899 -0.129955 1.77528 36 36 35
0.685769 -0.134989 1.84404 34 35 34
0.642929 -0.124798 1.70483 34 36 34
0.646198 -0.123715 1.69003 35 37 35
0.637358 -0.120373 1.64438 35 37 35
0.681077 -0.126915 1.73375 36 38 35
0.666295 -0.122527 1.6738 35 37 35
0.714504 -0.129686 1.7716 35 37 35
0.720631 -0.129121 1.76388 35 37 35
0.72987 -0.129121 1.76388 35 38 35
0.720715 -0.125908 1.71999 35 37 35
0.756882 -0.130593 1.784 34 37 35
0.738733 -0.125908 1.71999 33 36 34
0.780426 -0.131411 1.79517 32 35 34
0.764435 -0.127186 1.73745 33 36 34
0.779715 -0.128202 1.75133 33 36 34
0.808634 -0.131411 1.79517 34 37 36
0.818037 -0.131411 1.79517 36 38 37
0.845382 -0.134261 1.8341 35 38 36
0.825856 -0.129686 1.7716 33 36 35
0.835135 -0.129686 1.7716 33 36 35
0.837819 -0.128673 1.75776 32 36 34
0.858524 -0.13042 1.78162 32 36 34
0.84867 -0.127536 1.74224 34 37 35
0.869618 -0.129294 1.76625 34 37 36
0.907022 -0.133436 1.82283 35 38 37
0.927237 -0.134989 1.84404 35 38 37
0.921862 -0.132823 1.81445 35 37 36
0.946554 -0.134989 1.84404 34 36 36
0.930869 -0.131411 1.79517 34 36 36
0.905301 -0.126523 1.7284 35 37 37
0.940575 -0.130152 1.77797 35 38 37
1.01659 -0.139291 1.90282 34 37 36
0.9592 -0.130152 1.77797 33 36 35
0.928675 -0.124798 1.70483 33 36 36
0.987286 -0.131411 1.79517 32 36 36
0.996688 -0.131411 1.79517 31 35 35
1.05672 -0.138024 1.8855 32 35 35
1.03548 -0.133997 1.8305 32 36 35
0.994678 -0.127536 1.74224 32 36 36
1.0343 -0.131411 1.79517 32 36 36
1.01293 -0.127536 1.74224 30 35 35
1.13194 -0.141248 1.92955 31 36 36
1.06251 -0.131411 1.79517 32 37 37
1.14695 -0.14061 1.92083 32 37 37
1.15701 -0.14061 1.92083 33 38 38
1.16707 -0.14061 1.92083 31 37 37
1.17029 -0.139793 1.90967 28 35 36
1.31379 -0.155604 2.12567 29 35 37
1.11892 -0.131411 1.79517 29 35 37
-0.541038 -0.0585113 0.860791 36 39 34
-0.530548 -0.057859 0.851194 36 38 34
-0.580699 -0.063865 0.939552 36 38 34
-0.577452 -0.0640507 0.942284 37 38 34
-0.549994 -0.0615309 0.905214 36 38 34
-0.526652 -0.0594319 0.874334 36 37 33
-0.561015 -0.063865 0.939552 36 37 33
-0.574756 -0.0660082 0.971083 36 37 33
-0.536019 -0.0621091 0.91372 36 37 33
-0.533389 -0.0623612 0.917429 37 38 35
-0.592095 -0.0698541 1.02766 38 39 36
-0.57092 -0.0679739 1 36 38 34
-0.565682 -0.0679739 1 35 37 34
-0.560444 -0.0679739 1 36 38 35
-0.523162 -0.0640507 0.942284 36 38 35
-0.56746 -0.0701357 1.0318 36 38 34
-0.544731 -0.0679739 1 36 38 34
-0.57063 -0.071897 1.05772 36 38 34
-0.551247 -0.0701357 1.0318 36 38 35
-0.529017 -0.0679739 1 37 38 36
-0.52378 -0.0679739 1 37 39 36
-0.518542 -0.0679739 1 37 38 35
-0.544332 -0.0720827 1.06045 36 37 35
-0.523457 -0.0700329 1.03029 34 36 33
-0.534733 -0.0722869 1.06345 33 35 31
-0.532644 -0.0727624 1.07045 34 36 33
-0.508835 -0.0702493 1.03348 36 37 35
-0.541282 -0.0755325 1.1112 36 37 35
-0.514051 -0.0725122 1.06677 36 38 35
-0.526752 -0.0751204 1.10514 37 39 35
-0.537025 -0.0774364 1.13921 37 39 35
-0.531058 -0.0774364 1.13921 36 38 35
-0.512181 -0.0755325 1.1112 36 38 34
-0.512953 -0.0765159 1.12567 36 38 34
-0.488462 -0.0737098 1.08438 36 38 35
-0.524091 -0.0800169 1.17717 36 38 35
-0.524812 -0.0810807 1.19282 36 38 35
-0.529673 -0.0828177 1.21838 36 38 35
-0.564557 -0.0893484 1.31445 36 38 34
-0.499428 -0.0800169 1.17717 36 38 34
-0.53283 -0.0864355 1.2716 36 38 34
-0.453997 -0.0745795 1.09718 37 38 34
-0.519509 -0.0864355 1.2716 37 38 35
-0.53152 -0.0895823 1.31789 37 39 35
-0.494501 -0.0844397 1.24224 38 39 35
-0.508787 -0.0880375 1.29517 37 38 35
-0.466989 -0.0818971 1.20483 36 37 34
-0.538998 -0.0958204 1.40967 37 38 34
-0.498867 -0.0899178 1.32283 38 39 35
-0.542065 -0.0990801 1.45762 37 38 34
-0.516848 -0.0958204 1.40967 36 37 33
-0.504115 -0.0948142 1.39486 37 38 34
-0.471152 -0.0899178 1.32283 37 38 34
-0.526398 -0.101961 1.5 36 37 33
-0.468629 -0.0921464 1.35562 35 36 32
-0.494045 -0.0986386 1.45113 35 36 31
-0.486445 -0.0986386 1.45113 35 37 32
-0.511099 -0.105283 1.54887 36 37 33
-0.521258 -0.109107 1.60514 36 37 34
-0.519409 -0.110503 1.62567 35 37 34
-0.499791 -0.108101 1.59033 35 36 33
-0.496035 -0.109107 1.60514 35 36 33
-0.517915 -0.115884 1.70483 36 37 34
-0.447832 -0.101961 1.5 37 39 35
-0.491942 -0.114004 1.67717 38 39 35
-0.491126 -0.115884 1.70483 37 38 35
-0.465099 -0.111775 1.64438 36 37 33
-0.481295 -0.11785 1.73375 36 37 33
-0.456803 -0.114004 1.67717 36 37 33
-0.455408 -0.115884 1.70483 35 36 32
-0.441428 -0.114573 1.68555 35 36 32
-0.419953 -0.111224 1.63628 36 37 33
-0.420818 -0.113775 1.6738 37 38 34
-0.42342 -0.116914 1.71999 38 39 35
-0.391686 -0.110503 1.62567 38 39 35
-0.389091 -0.11221 1.65078 37 38 35
-0.380444 -0.11221 1.65078 36 37 34
-0.387385 -0.116914 1.71999 37 38 34
-0.371785 -0.114878 1.69003 37 38 34
-0.356805 -0.112938 1.66149 36 37 34
-0.351387 -0.114004 1.67717 36 37 33
-0.3394 -0.112938 1.66149 36 37 33
-0.336684 -0.114983 1.69157 37 38 34
-0.309531 -0.108566 1.59718 37 39 35
-0.316248 -0.114004 1.67717 38 39 35
-0.30459 -0.112938 1.66149 38 39 35
-0.29106 -0.111096 1.63439 37 38 34
-0.287185 -0.112938 1.66149 38 39 34
-0.275614 -0.111775 1.64438 38 39 35
-0.258225 -0.108101 1.59033 36 37 34
-0.261077 -0.112938 1.66149 36 36 33
-0.254756 -0.114004 1.67717 36 37 34
-0.243672 -0.112938 1.66149 37 38 35
-0.23671 -0.113775 1.6738 37 38 35
-0.226267 -0.112938 1.66149 37 38 35
-0.212873 -0.110503 1.62567 36 37 34
-0.208166 -0.112562 1.65596 35 37 33
-0.20538 -0.115884 1.70483 36 37 33
-0.190819 -0.112562 1.65596 36 38 34
-0.179772 -0.111096 1.63439 35 37 34
-0.177041 -0.114878 1.69003 35 36 33
-0.158267 -0.108101 1.59033 36 37 34
-0.15409 -0.111096 1.63439 37 38 35
-0.14934 -0.114004 1.67717 37 38 34
-0.136239 -0.110503 1.62567 37 38 34
-0.128409 -0.111096 1.63439 37 38 34
-0.120581 -0.111775 1.64438 36 37 34
-0.111968 -0.111775 1.64438 36 37 34
-0.0987081 -0.106749 1.57045 36 37 34
-0.093664 -0.110503 1.62567 36 37 34
-0.0861295 -0.111775 1.64438 35 37 33
-0.0790621 -0.114004 1.67717 36 38 34
-0.0696205 -0.112938 1.66149 36 38 35
-0.0599241 -0.111096 1.63439 36 38 34
-0.0527081 -0.114004 1.67717 36 38 34
-0.0443005 -0.114983 1.69157 36 38 34
-0.0348103 -0.112938 1.66149 36 38 34
-0.0261077 -0.112938 1.66149 36 38 34
-0.0172259 -0.111775 1.64438 36 37 34
-0.00870257 -0.112938 1.66149 36 38 34
0 -0.113775 1.6738 36 38 34
0.00846727 -0.109885 1.61657 36 37 33
0.0166597 -0.108101 1.59033 35 36 33
0.0254018 -0.109885 1.61657 36 37 34
0.0342423 -0.111096 1.63439 36 37 34
0.0435128 -0.112938 1.66149 36 37 34
0.0527081 -0.114004 1.67717 35 37 34
0.062507 -0.115884 1.70483 36 37 34
0.0691717 -0.11221 1.65078 36 37 34
0.0766342 -0.110503 1.62567 36 36 34
0.0838992 -0.108881 1.6018 35 36 33
0.0966315 -0.114004 1.67717 35 36 34
0.104708 -0.113238 1.6659 36 37 34
0.111288 -0.111096 1.63439 35 36 34
0.122159 -0.113238 1.6659 36 37 35
0.128409 -0.111096 1.63439 35 36 34
0.136969 -0.111096 1.63439 35 36 33
0.151803 -0.115884 1.70483 35 36 34
0.159337 -0.114878 1.69003 36 37 35
0.168189 -0.114878 1.69003 37 38 36
0.175694 -0.114004 1.67717 37 38 36
0.184478 -0.114004 1.67717 37 38 35
0.190222 -0.11221 1.65078 37 37 35
0.202048 -0.114004 1.67717 37 37 35
0.208862 -0.112938 1.66149 37 37 35
0.217564 -0.112938 1.66149 37 37 35
0.228402 -0.114004 1.67717 37 37 35
0.239005 -0.114878 1.69003 36 37 35
0.247857 -0.114878 1.69003 36 37 35
0.250747 -0.11221 1.65078 36 37 35
0.267887 -0.115884 1.70483 37 37 35
0.276817 -0.115884 1.70483 37 38 36
0.269632 -0.109349 1.60869 37 38 36
0.274885 -0.108101 1.59033 36 38 36
0.287887 -0.109885 1.61657 36 38 35
0.296355 -0.109885 1.61657 37 38 36
0.330232 -0.119045 1.75133 38 39 37
0.316742 -0.111096 1.63439 37 38 36
0.330698 -0.112938 1.66149 36 38 36
0.335905 -0.111775 1.64438 35 37 35
0.348103 -0.112938 1.66149 36 37 35
0.355616 -0.112562 1.65596 36 38 36
0.359544 -0.111096 1.63439 36 38 35
0.376983 -0.113775 1.6738 36 38 36
0.396865 -0.117053 1.72203 36 38 36
0.398342 -0.114878 1.69003 35 38 35
0.417727 -0.11785 1.73375 35 37 35
0.415566 -0.114746 1.68808 34 36 34
0.413422 -0.111775 1.64438 34 36 34
0.44497 -0.11785 1.73375 35 37 35
0.454051 -0.11785 1.73375 36 38 36
0.443831 -0.112938 1.66149 36 38 36
0.468465 -0.116914 1.71999 36 38 36
0.465588 -0.114004 1.67717 36 37 36
0.495348 -0.119045 1.75133 35 37 36
0.499457 -0.11785 1.73375 35 37 36
0.491942 -0.114004 1.67717 36 37 36
0.522868 -0.119045 1.75133 36 38 36
0.504749 -0.112938 1.66149 36 38 36
0.526844 -0.115884 1.70483 36 38 36
0.527081 -0.114004 1.67717 36 38 36
0.540467 -0.114983 1.69157 36 37 36
0.553633 -0.115884 1.70483 35 37 35
0.562563 -0.115884 1.70483 35 36 36
0.571492 -0.115884 1.70483 35 36 35
0.590267 -0.11785 1.73375 35 36 36
0.603684 -0.118702 1.74629 36 38 36
0.608429 -0.11785 1.73375 37 38 36
0.61751 -0.11785 1.73375 36 36 35
0.611347 -0.114983 1.69157 36 36 34
0.642118 -0.119045 1.75133 36 36 34
0.633999 -0.115884 1.70483 35 36 35
0.658564 -0.118702 1.74629 35 37 35
0.662915 -0.11785 1.73375 35 37 35
0.666037 -0.116805 1.71838 34 36 34
0.692915 -0.119898 1.76388 35 37 34
0.702153 -0.119898 1.76388 35 37 34
0.70633 -0.119045 1.75133 35 37 34
0.709832 -0.118101 1.73745 34 36 33
0.712554 -0.117053 1.72203 34 37 34
0.720715 -0.116914 1.71999 34 36 34
0.716189 -0.114746 1.68808 33 36 34
0.746234 -0.118101 1.73745 33 35 34
0.719906 -0.112562 1.65596 33 36 34
0.764435 -0.118101 1.73745 34 36 35
0.804578 -0.122841 1.80718 34 36 35
0.802533 -0.121104 1.78162 34 37 35
0.828393 -0.123569 1.81789 34 37 36
0.849967 -0.125347 1.84404 34 37 35
0.854989 -0.124671 1.8341 34 37 35
0.803661 -0.115884 1.70483 34 37 35
0.868832 -0.123905 1.82283 32 36 34
0.858524 -0.121104 1.78162 32 35 34
0.860367 -0.120059 1.76625 34 36 35
0.91854 -0.126813 1.86561 33 36 35
0.917578 -0.125347 1.84404 34 37 36
0.888121 -0.120059 1.76625 34 36 35
0.919584 -0.123031 1.80997 34 36 35
0.897598 -0.118864 1.74867 34 36 35
0.967399 -0.126813 1.86561 34 36 35
0.971933 -0.126133 1.85562 34 37 36
0.981653 -0.126133 1.85562 34 36 36
0.985189 -0.125347 1.84404 32 36 35
0.994848 -0.125347 1.84404 33 36 35
1.02101 -0.127406 1.87433 33 36 36
1.02338 -0.126485 1.86079 32 36 35
0.996688 -0.122024 1.79517 31 35 34
1.04287 -0.126485 1.86079 32 36 35
1.06659 -0.128165 1.8855 33 36 36
1.0249 -0.122024 1.79517 34 37 37
1.07211 -0.126485 1.86079 34 37 37
1.07212 -0.125347 1.84404 32 36 36
1.12027 -0.129807 1.90967 31 36 36
1.10135 -0.126485 1.86079 30 36 36
1.15215 -0.131159 1.92955 30 36 37
1.08131 -0.122024 1.79517 32 37 38
1.10752 -0.123905 1.82283 32 37 38
1.22564 -0.135948 2 32 37 38
1.12662 -0.123905 1.82283 32 38 38
1.2466 -0.135948 2 31 37 38
-0.54955 -0.0548602 0.874334 37 39 34
-0.561158 -0.0564897 0.900304 37 39 34
-0.582388 -0.0591237 0.942284 37 38 34
-0.554735 -0.0567977 0.905214 36 38 34
-0.512827 -0.0529595 0.844042 36 37 33
-0.565936 -0.0589523 0.939552 35 36 32
-0.540511 -0.0567977 0.905214 36 37 32
-0.538405 -0.0570771 0.909666 36 37 33
-0.549411 -0.0587639 0.936549 36 37 33
-0.546251 -0.0589523 0.939552 37 38 34
-0.557833 -0.0607495 0.968195 37 38 35
-0.552762 -0.0607495 0.968195 35 37 34
-0.547691 -0.0607495 0.968195 35 37 34
-0.529497 -0.0592804 0.944781 36 38 35
-0.537548 -0.0607495 0.968195 36 38 34
-0.549969 -0.0627451 1 35 38 33
-0.528979 -0.0609307 0.971083 36 38 34
-0.523892 -0.0609307 0.971083 37 39 35
-0.550439 -0.0646458 1.03029 37 39 35
-0.545043 -0.0646458 1.03029 36 38 35
-0.539646 -0.0646458 1.03029 37 38 35
-0.565384 -0.0684131 1.09033 37 38 35
-0.529629 -0.0647407 1.0318 36 37 35
-0.524225 -0.0647407 1.0318 35 37 34
-0.518821 -0.0647407 1.0318 34 36 33
-0.513416 -0.0647407 1.0318 34 36 32
-0.525226 -0.0669344 1.06677 34 36 33
-0.504326 -0.064962 1.03533 36 37 34
-0.515824 -0.0671653 1.07045 37 38 35
-0.494468 -0.0650921 1.03741 37 39 35
-0.552714 -0.073568 1.17249 37 39 35
-0.534744 -0.071976 1.14712 37 39 35
-0.515314 -0.0701488 1.118 36 38 34
-0.509458 -0.0701488 1.118 36 38 34
-0.542717 -0.0755973 1.20483 36 38 34
-0.505043 -0.0711772 1.13439 37 39 35
-0.542819 -0.0774118 1.23375 37 39 35
-0.489369 -0.07063 1.12567 36 38 34
-0.540208 -0.0789184 1.25776 36 38 34
-0.499428 -0.0738617 1.17717 35 37 33
-0.498651 -0.0746686 1.19003 36 37 34
-0.498543 -0.0755973 1.20483 36 38 34
-0.49926 -0.0766767 1.22203 36 37 34
-0.492859 -0.0766767 1.22203 36 37 34
-0.486458 -0.0766767 1.22203 37 38 34
-0.499528 -0.0797866 1.2716 37 39 35
-0.510812 -0.0826914 1.31789 36 38 34
-0.518332 -0.0850582 1.35562 37 38 35
-0.506867 -0.084332 1.34404 38 39 35
-0.494791 -0.0834823 1.3305 36 37 34
-0.474867 -0.0812654 1.29517 36 37 34
-0.5135 -0.0891503 1.42083 37 38 35
-0.502081 -0.0884496 1.40967 37 39 35
-0.506144 -0.0904963 1.44228 37 38 34
-0.503892 -0.0914586 1.45762 36 37 32
-0.510685 -0.0941176 1.5 35 37 32
-0.467584 -0.0875208 1.39486 36 37 33
-0.494972 -0.0941176 1.5 37 38 34
-0.521258 -0.100714 1.60514 36 38 34
-0.494874 -0.0971843 1.54887 35 37 34
-0.48954 -0.097739 1.55772 35 36 34
-0.508164 -0.103177 1.64438 35 36 34
-0.493865 -0.102003 1.62567 36 37 34
-0.447832 -0.0941176 1.5 37 39 35
-0.500056 -0.10697 1.70483 37 39 35
-0.462406 -0.100714 1.60514 37 39 35
-0.465099 -0.103177 1.64438 37 38 34
-0.48796 -0.110291 1.75776 36 37 33
-0.464337 -0.10697 1.70483 35 36 32
-0.461703 -0.108449 1.7284 34 35 30
-0.446478 -0.10697 1.70483 35 36 32
-0.437549 -0.10697 1.70483 37 38 34
-0.432429 -0.107921 1.71999 37 38 34
-0.400201 -0.102003 1.62567 38 39 35
-0.41076 -0.10697 1.70483 38 39 35
-0.398342 -0.106041 1.69003 38 39 35
-0.378278 -0.102989 1.64138 37 38 34
-0.376983 -0.105023 1.6738 37 38 35
-0.371785 -0.106041 1.69003 37 38 34
-0.363264 -0.106138 1.69157 37 38 34
-0.360358 -0.107921 1.71999 36 37 34
-0.342602 -0.105234 1.67717 36 37 34
-0.336684 -0.106138 1.69157 36 37 34
-0.335998 -0.108784 1.73375 35 37 33
-0.313292 -0.104251 1.66149 37 39 34
-0.307464 -0.105234 1.67717 38 40 35
-0.300969 -0.106041 1.69003 38 39 35
-0.292117 -0.106041 1.69003 38 39 34
-0.28111 -0.105234 1.67717 38 38 34
-0.281033 -0.108599 1.7308 36 37 34
-0.261077 -0.104251 1.66149 36 37 34
-0.252374 -0.104251 1.66149 37 38 35
-0.250028 -0.10697 1.70483 37 38 35
-0.234969 -0.104251 1.66149 37 38 35
-0.235705 -0.108599 1.7308 37 38 35
-0.223239 -0.10697 1.70483 36 37 33
-0.212643 -0.106138 1.69157 36 37 33
-0.202048 -0.105234 1.67717 36 38 34
-0.189139 -0.102989 1.64138 36 38 34
-0.179772 -0.10255 1.63439 36 37 34
-0.175694 -0.105234 1.67717 36 37 34
-0.165349 -0.104251 1.66149 36 38 35
-0.160732 -0.10697 1.70483 37 39 35
-0.147944 -0.104251 1.66149 38 39 36
-0.142873 -0.10697 1.70483 37 38 35
-0.13177 -0.105234 1.67717 37 38 34
-0.115569 -0.0988882 1.57603 36 37 34
-0.111968 -0.103177 1.64438 37 38 34
-0.105416 -0.105234 1.67717 36 37 34
-0.0973724 -0.106041 1.69003 35 37 33
-0.0885203 -0.106041 1.69003 35 37 34
-0.0778182 -0.103579 1.65078 36 38 34
-0.0689036 -0.103177 1.64438 36 38 35
-0.0599241 -0.10255 1.63439 36 38 34
-0.0499791 -0.0997857 1.59033 35 37 33
-0.0432323 -0.103579 1.65078 35 37 33
-0.0340596 -0.102003 1.62567 36 38 35
-0.0254018 -0.101432 1.61657 37 39 35
-0.0175341 -0.105023 1.6738 37 38 34
-0.00856058 -0.10255 1.63439 36 37 34
0 -0.105919 1.68808 36 37 34
0.00892957 -0.10697 1.70483 37 38 34
0.0171212 -0.10255 1.63439 36 37 34
0.0254018 -0.101432 1.61657 35 37 34
0.0342423 -0.10255 1.63439 36 37 34
0.0429861 -0.102989 1.64138 35 37 34
0.0513635 -0.10255 1.63439 35 36 34
0.0580908 -0.0994124 1.58438 35 36 34
0.0693886 -0.103903 1.65596 36 37 34
0.0783231 -0.104251 1.66149 36 37 34
0.0846727 -0.101432 1.61657 36 37 34
0.0951111 -0.103579 1.65078 36 37 35
0.107155 -0.10697 1.70483 36 37 35
0.110694 -0.102003 1.62567 36 37 35
0.121836 -0.104251 1.66149 36 37 35
0.130104 -0.103903 1.65596 36 37 35
0.142873 -0.10697 1.70483 35 36 34
0.151803 -0.10697 1.70483 35 36 34
0.158124 -0.105234 1.67717 36 37 35
0.160094 -0.100938 1.60869 37 38 36
0.177202 -0.106138 1.69157 37 38 36
0.187521 -0.10697 1.70483 37 38 35
0.194922 -0.106138 1.69157 37 37 35
0.194919 -0.101521 1.618 37 38 35
0.21431 -0.10697 1.70483 37 37 35
0.217564 -0.104251 1.66149 36 37 35
0.216576 -0.0997857 1.59033 36 37 35
0.241098 -0.10697 1.70483 36 37 35
0.247857 -0.106041 1.69003 36 37 35
0.251534 -0.103903 1.65596 37 38 36
0.270268 -0.107921 1.71999 37 37 35
0.26978 -0.104251 1.66149 37 37 35
0.280545 -0.105023 1.6738 37 38 36
0.284227 -0.103177 1.64438 37 38 36
0.303605 -0.10697 1.70483 37 38 36
0.30459 -0.104251 1.66149 37 38 36
0.311273 -0.103579 1.65078 38 38 36
0.319919 -0.103579 1.65078 37 38 36
0.313687 -0.0988882 1.57603 36 38 35
0.332081 -0.102003 1.62567 35 37 35
0.350681 -0.105023 1.6738 35 37 35
0.369367 -0.107921 1.71999 36 38 36
0.368957 -0.105234 1.67717 36 38 36
0.377741 -0.105234 1.67717 36 38 36
0.381637 -0.103903 1.65596 36 38 36
0.387583 -0.103177 1.64438 36 37 35
0.407194 -0.106041 1.69003 35 37 36
0.41969 -0.10697 1.70483 35 37 36
0.421665 -0.105234 1.67717 35 37 36
0.414896 -0.101432 1.61657 35 37 35
0.446478 -0.10697 1.70483 35 37 36
0.443831 -0.104251 1.66149 36 38 36
0.464337 -0.10697 1.70483 36 37 36
0.469158 -0.106041 1.69003 36 37 36
0.490376 -0.108784 1.73375 35 37 35
0.478641 -0.104251 1.66149 35 37 36
0.500056 -0.10697 1.70483 36 37 36
0.496046 -0.104251 1.66149 36 37 36
0.517915 -0.10697 1.70483 36 37 36
0.53103 -0.10782 1.71838 36 38 36
0.527081 -0.105234 1.67717 36 38 36
0.540467 -0.106138 1.69157 36 38 36
0.539559 -0.104251 1.66149 36 37 36
0.572105 -0.108784 1.73375 35 36 35
0.576572 -0.107921 1.71999 35 36 35
0.584589 -0.107738 1.71707 34 35 34
0.584234 -0.106041 1.69003 36 37 36
0.608429 -0.108784 1.73375 37 38 36
0.607211 -0.10697 1.70483 36 37 35
0.61079 -0.106041 1.69003 35 36 34
0.642118 -0.109887 1.75133 36 36 34
0.66344 -0.111937 1.784 37 38 36
0.65523 -0.109017 1.73745 36 38 36
0.677387 -0.111159 1.7716 35 37 35
0.686666 -0.111159 1.7716 34 36 34
0.675038 -0.10782 1.71838 34 36 34
0.68468 -0.107921 1.71999 34 36 34
0.70633 -0.109887 1.75133 35 36 34
0.702698 -0.107921 1.71999 34 36 34
0.72987 -0.110675 1.76388 35 37 34
0.733849 -0.109887 1.75133 34 36 34
0.730593 -0.108049 1.72203 33 36 34
0.765206 -0.111788 1.78162 34 36 35
0.753725 -0.108784 1.73375 34 37 35
0.757652 -0.108049 1.72203 34 37 35
0.773535 -0.109017 1.73745 34 37 35
0.802533 -0.111788 1.78162 34 37 35
0.760772 -0.104753 1.6695 34 37 36
0.821197 -0.111788 1.78162 34 37 35
0.830529 -0.111788 1.78162 33 36 35
0.828612 -0.110291 1.75776 33 36 35
0.874202 -0.11508 1.8341 32 35 34
0.923091 -0.120195 1.91561 32 35 34
0.856232 -0.110291 1.75776 34 37 36
0.913617 -0.116431 1.85562 34 37 36
0.950232 -0.119822 1.90967 34 37 36
0.895851 -0.111788 1.78162 33 36 35
0.912064 -0.112638 1.79517 33 36 35
0.897598 -0.10972 1.74867 34 36 35
0.945213 -0.114374 1.82283 34 36 36
0.965871 -0.115705 1.84404 33 36 36
0.949675 -0.112638 1.79517 32 36 35
0.959077 -0.112638 1.79517 32 35 35
0.978885 -0.113848 1.81445 32 36 35
0.928675 -0.10697 1.70483 32 36 36
0.977825 -0.111559 1.77797 32 36 36
1.0163 -0.114855 1.8305 32 36 36
1.08533 -0.121509 1.93655 33 36 36
1.01549 -0.112638 1.79517 33 36 36
1.0249 -0.112638 1.79517 34 37 37
1.06246 -0.115705 1.84404 33 37 38
1.08186 -0.116756 1.86079 33 37 38
1.12682 -0.120523 1.92083 31 36 37
1.13028 -0.119822 1.90967 29 36 36
1.07191 -0.112638 1.79517 30 36 37
1.08131 -0.112638 1.79517 31 37 38
1.17237 -0.12107 1.92955 33 38 39
1.17029 -0.119822 1.90967 33 38 39
1.10952 -0.112638 1.79517 32 38 39
1.16827 -0.117605 1.87433 31 37 38
-0.568959 -0.0520646 0.905214 39 41 36
-0.564218 -0.0520646 0.905214 38 39 35
-0.564734 -0.0525539 0.91372 36 38 34
-0.542655 -0.0509308 0.885502 36 37 33
-0.555162 -0.0525539 0.91372 36 37 33
-0.602347 -0.0575163 1 37 38 34
-0.562646 -0.0541967 0.942284 37 38 34
-0.573047 -0.0556871 0.968195 37 38 33
-0.547466 -0.0536762 0.933233 37 37 34
-0.546251 -0.0540396 0.939552 38 39 35
-0.524111 -0.0523206 0.909666 38 39 35
-0.57092 -0.0575163 1 35 37 34
-0.529789 -0.0538669 0.936549 34 36 33
-0.560444 -0.0575163 1 36 38 35
-0.572864 -0.0593456 1.0318 37 39 35
-0.533309 -0.055774 0.969708 37 39 34
-0.579295 -0.0611658 1.06345 37 38 34
-0.523151 -0.055774 0.969708 37 39 34
-0.534255 -0.0575163 1 37 39 35
-0.546726 -0.0594417 1.03348 36 38 35
-0.507121 -0.0556871 0.968195 36 37 34
-0.555071 -0.0615682 1.07045 35 37 34
-0.561958 -0.0629681 1.09479 35 36 34
-0.508066 -0.0575163 1 35 37 34
-0.520594 -0.0595485 1.03533 36 37 35
-0.58342 -0.0674373 1.17249 35 36 33
-0.527037 -0.0615682 1.07045 34 36 33
-0.554926 -0.0655231 1.13921 36 37 34
-0.545531 -0.065114 1.1321 37 38 35
-0.524158 -0.0632505 1.0997 37 38 34
-0.506546 -0.0618044 1.07455 36 37 33
-0.500918 -0.0618044 1.07455 35 37 33
-0.509386 -0.0635634 1.10514 35 38 34
-0.519124 -0.0655231 1.13921 36 38 34
-0.548818 -0.0700765 1.21838 36 38 34
-0.524091 -0.0677066 1.17717 37 39 35
-0.536055 -0.0700765 1.21838 37 39 35
-0.523785 -0.0692976 1.20483 37 39 35
-0.505594 -0.0677066 1.17717 36 38 34
-0.523433 -0.0709608 1.23375 36 38 34
-0.516971 -0.0709608 1.23375 36 38 34
-0.498543 -0.0692976 1.20483 36 37 33
-0.511229 -0.071972 1.25133 36 37 33
-0.501007 -0.071449 1.24224 35 37 33
-0.504059 -0.0728301 1.26625 36 37 33
-0.497427 -0.0728301 1.26625 36 38 34
-0.510812 -0.0758004 1.31789 36 37 34
-0.495219 -0.0744933 1.29517 38 39 36
-0.535826 -0.0817211 1.42083 39 40 37
-0.491938 -0.0760843 1.32283 37 38 35
-0.503894 -0.0790467 1.37433 36 38 34
-0.526796 -0.083837 1.45762 37 38 35
-0.516848 -0.0834634 1.45113 38 39 35
-0.482298 -0.0790467 1.37433 37 39 35
-0.518542 -0.0862745 1.5 37 38 34
-0.510685 -0.0862745 1.5 36 37 33
-0.502828 -0.0862745 1.5 36 37 33
-0.511099 -0.0890856 1.54887 37 38 34
-0.51645 -0.0914702 1.59033 37 38 34
-0.533415 -0.0960236 1.6695 36 37 35
-0.471402 -0.0862745 1.5 36 37 35
-0.485315 -0.0903263 1.57045 36 37 35
-0.529278 -0.100207 1.74224 36 38 34
-0.528919 -0.101896 1.7716 37 38 34
-0.500056 -0.0980557 1.70483 37 38 34
-0.462406 -0.0923216 1.60514 36 38 34
-0.449812 -0.0914702 1.59033 36 38 34
-0.491802 -0.101896 1.7716 36 38 34
-0.478754 -0.1011 1.75776 36 38 34
-0.475921 -0.102472 1.78162 36 38 34
-0.428524 -0.0941126 1.63628 37 38 34
-0.437549 -0.0980557 1.70483 36 38 33
-0.420818 -0.096271 1.6738 36 37 33
-0.402347 -0.0940039 1.63439 36 37 33
-0.414411 -0.0989274 1.71999 36 38 34
-0.405402 -0.0989274 1.71999 36 38 34
-0.392901 -0.0980557 1.70483 36 37 34
-0.366141 -0.0935024 1.62567 36 38 34
-0.365508 -0.095563 1.66149 37 38 34
-0.366112 -0.0980557 1.70483 36 38 34
-0.36002 -0.0988347 1.71838 36 38 34
-0.333863 -0.0940039 1.63439 36 37 34
-0.328566 -0.094947 1.65078 36 38 34
-0.325033 -0.0964647 1.67717 36 38 34
-0.303336 -0.0925261 1.60869 37 38 34
-0.30459 -0.095563 1.66149 37 38 34
-0.287887 -0.0929793 1.61657 36 37 33
-0.292117 -0.0972043 1.69003 37 38 33
-0.285746 -0.0980557 1.70483 37 38 34
-0.276817 -0.0980557 1.70483 37 37 34
-0.270268 -0.0989274 1.71999 37 38 35
-0.242605 -0.0918639 1.59718 38 39 36
-0.239696 -0.0940039 1.63439 37 39 36
-0.234969 -0.095563 1.66149 37 38 35
-0.234013 -0.0988347 1.71838 37 39 35
-0.223239 -0.0980557 1.70483 36 37 34
-0.209416 -0.0958167 1.6659 35 37 33
-0.198869 -0.094947 1.65078 36 38 34
-0.187328 -0.0935024 1.62567 36 38 34
-0.176946 -0.0925261 1.60869 36 37 34
-0.174051 -0.095563 1.66149 35 37 34
-0.167995 -0.0970924 1.68808 36 37 34
-0.156646 -0.095563 1.66149 35 37 34
-0.150485 -0.0972043 1.69003 36 38 34
-0.142873 -0.0980557 1.70483 37 38 35
-0.127724 -0.0935024 1.62567 37 38 34
-0.124041 -0.097293 1.69157 36 37 33
-0.113133 -0.095563 1.66149 36 38 34
-0.106321 -0.097293 1.69157 36 37 34
-0.0947425 -0.094579 1.64438 36 37 34
-0.090005 -0.0988347 1.71838 36 38 34
-0.0790621 -0.0964647 1.67717 36 38 34
-0.0684846 -0.0940039 1.63439 37 38 35
-0.0602907 -0.094579 1.64438 35 37 33
-0.0508036 -0.0929793 1.61657 34 36 32
-0.0442602 -0.0972043 1.69003 36 37 34
-0.0334628 -0.0918639 1.59718 36 38 34
-0.026354 -0.0964647 1.67717 37 39 35
-0.0174513 -0.0958167 1.6659 37 39 35
-0.00832985 -0.0914702 1.59033 36 37 34
0 -0.094579 1.64438 36 37 33
0.00867357 -0.0952447 1.65596 36 38 34
0.0175341 -0.096271 1.6738 36 38 35
0.0265561 -0.0972043 1.69003 37 38 36
0.0342423 -0.0940039 1.63439 37 38 36
0.0432323 -0.094947 1.65078 37 38 35
0.052354 -0.0958167 1.6659 36 38 35
0.0599241 -0.0940039 1.63439 36 37 35
0.0691717 -0.094947 1.65078 37 37 35
0.0778182 -0.094947 1.65078 36 37 35
0.0856058 -0.0940039 1.63439 36 37 34
0.0957282 -0.095563 1.66149 36 37 35
0.105416 -0.0964647 1.67717 36 37 35
0.107883 -0.091128 1.58438 36 37 35
0.120361 -0.0944063 1.64138 36 37 35
0.127724 -0.0935024 1.62567 36 37 35
0.138343 -0.094947 1.65078 35 36 35
0.14699 -0.094947 1.65078 36 37 35
0.155636 -0.094947 1.65078 36 37 35
0.161783 -0.0935024 1.62567 37 38 35
0.172259 -0.094579 1.64438 37 38 36
0.181576 -0.094947 1.65078 37 38 35
0.198011 -0.0988347 1.71838 36 37 34
0.20069 -0.0958167 1.6659 36 37 35
0.202224 -0.0925261 1.60869 36 37 35
0.215324 -0.094579 1.64438 36 36 34
0.230363 -0.097293 1.69157 35 36 34
0.23671 -0.096271 1.6738 36 36 34
0.247857 -0.0972043 1.69003 36 37 35
0.245551 -0.0929793 1.61657 37 38 35
0.252221 -0.0923216 1.60514 37 37 35
0.271778 -0.096271 1.6738 37 37 35
0.270953 -0.0929793 1.61657 37 37 35
0.294676 -0.0980557 1.70483 37 38 35
0.294901 -0.0952447 1.65596 36 38 35
0.29491 -0.0925261 1.60869 37 38 36
0.312249 -0.0952447 1.65596 38 39 36
0.325033 -0.0964647 1.67717 37 38 36
0.33599 -0.0970924 1.68808 36 38 36
0.333863 -0.0940039 1.63439 35 37 35
0.354081 -0.0972043 1.69003 35 36 35
0.349111 -0.0935024 1.62567 35 37 35
0.363151 -0.094947 1.65078 36 37 36
0.37421 -0.095563 1.66149 36 37 36
0.392901 -0.0980557 1.70483 35 37 35
0.391615 -0.095563 1.66149 35 37 36
0.403284 -0.096271 1.6738 36 38 36
0.41969 -0.0980557 1.70483 36 38 37
0.424898 -0.0972043 1.69003 36 38 37
0.43375 -0.0972043 1.69003 36 38 36
0.446478 -0.0980557 1.70483 35 37 36
0.463133 -0.099719 1.73375 36 37 36
0.455886 -0.096271 1.6738 36 37 36
0.473267 -0.0980557 1.70483 36 37 36
0.47801 -0.0972043 1.69003 35 37 35
0.491126 -0.0980557 1.70483 36 37 36
0.517376 -0.101452 1.76388 36 38 36
0.508985 -0.0980557 1.70483 36 37 35
0.522519 -0.0989274 1.71999 35 36 35
0.518296 -0.0964647 1.67717 36 37 35
0.550387 -0.10073 1.75133 36 37 36
0.527434 -0.094947 1.65078 36 37 36
0.553633 -0.0980557 1.70483 36 37 36
0.562563 -0.0980557 1.70483 36 37 36
0.567047 -0.097293 1.69157 36 37 36
0.596253 -0.10073 1.75133 36 36 36
0.584234 -0.0972043 1.69003 37 37 36
0.598281 -0.0980557 1.70483 37 37 35
0.597358 -0.0964647 1.67717 36 36 35
0.631124 -0.10044 1.74629 36 36 35
0.630626 -0.0989274 1.71999 36 36 34
0.639036 -0.0988347 1.71838 37 38 36
0.676996 -0.103251 1.79517 37 38 37
0.662915 -0.099719 1.73375 36 38 36
0.660788 -0.0980557 1.70483 35 37 35
0.705204 -0.103251 1.79517 35 36 35
0.68468 -0.0989274 1.71999 34 36 34
0.67642 -0.0964647 1.67717 34 36 34
0.70832 -0.099719 1.73375 34 36 34
0.692596 -0.096271 1.6738 34 37 35
0.747538 -0.102609 1.784 35 37 35
0.76162 -0.103251 1.79517 35 37 36
0.732224 -0.0980557 1.70483 35 38 36
0.766825 -0.101452 1.76388 34 37 35
0.779459 -0.101896 1.7716 34 37 35
0.779715 -0.10073 1.75133 34 37 35
0.814044 -0.103942 1.80718 34 37 35
0.798061 -0.10073 1.75133 34 37 35
0.827439 -0.103251 1.79517 33 36 35
0.825856 -0.101896 1.7716 34 36 35
0.828612 -0.1011 1.75776 33 36 35
0.862703 -0.104103 1.80997 32 35 34
0.883809 -0.10549 1.8341 31 34 32
0.851803 -0.100577 1.74867 34 36 35
0.913617 -0.106728 1.85562 34 36 36
0.878869 -0.101588 1.76625 33 35 34
0.902661 -0.103251 1.79517 31 34 33
0.942775 -0.106728 1.85562 33 35 35
0.952495 -0.106728 1.85562 35 36 36
0.884027 -0.0980557 1.70483 34 36 36
0.915917 -0.100577 1.74867 33 36 36
1.0275 -0.111713 1.94228 32 35 36
0.949887 -0.102262 1.77797 31 35 35
0.994848 -0.106063 1.84404 32 36 36
1.00451 -0.106063 1.84404 33 36 36
1.03697 -0.108447 1.8855 33 36 37
1.0074 -0.104361 1.81445 33 36 37
1.04287 -0.107026 1.86079 32 36 36
1.0264 -0.104361 1.81445 31 35 35
1.01144 -0.101896 1.7716 32 36 36
1.11576 -0.111383 1.93655 33 37 38
1.07212 -0.106063 1.84404 34 38 39
1.08178 -0.106063 1.84404 34 38 39
1.14205 -0.110981 1.92955 33 38 39
1.07191 -0.103251 1.79517 33 38 39
1.08131 -0.103251 1.79517 33 38 39
1.10752 -0.104842 1.82283 34 39 40
1.0772 -0.1011 1.75776 34 39 40
1.10952 -0.103251 1.79517 34 39 40
1.32492 -0.122261 2.12567 34 39 40
-0.562453 -0.0467902 0.894863 38 40 35
-0.581682 -0.0487965 0.933233 38 39 34
-0.559476 -0.0473314 0.905214 36 37 33
-0.557463 -0.0475642 0.909666 35 36 32
-0.555162 -0.0477762 0.91372 36 37 33
-0.602347 -0.0522876 1 37 38 35
-0.534331 -0.0467902 0.894863 37 38 35
-0.552354 -0.0487965 0.933233 37 38 34
-0.53364 -0.0475642 0.909666 38 39 35
-0.581395 -0.0522876 1 39 40 36
-0.54133 -0.0491269 0.939552 37 39 35
-0.57092 -0.0522876 1 35 37 34
-0.547691 -0.0506246 0.968195 35 37 34
-0.560444 -0.0522876 1 37 38 35
-0.555206 -0.0522876 1 37 39 35
-0.549969 -0.0522876 1 37 39 34
-0.508361 -0.0487965 0.933233 37 38 34
-0.523151 -0.0507037 0.969708 36 38 34
-0.517263 -0.0506246 0.968195 36 38 34
-0.564338 -0.0557786 1.06677 35 37 34
-0.540438 -0.0539506 1.0318 35 36 33
-0.553163 -0.0557786 1.06677 34 36 32
-0.564478 -0.0575004 1.0997 35 36 33
-0.523457 -0.0538715 1.03029 35 36 33
-0.566017 -0.0588583 1.12567 36 37 34
-0.532644 -0.0559711 1.07045 36 37 34
-0.541438 -0.0575004 1.0997 35 37 34
-0.518023 -0.0556053 1.06345 36 37 34
-0.527553 -0.0572437 1.09479 37 37 34
-0.526752 -0.0577849 1.10514 36 38 34
-0.518398 -0.0575004 1.0997 36 37 33
-0.500918 -0.0561858 1.07455 35 36 32
-0.477211 -0.054135 1.03533 35 38 34
-0.506361 -0.0581019 1.1112 36 38 34
-0.491142 -0.0570109 1.09033 36 39 35
-0.53106 -0.0623698 1.19282 38 40 36
-0.512969 -0.0609623 1.1659 37 40 36
-0.51735 -0.0622238 1.19003 37 39 35
-0.547732 -0.0666813 1.27528 37 39 34
-0.518462 -0.0638972 1.22203 37 38 34
-0.524338 -0.0654291 1.25133 37 38 34
-0.505661 -0.0638972 1.22203 36 38 33
-0.538423 -0.0689095 1.31789 36 37 33
-0.522354 -0.0677212 1.29517 35 37 33
-0.552843 -0.072617 1.3888 36 37 33
-0.527986 -0.0702767 1.34404 36 37 34
-0.520946 -0.0702767 1.34404 36 38 34
-0.495219 -0.0677212 1.29517 38 39 36
-0.511231 -0.0708819 1.35562 38 40 36
-0.524231 -0.073708 1.40967 37 38 35
-0.536254 -0.0764755 1.46259 37 38 34
-0.509464 -0.073708 1.40967 37 38 35
-0.502081 -0.073708 1.40967 38 39 35
-0.54127 -0.0806472 1.54238 37 39 35
-0.535437 -0.0809869 1.54887 37 38 34
-0.461528 -0.0708819 1.35562 37 38 34
-0.538072 -0.0839287 1.60514 37 38 34
-0.542616 -0.0859809 1.64438 37 38 34
-0.534003 -0.0859809 1.64438 37 38 34
-0.533415 -0.0872942 1.6695 36 38 34
-0.510894 -0.0850021 1.62567 36 38 34
-0.463545 -0.0784314 1.5 37 38 35
-0.517915 -0.0891416 1.70483 37 38 35
-0.479221 -0.0839287 1.60514 37 38 35
-0.482325 -0.0859809 1.64438 37 38 34
-0.462406 -0.0839287 1.60514 36 37 33
-0.438085 -0.0809869 1.54887 35 37 33
-0.456486 -0.0859809 1.64438 36 37 33
-0.470756 -0.0903739 1.7284 37 38 34
-0.43426 -0.0850021 1.62567 38 39 35
-0.430648 -0.0859809 1.64438 37 39 35
-0.422035 -0.0859809 1.64438 36 38 34
-0.432024 -0.0898497 1.71838 36 37 33
-0.41969 -0.0891416 1.70483 35 37 32
-0.407565 -0.0884482 1.69157 35 37 32
-0.392655 -0.0871061 1.6659 35 36 32
-0.37256 -0.0845266 1.61657 35 37 33
-0.393309 -0.0913094 1.74629 36 37 34
-0.368957 -0.0876952 1.67717 36 38 34
-0.359448 -0.0875191 1.6738 36 37 33
-0.357183 -0.0891416 1.70483 35 37 33
-0.348253 -0.0891416 1.70483 35 37 32
-0.327292 -0.0859809 1.64438 36 38 34
-0.325033 -0.0876952 1.67717 37 38 35
-0.321464 -0.0891416 1.70483 36 38 34
-0.320135 -0.0913094 1.74629 37 38 34
-0.300969 -0.0883676 1.69003 37 38 34
-0.280992 -0.0850021 1.62567 37 38 34
-0.276687 -0.0863154 1.65078 36 37 34
-0.276817 -0.0891416 1.70483 36 37 34
-0.26354 -0.0876952 1.67717 37 38 35
-0.254756 -0.0876952 1.67717 38 39 36
-0.241163 -0.0859809 1.64438 37 39 36
-0.241098 -0.0891416 1.70483 37 38 35
-0.226267 -0.0868755 1.66149 37 38 35
-0.215324 -0.0859809 1.64438 36 38 34
-0.209416 -0.0871061 1.6659 36 38 34
-0.195843 -0.0850021 1.62567 37 38 34
-0.189485 -0.0859809 1.64438 36 38 34
-0.181576 -0.0863154 1.65078 36 37 34
-0.172259 -0.0859809 1.64438 35 37 33
-0.168342 -0.0884482 1.69157 35 36 33
-0.157807 -0.0875191 1.6738 35 36 33
-0.147944 -0.0868755 1.66149 34 36 31
-0.134816 -0.0841147 1.60869 35 37 33
-0.129697 -0.0863154 1.65078 37 38 35
-0.119848 -0.0854581 1.63439 37 38 34
-0.117007 -0.0898497 1.71838 37 38 35
-0.104431 -0.0868755 1.66149 37 38 34
-0.09314 -0.0845266 1.61657 36 37 34
