ply
format ascii 1.0
element vertex 1369
property float x
property float y
property float z
property uchar red
property uchar green
property uchar blue
end_header
0.41076 0.508107 1.70483 33 35 32
0.416046 0.503695 1.69003 32 34 32
0.44031 0.521966 1.75133 31 34 32
0.449483 0.521966 1.75133 31 34 33
0.463964 0.528006 1.7716 31 34 33
0.455408 0.508107 1.70483 33 36 35
0.502253 0.549597 1.84404 35 37 36
0.483651 0.519255 1.74224 35 37 36
0.487822 0.514034 1.72472 34 37 36
0.491126 0.508107 1.70483 35 38 36
0.500056 0.508107 1.70483 36 38 37
0.524787 0.523882 1.75776 35 37 36
0.523141 0.513234 1.72203 34 36 35
0.558472 0.53861 1.80718 33 35 34
0.547529 0.519255 1.74224 32 35 34
0.555125 0.517829 1.73745 34 36 35
0.553633 0.508107 1.70483 34 36 36
0.592371 0.53503 1.79517 34 36 36
0.58708 0.521966 1.75133 33 36 35
0.586278 0.513234 1.72203 35 37 37
0.620579 0.53503 1.79517 37 39 39
0.626063 0.531702 1.784 36 39 38
0.643663 0.53861 1.80718 35 38 37
0.64027 0.528006 1.7716 36 38 38
0.644476 0.523882 1.75776 37 39 39
0.653683 0.523882 1.75776 35 37 38
0.649416 0.513234 1.72203 35 36 37
0.672096 0.523882 1.75776 35 36 37
0.695801 0.53503 1.79517 35 36 37
0.692915 0.525706 1.76388 34 35 36
0.723654 0.541804 1.81789 33 35 36
0.752421 0.556026 1.86561 36 38 39
0.726384 0.529903 1.77797 37 39 40
0.742815 0.53503 1.79517 36 39 40
0.732733 0.521172 1.74867 35 39 40
0.76162 0.53503 1.79517 34 37 38
0.786198 0.54556 1.8305 33 37 38
0.801673 0.549597 1.84404 33 36 38
0.796341 0.539442 1.80997 33 36 38
0.814961 0.54556 1.8305 35 38 39
0.849325 0.561953 1.8855 37 40 41
0.867093 0.567115 1.90282 36 39 41
0.855301 0.553046 1.85562 36 39 40
0.905423 0.578877 1.94228 34 37 38
0.883564 0.558625 1.87433 34 37 38
0.86484 0.540778 1.81445 34 38 39
0.874344 0.540778 1.81445 34 38 39
0.943322 0.577168 1.93655 35 39 40
0.839379 0.508107 1.70483 35 39 40
0.910839 0.54556 1.8305 34 38 39
0.927237 0.549597 1.84404 33 38 38
0.921862 0.540778 1.81445 35 38 39
0.990448 0.575083 1.92955 35 39 40
1.00055 0.575083 1.92955 36 39 40
0.965871 0.549597 1.84404 36 39 40
0.984391 0.554589 1.86079 35 38 39
0.959077 0.53503 1.79517 34 37 38
1.03628 0.572484 1.92083 34 37 39
1.08946 0.596078 2 34 38 39
1.09994 0.596078 2 35 39 40
0.996688 0.53503 1.79517 36 40 40
1.07026 0.569155 1.90967 35 39 40
0.994334 0.523882 1.75776 35 39 39
0.973323 0.508107 1.70483 34 38 38
1.15232 0.596078 2 33 37 38
1.16279 0.596078 2 34 39 39
1.12027 0.569155 1.90967 36 40 41
1.04037 0.523882 1.75776 36 41 41
1.19422 0.596078 2 36 40 41
1.20469 0.596078 2 34 39 39
1.12041 0.549597 1.84404 34 38 38
1.32122 0.64256 2.15596 34 38 39
1.15845 0.558625 1.87433 35 39 39
1.16827 0.558625 1.87433 35 39 39
-0.75728 0.365387 1.20483 34 34 30
-0.688829 0.335153 1.10514 34 35 31
-0.727562 0.356998 1.17717 35 35 31
-0.738348 0.365387 1.20483 35 35 32
-0.764197 0.381439 1.25776 34 35 31
-0.725727 0.365387 1.20483 35 35 32
-0.773356 0.392783 1.29517 35 35 32
-0.813428 0.416791 1.37433 36 36 32
-0.678123 0.350565 1.15596 36 36 32
-0.753004 0.392783 1.29517 36 36 33
-0.766577 0.403498 1.3305 36 36 34
-0.796355 0.423017 1.39486 37 37 34
-0.665904 0.356998 1.17717 37 37 34
-0.704905 0.381439 1.25776 36 36 34
-0.763039 0.416791 1.37433 36 36 33
-0.755841 0.416791 1.37433 36 35 33
-0.748642 0.416791 1.37433 36 36 33
-0.840377 0.472405 1.55772 37 36 34
-0.69195 0.392783 1.29517 36 35 32
-0.793526 0.454902 1.5 35 34 31
-0.748771 0.433538 1.42955 35 35 32
-0.777813 0.454902 1.5 34 35 31
-0.806117 0.476266 1.57045 34 34 31
-0.698253 0.416791 1.37433 35 35 32
-0.754243 0.454902 1.5 36 36 33
-0.808916 0.493012 1.62567 37 37 34
-0.738529 0.454902 1.5 37 37 34
-0.730673 0.454902 1.5 36 36 33
-0.746367 0.469724 1.54887 36 36 33
-0.748537 0.476266 1.57045 37 37 34
-0.766342 0.493012 1.62567 36 37 34
-0.732085 0.476266 1.57045 36 37 34
-0.769517 0.506306 1.6695 36 37 34
-0.740797 0.493012 1.62567 35 36 34
-0.767943 0.517021 1.70483 36 36 34
-0.775666 0.528365 1.74224 36 36 33
-0.715252 0.493012 1.62567 36 36 34
-0.801673 0.559239 1.84404 37 37 34
-0.760901 0.537269 1.7716 37 37 34
-0.751621 0.537269 1.7716 37 37 34
-0.714365 0.517021 1.70483 36 36 33
-0.705436 0.517021 1.70483 35 35 31
-0.71813 0.533073 1.75776 35 35 31
-0.729979 0.548906 1.80997 36 36 32
-0.697157 0.531123 1.75133 36 36 33
-0.692915 0.534929 1.76388 36 36 32
-0.695801 0.544417 1.79517 36 36 32
-0.662915 0.525791 1.73375 35 35 32
-0.685567 0.551309 1.81789 36 36 32
-0.660197 0.538385 1.77528 36 36 33
-0.67611 0.559239 1.84404 36 36 32
-0.655758 0.550265 1.81445 35 35 31
-0.607211 0.517021 1.70483 34 35 31
-0.629982 0.544417 1.79517 34 35 30
-0.620579 0.544417 1.79517 34 34 29
-0.604406 0.538385 1.77528 33 33 29
-0.58708 0.531123 1.75133 34 34 29
-0.588686 0.54103 1.784 34 35 31
-0.568733 0.531123 1.75133 35 35 32
-0.569998 0.54103 1.784 35 36 32
-0.564163 0.544417 1.79517 36 36 33
-0.558472 0.548059 1.80718 36 36 34
-0.533994 0.533073 1.75776 36 36 34
-0.51351 0.521617 1.71999 35 36 34
-0.500056 0.517021 1.70483 35 35 34
-0.495492 0.521617 1.71999 35 35 34
-0.498898 0.534929 1.76388 36 36 35
-0.486175 0.531123 1.75133 37 37 35
-0.468465 0.521617 1.71999 36 36 35
-0.474226 0.538385 1.77528 35 35 33
-0.467211 0.54103 1.784 36 36 34
-0.449483 0.531123 1.75133 35 35 34
-0.44633 0.538385 1.77528 35 36 33
-0.415566 0.511942 1.68808 34 35 31
-0.41076 0.517021 1.70483 34 35 32
-0.405402 0.521617 1.71999 35 35 32
-0.40651 0.534929 1.76388 35 35 33
-0.409436 0.551309 1.81789 36 36 33
-0.385271 0.531123 1.75133 36 36 33
-0.369367 0.521617 1.71999 36 35 33
-0.369554 0.534929 1.76388 36 36 33
-0.348253 0.517021 1.70483 36 36 33
-0.351077 0.534929 1.76388 36 35 32
-0.338429 0.529595 1.74629 36 36 33
-0.324708 0.522238 1.72203 36 36 33
-0.315313 0.521617 1.71999 36 35 32
-0.314121 0.534929 1.76388 35 35 32
-0.306216 0.537269 1.7716 35 35 31
-0.285746 0.517021 1.70483 35 35 32
-0.276817 0.517021 1.70483 35 35 32
-0.283969 0.548059 1.80718 34 35 31
-0.270983 0.54103 1.784 35 36 33
-0.244846 0.506306 1.6695 36 36 34
-0.247674 0.531123 1.75133 36 37 34
-0.232169 0.517021 1.70483 36 37 34
-0.221046 0.511942 1.68808 37 37 34
-0.216472 0.522238 1.72203 36 36 33
-0.195843 0.493012 1.62567 36 37 33
-0.200209 0.526913 1.73745 36 37 33
-0.194865 0.537269 1.7716 36 37 33
-0.178591 0.517021 1.70483 35 36 33
-0.166574 0.507611 1.6738 35 35 32
-0.163459 0.525791 1.73375 34 35 32
-0.158852 0.54103 1.784 34 35 31
-0.142873 0.517021 1.70483 33 35 32
-0.136506 0.526913 1.73745 34 35 32
-0.122739 0.507611 1.6738 34 36 32
-0.116084 0.517021 1.70483 34 36 32
-0.108972 0.525791 1.73375 35 36 33
-0.0957282 0.503878 1.66149 36 36 34
-0.090005 0.521128 1.71838 35 35 33
-0.0819037 0.526913 1.73745 34 35 31
-0.0714365 0.517021 1.70483 35 35 32
-0.0614928 0.508632 1.67717 35 35 32
-0.0531122 0.512532 1.69003 35 35 32
-0.0458656 0.531123 1.75133 36 36 33
-0.0363241 0.525791 1.73375 36 36 33
-0.026354 0.508632 1.67717 36 36 34
-0.0181621 0.525791 1.73375 36 36 33
-0.00878468 0.508632 1.67717 35 36 33
0 0.495657 1.63439 35 36 33
0.00876704 0.507611 1.6738 34 35 32
0.0183462 0.531123 1.75133 35 36 32
0.0267887 0.517021 1.70483 35 35 32
0.0348103 0.503878 1.66149 35 36 33
0.0442602 0.512532 1.69003 36 36 34
0.0535774 0.517021 1.70483 36 36 33
0.0637029 0.526913 1.73745 36 36 34
0.072004 0.521128 1.71838 35 36 33
0.0817293 0.525791 1.73375 35 36 32
0.0892957 0.517021 1.70483 35 36 33
0.0998913 0.525791 1.73375 35 36 32
0.103355 0.498689 1.64438 35 35 32
0.114944 0.511942 1.68808 34 35 32
0.128424 0.531123 1.75133 34 36 33
0.133943 0.517021 1.70483 34 36 33
0.144143 0.521617 1.71999 34 36 32
0.154377 0.525791 1.73375 34 36 32
0.162161 0.521617 1.71999 33 35 31
0.166574 0.507611 1.6738 33 35 31
0.182934 0.529595 1.74629 34 35 31
0.192081 0.529595 1.74629 34 36 31
0.192875 0.507611 1.6738 34 35 31
0.199492 0.502199 1.65596 34 36 31
0.210409 0.507611 1.6738 35 36 32
0.227026 0.525791 1.73375 34 36 31
0.225513 0.502199 1.65596 34 35 31
0.241098 0.517021 1.70483 33 35 29
0.256847 0.531123 1.75133 33 35 30
0.26602 0.531123 1.75133 34 35 32
0.267887 0.517021 1.70483 34 35 32
0.276817 0.517021 1.70483 34 35 32
0.291213 0.526913 1.73745 34 35 32
0.294676 0.517021 1.70483 34 35 32
0.315495 0.537269 1.7716 34 35 32
0.321059 0.531123 1.75133 34 35 33
0.330232 0.531123 1.75133 35 35 33
0.330394 0.517021 1.70483 35 35 33
0.345816 0.526913 1.73745 34 35 33
0.364425 0.54103 1.784 34 35 33
0.366925 0.531123 1.75133 35 35 33
0.372322 0.525791 1.73375 34 35 33
0.378826 0.522238 1.72203 34 35 33
0.376014 0.506306 1.6695 34 35 32
0.405099 0.533073 1.75776 34 35 33
0.409519 0.526913 1.73745 33 35 33
0.421963 0.531123 1.75133 33 34 33
0.42342 0.521617 1.71999 32 34 32
0.432429 0.521617 1.71999 30 33 31
0.452704 0.534929 1.76388 30 33 32
0.478606 0.554225 1.82751 32 35 34
0.475921 0.54031 1.78162 35 37 36
0.473222 0.526913 1.73745 35 38 37
0.486175 0.531123 1.75133 35 38 37
0.504588 0.54103 1.784 34 37 36
0.506374 0.533073 1.75776 35 38 36
0.509623 0.526913 1.73745 36 38 36
0.518724 0.526913 1.73745 34 37 35
0.527824 0.526913 1.73745 34 36 35
0.53216 0.522238 1.72203 33 36 34
0.555075 0.535647 1.76625 32 35 34
0.544704 0.517021 1.70483 33 35 35
0.560092 0.523053 1.72472 34 36 36
0.584594 0.537269 1.7716 34 37 37
0.577259 0.522238 1.72203 34 37 36
0.591527 0.526913 1.73745 36 38 38
0.607649 0.533073 1.75776 37 39 39
0.621711 0.537269 1.7716 37 39 39
0.626062 0.533073 1.75776 37 39 39
0.658785 0.552806 1.82283 37 39 39
0.653225 0.54031 1.78162 36 38 39
0.613164 0.50003 1.64881 34 36 37
0.676996 0.544417 1.79517 34 36 37
0.705086 0.559239 1.84404 34 36 37
0.695801 0.544417 1.79517 34 36 37
0.69051 0.533073 1.75776 34 35 36
0.738669 0.562749 1.85562 33 35 36
0.755938 0.568426 1.87433 36 38 39
0.727879 0.54031 1.78162 36 39 40
0.735697 0.5392 1.77797 36 39 40
0.752218 0.544417 1.79517 35 38 40
0.749352 0.535647 1.76625 34 37 38
0.751052 0.530315 1.74867 33 37 38
0.760211 0.530315 1.74867 33 36 37
0.76937 0.530315 1.74867 33 36 38
0.820991 0.559239 1.84404 34 38 39
0.874903 0.589033 1.94228 37 40 41
0.840308 0.559239 1.84404 37 40 41
0.806007 0.530315 1.74867 36 38 40
0.853312 0.555132 1.8305 34 37 38
0.855336 0.550265 1.81445 35 37 38
0.837819 0.533073 1.75776 34 38 39
0.903199 0.568426 1.87433 35 39 40
0.923016 0.574651 1.89486 36 40 41
0.883856 0.544417 1.79517 35 40 40
0.893258 0.544417 1.79517 34 38 39
0.942468 0.568426 1.87433 34 37 38
0.912064 0.544417 1.79517 34 38 39
0.955151 0.564318 1.86079 36 39 40
0.964898 0.564318 1.86079 36 39 40
0.940272 0.544417 1.79517 35 39 39
1.02447 0.587293 1.93655 35 38 39
0.959077 0.544417 1.79517 35 38 39
0.994848 0.559239 1.84404 35 38 39
1.00451 0.559239 1.84404 35 38 39
1.0564 0.582527 1.92083 35 38 39
1.11041 0.606536 2 35 39 40
1.07026 0.57914 1.90967 36 40 40
1.08658 0.582527 1.92083 35 39 39
1.08181 0.574651 1.89486 35 38 39
1.06246 0.559239 1.84404 34 38 38
1.10166 0.574651 1.89486 35 38 39
1.09955 0.568426 1.87433 36 40 41
1.09143 0.559239 1.84404 36 41 41
1.19422 0.606536 2 36 40 41
1.14136 0.574651 1.89486 34 38 39
1.12041 0.559239 1.84404 34 38 38
1.13007 0.559239 1.84404 34 38 38
1.23612 0.606536 2 35 39 39
1.2466 0.606536 2 35 39 39
-0.694618 0.340931 1.10514 33 34 29
-0.679603 0.336365 1.09033 34 34 30
-0.777372 0.388015 1.25776 34 34 31
-0.863874 0.434877 1.40967 34 35 31
-0.746357 0.378958 1.2284 34 35 32
-0.827825 0.423978 1.37433 35 36 32
-0.773356 0.399555 1.29517 36 36 33
-0.684178 0.356609 1.15596 36 36 32
-0.639626 0.336365 1.09033 35 35 31
-0.753004 0.399555 1.29517 36 36 32
-0.724669 0.388015 1.25776 36 36 33
-0.739437 0.399555 1.29517 36 36 33
-0.732653 0.399555 1.29517 36 36 34
-0.725869 0.399555 1.29517 36 36 34
-0.774437 0.430311 1.39486 36 36 34
-0.755841 0.423978 1.37433 36 36 33
-0.748642 0.423978 1.37433 36 36 34
-0.771234 0.441013 1.42955 36 35 33
-0.801383 0.462745 1.5 35 35 32
-0.793526 0.462745 1.5 35 35 32
-0.703982 0.414632 1.34404 35 36 34
-0.814342 0.484478 1.57045 35 36 34
-0.744868 0.447667 1.45113 36 36 34
-0.732776 0.44494 1.44228 36 37 34
-0.725221 0.44494 1.44228 37 37 34
-0.848309 0.525935 1.70483 37 37 34
-0.839379 0.525935 1.70483 36 37 33
-0.806642 0.510858 1.65596 36 36 32
-0.766346 0.490613 1.59033 36 36 32
-0.812591 0.525935 1.70483 36 37 34
-0.766342 0.501513 1.62567 36 37 34
-0.794731 0.525935 1.70483 36 37 35
-0.749312 0.501513 1.62567 36 37 34
-0.731442 0.49518 1.60514 36 37 34
-0.740714 0.507287 1.64438 37 37 35
-0.723767 0.501513 1.62567 36 37 34
-0.840205 0.589126 1.90967 36 36 34
-0.830202 0.589126 1.90967 37 36 34
-0.760901 0.546533 1.7716 36 36 34
-0.680998 0.49518 1.60514 36 37 33
-0.742342 0.546533 1.7716 36 36 33
-0.742815 0.553803 1.79517 35 35 31
-0.733412 0.553803 1.79517 34 35 31
-0.718547 0.549625 1.78162 36 36 32
-0.723654 0.560814 1.81789 36 36 33
-0.705204 0.553803 1.79517 36 36 33
-0.686666 0.546533 1.7716 36 36 33
-0.682128 0.550358 1.784 36 36 33
-0.662889 0.542264 1.75776 36 36 33
-0.651291 0.54028 1.75133 36 36 33
-0.649549 0.546533 1.7716 36 36 33
-0.648788 0.553803 1.79517 35 35 32
-0.639385 0.553803 1.79517 34 34 30
-0.616856 0.542264 1.75776 35 35 32
-0.628436 0.560814 1.81789 36 36 33
-0.607375 0.550358 1.784 36 36 32
-0.591287 0.544152 1.76388 36 36 33
-0.582048 0.544152 1.76388 36 36 33
-0.568733 0.54028 1.75133 36 36 33
-0.55956 0.54028 1.75133 36 36 33
-0.550387 0.54028 1.75133 35 36 33
-0.536925 0.535998 1.73745 35 36 33
-0.553761 0.562337 1.82283 35 36 33
-0.522868 0.54028 1.75133 35 35 33
-0.519639 0.546533 1.7716 34 34 32
-0.495492 0.530611 1.71999 35 35 33
-0.491422 0.535998 1.73745 36 36 35
-0.495244 0.550358 1.784 36 36 35
-0.473222 0.535998 1.73745 35 35 34
-0.476555 0.550358 1.784 36 36 34
-0.458656 0.54028 1.75133 36 36 35
-0.43375 0.521369 1.69003 37 37 35
-0.428619 0.525935 1.70483 37 38 35
-0.412051 0.516363 1.6738 35 36 34
-0.429834 0.550358 1.784 34 35 32
-0.398342 0.521369 1.69003 35 35 32
-0.399565 0.534856 1.73375 36 36 33
-0.393309 0.538726 1.74629 36 36 34
-0.375042 0.525935 1.70483 36 36 33
-0.366112 0.525935 1.70483 36 36 34
-0.366925 0.54028 1.75133 37 37 34
-0.35102 0.530113 1.71838 37 36 34
-0.353345 0.547668 1.77528 36 36 33
-0.339405 0.54028 1.75133 35 35 32
-0.327615 0.535998 1.73745 35 35 32
-0.309464 0.520768 1.68808 36 35 32
-0.311886 0.54028 1.75133 36 36 33
-0.304882 0.544152 1.76388 36 36 33
-0.291213 0.535998 1.73745 36 36 33
-0.284367 0.54028 1.75133 35 35 32
-0.27059 0.531242 1.72203 34 35 31
-0.256413 0.520768 1.68808 35 36 32
-0.254812 0.535998 1.73745 36 36 33
-0.23671 0.516363 1.6738 36 36 33
-0.234511 0.531242 1.72203 36 36 33
-0.219176 0.516363 1.6738 36 37 34
-0.216472 0.531242 1.72203 36 37 33
-0.203362 0.520768 1.68808 36 37 33
-0.20686 0.553803 1.79517 36 36 33
-0.191109 0.535998 1.73745 36 36 32
-0.173471 0.510858 1.65596 35 36 32
-0.17101 0.530113 1.71838 34 35 31
-0.159153 0.520768 1.68808 34 35 31
-0.151803 0.525935 1.70483 34 36 33
-0.140273 0.516363 1.6738 35 36 34
-0.132628 0.520768 1.68808 35 36 33
-0.123928 0.521369 1.69003 34 36 33
-0.118305 0.535998 1.73745 35 36 33
-0.104431 0.512565 1.66149 35 36 34
-0.0990984 0.530611 1.71999 36 36 34
-0.0914672 0.538726 1.74629 36 36 34
-0.0823205 0.538726 1.74629 35 36 33
-0.0733849 0.54028 1.75133 35 35 32
-0.062507 0.525935 1.70483 34 34 31
-0.0531122 0.521369 1.69003 34 34 30
-0.0450447 0.530611 1.71999 35 35 32
-0.0348103 0.512565 1.66149 36 36 33
-0.0274402 0.538726 1.74629 36 36 34
-0.0175341 0.516363 1.6738 36 37 34
-0.00867357 0.510858 1.65596 36 37 34
0 0.54028 1.75133 36 37 34
0.00885203 0.521369 1.69003 35 36 33
0.0183462 0.54028 1.75133 35 36 33
0.0270268 0.530611 1.71999 35 36 33
0.0360358 0.530611 1.71999 35 36 33
0.0438352 0.516363 1.6738 35 36 33
0.053051 0.520768 1.68808 35 36 33
0.0619642 0.521369 1.69003 36 36 33
0.0708163 0.521369 1.69003 35 36 33
0.0831497 0.544152 1.76388 36 36 33
0.0914672 0.538726 1.74629 36 36 33
0.0966315 0.517402 1.67717 35 35 32
0.107155 0.525935 1.70483 35 35 32
0.115076 0.521369 1.69003 35 36 33
0.123928 0.521369 1.69003 35 37 34
0.13177 0.517402 1.67717 35 37 34
0.144315 0.531242 1.72203 35 37 34
0.153152 0.530611 1.71999 34 36 32
0.159153 0.520768 1.68808 33 35 31
0.166574 0.516363 1.6738 33 35 31
0.180179 0.530611 1.71999 33 35 31
0.182145 0.510858 1.65596 34 36 31
0.204144 0.546533 1.7716 33 35 30
0.200159 0.512565 1.66149 34 36 31
0.21431 0.525935 1.70483 35 36 32
0.217564 0.512565 1.66149 34 35 31
0.234233 0.530611 1.71999 33 35 30
0.241098 0.525935 1.70483 33 35 30
0.250028 0.525935 1.70483 34 35 31
0.249776 0.507287 1.64438 33 35 31
0.267887 0.525935 1.70483 33 34 31
0.279277 0.530611 1.71999 33 34 31
0.283265 0.521369 1.69003 33 35 31
0.303824 0.542264 1.75776 34 35 32
0.306304 0.530611 1.71999 34 35 32
0.312535 0.525935 1.70483 34 35 33
0.330232 0.54028 1.75133 35 36 34
0.333728 0.531242 1.72203 34 35 33
0.33599 0.520768 1.68808 34 34 32
0.351349 0.530611 1.71999 35 35 34
0.371171 0.546533 1.7716 35 36 34
0.373117 0.535998 1.73745 36 37 34
0.378376 0.530611 1.71999 34 35 33
0.401802 0.550358 1.784 34 35 31
0.396865 0.531242 1.72203 33 35 32
0.40183 0.525935 1.70483 32 34 32
0.406724 0.520768 1.68808 31 34 32
0.42772 0.535998 1.73745 31 34 32
0.43682 0.535998 1.73745 30 33 31
0.429585 0.516363 1.6738 31 34 33
0.455021 0.535998 1.73745 33 36 35
0.464121 0.535998 1.73745 35 37 36
0.499544 0.565812 1.8341 35 38 37
0.477474 0.530611 1.71999 34 37 36
0.482197 0.525935 1.70483 33 36 35
0.51036 0.546533 1.7716 35 37 36
0.495143 0.520768 1.68808 36 38 37
0.498437 0.515036 1.6695 35 38 36
0.523141 0.531242 1.72203 34 37 35
0.526844 0.525935 1.70483 32 35 34
0.54118 0.531242 1.72203 32 35 34
0.566036 0.546533 1.7716 33 35 35
0.582969 0.553803 1.79517 33 35 35
0.584594 0.546533 1.7716 34 36 36
0.597234 0.549625 1.78162 34 36 36
0.593157 0.537475 1.74224 36 38 38
0.637475 0.568881 1.84404 37 39 39
0.619834 0.544882 1.76625 37 39 39
0.626062 0.542264 1.75776 36 39 39
0.629659 0.537475 1.74224 37 39 39
0.638784 0.537475 1.74224 37 38 39
0.653683 0.542264 1.75776 35 36 37
0.676996 0.553803 1.79517 34 35 36
0.705086 0.568881 1.84404 34 36 37
0.742486 0.590961 1.91561 35 36 37
0.699884 0.549625 1.78162 34 36 36
0.730103 0.565812 1.8341 33 35 36
0.718547 0.549625 1.78162 35 37 38
0.727879 0.549625 1.78162 36 38 39
0.754261 0.562337 1.82283 35 38 40
0.763808 0.562337 1.82283 35 38 39
0.731732 0.532071 1.72472 34 37 38
0.754957 0.542264 1.75776 34 37 38
0.7514 0.533206 1.7284 34 37 39
0.789828 0.553803 1.79517 34 37 38
0.778529 0.539458 1.74867 35 38 40
0.824549 0.564703 1.8305 37 40 42
0.818037 0.553803 1.79517 37 40 41
0.796665 0.533206 1.7284 36 38 40
0.878953 0.581671 1.8855 35 38 39
0.838136 0.548497 1.77797 35 38 39
0.878943 0.568881 1.84404 35 39 40
0.888602 0.568881 1.84404 35 39 40
0.943322 0.597419 1.93655 36 40 40
0.883856 0.553803 1.79517 35 39 40
0.925912 0.574048 1.86079 34 38 39
0.942468 0.578226 1.87433 33 37 38
0.952286 0.578226 1.87433 35 38 39
0.921467 0.553803 1.79517 36 40 40
0.971921 0.578226 1.87433 35 39 39
0.892957 0.525935 1.70483 34 38 38
1.02447 0.597419 1.93655 35 38 39
0.994137 0.574048 1.86079 35 38 39
1.00388 0.574048 1.86079 35 38 40
1.04025 0.589126 1.90967 35 38 39
0.974324 0.546533 1.7716 35 39 40
1.06026 0.589126 1.90967 36 39 40
1.07026 0.589126 1.90967 35 39 40
1.13136 0.616993 2 34 38 39
1.14184 0.616993 2 34 38 38
1.15232 0.616993 2 34 37 38
1.16279 0.616993 2 35 39 40
1.08178 0.568881 1.84404 37 40 41
1.12151 0.584559 1.89486 35 40 41
1.11918 0.578226 1.87433 35 39 40
1.05878 0.542264 1.75776 33 38 39
1.21517 0.616993 2 34 38 39
1.35117 0.680184 2.20483 34 38 38
1.13973 0.568881 1.84404 34 38 38
1.14939 0.568881 1.84404 34 38 38
-0.716033 0.357399 1.13921 33 34 29
-0.78396 0.394592 1.25776 33 34 30
-0.744659 0.377987 1.20483 34 34 30
-0.708397 0.362654 1.15596 34 35 31
-0.715231 0.369309 1.17717 34 35 32
-0.739923 0.385381 1.2284 35 35 32
-0.741751 0.389722 1.24224 35 36 32
-0.766572 0.406327 1.29517 36 37 33
-0.639626 0.342066 1.09033 36 36 33
-0.722231 0.389722 1.24224 35 36 32
-0.803661 0.437604 1.39486 35 35 32
-0.85638 0.470588 1.5 35 35 32
-0.732653 0.406327 1.29517 35 35 33
-0.675241 0.377987 1.20483 36 36 34
-0.800765 0.452481 1.44228 36 36 33
-0.824953 0.470588 1.5 36 36 33
-0.778722 0.448487 1.42955 36 36 34
-0.725101 0.42166 1.34404 36 36 33
-0.763746 0.448487 1.42955 35 35 32
-0.793526 0.470588 1.5 35 35 32
-0.755439 0.452481 1.44228 35 36 33
-0.777813 0.470588 1.5 36 37 34
-0.664814 0.406327 1.29517 37 38 35
-0.762099 0.470588 1.5 37 38 35
-0.807108 0.503572 1.60514 37 37 34
-0.781439 0.492689 1.57045 37 37 34
-0.815316 0.519516 1.65596 36 36 33
-0.730673 0.470588 1.5 36 36 32
-0.86505 0.56319 1.79517 36 36 33
-0.830419 0.546584 1.74224 37 37 34
-0.707102 0.470588 1.5 37 37 34
-0.778261 0.523765 1.6695 37 38 35
-0.749312 0.510013 1.62567 36 37 34
-0.776872 0.53485 1.70483 35 36 34
-0.838194 0.583778 1.86079 36 37 34
-0.799231 0.56319 1.79517 37 37 35
-0.779459 0.555796 1.7716 37 37 34
-0.77018 0.555796 1.7716 36 36 34
-0.698222 0.510013 1.62567 37 36 34
-0.723295 0.53485 1.70483 36 36 33
-0.726482 0.543922 1.73375 35 36 33
-0.733063 0.555796 1.7716 35 36 31
-0.733412 0.56319 1.79517 35 36 32
-0.735166 0.571868 1.82283 36 36 33
-0.705225 0.555796 1.7716 36 36 33
-0.700817 0.559686 1.784 36 37 34
-0.695801 0.56319 1.79517 37 37 34
-0.695088 0.57032 1.81789 37 37 35
-0.676996 0.56319 1.79517 36 36 33
-0.66344 0.559686 1.784 35 35 32
-0.637029 0.545083 1.73745 35 36 32
-0.632945 0.549437 1.75133 35 35 32
-0.623772 0.549437 1.75133 35 35 32
-0.637958 0.57032 1.81789 36 36 33
-0.600627 0.545083 1.73745 36 36 33
-0.596253 0.549437 1.75133 36 36 33
-0.601774 0.56319 1.79517 36 36 33
-0.588686 0.559686 1.784 36 36 33
-0.568733 0.549437 1.75133 36 36 33
-0.56357 0.553375 1.76388 36 36 33
-0.54118 0.540246 1.72203 35 36 33
-0.53216 0.540246 1.72203 35 35 33
-0.538198 0.555796 1.7716 35 36 34
-0.524787 0.551455 1.75776 35 36 33
-0.509623 0.545083 1.73745 35 35 33
-0.504522 0.549437 1.75133 34 35 32
-0.501081 0.555796 1.7716 35 35 33
-0.501678 0.566958 1.80718 36 36 34
-0.454714 0.523765 1.6695 36 36 34
-0.471182 0.553375 1.76388 36 36 34
-0.455021 0.545083 1.73745 36 36 34
-0.44497 0.543922 1.73375 36 37 35
-0.43682 0.545083 1.73745 36 37 35
-0.426808 0.543922 1.73375 36 37 34
-0.429834 0.559686 1.784 35 36 33
-0.398342 0.530206 1.69003 34 35 32
-0.396393 0.539604 1.71999 35 35 33
-0.401802 0.559686 1.784 36 36 34
-0.38973 0.555796 1.7716 36 36 34
-0.369367 0.539604 1.71999 36 36 34
-0.357183 0.53485 1.70483 37 37 34
-0.35416 0.543922 1.73375 37 36 34
-0.336377 0.530206 1.69003 36 36 33
-0.318679 0.515885 1.64438 35 35 31
-0.332599 0.553375 1.76388 35 35 31
-0.318515 0.545083 1.73745 36 36 33
-0.315495 0.555796 1.7716 36 36 33
-0.302713 0.549437 1.75133 36 36 33
-0.288286 0.539604 1.71999 36 36 33
-0.274097 0.529595 1.68808 35 36 33
-0.267887 0.53485 1.70483 35 36 32
-0.258957 0.53485 1.70483 35 36 32
-0.254812 0.545083 1.73745 35 36 32
-0.23873 0.529595 1.68808 35 36 32
-0.225513 0.519516 1.65596 36 36 33
-0.22751 0.545083 1.73745 36 36 33
-0.222703 0.555796 1.7716 36 36 33
-0.213423 0.555796 1.7716 36 37 33
-0.192875 0.525115 1.6738 36 36 32
-0.197457 0.56319 1.79517 36 36 32
-0.177041 0.530206 1.69003 35 35 32
-0.17254 0.543922 1.73375 34 35 31
-0.160732 0.53485 1.70483 35 35 32
-0.151803 0.53485 1.70483 35 36 33
-0.145607 0.545083 1.73745 34 36 33
-0.136506 0.545083 1.73745 34 36 33
-0.123786 0.529595 1.68808 34 36 33
-0.117256 0.540246 1.72203 35 36 33
-0.106224 0.530206 1.69003 35 36 33
-0.0990984 0.539604 1.71999 35 36 33
-0.0923886 0.553375 1.76388 36 36 34
-0.0810805 0.539604 1.71999 36 36 33
-0.0720715 0.539604 1.71999 35 36 33
-0.062507 0.53485 1.70483 35 35 31
-0.0540537 0.539604 1.71999 35 35 31
-0.0446478 0.53485 1.70483 35 35 32
-0.0348103 0.521253 1.66149 36 36 33
-0.0267887 0.53485 1.70483 36 36 33
-0.0173471 0.519516 1.65596 36 36 33
-0.00892957 0.53485 1.70483 36 37 34
0 0.539604 1.71999 36 37 34
0.00900894 0.539604 1.71999 36 36 33
0.0175341 0.525115 1.6738 35 36 33
0.0265255 0.529595 1.68808 35 36 33
0.0348103 0.521253 1.66149 35 36 33
0.0446478 0.53485 1.70483 35 36 32
0.0550387 0.549437 1.75133 35 36 33
0.064672 0.553375 1.76388 36 36 33
0.0743884 0.55695 1.77528 36 36 33
0.0796683 0.530206 1.69003 36 37 34
0.0900894 0.539604 1.71999 36 36 33
0.0998913 0.543922 1.73375 34 35 32
0.104083 0.519516 1.65596 35 35 32
0.113971 0.525115 1.6738 35 36 33
0.127406 0.545083 1.73745 34 37 34
0.135134 0.539604 1.71999 34 36 33
0.141633 0.530206 1.69003 34 36 33
0.155943 0.549437 1.75133 33 36 32
0.160732 0.53485 1.70483 34 36 32
0.174289 0.549437 1.75133 34 36 32
0.177041 0.530206 1.69003 34 36 32
0.192636 0.549437 1.75133 34 36 33
0.194745 0.530206 1.69003 34 36 32
0.210982 0.549437 1.75133 34 35 31
0.217945 0.543922 1.73375 34 35 31
0.225224 0.539604 1.71999 33 35 30
0.232169 0.53485 1.70483 33 35 30
0.241098 0.53485 1.70483 33 35 30
0.256847 0.549437 1.75133 33 35 30
0.254244 0.525115 1.6738 33 34 30
0.267887 0.53485 1.70483 33 34 31
0.284367 0.549437 1.75133 33 34 31
0.277554 0.519516 1.65596 34 35 32
0.306216 0.555796 1.7716 35 36 33
0.298079 0.525115 1.6738 34 35 33
0.312535 0.53485 1.70483 34 35 32
0.321464 0.53485 1.70483 35 35 33
0.345736 0.559686 1.784 34 35 32
0.352612 0.555796 1.7716 34 34 32
0.35416 0.543922 1.73375 35 36 34
0.353673 0.529595 1.68808 36 36 34
0.369806 0.540246 1.72203 36 37 35
0.386686 0.551455 1.75776 35 36 34
0.376014 0.523765 1.6695 34 35 32
0.372082 0.506509 1.6145 33 34 31
0.41279 0.549437 1.75133 32 34 32
0.440318 0.573336 1.82751 32 34 33
0.436126 0.555796 1.7716 31 34 33
0.448523 0.559686 1.784 30 34 32
0.44592 0.545083 1.73745 31 34 33
0.46034 0.551455 1.75776 33 36 35
0.473243 0.555796 1.7716 34 37 36
0.459085 0.528799 1.68555 34 37 36
0.491802 0.555796 1.7716 33 36 35
0.501081 0.555796 1.7716 33 35 34
0.496082 0.540246 1.72203 35 37 36
0.530075 0.566958 1.80718 35 37 36
0.524787 0.551455 1.75776 35 37 37
0.545358 0.56319 1.79517 34 36 35
0.536925 0.545083 1.73745 32 35 34
0.53051 0.529595 1.68808 33 35 35
0.573566 0.56319 1.79517 34 36 35
0.582969 0.56319 1.79517 34 35 35
0.580028 0.551455 1.75776 34 36 35
0.628312 0.588026 1.87433 34 36 36
0.611177 0.56319 1.79517 36 38 38
0.620579 0.56319 1.79517 36 39 39
0.637958 0.57032 1.81789 36 38 38
0.643663 0.566958 1.80718 36 38 38
0.662857 0.575402 1.8341 36 38 38
0.653225 0.558941 1.78162 36 38 39
0.650301 0.548602 1.74867 35 37 38
0.691676 0.575402 1.8341 34 36 37
0.658436 0.540246 1.72203 34 35 36
0.71089 0.575402 1.8341 35 36 37
0.669717 0.53485 1.70483 35 37 38
0.714607 0.56319 1.79517 35 36 37
0.735166 0.571868 1.82283 35 37 38
0.727879 0.558941 1.78162 36 38 39
0.742815 0.56319 1.79517 35 38 39
0.714365 0.53485 1.70483 34 37 39
0.782356 0.578523 1.84404 34 37 38
0.742347 0.542243 1.7284 35 38 39
0.78881 0.56924 1.81445 35 39 40
0.750084 0.53485 1.70483 35 38 39
0.799231 0.56319 1.79517 35 38 40
0.787688 0.548602 1.74867 36 40 41
0.840308 0.578523 1.84404 37 40 41
0.836329 0.56924 1.81445 36 39 40
0.883317 0.594467 1.89486 36 38 39
0.838136 0.557793 1.77797 36 38 39
0.872488 0.574274 1.8305 36 39 40
0.963754 0.627451 2 35 39 40
0.874453 0.56319 1.79517 35 38 39
0.916166 0.583778 1.86079 34 38 39
0.925912 0.583778 1.86079 35 38 39
0.927237 0.578523 1.84404 34 38 39
0.936895 0.578523 1.84404 35 38 40
0.994038 0.607545 1.93655 35 39 40
1.00055 0.60535 1.92955 35 39 39
0.92068 0.551455 1.75776 35 38 39
0.937207 0.555796 1.7716 35 38 39
0.994137 0.583778 1.86079 35 39 40
1.03628 0.602614 1.92083 35 39 40
0.949051 0.546584 1.74224 35 38 39
1.15776 0.660435 2.10514 35 38 40
1.11041 0.627451 2 35 39 40
1.06196 0.594467 1.89486 35 39 40
1.07189 0.594467 1.89486 34 38 39
0.973323 0.53485 1.70483 34 38 39
1.15232 0.627451 2 34 38 39
1.16279 0.627451 2 35 38 39
1.17327 0.627451 2 35 39 40
1.10936 0.588026 1.87433 34 39 39
1.01797 0.53485 1.70483 34 38 39
1.11075 0.578523 1.84404 33 38 38
1.13882 0.588026 1.87433 34 38 39
1.22564 0.627451 2 34 39 39
1.13973 0.578523 1.84404 34 38 38
1.37427 0.691712 2.20483 33 37 38
-0.685314 0.347767 1.09033 36 36 33
-0.807275 0.413099 1.29517 35 35 32
-0.822328 0.424368 1.3305 34 35 32
-0.668181 0.347767 1.09033 34 35 32
-0.732037 0.384287 1.20483 35 35 32
-0.696288 0.368698 1.15596 35 36 32
-0.719416 0.384287 1.20483 35 36 32
-0.766572 0.413099 1.29517 36 36 33
-0.737845 0.401169 1.25776 36 36 33
-0.799031 0.43835 1.37433 35 36 32
-0.694174 0.384287 1.20483 35 36 32
-0.76734 0.428688 1.34404 35 35 33
-0.7603 0.428688 1.34404 35 36 33
-0.770238 0.43835 1.37433 35 35 33
-0.719085 0.413099 1.29517 35 35 32
-0.647407 0.375464 1.17717 35 35 33
-0.732141 0.428688 1.34404 36 36 34
-0.80924 0.478431 1.5 36 35 33
-0.801383 0.478431 1.5 35 35 32
-0.745738 0.449619 1.40967 35 35 32
-0.785669 0.478431 1.5 35 36 34
-0.777813 0.478431 1.5 37 38 35
-0.816325 0.507244 1.59033 37 38 35
-0.762099 0.478431 1.5 36 37 34
-0.71882 0.455962 1.42955 36 36 32
-0.808916 0.518513 1.62567 35 36 31
-0.800401 0.518513 1.62567 35 35 31
-0.887927 0.581399 1.82283 36 36 33
-0.756762 0.500901 1.57045 37 37 34
-0.748537 0.500901 1.57045 36 37 34
-0.803661 0.543764 1.70483 35 36 33
-0.771948 0.528175 1.65596 35 36 33
-0.749312 0.518513 1.62567 35 36 33
-0.754601 0.528175 1.65596 36 36 34
-0.767943 0.543764 1.70483 36 36 34
-0.782578 0.560646 1.75776 37 37 34
-0.750084 0.543764 1.70483 37 37 34
-0.725794 0.532495 1.6695 36 37 34
-0.771023 0.572576 1.79517 37 36 34
-0.739164 0.555694 1.74224 36 36 34
-0.714365 0.543764 1.70483 36 36 33
-0.705436 0.543764 1.70483 35 36 32
-0.749316 0.584992 1.8341 35 36 32
-0.728853 0.576407 1.80718 35 36 32
-0.710161 0.569014 1.784 35 35 32
-0.714132 0.579825 1.81789 35 36 32
-0.695801 0.572576 1.79517 35 36 32
-0.686399 0.572576 1.79517 36 36 34
-0.672784 0.569014 1.784 36 36 34
-0.667593 0.572576 1.79517 36 36 33
-0.654096 0.569014 1.784 36 36 33
-0.644752 0.569014 1.784 35 36 32
-0.630991 0.565059 1.7716 35 35 32
-0.621711 0.565059 1.7716 35 36 33
-0.616719 0.569014 1.784 35 36 33
-0.596253 0.558595 1.75133 35 36 33
-0.601774 0.572576 1.79517 35 36 33
-0.584594 0.565059 1.7716 36 36 33
-0.579342 0.569014 1.784 36 37 34
-0.577403 0.576407 1.80718 36 36 33
-0.574327 0.582892 1.82751 36 36 34
-0.536925 0.554167 1.73745 36 36 34
-0.532041 0.558595 1.75133 36 36 34
-0.535955 0.572576 1.79517 36 36 33
-0.512217 0.556987 1.74629 36 36 33
-0.513932 0.569014 1.784 35 36 32
-0.521571 0.588165 1.84404 35 35 32
-0.491802 0.565059 1.7716 36 36 33
-0.468465 0.548597 1.71999 36 36 34
-0.476555 0.569014 1.784 36 36 34
-0.446478 0.543764 1.70483 35 35 34
-0.441438 0.548597 1.71999 36 36 34
-0.44633 0.566233 1.77528 35 36 34
-0.43272 0.560646 1.75776 36 36 34
-0.429834 0.569014 1.784 35 36 34
-0.40183 0.543764 1.70483 35 35 33
-0.396393 0.548597 1.71999 35 35 32
-0.376983 0.533866 1.6738 35 34 32
-0.386686 0.560646 1.75776 35 34 32
-0.35139 0.521897 1.63628 36 35 33
-0.353673 0.538421 1.68808 37 36 34
-0.345229 0.539042 1.69003 37 36 34
-0.33599 0.538421 1.68808 36 36 33
-0.333728 0.54925 1.72203 35 35 32
-0.327615 0.554167 1.73745 35 35 32
-0.315688 0.54925 1.72203 36 36 32
-0.311886 0.558595 1.75133 36 36 33
-0.306216 0.565059 1.7716 36 36 33
-0.3029 0.576407 1.80718 35 36 32
-0.284367 0.558595 1.75133 35 36 33
-0.267887 0.543764 1.70483 36 36 33
-0.246932 0.518513 1.62567 35 36 32
-0.25779 0.560646 1.75776 34 35 31
-0.248584 0.560646 1.75776 35 35 31
-0.234511 0.54925 1.72203 36 36 33
-0.216839 0.528175 1.65596 36 36 33
-0.21841 0.554167 1.73745 35 35 31
-0.224168 0.593507 1.86079 36 36 31
-0.192379 0.532495 1.6695 35 36 31
-0.189413 0.54925 1.72203 36 36 31
-0.180179 0.548597 1.71999 35 35 31
-0.166574 0.533866 1.6738 35 35 31
-0.159153 0.538421 1.68808 35 36 32
-0.147451 0.528175 1.65596 34 36 32
-0.140555 0.534941 1.67717 34 35 32
-0.126846 0.514951 1.6145 34 36 32
-0.123786 0.538421 1.68808 35 36 34
-0.112756 0.528175 1.65596 35 36 34
-0.110077 0.558595 1.75133 36 36 34
-0.0998913 0.552987 1.73375 36 36 34
-0.0900894 0.548597 1.71999 36 36 34
-0.0775166 0.524483 1.64438 36 36 33
-0.0733849 0.558595 1.75133 36 36 33
-0.0649549 0.565059 1.7716 36 36 33
-0.0535774 0.543764 1.70483 36 36 34
-0.0442092 0.538421 1.68808 36 36 34
-0.0342819 0.521897 1.63628 36 36 34
-0.0260207 0.528175 1.65596 35 36 32
-0.0184777 0.562598 1.76388 34 35 31
-0.00900894 0.548597 1.71999 35 36 32
0 0.524483 1.64438 36 37 34
0.00851491 0.518513 1.62567 36 37 34
0.0175694 0.534941 1.67717 36 36 33
0.0265561 0.539042 1.69003 36 36 33
0.0365869 0.556987 1.74629 36 37 34
0.0428524 0.521897 1.63628 35 36 33
0.053051 0.538421 1.68808 35 36 32
0.0630626 0.548597 1.71999 35 36 33
0.0701363 0.533866 1.6738 36 36 33
0.0796683 0.539042 1.69003 36 36 33
0.0914672 0.556987 1.74629 35 36 33
0.0957282 0.529941 1.66149 35 36 33
0.106102 0.538421 1.68808 35 35 32
0.112404 0.526524 1.65078 35 36 33
0.129344 0.562598 1.76388 34 36 33
0.131506 0.533866 1.6738 33 35 32
0.142873 0.543764 1.70483 33 35 32
0.155943 0.558595 1.75133 34 36 33
0.165116 0.558595 1.75133 35 37 33
0.168189 0.539042 1.69003 34 36 33
0.183462 0.558595 1.75133 35 37 33
0.189188 0.548597 1.71999 35 36 33
0.200209 0.554167 1.73745 34 36 33
0.207206 0.548597 1.71999 34 35 31
0.220155 0.558595 1.75133 34 36 31
0.223239 0.543764 1.70483 34 35 31
0.230153 0.539042 1.69003 34 36 31
0.23671 0.533866 1.6738 34 36 32
0.25779 0.560646 1.75776 35 36 32
0.254244 0.533866 1.6738 34 36 32
0.280327 0.569014 1.784 34 35 31
0.281512 0.552987 1.73375 33 34 31
0.285746 0.543764 1.70483 33 34 31
0.297649 0.54925 1.72203 34 35 32
0.303605 0.543764 1.70483 34 35 32
0.318515 0.554167 1.73745 35 36 33
0.331445 0.560646 1.75776 36 37 35
0.336715 0.554167 1.73745 35 36 34
0.352612 0.565059 1.7716 33 34 31
0.366706 0.572576 1.79517 33 34 31
0.360358 0.548597 1.71999 34 35 32
0.369367 0.548597 1.71999 34 35 31
0.378826 0.54925 1.72203 32 34 31
0.401802 0.569014 1.784 32 34 30
0.389041 0.538421 1.68808 31 34 30
0.40183 0.543764 1.70483 32 35 33
0.418619 0.554167 1.73745 33 36 35
0.402812 0.521897 1.63628 31 35 34
0.432944 0.54925 1.72203 30 34 33
0.419468 0.521294 1.63439 32 36 35
0.46034 0.560646 1.75776 34 37 36
0.442352 0.528175 1.65596 33 36 36
0.478754 0.560646 1.75776 32 35 34
0.504653 0.579825 1.81789 30 34 33
0.487062 0.54925 1.72203 30 34 33
0.496082 0.54925 1.72203 33 35 35
0.515581 0.560646 1.75776 34 36 35
0.524787 0.560646 1.75776 33 36 35
0.523141 0.54925 1.72203 33 36 35
0.55476 0.572576 1.79517 34 36 36
0.53051 0.538421 1.68808 34 37 36
0.561615 0.560646 1.75776 34 36 35
0.582969 0.572576 1.79517 33 35 35
0.574906 0.555694 1.74224 34 35 35
0.589235 0.560646 1.75776 34 36 36
0.615266 0.576407 1.80718 37 39 38
0.625697 0.577298 1.80997 37 39 39
0.604318 0.54925 1.72203 36 38 38
0.639385 0.572576 1.79517 35 37 37
0.643893 0.568257 1.78162 35 37 38
0.663618 0.577298 1.80997 36 38 39
0.68207 0.584992 1.8341 35 37 38
0.682578 0.577298 1.80997 35 37 37
0.675342 0.563353 1.76625 35 36 37
0.723106 0.595045 1.86561 35 36 37
0.720496 0.584992 1.8341 35 37 38
0.703095 0.563353 1.76625 35 37 37
0.724009 0.572576 1.79517 35 37 39
0.711788 0.555694 1.74224 36 38 40
0.715188 0.551281 1.7284 35 38 39
0.777547 0.591856 1.85562 34 37 38
0.755874 0.568257 1.78162 35 38 39
0.751052 0.557745 1.74867 36 39 40
0.780426 0.572576 1.79517 35 39 40
0.773371 0.560646 1.75776 35 38 39
0.814961 0.583845 1.8305 35 39 40
0.857126 0.606913 1.90282 36 39 41
0.796848 0.557745 1.74867 36 39 40
0.849967 0.588165 1.84404 36 38 40
0.853312 0.583845 1.8305 36 38 39
0.87718 0.593507 1.86079 36 38 39
0.855647 0.572576 1.79517 36 38 39
0.882076 0.583845 1.8305 35 38 39
0.891663 0.583845 1.8305 34 37 38
0.916166 0.593507 1.86079 33 36 38
0.902855 0.578727 1.81445 34 37 38
0.912358 0.578727 1.81445 34 38 39
0.945405 0.593507 1.86079 34 38 39
0.921467 0.572576 1.79517 34 38 39
0.990241 0.609096 1.90967 35 39 39
0.965871 0.588165 1.84404 36 39 40
0.97553 0.588165 1.84404 35 39 39
1.03461 0.61767 1.93655 35 38 39
1.04098 0.615439 1.92955 34 38 39
0.992951 0.581399 1.82283 34 37 38
1.01416 0.588165 1.84404 34 38 39
1.06026 0.609096 1.90967 35 38 39
1.12089 0.637909 2 34 38 39
1.08026 0.609096 1.90967 34 38 38
1.14184 0.637909 2 34 38 39
0.954093 0.528175 1.65596 34 38 39
1.16279 0.637909 2 35 39 40
1.0531 0.572576 1.79517 35 39 40
1.13028 0.609096 1.90967 33 38 39
1.11918 0.597827 1.87433 33 37 38
1.0269 0.543764 1.70483 33 38 39
1.21517 0.637909 2 35 39 39
1.14863 0.597827 1.87433 35 38 39
1.23612 0.637909 2 34 38 38
1.16827 0.597827 1.87433 35 39 40
-0.863818 0.445536 1.37433 35 36 33
-0.78396 0.407745 1.25776 35 36 32
-0.66699 0.349848 1.07917 34 35 32
-0.661337 0.349848 1.07917 34 35 32
-0.80839 0.431325 1.3305 35 36 33
-0.90352 0.486275 1.5 35 36 33
-0.841724 0.45699 1.40967 35 35 32
-0.787484 0.431325 1.3305 35 35 32
-0.690568 0.381619 1.17717 35 35 32
-0.831136 0.463437 1.42955 35 35 32
-0.715725 0.402712 1.24224 35 36 32
-0.739437 0.419871 1.29517 36 36 33
-0.711493 0.407745 1.25776 35 36 33
-0.75326 0.435715 1.34404 35 35 32
-0.793697 0.463437 1.42955 35 35 31
-0.793211 0.467564 1.44228 35 35 31
-0.785657 0.467564 1.44228 35 35 33
-0.847245 0.509112 1.57045 35 35 33
-0.734245 0.445536 1.37433 35 35 32
-0.793526 0.486275 1.5 35 36 33
-0.892957 0.552678 1.70483 36 37 34
-0.777813 0.486275 1.5 37 38 35
-0.733796 0.463437 1.42955 36 38 35
-0.841336 0.536833 1.65596 36 36 33
-0.71882 0.463437 1.42955 36 36 32
-0.830728 0.541224 1.6695 35 36 32
-0.839379 0.552678 1.70483 35 36 31
-0.806642 0.536833 1.65596 36 36 32
-0.797969 0.536833 1.65596 36 36 32
-0.714959 0.486275 1.5 35 36 32
-0.803661 0.552678 1.70483 35 35 31
-0.819405 0.569837 1.75776 34 34 30
-0.749312 0.527013 1.62567 35 35 32
-0.830642 0.59093 1.82283 36 36 34
-0.784792 0.564804 1.74224 36 36 34
-0.737253 0.536833 1.65596 37 37 34
-0.801999 0.59093 1.82283 37 37 34
-0.677197 0.504985 1.55772 36 36 34
-0.732224 0.552678 1.70483 36 36 34
-0.782356 0.597807 1.84404 35 36 33
-0.760299 0.588215 1.81445 35 36 33
-0.757434 0.593417 1.8305 35 36 32
-0.727879 0.577572 1.78162 35 36 33
-0.724009 0.581963 1.79517 35 35 32
-0.691632 0.563252 1.73745 35 35 32
-0.695946 0.574322 1.7716 35 36 32
-0.673431 0.563252 1.73745 35 35 32
-0.690991 0.585856 1.80718 36 36 33
-0.660465 0.567752 1.75133 36 36 33
-0.662557 0.577572 1.78162 36 36 33
-0.666523 0.58933 1.81789 36 36 33
-0.610087 0.547248 1.68808 35 36 32
-0.626062 0.569837 1.75776 35 36 32
-0.641332 0.592448 1.82751 35 36 33
-0.607649 0.569837 1.75776 36 36 34
-0.615266 0.585856 1.80718 35 36 33
-0.593874 0.574322 1.7716 35 36 33
-0.592371 0.581963 1.79517 35 36 32
-0.559219 0.558254 1.72203 35 36 33
-0.55956 0.567752 1.75133 35 36 32
-0.579523 0.597807 1.84404 35 36 33
-0.558472 0.585856 1.80718 35 35 33
-0.549006 0.585856 1.80718 36 36 33
-0.528919 0.574322 1.7716 35 35 32
-0.505101 0.558254 1.72203 36 36 33
-0.533776 0.600673 1.85288 36 36 34
-0.503916 0.577572 1.78162 35 36 33
-0.495244 0.578342 1.784 36 36 33
-0.473222 0.563252 1.73745 36 36 34
-0.479539 0.581963 1.79517 35 35 33
-0.450983 0.558254 1.72203 35 35 33
-0.44592 0.563252 1.73745 35 36 34
-0.432429 0.557591 1.71999 35 36 34
-0.43272 0.569837 1.75776 35 36 34
-0.421963 0.567752 1.75133 35 36 34
-0.415749 0.571821 1.76388 35 36 33
-0.396865 0.558254 1.72203 35 35 32
-0.387385 0.557591 1.71999 34 33 30
-0.375042 0.552678 1.70483 34 34 31
-0.356805 0.538628 1.66149 35 34 31
-0.357183 0.552678 1.70483 36 35 33
-0.354916 0.563252 1.73745 36 36 33
-0.345816 0.563252 1.73745 36 36 33
-0.340652 0.569837 1.75776 36 36 33
-0.347714 0.597807 1.84404 35 36 32
-0.312535 0.552678 1.70483 35 36 32
-0.321831 0.585856 1.80718 36 36 33
-0.303824 0.569837 1.75776 36 36 33
-0.282514 0.546426 1.68555 35 36 32
-0.27961 0.558254 1.72203 35 36 33
-0.265255 0.547248 1.68808 36 36 33
-0.270983 0.578342 1.784 36 36 33
-0.25779 0.569837 1.75776 34 35 31
-0.243531 0.558254 1.72203 34 35 31
-0.232169 0.552678 1.70483 36 36 33
-0.223239 0.552678 1.70483 36 36 33
-0.217945 0.562052 1.73375 35 35 31
-0.20538 0.552678 1.70483 35 36 31
-0.199783 0.562052 1.73375 35 36 32
-0.184108 0.542618 1.6738 36 36 31
-0.178591 0.552678 1.70483 35 35 31
-0.174289 0.567752 1.75133 34 35 31
-0.160732 0.552678 1.70483 34 35 32
-0.153334 0.558254 1.72203 34 36 32
-0.145607 0.563252 1.73745 34 36 32
-0.133943 0.552678 1.70483 34 36 32
-0.126125 0.557591 1.71999 34 36 33
-0.118305 0.563252 1.73745 35 36 33
-0.109506 0.564804 1.74224 35 36 34
-0.0954093 0.536833 1.65596 35 36 34
-0.0876704 0.542618 1.6738 36 36 33
-0.0803661 0.552678 1.70483 36 36 33
-0.0733849 0.567752 1.75133 36 36 33
-0.0637029 0.563252 1.73745 36 36 33
-0.0520414 0.536833 1.65596 37 37 33
-0.0446478 0.552678 1.70483 37 37 34
-0.0360358 0.557591 1.71999 36 36 33
-0.0263011 0.542618 1.6738 35 35 32
-0.0184136 0.569837 1.75776 34 35 30
-0.00861295 0.533081 1.64438 34 35 30
0 0.547879 1.69003 35 36 32
0.00934422 0.578342 1.784 36 37 33
0.0173471 0.536833 1.65596 35 36 33
0.0258389 0.533081 1.64438 36 36 33
0.0354081 0.547879 1.69003 35 36 32
0.0446478 0.552678 1.70483 35 35 32
0.0550387 0.567752 1.75133 35 36 32
0.060918 0.538628 1.66149 35 36 32
0.0689036 0.533081 1.64438 35 36 33
0.0790621 0.54371 1.67717 35 35 32
0.0892957 0.552678 1.70483 35 36 32
0.0954093 0.536833 1.65596 36 36 33
0.104083 0.536833 1.65596 35 36 33
0.111968 0.533081 1.64438 35 36 33
0.123786 0.547248 1.68808 33 36 32
0.129194 0.533081 1.64438 32 35 31
0.140273 0.542618 1.6738 33 36 32
0.153334 0.558254 1.72203 34 37 33
0.159337 0.547879 1.69003 34 36 33
0.17117 0.557591 1.71999 34 36 32
0.178591 0.552678 1.70483 34 36 32
0.191109 0.563252 1.73745 34 36 33
0.204144 0.574322 1.7716 34 36 32
0.207452 0.558254 1.72203 33 35 31
0.216215 0.557591 1.71999 34 35 31
0.221301 0.547879 1.69003 34 35 31
0.234511 0.558254 1.72203 34 36 32
0.245711 0.563252 1.73745 35 36 33
0.247857 0.547879 1.69003 35 36 32
0.254244 0.542618 1.6738 35 36 32
0.270268 0.557591 1.71999 34 35 32
0.27961 0.558254 1.72203 34 34 31
0.277554 0.536833 1.65596 33 34 31
0.286228 0.536833 1.65596 32 33 30
0.303605 0.552678 1.70483 33 34 31
0.318515 0.563252 1.73745 34 35 33
0.321464 0.552678 1.70483 36 37 35
0.347901 0.581963 1.79517 36 37 35
0.345816 0.563252 1.73745 34 35 33
0.354916 0.563252 1.73745 32 33 30
0.360787 0.558254 1.72203 32 33 31
0.366112 0.552678 1.70483 32 34 30
0.371357 0.547248 1.68808 32 34 31
0.394444 0.567752 1.75133 33 35 32
0.416488 0.585856 1.80718 32 34 32
0.414306 0.569837 1.75776 32 35 34
0.421963 0.567752 1.75133 32 35 34
0.43272 0.569837 1.75776 32 36 35
0.428619 0.552678 1.70483 34 36 36
0.441438 0.557591 1.71999 34 37 37
0.476088 0.58933 1.81789 34 37 36
0.467829 0.567752 1.75133 33 36 35
0.4859 0.578342 1.784 32 35 34
0.48796 0.569837 1.75776 31 35 34
0.472203 0.541224 1.6695 32 35 35
0.501902 0.564804 1.74224 34 36 36
0.526552 0.581963 1.79517 32 35 34
0.524787 0.569837 1.75776 31 34 33
0.536573 0.572588 1.76625 33 36 35
0.545824 0.572588 1.76625 35 37 36
0.54118 0.558254 1.72203 34 37 36
0.556655 0.564804 1.74224 34 36 36
0.570822 0.569837 1.75776 34 35 35
0.569125 0.559125 1.72472 34 36 36
0.6058 0.585856 1.80718 34 36 36
0.598442 0.569837 1.75776 37 39 39
0.607649 0.569837 1.75776 37 39 40
0.616856 0.569837 1.75776 36 38 39
0.607211 0.552678 1.70483 35 37 38
0.635269 0.569837 1.75776 34 36 37
0.668332 0.59093 1.82283 35 36 37
0.667593 0.581963 1.79517 35 37 38
0.66609 0.572588 1.76625 35 37 38
0.692058 0.586761 1.80997 35 37 38
0.690552 0.577572 1.78162 35 37 38
0.711019 0.586761 1.80997 35 37 38
0.714607 0.581963 1.79517 35 37 38
0.717072 0.576386 1.77797 34 37 38
0.75338 0.597807 1.84404 35 37 38
0.757434 0.593417 1.8305 34 37 39
0.714365 0.552678 1.70483 35 38 39
0.782356 0.597807 1.84404 35 38 40
0.763635 0.576386 1.77797 35 38 40
0.823767 0.614282 1.89486 35 38 40
0.818701 0.603237 1.86079 35 38 39
0.843617 0.614282 1.89486 35 38 39
0.808634 0.581963 1.79517 35 38 39
0.826825 0.588215 1.81445 35 37 39
0.843725 0.593417 1.8305 35 37 39
0.845832 0.588215 1.81445 35 38 39
0.8629 0.593417 1.8305 36 38 39
0.855647 0.581963 1.79517 36 39 40
0.903199 0.607627 1.87433 35 39 39
0.856232 0.569837 1.75776 34 38 39
0.922834 0.607627 1.87433 33 37 38
0.917578 0.597807 1.84404 33 37 38
0.935659 0.603237 1.86079 34 37 38
0.885172 0.564804 1.74224 34 38 39
0.996982 0.629655 1.94228 35 38 39
0.996032 0.622701 1.92083 36 39 40
0.954761 0.59093 1.82283 36 39 40
0.97553 0.597807 1.84404 35 39 39
1.02622 0.622701 1.92083 35 38 39
0.96848 0.581963 1.79517 34 37 38
1.04025 0.619081 1.90967 34 37 38
1.04212 0.614282 1.89486 34 37 39
1.11041 0.648366 2 34 38 39
1.17981 0.68245 2.10514 34 37 38
1.07189 0.614282 1.89486 34 38 38
1.08181 0.614282 1.89486 34 38 39
1.09174 0.614282 1.89486 34 39 39
1.16279 0.648366 2 35 39 40
1.11159 0.614282 1.89486 34 39 39
1.10936 0.607627 1.87433 33 37 38
0.949603 0.515559 1.59033 33 37 38
1.20469 0.648366 2 33 38 38
1.30993 0.698925 2.15596 34 38 39
1.29007 0.68245 2.10514 35 39 40
1.23612 0.648366 2 36 40 40
1.2466 0.648366 2 37 40 41
-0.780791 0.409208 1.24224 34 35 31
-0.672642 0.35549 1.07917 34 35 31
-0.66699 0.35549 1.07917 34 35 32
-0.738348 0.396886 1.20483 35 36 33
-0.715231 0.387774 1.17717 36 36 34
-0.678041 0.370808 1.12567 35 36 33
-0.702899 0.387774 1.17717 35 35 32
-0.787484 0.438282 1.3305 35 35 32
-0.706795 0.396886 1.20483 35 35 32
-0.684402 0.387774 1.17717 35 36 33
-0.830983 0.475105 1.44228 36 36 33
-0.687863 0.396886 1.20483 35 36 32
-0.732653 0.426643 1.29517 35 35 32
-0.75326 0.442743 1.34404 35 35 32
-0.871922 0.517324 1.57045 35 35 31
-0.786209 0.470912 1.42955 35 35 32
-0.705517 0.426643 1.29517 35 35 32
-0.840377 0.51313 1.55772 34 34 31
-0.763746 0.470912 1.42955 34 35 31
-0.860006 0.535513 1.62567 35 36 33
-0.785669 0.494118 1.5 36 37 35
-0.814342 0.517324 1.57045 37 37 35
-0.769956 0.494118 1.5 37 37 34
-0.762099 0.494118 1.5 36 36 33
-0.675822 0.442743 1.34404 35 35 32
-0.874646 0.579027 1.75776 35 36 32
-0.815316 0.545492 1.65596 36 36 33
-0.758787 0.51313 1.55772 36 36 33
-0.847025 0.579027 1.75776 36 36 33
-0.812591 0.561592 1.70483 35 36 32
-0.780621 0.545492 1.65596 35 35 32
-0.794731 0.561592 1.70483 35 35 31
-0.873392 0.62419 1.89486 35 35 32
-0.754601 0.545492 1.65596 36 36 33
-0.707408 0.517324 1.57045 36 36 33
-0.799231 0.591349 1.79517 36 36 34
-0.801999 0.600461 1.82283 36 37 34
-0.757415 0.573914 1.74224 36 36 34
-0.782904 0.600461 1.82283 36 36 34
-0.751621 0.583586 1.7716 36 36 33
-0.813863 0.639811 1.94228 36 36 34
-0.757434 0.602988 1.8305 37 37 34
-0.723784 0.583586 1.7716 37 37 34
-0.687577 0.561592 1.70483 36 36 33
-0.723654 0.598836 1.81789 36 36 33
-0.709922 0.595306 1.80718 35 35 32
-0.691473 0.58767 1.784 35 35 31
-0.719601 0.619954 1.882 35 35 32
-0.642929 0.561592 1.70483 35 35 32
-0.66344 0.58767 1.784 36 36 33
-0.644476 0.579027 1.75776 36 36 34
-0.653128 0.595306 1.80718 35 36 32
-0.626062 0.579027 1.75776 34 35 32
-0.614599 0.576909 1.75133 36 36 34
-0.624731 0.595306 1.80718 37 38 35
-0.585581 0.566584 1.71999 36 36 34
-0.59803 0.58767 1.784 35 36 32
-0.608499 0.607449 1.84404 35 36 32
-0.578571 0.586888 1.78162 35 36 33
-0.580827 0.598836 1.81789 35 36 32
-0.564163 0.591349 1.79517 35 35 32
-0.558472 0.595306 1.80718 36 36 34
-0.527824 0.572337 1.73745 36 36 34
-0.522868 0.576909 1.75133 36 36 34
-0.523277 0.58767 1.784 36 37 34
-0.491126 0.561592 1.70483 36 36 33
-0.504588 0.58767 1.784 35 35 32
-0.482322 0.572337 1.73745 36 36 33
-0.469023 0.567258 1.72203 37 37 34
-0.469547 0.579027 1.75776 35 35 33
-0.455021 0.572337 1.73745 34 34 32
-0.469034 0.602003 1.82751 34 35 32
-0.443465 0.581044 1.76388 35 35 33
-0.444884 0.595306 1.80718 35 36 33
-0.421963 0.576909 1.75133 35 36 34
-0.42049 0.58767 1.784 35 36 34
-0.408288 0.583586 1.7716 36 36 34
-0.401267 0.586888 1.78162 35 35 33
-0.371785 0.556716 1.69003 36 35 33
-0.38045 0.583586 1.7716 35 35 32
-0.378625 0.595306 1.80718 35 35 32
-0.332081 0.535513 1.62567 36 36 33
-0.348578 0.576909 1.75133 36 36 34
-0.327148 0.556075 1.68808 36 36 33
-0.334054 0.583586 1.7716 36 36 33
-0.327048 0.58767 1.784 36 36 33
-0.309414 0.572337 1.73745 36 36 33
-0.315071 0.600461 1.82283 35 36 32
-0.278872 0.548081 1.66382 34 35 31
-0.27961 0.567258 1.72203 35 35 32
-0.27059 0.567258 1.72203 36 37 33
-0.272679 0.591349 1.79517 36 36 33
-0.258688 0.581044 1.76388 35 36 32
-0.23671 0.55137 1.6738 36 36 33
-0.234233 0.566584 1.71999 37 37 34
