ply
format ascii 1.0
element vertex 1497
property float x
property float y
property float z
property uchar red
property uchar green
property uchar blue
end_header
0.676996 0.37546 1.79517 0 0 0
0.678794 0.3713 1.77528 0 0 0
0.683676 0.368917 1.76388 0 0 0
0.687984 0.366292 1.75133 0 0 0
0.727481 0.382224 1.82751 0 0 0
0.733175 0.380213 1.81789 0 0 0
0.70832 0.362614 1.73375 0 0 0
0.738194 0.373124 1.784 0 0 0
0.733849 0.366292 1.75133 0 0 0
0.730593 0.360164 1.72203 0 0 0
0.760901 0.370531 1.7716 0 0 0
0.790306 0.380213 1.81789 0 0 0
0.779459 0.370531 1.7716 0 0 0
0.782578 0.367637 1.75776 0 0 0
0.802533 0.372627 1.78162 0 0 0
0.835776 0.383602 1.8341 0 0 0
0.845382 0.383602 1.8341 0 0 0
0.830529 0.372627 1.78162 0 0 0
0.846245 0.37546 1.79517 0 0 0
0.868832 0.381245 1.82283 0 0 0
0.842643 0.365735 1.74867 0 0 0
0.918456 0.394353 1.8855 0 0 0
0.913617 0.388103 1.85562 0 0 0
0.917578 0.385682 1.84404 0 0 0
0.981081 0.408078 1.95113 0 0 0
0.936895 0.385682 1.84404 0 0 0
1.02661 0.418301 2 0 0 0
0.930869 0.37546 1.79517 0 0 0
0.958778 0.382849 1.8305 0 0 0
0.97553 0.385682 1.84404 0 0 0
0.959077 0.37546 1.79517 0 0 0
0.96848 0.37546 1.79517 0 0 0
0.977883 0.37546 1.79517 0 0 0
0.966714 0.367637 1.75776 0 0 0
1.0713 0.403567 1.92955 0 0 0
1.08533 0.40503 1.93655 0 0 0
1.06028 0.392018 1.87433 0 0 0
1.04069 0.381245 1.82283 0 0 0
1.05024 0.381245 1.82283 0 0 0
1.0437 0.37546 1.79517 0 0 0
1.12027 0.399407 1.90967 0 0 0
1.13689 0.401743 1.92083 0 0 0
1.10109 0.385682 1.84404 0 0 0
1.15701 0.401743 1.92083 0 0 0
1.16028 0.399407 1.90967 0 0 0
1.06768 0.36439 1.74224 0 0 0
1.15845 0.392018 1.87433 0 0 0
1.18106 0.396311 1.89486 0 0 0
-0.628536 0.214379 1 0 0 0
-0.656288 0.225726 1.05293 0 0 0
-0.653732 0.226752 1.05772 0 0 0
-0.677252 0.236918 1.10514 0 0 0
-0.69531 0.245332 1.14438 0 0 0
-0.689316 0.245332 1.14438 0 0 0
-0.628713 0.225726 1.05293 0 0 0
-0.684178 0.247813 1.15596 0 0 0
-0.759788 0.277657 1.29517 0 0 0
-0.647964 0.238925 1.1145 0 0 0
-0.666014 0.247813 1.15596 0 0 0
-0.636289 0.238925 1.1145 0 0 0
-0.661566 0.250717 1.1695 0 0 0
-0.71266 0.272604 1.2716 0 0 0
-0.684986 0.26449 1.23375 0 0 0
-0.66262 0.258291 1.20483 0 0 0
-0.66568 0.261979 1.22203 0 0 0
-0.659279 0.261979 1.22203 0 0 0
-0.652878 0.261979 1.22203 0 0 0
-0.672698 0.272604 1.2716 0 0 0
-0.692871 0.283587 1.32283 0 0 0
-0.696942 0.288134 1.34404 0 0 0
-0.695843 0.290616 1.35562 0 0 0
-0.631139 0.26631 1.24224 0 0 0
-0.754243 0.321569 1.5 0 0 0
-0.717667 0.309196 1.44228 0 0 0
-0.699551 0.304597 1.42083 0 0 0
-0.730673 0.321569 1.5 0 0 0
-0.672153 0.299029 1.39486 0 0 0
-0.671902 0.302203 1.40967 0 0 0
-0.707102 0.321569 1.5 0 0 0
-0.672341 0.309196 1.44228 0 0 0
-0.649752 0.302203 1.40967 0 0 0
-0.702844 0.330654 1.54238 0 0 0
-0.675676 0.321569 1.5 0 0 0
-0.667819 0.321569 1.5 0 0 0
-0.734539 0.357906 1.6695 0 0 0
-0.652106 0.321569 1.5 0 0 0
-0.71705 0.357906 1.6695 0 0 0
-0.723295 0.365481 1.70483 0 0 0
-0.793992 0.406219 1.89486 0 0 0
-0.720913 0.373499 1.74224 0 0 0
-0.696506 0.365481 1.70483 0 0 0
-0.687577 0.365481 1.70483 0 0 0
-0.664583 0.357906 1.6695 0 0 0
-0.681077 0.37168 1.73375 0 0 0
-0.695801 0.384846 1.79517 0 0 0
-0.672096 0.376827 1.75776 0 0 0
-0.684269 0.388981 1.81445 0 0 0
-0.653683 0.376827 1.75776 0 0 0
-0.654096 0.382452 1.784 0 0 0
-0.626591 0.37168 1.73375 0 0 0
-0.61646 0.371048 1.7308 0 0 0
-0.603034 0.368384 1.71838 0 0 0
-0.593583 0.368105 1.71707 0 0 0
-0.589263 0.371048 1.7308 0 0 0
-0.576032 0.368384 1.71838 0 0 0
-0.580028 0.376827 1.75776 0 0 0
-0.563024 0.37168 1.73375 0 0 0
-0.561615 0.376827 1.75776 0 0 0
-0.557913 0.380583 1.77528 0 0 0
-0.543201 0.376827 1.75776 0 0 0
-0.522029 0.368384 1.71838 0 0 0
-0.508985 0.365481 1.70483 0 0 0
-0.504028 0.368384 1.71838 0 0 0
-0.508137 0.37814 1.76388 0 0 0
-0.489542 0.371048 1.7308 0 0 0
-0.48966 0.37814 1.76388 0 0 0
-0.460306 0.362307 1.69003 0 0 0
-0.455408 0.365481 1.70483 0 0 0
-0.457336 0.374369 1.74629 0 0 0
-0.455629 0.380583 1.77528 0 0 0
-0.435148 0.371048 1.7308 0 0 0
-0.41288 0.35955 1.67717 0 0 0
-0.417727 0.37168 1.73375 0 0 0
-0.407952 0.371048 1.7308 0 0 0
-0.41153 0.382809 1.78567 0 0 0
-0.387022 0.368384 1.71838 0 0 0
-0.375042 0.365481 1.70483 0 0 0
-0.362515 0.36189 1.68808 0 0 0
-0.364017 0.372473 1.73745 0 0 0
-0.356722 0.374369 1.74629 0 0 0
-0.347576 0.374369 1.74629 0 0 0
-0.325033 0.35955 1.67717 0 0 0
-0.318964 0.362638 1.69157 0 0 0
-0.312535 0.365481 1.70483 0 0 0
-0.314121 0.37814 1.76388 0 0 0
-0.292117 0.362307 1.69003 0 0 0
-0.279221 0.357135 1.6659 0 0 0
-0.274413 0.362307 1.69003 0 0 0
-0.267887 0.365481 1.70483 0 0 0
-0.254756 0.35955 1.67717 0 0 0
-0.250028 0.365481 1.70483 0 0 0
-0.237186 0.35955 1.67717 0 0 0
-0.228771 0.360131 1.67988 0 0 0
-0.228668 0.374369 1.74629 0 0 0
-0.212449 0.362307 1.69003 0 0 0
-0.196893 0.350378 1.63439 0 0 0
-0.194745 0.362307 1.69003 0 0 0
-0.184776 0.360131 1.67988 0 0 0
-0.178591 0.365481 1.70483 0 0 0
-0.163347 0.351878 1.64138 0 0 0
-0.158124 0.35955 1.67717 0 0 0
-0.151803 0.365481 1.70483 0 0 0
-0.139611 0.357135 1.6659 0 0 0
-0.130538 0.35619 1.66149 0 0 0
-0.122986 0.35955 1.67717 0 0 0
-0.116084 0.365481 1.70483 0 0 0
-0.108006 0.368384 1.71838 0 0 0
-0.0982252 0.365481 1.70483 0 0 0
-0.0867357 0.355003 1.65596 0 0 0
-0.0791898 0.360131 1.67988 0 0 0
-0.0698053 0.357135 1.6659 0 0 0
-0.0629558 0.368105 1.71707 0 0 0
-0.0518788 0.353893 1.65078 0 0 0
-0.0435128 0.35619 1.66149 0 0 0
-0.0346943 0.355003 1.65596 0 0 0
-0.0265561 0.362307 1.69003 0 0 0
-0.0173471 0.355003 1.65596 0 0 0
-0.00872567 0.357135 1.6659 0 0 0
0 0.371048 1.7308 0 0 0
0.00914672 0.374369 1.74629 0 0 0
0.0172259 0.352522 1.64438 0 0 0
0.026177 0.357135 1.6659 0 0 0
0.0357183 0.365481 1.70483 0 0 0
0.0439234 0.35955 1.67717 0 0 0
0.0540537 0.368729 1.71999 0 0 0
0.0619642 0.362307 1.69003 0 0 0
0.0696205 0.35619 1.66149 0 0 0
0.079741 0.362638 1.69157 0 0 0
0.0872567 0.357135 1.6659 0 0 0
0.0982252 0.365481 1.70483 0 0 0
0.106321 0.362638 1.69157 0 0 0
0.113434 0.357135 1.6659 0 0 0
0.125014 0.365481 1.70483 0 0 0
0.130885 0.357135 1.6659 0 0 0
0.139611 0.357135 1.6659 0 0 0
0.151803 0.365481 1.70483 0 0 0
0.159482 0.362638 1.69157 0 0 0
0.164283 0.353893 1.65078 0 0 0
0.174513 0.357135 1.6659 0 0 0
0.189011 0.368384 1.71838 0 0 0
0.191965 0.357135 1.6659 0 0 0
0.202048 0.35955 1.67717 0 0 0
0.216215 0.368729 1.71999 0 0 0
0.221503 0.362638 1.69157 0 0 0
0.228771 0.360131 1.67988 0 0 0
0.248584 0.376827 1.75776 0 0 0
0.253837 0.371048 1.7308 0 0 0
0.256943 0.362638 1.69157 0 0 0
0.270015 0.368384 1.71838 0 0 0
0.281512 0.37168 1.73375 0 0 0
0.276687 0.353893 1.65078 0 0 0
0.294676 0.365481 1.70483 0 0 0
0.310989 0.374369 1.74629 0 0 0
0.307464 0.35955 1.67717 0 0 0
0.318673 0.362307 1.69003 0 0 0
0.332766 0.368105 1.71707 0 0 0
0.333818 0.35955 1.67717 0 0 0
0.345544 0.362638 1.69157 0 0 0
0.36002 0.368384 1.71838 0 0 0
0.357752 0.357135 1.6659 0 0 0
0.375042 0.365481 1.70483 0 0 0
0.377741 0.35955 1.67717 0 0 0
0.402456 0.374369 1.74629 0 0 0
0.407952 0.371048 1.7308 0 0 0
0.41076 0.365481 1.70483 0 0 0
0.437032 0.380583 1.77528 0 0 0
0.435889 0.37168 1.73375 0 0 0
0.44497 0.37168 1.73375 0 0 0
0.450447 0.368729 1.71999 0 0 0
0.463133 0.37168 1.73375 0 0 0
0.47563 0.374369 1.74629 0 0 0
0.501149 0.387012 1.80527 0 0 0
0.490376 0.37168 1.73375 0 0 0
0.486862 0.362307 1.69003 0 0 0
0.504028 0.368384 1.71838 0 0 0
0.500727 0.35955 1.67717 0 0 0
0.522519 0.368729 1.71999 0 0 0
0.535781 0.37168 1.73375 0 0 0
0.567339 0.387012 1.80527 0 0 0
0.56357 0.37814 1.76388 0 0 0
0.553633 0.365481 1.70483 0 0 0
0.567563 0.368729 1.71999 0 0 0
0.601774 0.384846 1.79517 0 0 0
0.594537 0.374369 1.74629 0 0 0
0.599348 0.37168 1.73375 0 0 0
0.608429 0.37168 1.73375 0 0 0
0.639385 0.384846 1.79517 0 0 0
0.632945 0.375449 1.75133 0 0 0
0.642118 0.375449 1.75133 0 0 0
0.633999 0.365481 1.70483 0 0 0
0.658564 0.374369 1.74629 0 0 0
0.674437 0.37814 1.76388 0 0 0
0.678811 0.375449 1.75133 0 0 0
0.675671 0.368729 1.71999 0 0 0
0.702153 0.37814 1.76388 0 0 0
0.719505 0.382452 1.784 0 0 0
0.733412 0.384846 1.79517 0 0 0
0.769969 0.398915 1.86079 0 0 0
0.733849 0.375449 1.75133 0 0 0
0.743023 0.375449 1.75133 0 0 0
0.732224 0.365481 1.70483 0 0 0
0.77018 0.379794 1.7716 0 0 0
0.779459 0.379794 1.7716 0 0 0
0.793202 0.381943 1.78162 0 0 0
0.802533 0.381943 1.78162 0 0 0
0.811865 0.381943 1.78162 0 0 0
0.85991 0.399949 1.86561 0 0 0
0.843742 0.38802 1.80997 0 0 0
0.87474 0.397805 1.85562 0 0 0
0.878943 0.395324 1.84404 0 0 0
0.894179 0.397805 1.85562 0 0 0
0.867856 0.381943 1.78162 0 0 0
0.891144 0.38802 1.80997 0 0 0
0.874646 0.376827 1.75776 0 0 0
0.927237 0.395324 1.84404 0 0 0
0.942775 0.397805 1.85562 0 0 0
0.902266 0.376827 1.75776 0 0 0
0.982566 0.406219 1.89486 0 0 0
0.958778 0.392421 1.8305 0 0 0
0.929887 0.376827 1.75776 0 0 0
1.00137 0.401818 1.87433 0 0 0
1.01721 0.404212 1.8855 0 0 0
0.977883 0.384846 1.79517 0 0 0
1.03082 0.401818 1.87433 0 0 0
1.11041 0.428758 2 0 0 0
1.08141 0.413656 1.92955 0 0 0
1.09547 0.415156 1.93655 0 0 0
1.09664 0.411786 1.92083 0 0 0
1.11173 0.413656 1.92955 0 0 0
1.0437 0.384846 1.79517 0 0 0
1.03116 0.376827 1.75776 0 0 0
1.18374 0.428758 2 0 0 0
1.14028 0.409392 1.90967 0 0 0
1.14136 0.406219 1.89486 0 0 0
1.15129 0.406219 1.89486 0 0 0
1.14863 0.401818 1.87433 0 0 0
1.31379 0.455698 2.12567 0 0 0
1.09561 0.376827 1.75776 0 0 0
-0.628536 0.219608 1 0 0 0
-0.694664 0.244753 1.1145 0 0 0
-0.707298 0.251316 1.14438 0 0 0
-0.648192 0.232283 1.05772 0 0 0
-0.677152 0.244753 1.1145 0 0 0
-0.660882 0.240949 1.09718 0 0 0
-0.698319 0.256832 1.1695 0 0 0
-0.659639 0.244753 1.1145 0 0 0
-0.678123 0.253857 1.15596 0 0 0
-0.672069 0.253857 1.15596 0 0 0
-0.666014 0.253857 1.15596 0 0 0
-0.659959 0.253857 1.15596 0 0 0
-0.661566 0.256832 1.1695 0 0 0
-0.71266 0.279253 1.2716 0 0 0
-0.658223 0.260355 1.18555 0 0 0
-0.683192 0.272805 1.24224 0 0 0
-0.66568 0.268368 1.22203 0 0 0
-0.659279 0.268368 1.22203 0 0 0
-0.69195 0.284429 1.29517 0 0 0
-0.685166 0.284429 1.29517 0 0 0
-0.650659 0.272805 1.24224 0 0 0
-0.671598 0.284429 1.29517 0 0 0
-0.649971 0.278078 1.26625 0 0 0
-0.658031 0.284429 1.29517 0 0 0
-0.729667 0.318678 1.45113 0 0 0
-0.746386 0.329412 1.5 0 0 0
-0.667441 0.297704 1.35562 0 0 0
-0.730673 0.329412 1.5 0 0 0
-0.746367 0.340145 1.54887 0 0 0
-0.664847 0.306323 1.39486 0 0 0
-0.707102 0.329412 1.5 0 0 0
-0.748257 0.352501 1.60514 0 0 0
-0.739849 0.352501 1.60514 0 0 0
-0.683532 0.329412 1.5 0 0 0
-0.701674 0.342087 1.55772 0 0 0
-0.689579 0.340145 1.54887 0 0 0
-0.750084 0.374395 1.70483 0 0 0
-0.714875 0.36112 1.64438 0 0 0
-0.706262 0.36112 1.64438 0 0 0
-0.751621 0.389057 1.7716 0 0 0
-0.714365 0.374395 1.70483 0 0 0
-0.644561 0.342087 1.55772 0 0 0
-0.67181 0.36112 1.64438 0 0 0
-0.702662 0.382609 1.74224 0 0 0
-0.664583 0.366636 1.6695 0 0 0
-0.695946 0.389057 1.7716 0 0 0
-0.681303 0.386018 1.75776 0 0 0
-0.693772 0.398468 1.81445 0 0 0
-0.670509 0.390455 1.77797 0 0 0
-0.64613 0.381558 1.73745 0 0 0
-0.642118 0.384606 1.75133 0 0 0
-0.631124 0.3835 1.74629 0 0 0
-0.621977 0.3835 1.74629 0 0 0
-0.608429 0.380745 1.73375 0 0 0
-0.611286 0.388329 1.76828 0 0 0
-0.598442 0.386018 1.75776 0 0 0
-0.58539 0.3835 1.74629 0 0 0
-0.562563 0.374395 1.70483 0 0 0
-0.553633 0.374395 1.70483 0 0 0
-0.553001 0.380098 1.7308 0 0 0
-0.552408 0.386018 1.75776 0 0 0
-0.526844 0.374395 1.70483 0 0 0
-0.535854 0.387363 1.76388 0 0 0
-0.516739 0.380098 1.7308 0 0 0
-0.508538 0.380745 1.73375 0 0 0
-0.491126 0.374395 1.70483 0 0 0
-0.519348 0.40324 1.83618 0 0 0
-0.48796 0.386018 1.75776 0 0 0
-0.471411 0.380098 1.7308 0 0 0
-0.462345 0.380098 1.7308 0 0 0
-0.467648 0.392146 1.78567 0 0 0
-0.448189 0.3835 1.74629 0 0 0
-0.432024 0.377369 1.71838 0 0 0
-0.43272 0.386018 1.75776 0 0 0
-0.424988 0.387363 1.76388 0 0 0
-0.405023 0.377369 1.71838 0 0 0
-0.389845 0.371482 1.69157 0 0 0
-0.375204 0.365846 1.6659 0 0 0
-0.371785 0.371144 1.69003 0 0 0
-0.363264 0.371482 1.69157 0 0 0
-0.357183 0.374395 1.70483 0 0 0
-0.35102 0.377369 1.71838 0 0 0
-0.344492 0.380098 1.7308 0 0 0
-0.330394 0.374395 1.70483 0 0 0
-0.326361 0.380098 1.7308 0 0 0
-0.325449 0.389865 1.77528 0 0 0
-0.301244 0.371482 1.69157 0 0 0
-0.292384 0.371482 1.69157 0 0 0
-0.283523 0.371482 1.69157 0 0 0
-0.272325 0.36832 1.67717 0 0 0
-0.271968 0.380098 1.7308 0 0 0
-0.261015 0.377369 1.71838 0 0 0
-0.253837 0.380098 1.7308 0 0 0
-0.239223 0.371482 1.69157 0 0 0
-0.224808 0.362525 1.65078 0 0 0
-0.220263 0.369404 1.68211 0 0 0
-0.21431 0.374395 1.70483 0 0 0
-0.198869 0.362525 1.65078 0 0 0
-0.193263 0.36832 1.67717 0 0 0
-0.184478 0.36832 1.67717 0 0 0
-0.174513 0.365846 1.6659 0 0 0
-0.169662 0.374395 1.70483 0 0 0
-0.163181 0.380098 1.7308 0 0 0
-0.14934 0.36832 1.67717 0 0 0
-0.140555 0.36832 1.67717 0 0 0
-0.133943 0.374395 1.70483 0 0 0
-0.125014 0.374395 1.70483 0 0 0
-0.115181 0.371482 1.69157 0 0 0
-0.108787 0.380098 1.7308 0 0 0
-0.093664 0.357009 1.62567 0 0 0
-0.0886011 0.371482 1.69157 0 0 0
-0.0828612 0.386018 1.75776 0 0 0
-0.072004 0.377369 1.71838 0 0 0
-0.0614928 0.36832 1.67717 0 0 0
-0.0518788 0.362525 1.65078 0 0 0
-0.0454051 0.380745 1.73375 0 0 0
-0.0357183 0.374395 1.70483 0 0 0
-0.0267887 0.374395 1.70483 0 0 0
-0.0177202 0.371482 1.69157 0 0 0
-0.00886011 0.371482 1.69157 0 0 0
0 0.365846 1.6659 0 0 0
0.00878468 0.36832 1.67717 0 0 0
0.0174513 0.365846 1.6659 0 0 0
0.0259394 0.362525 1.65078 0 0 0
0.0345858 0.362525 1.65078 0 0 0
0.0439234 0.36832 1.67717 0 0 0
0.054003 0.377369 1.71838 0 0 0
0.0610797 0.365846 1.6659 0 0 0
0.0691717 0.362525 1.65078 0 0 0
0.0789033 0.36758 1.6738 0 0 0
0.0886011 0.371482 1.69157 0 0 0
0.0990055 0.377369 1.71838 0 0 0
0.102727 0.358924 1.63439 0 0 0
0.115076 0.371144 1.69003 0 0 0
0.125014 0.374395 1.70483 0 0 0
0.135984 0.380098 1.7308 0 0 0
0.141867 0.371757 1.69282 0 0 0
0.14699 0.362525 1.65078 0 0 0
0.157062 0.365846 1.6659 0 0 0
0.166909 0.36832 1.67717 0 0 0
0.171212 0.358924 1.63439 0 0 0
0.189011 0.377369 1.71838 0 0 0
0.189485 0.36112 1.64438 0 0 0
0.20069 0.365846 1.6659 0 0 0
0.211173 0.368915 1.67988 0 0 0
0.223239 0.374395 1.70483 0 0 0
0.222575 0.358924 1.63439 0 0 0
0.237186 0.36832 1.67717 0 0 0
0.248266 0.371757 1.69282 0 0 0
0.258957 0.374395 1.70483 0 0 0
0.256817 0.358924 1.63439 0 0 0
0.274663 0.371482 1.69157 0 0 0
0.285746 0.374395 1.70483 0 0 0
0.294676 0.374395 1.70483 0 0 0
0.314121 0.387363 1.76388 0 0 0
0.320135 0.3835 1.74629 0 0 0
0.316248 0.36832 1.67717 0 0 0
0.325558 0.368915 1.67988 0 0 0
0.339324 0.374395 1.70483 0 0 0
0.340301 0.365846 1.6659 0 0 0
0.365869 0.3835 1.74629 0 0 0
0.375016 0.3835 1.74629 0 0 0
0.381403 0.380745 1.73375 0 0 0
0.380985 0.371482 1.69157 0 0 0
0.392901 0.374395 1.70483 0 0 0
0.405402 0.377723 1.71999 0 0 0
0.427733 0.389865 1.77528 0 0 0
0.410106 0.365846 1.6659 0 0 0
0.417723 0.364877 1.66149 0 0 0
0.430449 0.36832 1.67717 0 0 0
0.454051 0.380745 1.73375 0 0 0
0.467829 0.384606 1.75133 0 0 0
0.468026 0.377369 1.71838 0 0 0
0.48966 0.387363 1.76388 0 0 0
0.507747 0.394233 1.79517 0 0 0
0.495028 0.377369 1.71838 0 0 0
0.509623 0.381558 1.73745 0 0 0
0.526615 0.387363 1.76388 0 0 0
0.53051 0.3835 1.74629 0 0 0
0.531528 0.377723 1.71999 0 0 0
0.544862 0.380745 1.73375 0 0 0
0.553001 0.380098 1.7308 0 0 0
0.553633 0.374395 1.70483 0 0 0
0.577906 0.384606 1.75133 0 0 0
0.580198 0.380098 1.7308 0 0 0
0.590267 0.380745 1.73375 0 0 0
0.583561 0.370716 1.68808 0 0 0
0.587391 0.36758 1.6738 0 0 0
0.607211 0.374395 1.70483 0 0 0
0.632945 0.384606 1.75133 0 0 0
0.64672 0.387363 1.76388 0 0 0
0.660197 0.389865 1.77528 0 0 0
0.648036 0.377369 1.71838 0 0 0
0.662915 0.380745 1.73375 0 0 0
0.671996 0.380745 1.73375 0 0 0
0.717909 0.401335 1.82751 0 0 0
0.714607 0.394233 1.79517 0 0 0
0.700732 0.381558 1.73745 0 0 0
0.733412 0.394233 1.79517 0 0 0
0.738194 0.39178 1.784 0 0 0
0.736544 0.386018 1.75776 0 0 0
0.766716 0.39687 1.80718 0 0 0
0.784914 0.401335 1.82751 0 0 0
0.797349 0.402782 1.8341 0 0 0
0.799828 0.399224 1.81789 0 0 0
0.811546 0.400307 1.82283 0 0 0
0.808634 0.394233 1.79517 0 0 0
0.785935 0.378762 1.72472 0 0 0
0.840189 0.400307 1.82283 0 0 0
0.830529 0.391259 1.78162 0 0 0
0.853223 0.397484 1.80997 0 0 0
0.849192 0.391259 1.78162 0 0 0
0.858524 0.391259 1.78162 0 0 0
0.881663 0.397484 1.80997 0 0 0
0.891144 0.397484 1.80997 0 0 0
0.917578 0.404966 1.84404 0 0 0
0.902661 0.394233 1.79517 0 0 0
0.936895 0.404966 1.84404 0 0 0
0.887195 0.37957 1.7284 0 0 0
0.899022 0.380745 1.73375 0 0 0
0.950373 0.398468 1.81445 0 0 0
0.991555 0.411618 1.87433 0 0 0
1.01234 0.416127 1.89486 0 0 0
1.04475 0.425281 1.93655 0 0 0
0.988388 0.398468 1.81445 0 0 0
0.997892 0.398468 1.81445 0 0 0
1.06646 0.42183 1.92083 0 0 0
1.08141 0.423745 1.92955 0 0 0
1.04314 0.404966 1.84404 0 0 0
1.06236 0.408644 1.86079 0 0 0
1.09174 0.416127 1.89486 0 0 0
1.16279 0.439216 2 0 0 0
1.08178 0.404966 1.84404 0 0 0
1.18374 0.439216 2 0 0 0
1.10109 0.404966 1.84404 0 0 0
1.15028 0.419378 1.90967 0 0 0
1.21517 0.439216 2 0 0 0
1.22564 0.439216 2 0 0 0
1.17114 0.416127 1.89486 0 0 0
1.14939 0.404966 1.84404 0 0 0
-0.628536 0.224837 1 0 0 0
-0.653761 0.235825 1.04887 0 0 0
-0.653732 0.237813 1.05772 0 0 0
-0.648192 0.237813 1.05772 0 0 0
-0.639743 0.236737 1.05293 0 0 0
-0.665675 0.248475 1.10514 0 0 0
-0.672145 0.253091 1.12567 0 0 0
-0.654098 0.248475 1.10514 0 0 0
-0.728738 0.279301 1.24224 0 0 0
-0.78142 0.30219 1.34404 0 0 0
-0.659346 0.2573 1.14438 0 0 0
-0.697684 0.274758 1.22203 0 0 0
-0.681552 0.27089 1.20483 0 0 0
-0.65544 0.262947 1.1695 0 0 0
-0.70303 0.284699 1.26625 0 0 0
-0.69934 0.285902 1.2716 0 0 0
-0.676685 0.279301 1.24224 0 0 0
-0.710995 0.296311 1.31789 0 0 0
-0.676501 0.284699 1.26625 0 0 0
-0.637377 0.27089 1.20483 0 0 0
-0.703982 0.30219 1.34404 0 0 0
-0.659377 0.285902 1.2716 0 0 0
-0.705451 0.309001 1.37433 0 0 0
-0.708683 0.313616 1.39486 0 0 0
-0.651247 0.291201 1.29517 0 0 0
-0.701436 0.316944 1.40967 0 0 0
-0.694053 0.316944 1.40967 0 0 0
-0.706865 0.326266 1.45113 0 0 0
-0.722816 0.337255 1.5 0 0 0
-0.691664 0.326266 1.45113 0 0 0
-0.749686 0.357565 1.59033 0 0 0
-0.699246 0.337255 1.5 0 0 0
-0.717992 0.350232 1.55772 0 0 0
-0.661261 0.326266 1.45113 0 0 0
-0.752028 0.375365 1.6695 0 0 0
-0.689579 0.348244 1.54887 0 0 0
-0.681466 0.348244 1.54887 0 0 0
-0.652106 0.337255 1.5 0 0 0
-0.698222 0.365509 1.62567 0 0 0
-0.782356 0.414608 1.84404 0 0 0
-0.752218 0.403619 1.79517 0 0 0
-0.717401 0.38981 1.73375 0 0 0
-0.723784 0.39832 1.7716 0 0 0
-0.687577 0.383309 1.70483 0 0 0
-0.705225 0.39832 1.7716 0 0 0
-0.705204 0.403619 1.79517 0 0 0
-0.726486 0.421419 1.87433 0 0 0
-0.66087 0.388608 1.7284 0 0 0
-0.66609 0.397118 1.76625 0 0 0
-0.639635 0.386716 1.71999 0 0 0
-0.634591 0.389148 1.7308 0 0 0
-0.6416 0.399148 1.77528 0 0 0
-0.620533 0.391719 1.74224 0 0 0
-0.616856 0.395209 1.75776 0 0 0
-0.609765 0.396585 1.76388 0 0 0
-0.590267 0.38981 1.73375 0 0 0
-0.598589 0.401483 1.78567 0 0 0
-0.589236 0.401483 1.78567 0 0 0
-0.58625 0.405891 1.80527 0 0 0
-0.549031 0.386354 1.71838 0 0 0
-0.548803 0.392631 1.74629 0 0 0
-0.543201 0.395209 1.75776 0 0 0
-0.5267 0.38981 1.73375 0 0 0
-0.513029 0.386354 1.71838 0 0 0
-0.512217 0.392631 1.74629 0 0 0
-0.504522 0.393763 1.75133 0 0 0
-0.502122 0.399148 1.77528 0 0 0
-0.469586 0.380327 1.69157 0 0 0
-0.453735 0.374556 1.6659 0 0 0
-0.455408 0.383309 1.70483 0 0 0
-0.46034 0.395209 1.75776 0 0 0
-0.44069 0.386061 1.71707 0 0 0
-0.439043 0.392631 1.74629 0 0 0
-0.422703 0.386061 1.71707 0 0 0
-0.414023 0.386354 1.71838 0 0 0
-0.408646 0.38981 1.73375 0 0 0
-0.40651 0.396585 1.76388 0 0 0
-0.390484 0.38981 1.73375 0 0 0
-0.372125 0.380327 1.69157 0 0 0
-0.363264 0.380327 1.69157 0 0 0
-0.365869 0.392631 1.74629 0 0 0
-0.348253 0.383309 1.70483 0 0 0
-0.34176 0.386061 1.71707 0 0 0
-0.338429 0.392631 1.74629 0 0 0
-0.321464 0.383309 1.70483 0 0 0
-0.302626 0.371156 1.65078 0 0 0
-0.298679 0.377089 1.67717 0 0 0
-0.294676 0.383309 1.70483 0 0 0
-0.279221 0.374556 1.6659 0 0 0
-0.272325 0.377089 1.67717 0 0 0
-0.26354 0.377089 1.67717 0 0 0
-0.256943 0.380327 1.69157 0 0 0
-0.252014 0.386354 1.71838 0 0 0
-0.245188 0.38981 1.73375 0 0 0
-0.237815 0.392631 1.74629 0 0 0
-0.219972 0.377698 1.67988 0 0 0
-0.21431 0.383309 1.70483 0 0 0
-0.202048 0.377089 1.67717 0 0 0
-0.19645 0.383309 1.70483 0 0 0
-0.187521 0.383309 1.70483 0 0 0
-0.179874 0.386061 1.71707 0 0 0
-0.164283 0.371156 1.65078 0 0 0
-0.158124 0.377089 1.67717 0 0 0
-0.14699 0.371156 1.65078 0 0 0
-0.139611 0.374556 1.6659 0 0 0
-0.132902 0.380327 1.69157 0 0 0
-0.122159 0.374556 1.6659 0 0 0
-0.116084 0.383309 1.70483 0 0 0
-0.106321 0.380327 1.69157 0 0 0
-0.0967876 0.377698 1.67988 0 0 0
-0.090005 0.386354 1.71838 0 0 0
-0.0809431 0.386061 1.71707 0 0 0
-0.0693886 0.37232 1.65596 0 0 0
-0.0620207 0.380327 1.69157 0 0 0
-0.0522154 0.373565 1.66149 0 0 0
-0.0432323 0.371156 1.65078 0 0 0
-0.0365869 0.392631 1.74629 0 0 0
-0.026354 0.377089 1.67717 0 0 0
-0.0178591 0.383309 1.70483 0 0 0
-0.00872567 0.374556 1.6659 0 0 0
0 0.380608 1.69282 0 0 0
0.00886666 0.380608 1.69282 0 0 0
0.0175694 0.377089 1.67717 0 0 0
0.0267887 0.383309 1.70483 0 0 0
0.036002 0.386354 1.71838 0 0 0
0.0446478 0.383309 1.70483 0 0 0
0.0555715 0.397575 1.76828 0 0 0
0.0615921 0.377698 1.67988 0 0 0
0.0714365 0.383309 1.70483 0 0 0
0.0797999 0.380608 1.69282 0 0 0
0.0872567 0.374556 1.6659 0 0 0
0.0954093 0.37232 1.65596 0 0 0
0.104431 0.373565 1.66149 0 0 0
0.115181 0.380327 1.69157 0 0 0
0.122159 0.374556 1.6659 0 0 0
0.128958 0.369043 1.64138 0 0 0
0.141762 0.380327 1.69157 0 0 0
0.150733 0.380608 1.69282 0 0 0
0.165722 0.395209 1.75776 0 0 0
0.162651 0.36747 1.63439 0 0 0
0.177041 0.379981 1.69003 0 0 0
0.181576 0.371156 1.65078 0 0 0
0.189139 0.369043 1.64138 0 0 0
0.202048 0.377089 1.67717 0 0 0
0.21431 0.383309 1.70483 0 0 0
0.217564 0.373565 1.66149 0 0 0
0.222575 0.36747 1.63439 0 0 0
0.241098 0.383309 1.70483 0 0 0
0.248083 0.380327 1.69157 0 0 0
0.262902 0.389148 1.7308 0 0 0
0.263966 0.377698 1.67988 0 0 0
0.274413 0.379981 1.69003 0 0 0
0.28111 0.377089 1.67717 0 0 0
0.292117 0.379981 1.69003 0 0 0
0.300969 0.379981 1.69003 0 0 0
0.312535 0.383309 1.70483 0 0 0
0.323773 0.386061 1.71707 0 0 0
0.328066 0.380608 1.69282 0 0 0
0.342019 0.386354 1.71838 0 0 0
0.356722 0.392631 1.74629 0 0 0
0.36002 0.386354 1.71838 0 0 0
0.372322 0.38981 1.73375 0 0 0
0.388032 0.396585 1.76388 0 0 0
0.377741 0.377089 1.67717 0 0 0
0.389845 0.380327 1.69157 0 0 0
0.398705 0.380327 1.69157 0 0 0
0.414411 0.386716 1.71999 0 0 0
0.41288 0.377089 1.67717 0 0 0
0.428619 0.383309 1.70483 0 0 0
0.441025 0.386354 1.71838 0 0 0
0.457336 0.392631 1.74629 0 0 0
0.44097 0.371156 1.65078 0 0 0
0.483525 0.399148 1.77528 0 0 0
0.480476 0.389148 1.7308 0 0 0
0.482197 0.383309 1.70483 0 0 0
0.51142 0.399148 1.77528 0 0 0
0.491942 0.377089 1.67717 0 0 0
0.522868 0.393763 1.75133 0 0 0
0.5267 0.38981 1.73375 0 0 0
0.539657 0.392631 1.74629 0 0 0
0.540537 0.386716 1.71999 0 0 0
0.55795 0.392631 1.74629 0 0 0
0.562067 0.389148 1.7308 0 0 0
0.578387 0.394091 1.75279 0 0 0
0.589235 0.395209 1.75776 0 0 0
0.600526 0.396585 1.76388 0 0 0
0.609765 0.396585 1.76388 0 0 0
0.614599 0.393763 1.75133 0 0 0
0.632301 0.399148 1.77528 0 0 0
0.637481 0.396585 1.76388 0 0 0
0.630035 0.386354 1.71838 0 0 0
0.649417 0.392631 1.74629 0 0 0
0.648036 0.386354 1.71838 0 0 0
0.682128 0.401108 1.784 0 0 0
0.678811 0.393763 1.75133 0 0 0
0.692915 0.396585 1.76388 0 0 0
0.690158 0.38981 1.73375 0 0 0
0.715988 0.399148 1.77528 0 0 0
0.70832 0.38981 1.73375 0 0 0
0.718933 0.390643 1.73745 0 0 0
0.728033 0.390643 1.73745 0 0 0
0.76162 0.403619 1.79517 0 0 0
0.766226 0.401108 1.784 0 0 0
0.780426 0.403619 1.79517 0 0 0
0.795113 0.40632 1.80718 0 0 0
0.799231 0.403619 1.79517 0 0 0
0.814044 0.40632 1.80718 0 0 0
0.818037 0.403619 1.79517 0 0 0
0.863929 0.421419 1.87433 0 0 0
0.865021 0.41721 1.85562 0 0 0
0.869284 0.414608 1.84404 0 0 0
0.874202 0.412372 1.8341 0 0 0
0.842643 0.393165 1.74867 0 0 0
0.881663 0.406947 1.80997 0 0 0
0.891144 0.406947 1.80997 0 0 0
0.878869 0.397118 1.76625 0 0 0
0.938084 0.419458 1.86561 0 0 0
0.919584 0.406947 1.80997 0 0 0
0.921467 0.403619 1.79517 0 0 0
0.962214 0.41721 1.85562 0 0 0
0.950373 0.407955 1.81445 0 0 0
1.05803 0.449673 2 0 0 0
0.939093 0.395209 1.75776 0 0 0
1.07899 0.449673 2 0 0 0
0.952553 0.393165 1.74867 0 0 0
1.03697 0.42393 1.8855 0 0 0
1.03312 0.418374 1.86079 0 0 0
1.00609 0.403619 1.79517 0 0 0
1.06028 0.421419 1.87433 0 0 0
1.01144 0.39832 1.7716 0 0 0
1.15232 0.449673 2 0 0 0
1.11676 0.431874 1.92083 0 0 0
1.03928 0.39832 1.7716 0 0 0
1.18374 0.449673 2 0 0 0
1.19422 0.449673 2 0 0 0
1.20469 0.449673 2 0 0 0
1.21517 0.449673 2 0 0 0
1.10012 0.403619 1.79517 0 0 0
1.10952 0.403619 1.79517 0 0 0
1.14939 0.414608 1.84404 0 0 0
-0.707521 0.258977 1.12567 0 0 0
-0.688829 0.254254 1.10514 0 0 0
-0.650773 0.242243 1.05293 0 0 0
-0.672376 0.252423 1.09718 0 0 0
-0.642652 0.243344 1.05772 0 0 0
-0.671314 0.256407 1.1145 0 0 0
-0.665477 0.256407 1.1145 0 0 0
-0.692194 0.269062 1.1695 0 0 0
-0.620491 0.243344 1.05772 0 0 0
-0.700484 0.27719 1.20483 0 0 0
-0.694174 0.27719 1.20483 0 0 0
-0.725981 0.292551 1.2716 0 0 0
-0.605532 0.246273 1.07045 0 0 0
-0.664433 0.272753 1.18555 0 0 0
-0.689698 0.285796 1.24224 0 0 0
-0.712301 0.297973 1.29517 0 0 0
-0.748642 0.316187 1.37433 0 0 0
-0.639594 0.272753 1.18555 0 0 0
-0.745213 0.32091 1.39486 0 0 0
-0.637377 0.27719 1.20483 0 0 0
-0.678382 0.297973 1.29517 0 0 0
-0.614756 0.272753 1.18555 0 0 0
-0.723587 0.324315 1.40967 0 0 0
-0.682862 0.309217 1.34404 0 0 0
-0.669013 0.306102 1.3305 0 0 0
-0.683856 0.316187 1.37433 0 0 0
-0.714466 0.333854 1.45113 0 0 0
-0.730673 0.345098 1.5 0 0 0
-0.722816 0.345098 1.5 0 0 0
-0.664847 0.32091 1.39486 0 0 0
-0.707102 0.345098 1.5 0 0 0
-0.719001 0.354848 1.54238 0 0 0
-0.713917 0.356342 1.54887 0 0 0
-0.776872 0.392223 1.70483 0 0 0
-0.675676 0.345098 1.5 0 0 0
-0.689579 0.356342 1.54887 0 0 0
-0.685356 0.358376 1.55772 0 0 0
-0.77018 0.407584 1.7716 0 0 0
-0.732224 0.392223 1.70483 0 0 0
-0.708305 0.384094 1.6695 0 0 0
-0.714365 0.392223 1.70483 0 0 0
-0.717401 0.398876 1.73375 0 0 0
-0.655776 0.369286 1.60514 0 0 0
-0.699239 0.398876 1.73375 0 0 0
-0.707759 0.409048 1.77797 0 0 0
-0.698447 0.409048 1.77797 0 0 0
-0.650066 0.385859 1.67717 0 0 0
-0.651858 0.392223 1.70483 0 0 0
-0.676996 0.413006 1.79517 0 0 0
-0.667593 0.413006 1.79517 0 0 0
-0.650899 0.40843 1.77528 0 0 0
-0.632945 0.402921 1.75133 0 0 0
-0.626062 0.4044 1.75776 0 0 0
-0.619004 0.405808 1.76388 0 0 0
-0.609765 0.405808 1.76388 0 0 0
-0.590267 0.398876 1.73375 0 0 0
-0.580198 0.398198 1.7308 0 0 0
-0.567032 0.395339 1.71838 0 0 0
-0.579883 0.41082 1.78567 0 0 0
-0.55795 0.401761 1.74629 0 0 0
-0.544862 0.398876 1.73375 0 0 0
-0.526844 0.392223 1.70483 0 0 0
-0.53051 0.401761 1.74629 0 0 0
-0.538972 0.41533 1.80527 0 0 0
-0.520719 0.40843 1.77528 0 0 0
-0.506374 0.4044 1.75776 0 0 0
-0.486027 0.395339 1.71838 0 0 0
-0.495707 0.41082 1.78567 0 0 0
-0.474525 0.400829 1.74224 0 0 0
-0.458678 0.395039 1.71707 0 0 0
-0.454051 0.398876 1.73375 0 0 0
-0.441025 0.395339 1.71838 0 0 0
-0.435148 0.398198 1.7308 0 0 0
-0.423024 0.395339 1.71838 0 0 0
-0.423513 0.4044 1.75776 0 0 0
-0.411603 0.401761 1.74629 0 0 0
-0.389845 0.389172 1.69157 0 0 0
-0.387022 0.395339 1.71838 0 0 0
-0.380755 0.398198 1.7308 0 0 0
-0.372322 0.398876 1.73375 0 0 0
-0.357183 0.392223 1.70483 0 0 0
-0.337212 0.379788 1.65078 0 0 0
-0.336377 0.388817 1.69003 0 0 0
-0.330394 0.392223 1.70483 0 0 0
-0.324018 0.395339 1.71838 0 0 0
-0.327353 0.41082 1.78567 0 0 0
-0.306304 0.39571 1.71999 0 0 0
-0.302713 0.402921 1.75133 0 0 0
-0.277554 0.380979 1.65596 0 0 0
-0.281033 0.398198 1.7308 0 0 0
-0.271968 0.398198 1.7308 0 0 0
-0.256943 0.389172 1.69157 0 0 0
-0.245971 0.385859 1.67717 0 0 0
-0.241098 0.392223 1.70483 0 0 0
-0.224808 0.379788 1.65078 0 0 0
-0.228668 0.401761 1.74629 0 0 0
-0.217945 0.398876 1.73375 0 0 0
-0.203782 0.389172 1.69157 0 0 0
-0.193263 0.385859 1.67717 0 0 0
-0.189188 0.39571 1.71999 0 0 0
-0.174513 0.383267 1.6659 0 0 0
-0.166909 0.385859 1.67717 0 0 0
-0.160732 0.392223 1.70483 0 0 0
-0.153009 0.395339 1.71838 0 0 0
-0.141867 0.38946 1.69282 0 0 0
-0.133943 0.392223 1.70483 0 0 0
-0.125014 0.392223 1.70483 0 0 0
-0.112404 0.379788 1.65078 0 0 0
-0.105416 0.385859 1.67717 0 0 0
-0.0959824 0.383267 1.6659 0 0 0
-0.0892957 0.392223 1.70483 0 0 0
-0.0778182 0.379788 1.65078 0 0 0
-0.0702774 0.385859 1.67717 0 0 0
-0.062507 0.392223 1.70483 0 0 0
-0.0518788 0.379788 1.65078 0 0 0
-0.0436283 0.383267 1.6659 0 0 0
-0.0354404 0.389172 1.69157 0 0 0
-0.0263966 0.386482 1.67988 0 0 0
-0.018001 0.395339 1.71838 0 0 0
-0.00878468 0.385859 1.67717 0 0 0
0 0.389172 1.69157 0 0 0
0.0092068 0.4044 1.75776 0 0 0
0.0177202 0.389172 1.69157 0 0 0
0.0263966 0.386482 1.67988 0 0 0
0.0359747 0.395039 1.71707 0 0 0
0.045328 0.398198 1.7308 0 0 0
0.0552408 0.4044 1.75776 0 0 0
0.0610797 0.383267 1.6659 0 0 0
0.0708809 0.389172 1.69157 0 0 0
0.0803661 0.392223 1.70483 0 0 0
0.0879887 0.386482 1.67988 0 0 0
0.0975332 0.38946 1.69282 0 0 0
0.108787 0.398198 1.7308 0 0 0
0.114537 0.386994 1.68211 0 0 0
0.126007 0.395339 1.71838 0 0 0
0.133943 0.392223 1.70483 0 0 0
0.145049 0.398198 1.7308 0 0 0
0.144753 0.374009 1.62567 0 0 0
0.1596 0.38946 1.69282 0 0 0
0.164798 0.380979 1.65596 0 0 0
0.18001 0.395339 1.71838 0 0 0
0.184478 0.385859 1.67717 0 0 0
0.198011 0.395339 1.71838 0 0 0
0.198869 0.379788 1.65078 0 0 0
0.210832 0.385859 1.67717 0 0 0
0.22664 0.398198 1.7308 0 0 0
0.228402 0.385859 1.67717 0 0 0
0.236102 0.384094 1.6695 0 0 0
0.256108 0.401761 1.74629 0 0 0
0.258957 0.392223 1.70483 0 0 0
0.267887 0.392223 1.70483 0 0 0
0.272325 0.385859 1.67717 0 0 0
0.292695 0.401761 1.74629 0 0 0
0.292384 0.389172 1.69157 0 0 0
0.29106 0.376016 1.63439 0 0 0
0.309821 0.388817 1.69003 0 0 0
0.324018 0.395339 1.71838 0 0 0
0.316742 0.376016 1.63439 0 0 0
0.347576 0.401761 1.74629 0 0 0
0.348253 0.392223 1.70483 0 0 0
0.349027 0.383267 1.6659 0 0 0
0.369367 0.39571 1.71999 0 0 0
0.375042 0.392223 1.70483 0 0 0
0.377741 0.385859 1.67717 0 0 0
0.396022 0.395339 1.71838 0 0 0
0.405023 0.395339 1.71838 0 0 0
0.41076 0.392223 1.70483 0 0 0
0.41969 0.392223 1.70483 0 0 0
0.413422 0.378316 1.64438 0 0 0
0.441025 0.395339 1.71838 0 0 0
0.46034 0.4044 1.75776 0 0 0
0.459026 0.395339 1.71838 0 0 0
0.464337 0.392223 1.70483 0 0 0
0.469586 0.389172 1.69157 0 0 0
0.50506 0.41082 1.78567 0 0 0
0.498608 0.398198 1.7308 0 0 0
0.523765 0.41082 1.78567 0 0 0
0.51351 0.39571 1.71999 0 0 0
0.535854 0.405808 1.76388 0 0 0
0.569864 0.42425 1.84404 0 0 0
0.531122 0.388817 1.69003 0 0 0
0.544704 0.392223 1.70483 0 0 0
0.549327 0.389172 1.69157 0 0 0
0.567032 0.395339 1.71838 0 0 0
0.591287 0.405808 1.76388 0 0 0
0.600526 0.405808 1.76388 0 0 0
0.603684 0.401761 1.74629 0 0 0
0.598281 0.392223 1.70483 0 0 0
0.635407 0.410436 1.784 0 0 0
0.637481 0.405808 1.76388 0 0 0
0.670049 0.420447 1.82751 0 0 0
0.676045 0.418234 1.81789 0 0 0
0.642929 0.392223 1.70483 0 0 0
0.669638 0.402921 1.75133 0 0 0
0.691473 0.410436 1.784 0 0 0
0.709173 0.41533 1.80527 0 0 0
0.710161 0.410436 1.784 0 0 0
0.728085 0.41533 1.80527 0 0 0
0.715503 0.402921 1.75133 0 0 0
0.711706 0.39571 1.71999 0 0 0
0.747538 0.410436 1.784 0 0 0
0.789462 0.428104 1.86079 0 0 0
0.780784 0.418234 1.81789 0 0 0
0.780426 0.413006 1.79517 0 0 0
0.795113 0.415769 1.80718 0 0 0
0.782578 0.4044 1.75776 0 0 0
0.847749 0.432984 1.882 0 0 0
0.830642 0.41937 1.82283 0 0 0
0.832975 0.415769 1.80718 0 0 0
0.836842 0.413006 1.79517 0 0 0
0.859285 0.41937 1.82283 0 0 0
0.855647 0.413006 1.79517 0 0 0
0.851116 0.406353 1.76625 0 0 0
0.867856 0.40989 1.78162 0 0 0
0.891144 0.416411 1.80997 0 0 0
0.870121 0.402308 1.74867 0 0 0
0.920427 0.421134 1.8305 0 0 0
0.986809 0.446852 1.94228 0 0 0
0.967836 0.433789 1.8855 0 0 0
0.956213 0.42425 1.84404 0 0 0
0.940272 0.413006 1.79517 0 0 0
0.959877 0.417443 1.81445 0 0 0
1.00734 0.433789 1.8855 0 0 0
1.00388 0.428104 1.86079 0 0 0
1.05802 0.446852 1.94228 0 0 0
1.01416 0.42425 1.84404 0 0 0
1.03312 0.428104 1.86079 0 0 0
0.935662 0.384094 1.6695 0 0 0
1.01549 0.413006 1.79517 0 0 0
1.01144 0.407584 1.7716 0 0 0
1.07211 0.428104 1.86079 0 0 0
1.05978 0.41937 1.82283 0 0 0
1.12682 0.441917 1.92083 0 0 0
1.18374 0.460131 2 0 0 0
1.08843 0.41937 1.82283 0 0 0
1.20469 0.460131 2 0 0 0
1.15129 0.435942 1.89486 0 0 0
1.10012 0.413006 1.79517 0 0 0
1.23612 0.460131 2 0 0 0
1.14939 0.42425 1.84404 0 0 0
-0.628536 0.235294 1 0 0 0
-0.694664 0.262235 1.1145 0 0 0
-0.744659 0.28349 1.20483 0 0 0
-0.716696 0.275177 1.1695 0 0 0
-0.710571 0.275177 1.1695 0 0 0
-0.637111 0.248874 1.05772 0 0 0
-0.729687 0.287538 1.22203 0 0 0
-0.692194 0.275177 1.1695 0 0 0
-0.64831 0.260032 1.10514 0 0 0
-0.689272 0.278952 1.18555 0 0 0
-0.659346 0.269267 1.14438 0 0 0
-0.722927 0.297941 1.26625 0 0 0
-0.694884 0.289035 1.2284 0 0 0
-0.696205 0.292291 1.24224 0 0 0
-0.678481 0.287538 1.22203 0 0 0
-0.712301 0.304745 1.29517 0 0 0
-0.656309 0.28349 1.20483 0 0 0
-0.713657 0.311254 1.32283 0 0 0
-0.652878 0.287538 1.22203 0 0 0
-0.685166 0.304745 1.29517 0 0 0
-0.663236 0.297941 1.26625 0 0 0
-0.755838 0.34297 1.45762 0 0 0
-0.744868 0.341441 1.45113 0 0 0
-0.658031 0.304745 1.29517 0 0 0
-0.701377 0.328203 1.39486 0 0 0
-0.722066 0.341441 1.45113 0 0 0
-0.766946 0.366521 1.55772 0 0 0
-0.679459 0.328203 1.39486 0 0 0
-0.722816 0.352941 1.5 0 0 0
-0.738255 0.364441 1.54887 0 0 0
-0.730142 0.364441 1.54887 0 0 0
-0.699246 0.352941 1.5 0 0 0
-0.713917 0.364441 1.54887 0 0 0
-0.715634 0.369517 1.57045 0 0 0
-0.701674 0.366521 1.55772 0 0 0
-0.714627 0.377679 1.60514 0 0 0
-0.681466 0.364441 1.54887 0 0 0
-0.757415 0.409938 1.74224 0 0 0
-0.71705 0.392824 1.6695 0 0 0
-0.660879 0.366521 1.55772 0 0 0
-0.699561 0.392824 1.6695 0 0 0
-0.733063 0.416847 1.7716 0 0 0
-0.685205 0.394628 1.67717 0 0 0
-0.755938 0.44102 1.87433 0 0 0
-0.714607 0.422392 1.79517 0 0 0
-0.638618 0.38251 1.62567 0 0 0
-0.681303 0.413591 1.75776 0 0 0
-0.668619 0.411451 1.74867 0 0 0
-0.681525 0.425218 1.80718 0 0 0
-0.644753 0.407941 1.73375 0 0 0
-0.640271 0.410892 1.74629 0 0 0
-0.6416 0.417713 1.77528 0 0 0
-0.61646 0.407248 1.7308 0 0 0
-0.603034 0.404324 1.71838 0 0 0
-0.599348 0.407941 1.73375 0 0 0
-0.591527 0.408812 1.73745 0 0 0
-0.580198 0.407248 1.7308 0 0 0
-0.576244 0.410892 1.74629 0 0 0
-0.570822 0.413591 1.75776 0 0 0
-0.553001 0.407248 1.7308 0 0 0
-0.577053 0.432043 1.83618 0 0 0
-0.543201 0.413591 1.75776 0 0 0
-0.522029 0.404324 1.71838 0 0 0
-0.526615 0.415031 1.76388 0 0 0
-0.517376 0.415031 1.76388 0 0 0
-0.498608 0.407248 1.7308 0 0 0
-0.489542 0.407248 1.7308 0 0 0
-0.477027 0.404324 1.71838 0 0 0
-0.478754 0.413591 1.75776 0 0 0
-0.466483 0.410892 1.74629 0 0 0
-0.46034 0.413591 1.75776 0 0 0
-0.441025 0.404324 1.71838 0 0 0
-0.425285 0.398017 1.69157 0 0 0
-0.426808 0.407941 1.73375 0 0 0
-0.418969 0.409154 1.7389 0 0 0
-0.407952 0.407248 1.7308 0 0 0
-0.396393 0.404703 1.71999 0 0 0
-0.402177 0.420157 1.78567 0 0 0
-0.375042 0.401137 1.70483 0 0 0
-0.374145 0.409938 1.74224 0 0 0
-0.354404 0.398017 1.69157 0 0 0
-0.353558 0.407248 1.7308 0 0 0
-0.347576 0.410892 1.74629 0 0 0
-0.338429 0.410892 1.74629 0 0 0
-0.316248 0.394628 1.67717 0 0 0
-0.312535 0.401137 1.70483 0 0 0
-0.314121 0.415031 1.76388 0 0 0
-0.292384 0.398017 1.69157 0 0 0
-0.290593 0.407941 1.73375 0 0 0
-0.283548 0.410892 1.74629 0 0 0
-0.272431 0.407941 1.73375 0 0 0
-0.261259 0.404703 1.71999 0 0 0
-0.248083 0.398017 1.69157 0 0 0
-0.241098 0.401137 1.70483 0 0 0
-0.235705 0.407248 1.7308 0 0 0
-0.221503 0.398017 1.69157 0 0 0
-0.21431 0.401137 1.70483 0 0 0
-0.202048 0.394628 1.67717 0 0 0
-0.190222 0.388419 1.65078 0 0 0
-0.192081 0.410892 1.74629 0 0 0
-0.177202 0.398017 1.69157 0 0 0
-0.164798 0.389637 1.65596 0 0 0
-0.163181 0.407248 1.7308 0 0 0
-0.153009 0.404324 1.71838 0 0 0
-0.141762 0.398017 1.69157 0 0 0
-0.132902 0.398017 1.69157 0 0 0
-0.127134 0.407941 1.73375 0 0 0
-0.116084 0.401137 1.70483 0 0 0
-0.105416 0.394628 1.67717 0 0 0
-0.0973724 0.397654 1.69003 0 0 0
-0.0879887 0.395266 1.67988 0 0 0
-0.0823205 0.410892 1.74629 0 0 0
-0.0699561 0.392824 1.6695 0 0 0
-0.0599241 0.384561 1.63439 0 0 0
-0.0527932 0.395266 1.67988 0 0 0
-0.0439234 0.394628 1.67717 0 0 0
-0.036002 0.404324 1.71838 0 0 0
-0.0267887 0.401137 1.70483 0 0 0
-0.017489 0.392824 1.6695 0 0 0
-0.00879887 0.395266 1.67988 0 0 0
0 0.401137 1.70483 0 0 0
0.00892957 0.401137 1.70483 0 0 0
0.0178591 0.401137 1.70483 0 0 0
0.026177 0.391978 1.6659 0 0 0
0.0354666 0.398311 1.69282 0 0 0
0.0450025 0.404324 1.71838 0 0 0
0.0535774 0.401137 1.70483 0 0 0
0.0620207 0.398017 1.69157 0 0 0
0.0698053 0.391978 1.6659 0 0 0
0.079741 0.398017 1.69157 0 0 0
0.092068 0.413591 1.75776 0 0 0
0.0959824 0.391978 1.6659 0 0 0
0.108006 0.404324 1.71838 0 0 0
0.116084 0.401137 1.70483 0 0 0
0.12105 0.388419 1.65078 0 0 0
0.131983 0.395266 1.67988 0 0 0
0.140555 0.394628 1.67717 0 0 0
0.150622 0.398017 1.69157 0 0 0
0.159482 0.398017 1.69157 0 0 0
0.168467 0.398311 1.69282 0 0 0
0.177202 0.398017 1.69157 0 0 0
0.186062 0.398017 1.69157 0 0 0
0.195066 0.398311 1.69282 0 0 0
0.206855 0.404017 1.71707 0 0 0
0.21431 0.401137 1.70483 0 0 0
0.214015 0.384561 1.63439 0 0 0
0.226267 0.39094 1.66149 0 0 0
0.243014 0.404324 1.71838 0 0 0
0.248083 0.398017 1.69157 0 0 0
0.265255 0.410892 1.74629 0 0 0
0.270015 0.404324 1.71838 0 0 0
0.279016 0.404324 1.71838 0 0 0
0.288286 0.404703 1.71999 0 0 0
0.301842 0.410892 1.74629 0 0 0
0.29284 0.386914 1.64438 0 0 0
0.307464 0.394628 1.67717 0 0 0
0.308181 0.384561 1.63439 0 0 0
0.335998 0.407941 1.73375 0 0 0
0.347576 0.410892 1.74629 0 0 0
0.351349 0.404703 1.71999 0 0 0
0.363241 0.407941 1.73375 0 0 0
0.375016 0.410892 1.74629 0 0 0
0.390539 0.417713 1.77528 0 0 0
0.380985 0.398017 1.69157 0 0 0
0.395722 0.404017 1.71707 0 0 0
0.405402 0.404703 1.71999 0 0 0
0.400318 0.39094 1.66149 0 0 0
0.41288 0.394628 1.67717 0 0 0
0.432429 0.404703 1.71999 0 0 0
0.452704 0.415031 1.76388 0 0 0
0.446478 0.401137 1.70483 0 0 0
0.463133 0.407941 1.73375 0 0 0
0.471411 0.407248 1.7308 0 0 0
0.477027 0.404324 1.71838 0 0 0
0.490376 0.407941 1.73375 0 0 0
0.495028 0.404324 1.71838 0 0 0
0.520719 0.417713 1.77528 0 0 0
0.522868 0.412078 1.75133 0 0 0
0.522519 0.404703 1.71999 0 0 0
0.535781 0.407941 1.73375 0 0 0
0.550387 0.412078 1.75133 0 0 0
0.55956 0.412078 1.75133 0 0 0
0.558554 0.404703 1.71999 0 0 0
0.603044 0.430002 1.82751 0 0 0
0.593874 0.416847 1.7716 0 0 0
0.585581 0.404703 1.71999 0 0 0
0.589351 0.401137 1.70483 0 0 0
0.616856 0.413591 1.75776 0 0 0
0.612608 0.404703 1.71999 0 0 0
0.637481 0.415031 1.76388 0 0 0
0.661895 0.42477 1.80527 0 0 0
0.667593 0.422392 1.79517 0 0 0
0.660465 0.412078 1.75133 0 0 0
0.677387 0.416847 1.7716 0 0 0
0.671996 0.407941 1.73375 0 0 0
0.705204 0.422392 1.79517 0 0 0
0.705225 0.416847 1.7716 0 0 0
0.693689 0.404703 1.71999 0 0 0
0.756992 0.435972 1.85288 0 0 0
0.738194 0.419765 1.784 0 0 0
0.733849 0.412078 1.75133 0 0 0
0.749352 0.415588 1.76625 0 0 0
0.765206 0.419206 1.78162 0 0 0
0.764164 0.413591 1.75776 0 0 0
0.784915 0.419765 1.784 0 0 0
0.782578 0.413591 1.75776 0 0 0
0.821094 0.428901 1.82283 0 0 0
0.835776 0.431552 1.8341 0 0 0
0.840189 0.428901 1.82283 0 0 0
0.830529 0.419206 1.78162 0 0 0
0.832613 0.415588 1.76625 0 0 0
0.878943 0.433892 1.84404 0 0 0
0.858524 0.419206 1.78162 0 0 0
0.89826 0.433892 1.84404 0 0 0
0.907919 0.433892 1.84404 0 0 0
0.917578 0.433892 1.84404 0 0 0
0.910104 0.425875 1.80997 0 0 0
0.936895 0.433892 1.84404 0 0 0
0.912637 0.418345 1.77797 0 0 0
1.00716 0.457008 1.94228 0 0 0
0.992491 0.44585 1.89486 0 0 0
0.968366 0.430706 1.8305 0 0 0
1.00734 0.443647 1.8855 0 0 0
0.987541 0.430706 1.8305 0 0 0
0.957507 0.413591 1.75776 0 0 0
0.977825 0.418345 1.77797 0 0 0
1.03312 0.437833 1.86079 0 0 0
1.05672 0.443647 1.8855 0 0 0
1.04314 0.433892 1.84404 0 0 0
1.09664 0.451961 1.92083 0 0 0
1.1067 0.451961 1.92083 0 0 0
1.01293 0.409938 1.74224 0 0 0
1.08178 0.433892 1.84404 0 0 0
1.10936 0.44102 1.87433 0 0 0
1.19422 0.470588 2 0 0 0
1.09797 0.428901 1.82283 0 0 0
1.21517 0.470588 2 0 0 0
1.22564 0.470588 2 0 0 0
1.10952 0.422392 1.79517 0 0 0
1.16827 0.44102 1.87433 0 0 0
-0.694618 0.265811 1.10514 0 0 0
-0.720506 0.278034 1.15596 0 0 0
-0.707298 0.275251 1.14438 0 0 0
-0.716696 0.281292 1.1695 0 0 0
-0.677152 0.268062 1.1145 0 0 0
-0.665675 0.265811 1.10514 0 0 0
-0.659887 0.265811 1.10514 0 0 0
-0.684178 0.278034 1.15596 0 0 0
-0.678123 0.278034 1.15596 0 0 0
-0.654457 0.270748 1.12567 0 0 0
-0.715725 0.298787 1.24224 0 0 0
-0.709218 0.298787 1.24224 0 0 0
-0.702712 0.298787 1.24224 0 0 0
-0.709662 0.304562 1.26625 0 0 0
-0.706 0.305849 1.2716 0 0 0
-0.66262 0.28979 1.20483 0 0 0
-0.689765 0.304562 1.26625 0 0 0
-0.662713 0.295458 1.2284 0 0 0
-0.656279 0.295458 1.2284 0 0 0
-0.703857 0.320015 1.3305 0 0 0
-0.643411 0.295458 1.2284 0 0 0
-0.644152 0.298787 1.24224 0 0 0
-0.705451 0.330559 1.37433 0 0 0
-0.643339 0.304562 1.26625 0 0 0
-0.701377 0.335496 1.39486 0 0 0
-0.722066 0.349029 1.45113 0 0 0
-0.738529 0.360784 1.5 0 0 0
-0.730673 0.360784 1.5 0 0 0
-0.750628 0.374666 1.55772 0 0 0
-0.765072 0.386072 1.60514 0 0 0
-0.707102 0.360784 1.5 0 0 0
-0.766553 0.395512 1.64438 0 0 0
-0.713917 0.37254 1.54887 0 0 0
-0.683532 0.360784 1.5 0 0 0
-0.675676 0.360784 1.5 0 0 0
-0.714627 0.386072 1.60514 0 0 0
-0.766541 0.419048 1.74224 0 0 0
-0.697812 0.386072 1.60514 0 0 0
-0.71705 0.401553 1.6695 0 0 0
-0.689707 0.39101 1.62567 0 0 0
-0.730039 0.419048 1.74224 0 0 0
-0.680423 0.395512 1.64438 0 0 0
-0.682072 0.401553 1.6695 0 0 0
-0.673327 0.401553 1.6695 0 0 0
-0.714607 0.431779 1.79517 0 0 0
-0.730983 0.447563 1.86079 0 0 0
-0.709496 0.440277 1.8305 0 0 0
-0.68122 0.428521 1.78162 0 0 0
-0.680806 0.434209 1.80527 0 0 0
-0.639635 0.413696 1.71999 0 0 0
-0.648334 0.425313 1.76828 0 0 0
-0.637481 0.424254 1.76388 0 0 0
-0.628243 0.424254 1.76388 0 0 0
-0.63675 0.436417 1.81445 0 0 0
-0.599348 0.417007 1.73375 0 0 0
-0.604406 0.426995 1.77528 0 0 0
-0.571492 0.410051 1.70483 0 0 0
-0.580028 0.422782 1.75776 0 0 0
-0.579883 0.429494 1.78567 0 0 0
-0.583899 0.439558 1.82751 0 0 0
-0.557913 0.426995 1.77528 0 0 0
-0.545093 0.424254 1.76388 0 0 0
-0.535854 0.424254 1.76388 0 0 0
-0.521363 0.420023 1.74629 0 0 0
-0.507673 0.416298 1.7308 0 0 0
-0.491126 0.410051 1.70483 0 0 0
-0.502122 0.426995 1.77528 0 0 0
-0.480476 0.416298 1.7308 0 0 0
-0.47563 0.420023 1.74629 0 0 0
-0.466483 0.420023 1.74629 0 0 0
-0.457336 0.420023 1.74629 0 0 0
-0.455629 0.426995 1.77528 0 0 0
-0.448942 0.429494 1.78567 0 0 0
-0.43272 0.422782 1.75776 0 0 0
-0.424988 0.424254 1.76388 0 0 0
-0.415749 0.424254 1.76388 0 0 0
-0.392901 0.410051 1.70483 0 0 0
-0.383971 0.410051 1.70483 0 0 0
-0.380755 0.416298 1.7308 0 0 0
-0.366112 0.410051 1.70483 0 0 0
-0.374118 0.429494 1.78567 0 0 0
-0.356722 0.420023 1.74629 0 0 0
-0.336684 0.406862 1.69157 0 0 0
-0.325033 0.403398 1.67717 0 0 0
-0.329282 0.420023 1.74629 0 0 0
-0.307464 0.403398 1.67717 0 0 0
-0.296673 0.400688 1.6659 0 0 0
-0.303824 0.422782 1.75776 0 0 0
-0.287798 0.412996 1.71707 0 0 0
-0.279277 0.413696 1.71999 0 0 0
-0.26354 0.403398 1.67717 0 0 0
-0.261015 0.413309 1.71838 0 0 0
-0.247857 0.406491 1.69003 0 0 0
-0.239223 0.406862 1.69157 0 0 0
-0.232169 0.410051 1.70483 0 0 0
-0.216162 0.397051 1.65078 0 0 0
-0.219521 0.420023 1.74629 0 0 0
-0.202374 0.40405 1.67988 0 0 0
-0.201228 0.420023 1.74629 0 0 0
-0.187521 0.410051 1.70483 0 0 0
-0.177202 0.406862 1.69157 0 0 0
-0.173788 0.420023 1.74629 0 0 0
-0.162009 0.413309 1.71838 0 0 0
-0.154377 0.417007 1.73375 0 0 0
-0.141633 0.406491 1.69003 0 0 0
-0.131983 0.40405 1.67988 0 0 0
-0.126007 0.413309 1.71838 0 0 0
-0.117116 0.413696 1.71999 0 0 0
-0.104431 0.399627 1.66149 0 0 0
-0.0990984 0.413696 1.71999 0 0 0
-0.0856058 0.393107 1.63439 0 0 0
-0.0790621 0.403398 1.67717 0 0 0
-0.0684846 0.393107 1.63439 0 0 0
-0.0620207 0.406862 1.69157 0 0 0
-0.0535774 0.410051 1.70483 0 0 0
-0.0446478 0.410051 1.70483 0 0 0
-0.0357183 0.410051 1.70483 0 0 0
-0.0256817 0.393107 1.63439 0 0 0
-0.0175694 0.403398 1.67717 0 0 0
-0.00878468 0.403398 1.67717 0 0 0
0 0.410051 1.70483 0 0 0
0.00878468 0.403398 1.67717 0 0 0
0.0175694 0.403398 1.67717 0 0 0
0.0265561 0.406491 1.69003 0 0 0
0.0357183 0.410051 1.70483 0 0 0
0.0439234 0.403398 1.67717 0 0 0
0.052354 0.400688 1.6659 0 0 0
0.0620207 0.406862 1.69157 0 0 0
0.0691717 0.397051 1.65078 0 0 0
0.0815903 0.416298 1.7308 0 0 0
0.0886011 0.406862 1.69157 0 0 0
0.0957282 0.399627 1.66149 0 0 0
0.106321 0.406862 1.69157 0 0 0
0.117007 0.413309 1.71838 0 0 0
0.128054 0.420023 1.74629 0 0 0
0.133943 0.410051 1.70483 0 0 0
0.142873 0.410051 1.70483 0 0 0
0.155133 0.419048 1.74224 0 0 0
0.159482 0.406862 1.69157 0 0 0
0.17101 0.413309 1.71838 0 0 0
0.177202 0.406862 1.69157 0 0 0
0.189011 0.413309 1.71838 0 0 0
0.201228 0.420023 1.74629 0 0 0
0.196893 0.393107 1.63439 0 0 0
0.217945 0.417007 1.73375 0 0 0
0.223239 0.410051 1.70483 0 0 0
0.224808 0.397051 1.65078 0 0 0
0.243014 0.413309 1.71838 0 0 0
0.248083 0.406862 1.69157 0 0 0
0.253044 0.400688 1.6659 0 0 0
0.26354 0.403398 1.67717 0 0 0
0.274663 0.406862 1.69157 0 0 0
0.280545 0.402588 1.6738 0 0 0
0.294676 0.410051 1.70483 0 0 0
0.306017 0.413309 1.71838 0 0 0
0.314779 0.412996 1.71707 0 0 0
0.327615 0.417897 1.73745 0 0 0
0.327525 0.406491 1.69003 0 0 0
0.336377 0.406491 1.69003 0 0 0
0.335905 0.395512 1.64438 0 0 0
0.351387 0.403398 1.67717 0 0 0
0.366112 0.410051 1.70483 0 0 0
0.371785 0.406491 1.69003 0 0 0
0.387022 0.413309 1.71838 0 0 0
0.405099 0.422782 1.75776 0 0 0
0.40183 0.410051 1.70483 0 0 0
0.417727 0.417007 1.73375 0 0 0
0.423024 0.413309 1.71838 0 0 0
0.439043 0.420023 1.74629 0 0 0
0.441025 0.413309 1.71838 0 0 0
0.446478 0.410051 1.70483 0 0 0
0.459026 0.413309 1.71838 0 0 0
0.468026 0.413309 1.71838 0 0 0
0.477027 0.413309 1.71838 0 0 0
0.500143 0.425313 1.76828 0 0 0
0.499457 0.417007 1.73375 0 0 0
0.523765 0.429494 1.78567 0 0 0
0.533118 0.429494 1.78567 0 0 0
0.533994 0.422782 1.75776 0 0 0
0.539657 0.420023 1.74629 0 0 0
0.554332 0.424254 1.76388 0 0 0
0.580827 0.437245 1.81789 0 0 0
0.567097 0.420023 1.74629 0 0 0
0.585809 0.426995 1.77528 0 0 0
0.595107 0.426995 1.77528 0 0 0
0.585033 0.413309 1.71838 0 0 0
0.584234 0.406491 1.69003 0 0 0
0.633528 0.434209 1.80527 0 0 0
0.623772 0.421235 1.75133 0 0 0
0.637481 0.424254 1.76388 0 0 0
0.64672 0.424254 1.76388 0 0 0
0.682846 0.441644 1.83618 0 0 0
0.660465 0.421235 1.75133 0 0 0
0.677387 0.42611 1.7716 0 0 0
0.691473 0.429093 1.784 0 0 0
0.69051 0.422782 1.75776 0 0 0
0.699717 0.422782 1.75776 0 0 0
0.714504 0.42611 1.7716 0 0 0
0.746626 0.439558 1.82751 0 0 0
0.738194 0.429093 1.784 0 0 0
0.75725 0.434668 1.80718 0 0 0
0.766716 0.434668 1.80718 0 0 0
0.776181 0.434668 1.80718 0 0 0
0.785647 0.434668 1.80718 0 0 0
0.78387 0.428521 1.78162 0 0 0
0.767868 0.414835 1.72472 0 0 0
0.808634 0.431779 1.79517 0 0 0
0.818037 0.431779 1.79517 0 0 0
0.821197 0.428521 1.78162 0 0 0
0.865021 0.446318 1.85562 0 0 0
0.83986 0.428521 1.78162 0 0 0
0.862703 0.435339 1.80997 0 0 0
0.812227 0.405413 1.68555 0 0 0
0.903898 0.446318 1.85562 0 0 0
0.883856 0.431779 1.79517 0 0 0
0.870121 0.420595 1.74867 0 0 0
0.91657 0.438432 1.82283 0 0 0
0.942775 0.446318 1.85562 0 0 0
0.939602 0.440277 1.8305 0 0 0
0.977711 0.453506 1.8855 0 0 0
0.965871 0.443534 1.84404 0 0 0
1.02447 0.465784 1.93655 0 0 0
1.03768 0.467164 1.94228 0 0 0
1.04475 0.465784 1.93655 0 0 0
0.988388 0.436417 1.81445 0 0 0
1.00672 0.440277 1.8305 0 0 0
1.0074 0.436417 1.81445 0 0 0
1.0169 0.436417 1.81445 0 0 0
1.00216 0.42611 1.7716 0 0 0
1.06236 0.447563 1.86079 0 0 0
1.09174 0.455758 1.89486 0 0 0
1.11676 0.462004 1.92083 0 0 0
1.17327 0.481046 2 0 0 0
1.10936 0.45082 1.87433 0 0 0
1.19422 0.481046 2 0 0 0
1.15028 0.459318 1.90967 0 0 0
1.15129 0.455758 1.89486 0 0 0
1.17029 0.459318 1.90967 0 0 0
1.23612 0.481046 2 0 0 0
1.2466 0.481046 2 0 0 0
-0.700502 0.27389 1.1145 0 0 0
-0.694664 0.27389 1.1145 0 0 0
-0.722822 0.287407 1.1695 0 0 0
-0.761271 0.305282 1.24224 0 0 0
-0.72032 0.29135 1.18555 0 0 0
-0.678041 0.276634 1.12567 0 0 0
-0.707901 0.29135 1.18555 0 0 0
-0.701691 0.29135 1.18555 0 0 0
-0.728738 0.305282 1.24224 0 0 0
