ply
format ascii 1.0
element vertex 1332
property float x
property float y
property float z
property uchar red
property uchar green
property uchar blue
end_header
0.0276204 -0.670937 1.75776 37 38 35
0.0365019 -0.665011 1.74224 37 38 34
0.0446478 -0.650734 1.70483 38 39 35
0.0535774 -0.650734 1.70483 39 40 36
0.0653225 -0.680045 1.78162 38 39 35
0.0730039 -0.665011 1.74224 37 39 34
0.081177 -0.657299 1.72203 37 38 34
0.0933178 -0.680045 1.78162 36 38 33
0.101275 -0.670937 1.75776 36 38 34
0.108405 -0.658325 1.72472 37 38 34
0.121313 -0.680045 1.78162 37 39 35
0.126472 -0.658325 1.72472 37 39 35
0.133943 -0.650734 1.70483 37 39 35
0.148468 -0.676218 1.7716 37 40 36
0.151803 -0.650734 1.70483 36 38 35
0.157401 -0.637248 1.6695 36 38 34
0.169662 -0.650734 1.70483 36 38 34
0.18251 -0.665011 1.74224 37 38 35
0.197457 -0.685214 1.79517 37 38 35
0.20255 -0.670937 1.75776 37 38 35
0.218046 -0.690864 1.80997 36 38 34
0.235617 -0.715432 1.87433 36 37 33
0.220714 -0.643372 1.68555 36 37 32
0.242626 -0.680045 1.78162 36 37 33
0.251958 -0.680045 1.78162 37 38 34
0.255514 -0.665011 1.74224 37 38 34
0.261978 -0.658325 1.72472 37 39 35
0.285653 -0.693889 1.81789 37 39 35
0.276817 -0.650734 1.70483 37 39 35
0.294618 -0.670937 1.75776 38 39 36
0.301141 -0.665011 1.74224 37 38 36
0.319692 -0.685214 1.79517 37 37 35
0.324775 -0.676218 1.7716 38 38 36
0.328517 -0.665011 1.74224 39 38 36
0.340652 -0.670937 1.75776 39 38 36
0.343282 -0.658325 1.72472 39 38 36
0.366706 -0.685214 1.79517 39 38 36
0.361349 -0.658325 1.72472 38 37 35
0.369806 -0.657299 1.72203 38 37 35
0.366019 -0.635078 1.66382 39 38 35
0.404317 -0.685214 1.79517 38 37 35
0.401521 -0.665011 1.74224 37 37 34
0.414306 -0.670937 1.75776 38 38 34
0.423513 -0.670937 1.75776 39 38 35
0.423924 -0.657299 1.72203 38 38 35
0.463618 -0.70387 1.84404 37 37 34
0.451133 -0.670937 1.75776 37 37 34
0.46034 -0.670937 1.75776 37 37 35
0.483493 -0.690864 1.80997 37 38 35
0.488941 -0.685214 1.79517 37 38 36
0.48966 -0.673273 1.76388 37 38 35
0.507747 -0.685214 1.79517 37 37 36
0.51715 -0.685214 1.79517 38 38 37
0.515581 -0.670937 1.75776 38 39 38
0.508985 -0.650734 1.70483 38 38 37
0.545358 -0.685214 1.79517 37 38 36
0.53216 -0.657299 1.72203 37 38 35
0.567938 -0.689798 1.80718 37 37 35
0.582404 -0.695773 1.82283 38 38 35
0.587776 -0.690864 1.80997 38 39 36
0.577028 -0.667466 1.74867 38 38 36
0.606736 -0.690864 1.80997 38 38 36
0.620594 -0.695773 1.82283 39 39 37
0.620579 -0.685214 1.79517 40 40 38
0.643643 -0.700073 1.8341 39 39 37
0.629085 -0.674176 1.76625 38 38 37
0.642571 -0.678648 1.77797 38 38 37
0.67611 -0.70387 1.84404 38 38 37
0.656839 -0.674176 1.76625 38 38 38
0.66609 -0.674176 1.76625 38 38 37
0.66616 -0.665011 1.74224 38 37 36
0.719231 -0.708287 1.85562 37 37 36
0.74069 -0.719695 1.8855 38 38 37
0.750566 -0.719695 1.8855 39 39 37
0.738259 -0.6987 1.8305 38 38 36
0.733412 -0.685214 1.79517 37 37 35
0.723574 -0.667466 1.74867 37 38 36
0.772697 -0.70387 1.84404 37 39 36
0.803917 -0.723268 1.89486 37 38 36
0.786198 -0.6987 1.8305 37 38 35
0.844383 -0.741369 1.94228 37 38 35
0.779459 -0.676218 1.7716 37 38 35
0.771887 -0.661771 1.73375 37 38 35
0.874903 -0.741369 1.94228 37 38 35
0.847941 -0.710263 1.86079 36 39 34
0.863929 -0.715432 1.87433 35 39 35
0.895423 -0.733181 1.92083 35 39 34
0.87718 -0.710263 1.86079 35 39 35
0.953279 -0.763399 2 35 39 36
0.929808 -0.736509 1.92955 36 39 36
0.906419 -0.710263 1.86079 36 39 36
0.945728 -0.733181 1.92083 37 40 37
0.955788 -0.733181 1.92083 36 40 36
0.927237 -0.70387 1.84404 35 39 35
0.936895 -0.70387 1.84404 35 38 35
0.935665 -0.695773 1.82283 34 38 35
0.94087 -0.692575 1.81445 35 38 35
0.954761 -0.695773 1.82283 35 38 36
0.984391 -0.710263 1.86079 35 39 36
1.02025 -0.728918 1.90967 36 39 36
0.983403 -0.695773 1.82283 36 39 37
1.03219 -0.723268 1.89486 37 39 37
1.03082 -0.715432 1.87433 37 39 37
1.11041 -0.763399 2 38 39 37
1.12089 -0.763399 2 37 38 36
1.03114 -0.695773 1.82283 36 37 35
1.14184 -0.763399 2 35 36 33
1.09174 -0.723268 1.89486 34 36 33
1.10166 -0.723268 1.89486 36 38 35
1.08178 -0.70387 1.84404 38 40 37
1.12151 -0.723268 1.89486 38 40 37
1.04957 -0.670937 1.75776 37 39 36
1.20469 -0.763399 2 36 38 35
1.21517 -0.763399 2 37 38 35
1.30266 -0.811365 2.12567 36 39 35
1.13973 -0.70387 1.84404 35 40 35
1.11892 -0.685214 1.79517 35 40 35
-0.514075 -0.307913 0.817894 35 40 33
-0.521191 -0.314798 0.836183 35 40 33
-0.472126 -0.28758 0.763883 36 40 35
-0.493488 -0.303161 0.805271 36 39 36
-0.547011 -0.338938 0.900304 35 39 36
-0.485052 -0.303161 0.805271 36 39 36
-0.491318 -0.309771 0.822829 37 38 36
-0.532864 -0.338938 0.900304 37 39 37
-0.490532 -0.314798 0.836183 38 39 37
-0.486153 -0.314798 0.836183 38 38 36
-0.507119 -0.33136 0.880174 38 37 35
-0.499175 -0.329161 0.874334 38 37 35
-0.500912 -0.333365 0.885502 39 38 37
-0.477047 -0.32045 0.851194 39 38 37
-0.472589 -0.32045 0.851194 38 37 36
-0.502517 -0.343989 0.91372 38 38 36
-0.513291 -0.354742 0.942284 37 37 36
-0.539493 -0.376471 1 35 36 35
-0.473084 -0.333365 0.885502 36 36 35
-0.453754 -0.32291 0.85773 37 38 37
-0.452401 -0.325167 0.863725 38 38 36
-0.475725 -0.345385 0.917429 38 39 36
-0.479032 -0.351335 0.933233 38 39 35
-0.46217 -0.342462 0.909666 38 38 34
-0.472433 -0.353714 0.939552 38 37 34
-0.481765 -0.364497 0.968195 37 37 33
-0.462591 -0.353714 0.939552 38 37 33
-0.471623 -0.364497 0.968195 38 37 33
-0.46728 -0.365066 0.969708 38 38 35
-0.476639 -0.376471 1 38 38 34
-0.442906 -0.353714 0.939552 38 38 35
-0.452043 -0.365066 0.969708 38 38 35
-0.434323 -0.354742 0.942284 38 38 35
-0.455688 -0.376471 1 37 37 35
-0.420375 -0.351335 0.933233 37 37 34
-0.445213 -0.376471 1 37 37 35
-0.439975 -0.376471 1 38 38 34
-0.421568 -0.365066 0.969708 39 39 35
-0.443159 -0.388444 1.0318 38 39 35
-0.409272 -0.363169 0.964669 37 37 33
-0.419024 -0.376471 1 37 37 33
-0.444635 -0.404538 1.07455 37 37 33
-0.451502 -0.416052 1.10514 37 37 34
-0.433379 -0.404538 1.07455 37 37 34
-0.426115 -0.402992 1.07045 37 37 34
-0.407529 -0.390552 1.03741 37 37 33
-0.433332 -0.420893 1.118 37 36 33
-0.398563 -0.392425 1.04238 38 37 34
-0.406977 -0.406275 1.07917 38 37 34
-0.401324 -0.406275 1.07917 39 37 35
-0.397585 -0.408239 1.08438 40 38 35
-0.391905 -0.408239 1.08438 39 37 34
-0.404034 -0.427063 1.13439 37 36 31
-0.395033 -0.42378 1.12567 36 36 31
-0.411387 -0.448011 1.19003 37 38 33
-0.410193 -0.453584 1.20483 39 39 35
-0.403883 -0.453584 1.20483 38 39 34
-0.412916 -0.47109 1.25133 37 38 33
-0.406362 -0.47109 1.25133 37 38 33
-0.406283 -0.47872 1.2716 38 38 33
-0.37864 -0.453584 1.20483 38 38 33
-0.400245 -0.487592 1.29517 38 38 32
-0.377382 -0.467666 1.24224 38 38 33
-0.378044 -0.476706 1.26625 39 39 34
-0.371412 -0.476706 1.26625 39 39 34
-0.390524 -0.510349 1.35562 39 39 35
-0.366326 -0.487592 1.29517 38 38 34
-0.351515 -0.476706 1.26625 37 37 33
-0.379912 -0.525125 1.39486 38 38 34
-0.362122 -0.510349 1.35562 40 40 37
-0.359924 -0.517396 1.37433 40 40 36
-0.357994 -0.525125 1.39486 39 40 36
-0.340821 -0.510349 1.35562 38 39 34
-0.369265 -0.564706 1.5 37 38 34
-0.361408 -0.564706 1.5 38 39 34
-0.332259 -0.530698 1.40967 39 40 35
-0.345695 -0.564706 1.5 39 39 35
-0.337838 -0.564706 1.5 39 39 36
-0.329981 -0.564706 1.5 38 39 35
-0.349111 -0.612015 1.62567 37 37 33
-0.340596 -0.612015 1.62567 37 37 34
-0.292021 -0.538185 1.42955 37 38 34
-0.298554 -0.564706 1.5 37 39 36
-0.301883 -0.586434 1.55772 37 39 36
-0.321464 -0.641819 1.70483 37 39 35
-0.317836 -0.652706 1.73375 37 39 35
-0.315495 -0.666955 1.7716 37 39 35
-0.31029 -0.675828 1.79517 37 39 34
-0.300887 -0.675828 1.79517 36 38 33
-0.287658 -0.666955 1.7716 35 37 31
-0.262335 -0.628518 1.6695 36 37 32
-0.272679 -0.675828 1.79517 36 37 33
-0.260753 -0.669352 1.77797 37 38 34
-0.236102 -0.628518 1.6695 37 38 33
-0.232169 -0.641819 1.70483 37 38 33
-0.225492 -0.648295 1.72203 38 39 33
-0.21431 -0.641819 1.70483 38 38 32
-0.20931 -0.654099 1.73745 37 37 30
-0.192379 -0.628518 1.6695 37 37 30
-0.189413 -0.648295 1.72203 37 37 30
-0.184136 -0.661746 1.75776 38 38 32
-0.174929 -0.661746 1.75776 37 38 33
-0.162354 -0.648295 1.72203 37 38 33
-0.155133 -0.655901 1.74224 37 38 33
-0.149309 -0.670729 1.78162 37 38 34
-0.139977 -0.670729 1.78162 37 39 35
-0.127757 -0.655901 1.74224 37 39 35
-0.120631 -0.666955 1.7716 36 37 34
-0.113588 -0.680349 1.80718 36 37 34
-0.10343 -0.675828 1.79517 36 37 33
-0.0901967 -0.648295 1.72203 37 39 34
-0.0795765 -0.635514 1.68808 38 40 35
-0.07401 -0.664941 1.76625 37 39 34
-0.0631377 -0.648295 1.72203 37 38 34
-0.054118 -0.648295 1.72203 38 38 34
-0.0466589 -0.670729 1.78162 38 39 34
-0.0364017 -0.654099 1.73745 38 39 34
-0.0279954 -0.670729 1.78162 38 39 34
-0.0176837 -0.635514 1.68808 38 39 35
-0.00884184 -0.635514 1.68808 38 40 36
0 -0.648295 1.72203 38 39 36
0.00954761 -0.686241 1.82283 38 39 36
0.0180393 -0.648295 1.72203 37 39 35
0.0267887 -0.641819 1.70483 37 38 35
0.0361349 -0.649307 1.72472 38 38 35
0.0451687 -0.649307 1.72472 38 39 36
0.0567938 -0.680349 1.80718 38 39 35
0.0632361 -0.649307 1.72472 37 39 34
0.0747538 -0.671623 1.784 37 39 34
0.0787006 -0.628518 1.6695 37 38 34
0.0876704 -0.630137 1.6738 36 38 33
0.10038 -0.655901 1.74224 37 38 34
0.107155 -0.641819 1.70483 37 39 35
0.114771 -0.634559 1.68555 37 39 35
0.128895 -0.661746 1.75776 37 39 35
0.137597 -0.659325 1.75133 37 39 35
0.138178 -0.620727 1.64881 37 39 35
0.157271 -0.664941 1.76625 36 38 34
0.163807 -0.654099 1.73745 36 38 34
0.174929 -0.661746 1.75776 35 37 33
0.18251 -0.655901 1.74224 36 38 34
0.197457 -0.675828 1.79517 37 38 35
0.205299 -0.670729 1.78162 37 38 35
0.203057 -0.634559 1.68555 36 37 33
0.21431 -0.641819 1.70483 36 37 33
0.223239 -0.641819 1.70483 36 37 32
0.241261 -0.666955 1.7716 37 38 33
0.251958 -0.670729 1.78162 39 40 36
0.255514 -0.655901 1.74224 38 39 35
0.264639 -0.655901 1.74224 38 39 35
0.273012 -0.654099 1.73745 37 39 35
0.27961 -0.648295 1.72203 37 38 35
0.292016 -0.655901 1.74224 36 37 35
0.297649 -0.648295 1.72203 36 37 36
0.317704 -0.671623 1.784 38 38 37
0.315688 -0.648295 1.72203 39 39 37
0.324708 -0.648295 1.72203 39 38 37
0.337643 -0.655901 1.74224 39 38 36
0.346768 -0.655901 1.74224 39 39 36
0.37669 -0.694227 1.84404 39 38 36
0.357183 -0.641819 1.70483 38 38 35
0.377479 -0.661746 1.75776 38 37 35
0.386686 -0.661746 1.75776 38 37 35
0.417316 -0.697556 1.85288 38 37 35
0.418957 -0.684384 1.81789 38 37 35
0.416307 -0.664941 1.76625 38 37 35
0.432525 -0.675828 1.79517 38 38 35
0.441928 -0.675828 1.79517 39 38 36
0.461118 -0.690483 1.8341 38 38 35
0.470724 -0.690483 1.8341 37 37 35
0.456274 -0.655901 1.74224 37 38 35
0.492594 -0.694227 1.84404 38 39 36
0.488941 -0.675828 1.79517 38 39 36
0.498344 -0.675828 1.79517 39 39 37
0.518757 -0.690483 1.8341 38 38 36
0.520609 -0.680349 1.80718 37 37 36
0.519639 -0.666955 1.7716 37 37 36
0.508985 -0.641819 1.70483 37 37 36
0.538198 -0.666955 1.7716 37 38 36
0.545824 -0.664941 1.76625 37 38 35
0.582301 -0.697556 1.85288 37 37 35
0.573566 -0.675828 1.79517 37 38 35
0.578571 -0.670729 1.78162 38 38 36
0.596335 -0.680349 1.80718 38 38 36
0.593874 -0.666955 1.7716 38 38 36
0.611177 -0.675828 1.79517 38 38 37
0.630142 -0.686241 1.82283 39 39 37
0.647134 -0.694227 1.84404 39 39 37
0.649237 -0.686241 1.82283 39 38 37
0.654137 -0.6814 1.80997 38 37 37
0.65819 -0.675828 1.79517 38 37 37
0.685769 -0.694227 1.84404 39 38 38
0.682578 -0.6814 1.80997 39 38 37
0.696975 -0.686241 1.82283 38 38 37
0.719231 -0.698585 1.85562 38 38 37
0.669717 -0.641819 1.70483 38 39 37
0.720499 -0.6814 1.80997 38 39 37
0.705256 -0.658322 1.74867 38 38 36
0.73946 -0.6814 1.80997 37 38 36
0.737211 -0.670729 1.78162 37 37 36
0.732733 -0.658322 1.74867 37 38 36
0.803917 -0.71336 1.89486 38 39 36
0.777381 -0.6814 1.80997 37 38 36
0.801673 -0.694227 1.84404 37 38 36
0.798314 -0.683088 1.81445 37 38 35
0.807817 -0.683088 1.81445 37 38 35
0.817321 -0.683088 1.81445 37 38 35
0.911376 -0.752941 2 37 39 35
0.863929 -0.705632 1.87433 35 39 35
0.867433 -0.700533 1.86079 35 39 35
0.912892 -0.729054 1.93655 35 39 35
0.886926 -0.700533 1.86079 35 38 35
0.929808 -0.72642 1.92955 35 38 35
0.913016 -0.705632 1.87433 35 38 35
0.897475 -0.686241 1.82283 36 39 36
0.995181 -0.752941 2 37 40 36
0.965849 -0.723137 1.92083 36 39 36
0.921862 -0.683088 1.81445 35 38 35
0.955151 -0.700533 1.86079 35 38 35
0.996032 -0.723137 1.92083 35 38 36
1.00024 -0.718933 1.90967 35 38 36
0.964308 -0.686241 1.82283 36 39 36
1.06851 -0.752941 2 36 39 36
1.03628 -0.723137 1.92083 37 40 37
1.08946 -0.752941 2 37 39 37
1.09994 -0.752941 2 38 40 37
0.996688 -0.675828 1.79517 38 39 37
1.12089 -0.752941 2 38 39 36
1.01549 -0.675828 1.79517 37 38 35
1.09027 -0.718933 1.90967 35 36 33
1.15232 -0.752941 2 35 36 33
1.01293 -0.655901 1.74224 37 38 36
1.17327 -0.752941 2 38 39 36
1.18374 -0.752941 2 37 39 36
1.19422 -0.752941 2 36 38 36
1.20469 -0.752941 2 36 38 35
1.06799 -0.661746 1.75776 36 39 35
1.10012 -0.675828 1.79517 36 40 35
1.05369 -0.641819 1.70483 36 40 36
1.3438 -0.811655 2.15596 36 40 36
-0.499791 -0.295199 0.795167 35 40 32
-0.509791 -0.303636 0.817894 35 39 32
-0.491461 -0.295199 0.795167 35 38 34
-0.531871 -0.322202 0.867904 35 38 35
-0.531232 -0.324589 0.874334 35 38 35
-0.508406 -0.313344 0.844042 36 38 36
-0.522073 -0.324589 0.874334 36 38 35
-0.53577 -0.336053 0.905214 37 38 36
-0.495143 -0.313344 0.844042 37 38 36
-0.514827 -0.328735 0.885502 38 38 36
-0.463963 -0.29895 0.805271 39 37 35
-0.48188 -0.313344 0.844042 40 38 37
-0.460721 -0.302359 0.814453 41 39 38
-0.477047 -0.315999 0.851194 39 38 37
-0.476217 -0.318425 0.85773 37 36 35
-0.484068 -0.326758 0.880174 37 37 35
-0.495523 -0.337706 0.909666 37 37 36
-0.490758 -0.337706 0.909666 36 36 35
-0.48816 -0.339211 0.91372 36 36 35
-0.465628 -0.326758 0.880174 37 38 37
-0.476464 -0.337706 0.909666 37 38 36
-0.488614 -0.349815 0.942284 37 38 35
-0.483678 -0.349815 0.942284 37 38 34
-0.46217 -0.337706 0.909666 37 37 34
-0.442577 -0.326758 0.880174 37 37 33
-0.450426 -0.336053 0.905214 36 36 31
-0.476694 -0.359435 0.968195 37 36 32
-0.487115 -0.371242 1 37 36 32
-0.481877 -0.371242 1 37 37 34
-0.46148 -0.359435 0.968195 37 37 34
-0.457122 -0.359996 0.969708 37 37 34
-0.452684 -0.360507 0.971083 37 38 34
-0.460926 -0.371242 1 37 37 34
-0.440434 -0.358814 0.966525 37 37 35
-0.45045 -0.371242 1 37 37 35
-0.445213 -0.371242 1 37 37 35
-0.453303 -0.382488 1.03029 37 37 34
-0.434737 -0.371242 1 38 38 34
-0.429499 -0.371242 1 38 38 35
-0.424261 -0.371242 1 37 37 33
-0.432351 -0.383049 1.0318 37 37 33
-0.427638 -0.383669 1.03348 37 38 34
-0.435825 -0.396028 1.06677 37 38 34
-0.416137 -0.383049 1.0318 37 37 34
-0.429587 -0.400632 1.07917 37 37 34
-0.378141 -0.357356 0.962595 37 37 34
-0.405192 -0.388095 1.0454 38 37 34
-0.407888 -0.396028 1.06677 38 37 34
-0.419057 -0.412524 1.1112 37 36 33
-0.415764 -0.415047 1.118 38 37 33
-0.407417 -0.412524 1.1112 39 37 34
-0.390019 -0.400632 1.07917 38 37 34
-0.393617 -0.410273 1.10514 38 36 32
-0.401602 -0.424843 1.14438 37 37 32
-0.411387 -0.441789 1.19003 37 38 34
-0.400776 -0.437015 1.17717 37 38 34
-0.387499 -0.42914 1.15596 37 38 33
-0.377625 -0.424843 1.14438 37 38 32
-0.396848 -0.45367 1.22203 37 37 32
-0.380221 -0.441789 1.19003 38 38 32
-0.390395 -0.461171 1.24224 38 38 33
-0.391309 -0.470085 1.26625 38 37 32
-0.393462 -0.48082 1.29517 38 37 32
-0.386678 -0.48082 1.29517 39 38 33
-0.371412 -0.470085 1.26625 39 39 34
-0.353876 -0.456034 1.2284 39 38 34
-0.37415 -0.491089 1.32283 37 38 33
-0.359542 -0.48082 1.29517 37 37 33
-0.378261 -0.515581 1.3888 38 38 34
-0.353364 -0.491089 1.32283 39 39 35
-0.331618 -0.470085 1.26625 39 39 35
-0.370165 -0.535436 1.44228 38 39 35
-0.377121 -0.556863 1.5 37 39 35
-0.369265 -0.556863 1.5 37 38 34
-0.375314 -0.578289 1.55772 37 38 33
-0.390311 -0.614761 1.65596 37 38 34
-0.356958 -0.575007 1.54887 37 38 34
-0.337838 -0.556863 1.5 38 38 35
-0.38327 -0.646792 1.74224 38 38 35
-0.337253 -0.583015 1.57045 38 38 34
-0.336295 -0.595894 1.60514 37 37 34
-0.348253 -0.632905 1.70483 37 38 35
-0.332291 -0.619789 1.6695 37 38 35
-0.315052 -0.603515 1.62567 37 38 35
-0.293724 -0.578289 1.55772 37 38 35
-0.312535 -0.632905 1.70483 37 39 35
-0.294901 -0.614761 1.65596 38 40 36
-0.31029 -0.666441 1.79517 37 39 35
-0.279824 -0.619789 1.6695 36 38 34
-0.291484 -0.666441 1.79517 37 38 34
-0.282082 -0.666441 1.79517 38 39 35
-0.284704 -0.695831 1.87433 39 39 35
-0.256457 -0.649179 1.74867 39 40 36
-0.247674 -0.650168 1.75133 38 39 34
-0.24295 -0.662295 1.784 37 38 33
-0.22751 -0.645015 1.73745 38 38 33
-0.217945 -0.643641 1.73375 38 38 32
-0.203362 -0.626687 1.68808 37 38 31
-0.204144 -0.657692 1.7716 37 37 30
-0.194865 -0.657692 1.7716 37 37 31
-0.183462 -0.650168 1.75133 38 38 32
-0.173384 -0.646792 1.74224 37 38 33
-0.167972 -0.661413 1.78162 37 38 33
-0.151803 -0.632905 1.70483 37 38 34
-0.142873 -0.632905 1.70483 37 38 34
-0.136506 -0.645015 1.73745 38 39 35
-0.127406 -0.645015 1.73745 38 39 35
-0.120631 -0.657692 1.7716 37 38 34
-0.111351 -0.657692 1.7716 36 37 34
-0.0993711 -0.640288 1.72472 37 38 35
-0.0892957 -0.632905 1.70483 38 39 35
-0.0819037 -0.645015 1.73745 37 39 34
-0.0714365 -0.632905 1.70483 36 37 32
-0.0617999 -0.625746 1.68555 37 38 33
-0.0564163 -0.666441 1.79517 37 38 33
-0.0456274 -0.646792 1.74224 38 39 34
-0.0368272 -0.652555 1.75776 38 39 35
-0.0273012 -0.645015 1.73745 38 39 35
-0.018251 -0.646792 1.74224 38 39 35
-0.00912549 -0.646792 1.74224 38 39 35
0 -0.657692 1.7716 37 39 35
0.00934422 -0.662295 1.784 38 39 36
0.0186636 -0.661413 1.78162 37 38 35
0.0267887 -0.632905 1.70483 37 37 35
0.0368272 -0.652555 1.75776 38 38 34
0.0450983 -0.639291 1.72203 37 38 34
0.0546025 -0.645015 1.73745 37 38 33
0.0642118 -0.650168 1.75133 38 39 34
0.0707347 -0.626687 1.68808 38 39 35
0.081177 -0.639291 1.72203 36 38 32
0.0927928 -0.657692 1.7716 35 37 31
0.0992163 -0.639291 1.72203 37 38 33
0.110482 -0.652555 1.75776 37 39 35
0.119688 -0.652555 1.75776 37 38 35
0.126275 -0.639291 1.72203 36 39 35
0.136506 -0.645015 1.73745 36 39 35
0.141257 -0.625746 1.68555 37 39 35
0.156516 -0.652555 1.75776 37 39 35
0.164259 -0.646792 1.74224 37 39 35
0.169662 -0.632905 1.70483 37 39 35
0.176837 -0.626687 1.68808 38 39 35
0.197457 -0.666441 1.79517 38 39 36
0.191724 -0.617679 1.66382 38 39 36
0.217709 -0.6709 1.80718 37 39 35
0.222703 -0.657692 1.7716 38 39 35
0.221046 -0.626687 1.68808 36 37 32
0.237263 -0.646792 1.74224 35 36 31
0.245711 -0.645015 1.73745 37 38 34
0.250028 -0.632905 1.70483 38 39 35
0.263912 -0.645015 1.73745 38 40 35
0.276204 -0.652555 1.75776 38 40 36
0.287658 -0.657692 1.7716 37 38 35
0.294618 -0.652555 1.75776 36 37 34
0.31029 -0.666441 1.79517 37 37 36
0.317704 -0.662295 1.784 38 38 38
0.321059 -0.650168 1.75133 39 39 38
0.340763 -0.6709 1.80718 39 38 37
0.350228 -0.6709 1.80718 40 39 37
0.368791 -0.687868 1.85288 41 40 38
0.351767 -0.639291 1.72203 40 39 36
0.361349 -0.640288 1.72472 39 38 36
0.383113 -0.662295 1.784 38 37 35
0.394914 -0.666441 1.79517 38 36 34
0.387846 -0.639291 1.72203 38 37 34
0.383448 -0.617679 1.66382 37 37 35
0.414306 -0.652555 1.75776 37 37 35
0.418619 -0.645015 1.73745 38 37 36
0.441928 -0.666441 1.79517 38 38 36
0.445405 -0.657692 1.7716 38 38 36
0.470724 -0.680893 1.8341 38 39 36
0.470136 -0.666441 1.79517 38 39 36
0.482747 -0.6709 1.80718 38 39 36
0.495131 -0.674878 1.81789 37 38 36
0.495244 -0.662295 1.784 37 38 35
0.504588 -0.662295 1.784 37 38 36
0.51715 -0.666441 1.79517 37 37 36
0.526552 -0.666441 1.79517 36 37 36
0.518724 -0.645015 1.73745 37 37 36
0.553761 -0.67671 1.82283 37 38 36
0.543201 -0.652555 1.75776 37 37 35
0.535774 -0.632905 1.70483 36 37 34
0.577403 -0.6709 1.80718 36 37 35
0.578571 -0.661413 1.78162 37 38 35
0.592371 -0.666441 1.79517 37 38 36
0.597234 -0.661413 1.78162 37 38 36
0.611177 -0.666441 1.79517 38 38 36
0.660161 -0.708948 1.90967 38 38 36
0.63969 -0.67671 1.82283 38 38 36
0.634561 -0.661413 1.78162 38 38 37
0.648788 -0.666441 1.79517 38 37 37
0.680353 -0.688882 1.85562 38 37 36
0.673098 -0.671936 1.80997 38 37 37
0.671888 -0.661413 1.78162 38 38 36
0.705086 -0.684585 1.84404 38 38 36
0.689134 -0.660055 1.77797 38 38 37
0.711019 -0.671936 1.80997 39 39 37
0.734062 -0.684585 1.84404 38 38 37
0.743721 -0.684585 1.84404 38 38 36
0.714415 -0.649179 1.74867 37 38 36
0.767827 -0.688882 1.85562 37 37 36
0.736544 -0.652555 1.75776 36 38 35
0.782356 -0.684585 1.84404 37 38 36
0.777381 -0.671936 1.80997 37 39 36
0.844383 -0.721057 1.94228 38 39 36
0.833692 -0.703452 1.89486 38 39 36
0.814961 -0.679558 1.8305 37 38 35
0.844295 -0.695831 1.87433 37 38 34
0.840308 -0.684585 1.84404 36 38 34
0.895249 -0.721057 1.94228 35 38 35
0.899488 -0.716331 1.92955 35 39 35
0.817293 -0.643641 1.73375 36 39 36
0.855647 -0.666441 1.79517 36 39 36
0.90858 -0.699977 1.8855 36 38 35
0.874453 -0.666441 1.79517 35 38 35
0.883856 -0.666441 1.79517 36 39 36
0.995181 -0.742484 2 36 39 36
0.935659 -0.690803 1.86079 36 39 36
0.926118 -0.67671 1.82283 35 38 35
1.02661 -0.742484 2 34 37 34
0.956213 -0.684585 1.84404 35 38 35
0.927928 -0.657692 1.7716 35 38 36
1.05803 -0.742484 2 36 38 36
1.02622 -0.713094 1.92083 36 38 36
1.03025 -0.708948 1.90967 36 39 36
0.965045 -0.657692 1.7716 37 39 36
1.0025 -0.67671 1.82283 37 39 36
1.06646 -0.713094 1.92083 37 38 35
1.03348 -0.684585 1.84404 37 38 36
1.13136 -0.742484 2 38 39 36
1.08181 -0.703452 1.89486 36 37 34
1.10027 -0.708948 1.90967 35 36 33
1.10166 -0.703452 1.89486 37 38 36
1.09955 -0.695831 1.87433 37 39 37
1.09143 -0.684585 1.84404 36 38 36
1.19422 -0.742484 2 35 37 35
1.129 -0.695831 1.87433 36 38 36
1.21517 -0.742484 2 36 38 35
1.22564 -0.742484 2 36 40 35
1.23612 -0.742484 2 36 40 36
1.39758 -0.832413 2.24224 35 39 34
-0.492772 -0.286954 0.784 35 39 32
-0.495626 -0.291042 0.795167 35 39 31
-0.505507 -0.29936 0.817894 33 37 31
-0.457345 -0.273153 0.746293 33 36 33
-0.494849 -0.2981 0.814453 35 37 35
-0.490583 -0.2981 0.814453 36 38 36
-0.528741 -0.324105 0.885502 36 38 36
-0.503797 -0.311548 0.851194 37 38 36
-0.547466 -0.341576 0.933233 38 38 36
-0.482848 -0.303973 0.830499 38 38 36
-0.452667 -0.287564 0.785666 39 38 36
-0.499175 -0.320018 0.874334 40 38 37
-0.469798 -0.303973 0.830499 40 39 37
-0.499008 -0.325891 0.89038 40 38 37
-0.472589 -0.311548 0.851194 38 36 35
-0.46813 -0.311548 0.851194 36 36 35
-0.497732 -0.334434 0.91372 36 37 35
-0.490758 -0.332949 0.909666 36 36 35
-0.485994 -0.332949 0.909666 36 37 35
-0.459844 -0.318154 0.869241 37 38 37
-0.476464 -0.332949 0.909666 37 38 35
-0.447877 -0.316135 0.863725 37 37 34
-0.469016 -0.334434 0.91372 37 37 34
-0.449893 -0.324105 0.885502 37 36 33
-0.461309 -0.335791 0.917429 36 36 32
-0.472302 -0.347412 0.949179 35 35 30
-0.433356 -0.322155 0.880174 36 35 31
-0.459001 -0.344888 0.942284 36 36 31
-0.467943 -0.355429 0.971083 36 36 33
-0.446396 -0.342789 0.936549 37 37 33
-0.444194 -0.344888 0.942284 37 37 33
-0.452043 -0.354926 0.969708 37 37 34
-0.460926 -0.366013 1 37 37 35
-0.442511 -0.355429 0.971083 38 38 35
-0.421869 -0.342789 0.936549 37 37 35
-0.445213 -0.366013 1 37 37 35
-0.439975 -0.366013 1 37 38 35
-0.421568 -0.354926 0.969708 38 38 35
-0.456751 -0.389237 1.06345 38 38 35
-0.424261 -0.366013 1 37 37 33
-0.445611 -0.389237 1.06345 37 37 33
-0.441413 -0.390451 1.06677 38 38 35
-0.435825 -0.390451 1.06677 37 38 34
-0.41756 -0.378945 1.03533 38 38 34
-0.42775 -0.393301 1.07455 37 38 34
-0.439188 -0.409201 1.118 38 38 34
-0.402095 -0.379704 1.03741 38 38 34
-0.412629 -0.394989 1.07917 38 38 35
-0.390446 -0.378945 1.03533 38 37 34
-0.413237 -0.406714 1.1112 38 36 33
-0.412721 -0.412008 1.12567 38 37 33
-0.425439 -0.43086 1.17717 39 38 34
-0.423853 -0.435567 1.19003 39 37 33
-0.392341 -0.409201 1.118 38 37 33
-0.426501 -0.451569 1.23375 37 37 33
-0.420039 -0.451569 1.23375 36 37 32
-0.403883 -0.440985 1.20483 36 37 31
-0.420818 -0.466769 1.27528 37 38 32
-0.379788 -0.428053 1.1695 37 37 32
-0.399807 -0.458004 1.25133 37 37 31
-0.414172 -0.482366 1.31789 38 37 32
-0.361411 -0.428053 1.1695 37 37 31
-0.366019 -0.440985 1.20483 38 37 32
-0.386678 -0.474048 1.29517 39 38 34
-0.353397 -0.440985 1.20483 38 38 34
-0.40183 -0.510538 1.39486 38 38 33
-0.37415 -0.484173 1.32283 37 37 33
-0.367222 -0.484173 1.32283 36 37 32
-0.383944 -0.515956 1.40967 37 37 33
-0.372606 -0.510538 1.39486 37 37 33
-0.355022 -0.496173 1.35562 37 37 33
-0.41723 -0.595015 1.62567 36 37 32
-0.364834 -0.531131 1.45113 36 38 33
-0.369265 -0.54902 1.5 37 38 34
-0.402247 -0.611059 1.6695 37 37 33
-0.353551 -0.54902 1.5 35 36 31
-0.358996 -0.570144 1.55772 36 36 32
-0.366141 -0.595015 1.62567 37 37 34
-0.342678 -0.570144 1.55772 38 39 35
-0.334519 -0.570144 1.55772 38 39 35
-0.336295 -0.587501 1.60514 38 38 35
-0.341036 -0.611059 1.6695 37 38 35
-0.357303 -0.657055 1.79517 37 38 35
-0.315052 -0.595015 1.62567 36 37 34
-0.338498 -0.657055 1.79517 36 38 34
-0.312535 -0.623991 1.70483 35 37 33
-0.303605 -0.623991 1.70483 36 38 34
-0.306216 -0.648428 1.7716 38 39 35
-0.292016 -0.637682 1.74224 37 39 35
-0.30214 -0.681074 1.86079 37 39 34
-0.278378 -0.648428 1.7716 38 39 35
-0.265616 -0.640035 1.74867 39 39 35
-0.252551 -0.630287 1.72203 39 40 35
-0.245711 -0.63593 1.73745 39 39 35
-0.229888 -0.617861 1.68808 37 38 33
-0.221046 -0.617861 1.68808 38 39 33
-0.220155 -0.64101 1.75133 39 39 34
-0.212494 -0.645604 1.76388 40 40 34
-0.19645 -0.623991 1.70483 39 39 34
-0.194865 -0.648428 1.7716 39 39 33
-0.178591 -0.623991 1.70483 38 38 33
-0.172908 -0.63593 1.73745 38 38 33
-0.167972 -0.652098 1.78162 38 38 33
-0.155133 -0.637682 1.74224 38 39 35
-0.144315 -0.630287 1.72203 38 39 34
-0.135295 -0.630287 1.72203 38 38 34
-0.126275 -0.630287 1.72203 38 38 34
-0.117256 -0.630287 1.72203 37 38 34
-0.108236 -0.630287 1.72203 36 38 34
-0.102786 -0.652967 1.784 37 39 35
-0.092068 -0.643364 1.75776 38 39 35
-0.0825581 -0.64101 1.75133 37 38 34
-0.0714365 -0.623991 1.70483 37 38 33
-0.0631377 -0.630287 1.72203 37 38 33
-0.0559907 -0.652098 1.78162 37 38 34
-0.046034 -0.643364 1.75776 38 39 34
-0.0364017 -0.63593 1.73745 38 39 34
-0.0283969 -0.661451 1.80718 37 38 34
-0.0180393 -0.630287 1.72203 37 38 34
-0.00927928 -0.648428 1.7716 37 38 34
0 -0.623991 1.70483 37 38 35
0.00901967 -0.630287 1.72203 37 38 35
0.0184136 -0.643364 1.75776 37 38 35
0.0273012 -0.63593 1.73745 36 37 34
0.0357183 -0.623991 1.70483 37 37 34
0.0441428 -0.616932 1.68555 37 37 33
0.054118 -0.630287 1.72203 37 37 33
0.0637029 -0.63593 1.73745 38 39 34
0.0733849 -0.64101 1.75133 37 39 34
0.081177 -0.630287 1.72203 36 38 33
0.0910042 -0.63593 1.73745 36 37 32
0.101275 -0.643364 1.75776 37 39 34
0.112833 -0.657055 1.79517 37 39 34
0.118631 -0.637682 1.74224 36 38 34
0.126275 -0.630287 1.72203 36 38 34
0.135295 -0.630287 1.72203 36 38 34
0.150444 -0.657055 1.79517 37 39 35
0.159846 -0.657055 1.79517 38 39 36
0.159153 -0.617861 1.68808 37 39 35
0.172908 -0.63593 1.73745 37 39 35
0.190435 -0.665373 1.81789 38 39 35
0.191109 -0.63593 1.73745 39 40 37
0.208244 -0.661451 1.80718 39 39 36
0.20538 -0.623991 1.70483 38 39 36
0.216472 -0.630287 1.72203 38 39 35
0.241468 -0.674943 1.84404 36 37 33
0.239377 -0.643364 1.75776 35 36 32
0.245711 -0.63593 1.73745 36 37 33
0.254812 -0.63593 1.73745 37 38 34
0.258957 -0.623991 1.70483 38 40 36
0.288199 -0.671303 1.8341 38 40 36
0.282113 -0.63593 1.73745 38 39 36
0.291213 -0.63593 1.73745 36 37 35
0.300314 -0.63593 1.73745 36 37 36
0.315495 -0.648428 1.7716 38 38 37
0.324775 -0.648428 1.7716 38 38 37
0.336392 -0.652967 1.784 39 39 37
0.343333 -0.648428 1.7716 40 40 37
0.348578 -0.64101 1.75133 40 40 37
0.355894 -0.637682 1.74224 39 38 36
0.360787 -0.630287 1.72203 39 38 35
0.374145 -0.637682 1.74224 38 37 35
0.405666 -0.674943 1.84404 38 37 35
0.401267 -0.652098 1.78162 38 37 35
0.41372 -0.657055 1.79517 37 37 35
0.398342 -0.618573 1.69003 36 36 34
0.414905 -0.630287 1.72203 37 36 34
0.415566 -0.617861 1.68808 38 38 36
0.451331 -0.657055 1.79517 38 38 36
0.457867 -0.652967 1.784 38 39 36
0.476088 -0.665373 1.81789 37 39 36
0.482747 -0.661451 1.80718 37 38 36
0.469023 -0.630287 1.72203 37 38 36
0.482322 -0.63593 1.73745 37 38 35
0.504588 -0.652967 1.784 37 37 35
0.51036 -0.648428 1.7716 36 37 36
0.519639 -0.648428 1.7716 37 37 36
0.522868 -0.64101 1.75133 37 38 37
0.538198 -0.648428 1.7716 37 38 37
0.543201 -0.643364 1.75776 37 38 35
0.560654 -0.652967 1.784 36 38 35
0.561615 -0.643364 1.75776 36 37 35
0.582969 -0.657055 1.79517 36 37 35
0.596335 -0.661451 1.80718 37 38 36
0.597234 -0.652098 1.78162 38 38 36
0.601332 -0.64647 1.76625 38 39 37
0.634037 -0.671303 1.8341 38 38 36
0.63969 -0.667179 1.82283 38 37 36
0.639385 -0.657055 1.79517 38 38 37
0.677399 -0.686031 1.87433 39 38 37
0.663618 -0.662473 1.80997 38 37 37
0.64791 -0.637682 1.74224 38 37 37
0.687428 -0.667179 1.82283 38 38 36
0.686399 -0.657055 1.79517 39 39 36
0.695801 -0.657055 1.79517 39 38 37
0.71607 -0.667179 1.82283 39 39 37
0.742649 -0.682839 1.86561 38 38 36
0.767427 -0.696457 1.90282 37 37 36
0.73946 -0.662473 1.80997 37 37 36
0.767827 -0.679179 1.85562 37 37 36
0.752218 -0.657055 1.79517 37 38 36
0.741893 -0.640035 1.74867 37 38 36
0.777381 -0.662473 1.80997 37 39 36
0.780426 -0.657055 1.79517 38 39 36
0.856662 -0.712653 1.94707 38 39 36
0.820991 -0.674943 1.84404 38 39 36
0.815302 -0.662473 1.80997 37 38 35
0.834137 -0.669986 1.8305 35 37 34
0.863929 -0.686031 1.87433 35 38 34
0.878953 -0.690118 1.8855 34 37 34
0.855336 -0.664113 1.81445 36 39 35
0.898704 -0.690118 1.8855 36 39 36
0.933179 -0.708802 1.93655 36 39 36
0.89826 -0.674943 1.84404 35 38 35
0.953465 -0.708802 1.93655 36 39 35
0.932651 -0.686031 1.87433 36 39 36
0.91657 -0.667179 1.82283 36 39 36
0.945405 -0.681074 1.86079 35 38 35
0.946554 -0.674943 1.84404 35 38 35
0.903423 -0.637682 1.74224 35 38 35
0.927928 -0.648428 1.7716 36 38 36
0.97553 -0.674943 1.84404 36 38 36
1.06851 -0.732026 2 36 38 35
0.983403 -0.667179 1.82283 36 38 36
0.977883 -0.657055 1.79517 36 39 36
1.0564 -0.70305 1.92083 37 39 36
1.04064 -0.686031 1.87433 37 38 35
1.17981 -0.770508 2.10514 36 37 35
1.08658 -0.70305 1.92083 36 38 35
1.07009 -0.686031 1.87433 37 38 36
1.20436 -0.76509 2.09033 37 39 36
1.10166 -0.693545 1.89486 39 40 38
1.17327 -0.732026 2 37 39 37
1.06251 -0.657055 1.79517 35 37 35
1.24816 -0.76509 2.09033 35 37 35
1.28039 -0.778022 2.12567 35 38 36
1.21517 -0.732026 2 36 38 35
1.10012 -0.657055 1.79517 36 39 34
1.33251 -0.789109 2.15596 35 39 34
1.2466 -0.732026 2 34 38 34
-0.511913 -0.293842 0.814453 36 40 34
-0.521191 -0.301682 0.836183 35 39 32
-0.472126 -0.275597 0.763883 34 37 32
-0.527512 -0.31056 0.860791 35 37 34
-0.508051 -0.301682 0.836183 35 38 35
-0.495628 -0.296864 0.822829 36 38 36
-0.480835 -0.290529 0.805271 37 39 36
-0.513687 -0.313126 0.867904 37 38 36
-0.512913 -0.315446 0.874334 37 38 35
-0.473519 -0.293842 0.814453 38 37 36
-0.486301 -0.304517 0.844042 38 37 35
-0.48188 -0.304517 0.844042 38 37 35
-0.469798 -0.299631 0.830499 38 37 35
-0.46115 -0.296864 0.822829 38 37 35
-0.452189 -0.293842 0.814453 37 37 34
-0.471725 -0.309456 0.85773 36 36 34
-0.452398 -0.299631 0.830499 35 36 34
-0.462739 -0.309456 0.85773 36 36 35
-0.461449 -0.311618 0.863725 36 37 35
-0.439348 -0.299631 0.830499 37 37 36
-0.478588 -0.329656 0.91372 36 37 35
-0.447877 -0.311618 0.863725 37 37 34
-0.436922 -0.307098 0.851194 37 38 34
-0.492676 -0.349855 0.969708 38 38 34
-0.457406 -0.328193 0.909666 38 38 34
-0.470114 -0.340862 0.944781 38 38 34
-0.463936 -0.339961 0.942284 38 38 34
-0.459001 -0.339961 0.942284 36 36 32
-0.436202 -0.326587 0.905214 36 37 33
-0.462201 -0.349855 0.969708 37 37 33
-0.445371 -0.340862 0.944781 36 37 33
-0.451338 -0.34931 0.968195 37 37 34
-0.43168 -0.337892 0.936549 37 37 34
-0.426774 -0.337892 0.936549 37 37 34
-0.420375 -0.336696 0.933233 36 36 34
-0.4183 -0.338976 0.939552 37 37 34
-0.414581 -0.339961 0.942284 37 37 34
-0.434737 -0.360784 1 38 38 34
-0.429499 -0.360784 1 38 38 35
-0.451181 -0.383676 1.06345 37 37 33
-0.419024 -0.360784 1 35 36 32
-0.427638 -0.372862 1.03348 36 36 33
-0.434471 -0.383676 1.06345 37 37 34
-0.41756 -0.373531 1.03533 37 37 34
-0.412137 -0.373531 1.03533 37 37 34
-0.407529 -0.374279 1.03741 37 37 34
-0.414902 -0.3862 1.07045 38 37 34
-0.396661 -0.374279 1.03741 38 38 35
-0.405237 -0.387682 1.07455 38 38 35
-0.403265 -0.391229 1.08438 38 37 34
-0.395672 -0.389346 1.07917 38 36 32
-0.406825 -0.406123 1.12567 38 37 33
-0.419273 -0.424705 1.17717 39 37 33
-0.413107 -0.424705 1.17717 38 37 33
-0.411387 -0.429344 1.19003 37 37 33
-0.400776 -0.424705 1.17717 36 37 31
-0.427498 -0.460101 1.27528 35 36 30
-0.377625 -0.412876 1.14438 36 37 31
-0.386454 -0.429344 1.19003 37 38 32
-0.373662 -0.421938 1.1695 38 38 33
-0.393253 -0.451461 1.25133 38 38 34
-0.392962 -0.458773 1.2716 37 37 32
-0.386302 -0.458773 1.2716 37 36 31
-0.414632 -0.501057 1.3888 37 37 33
-0.403115 -0.495838 1.37433 38 38 34
-0.406095 -0.508585 1.40967 38 38 34
-0.383424 -0.489085 1.35562 38 38 34
-0.369351 -0.480023 1.3305 38 38 34
-0.383944 -0.508585 1.40967 38 38 34
-0.33825 -0.456843 1.26625 38 38 34
-0.346435 -0.477256 1.32283 37 38 34
-0.384978 -0.541176 1.5 36 37 33
-0.377121 -0.541176 1.5 36 37 33
-0.369265 -0.541176 1.5 36 37 33
-0.373184 -0.55881 1.54887 37 37 33
-0.367155 -0.561999 1.55772 36 37 33
-0.384758 -0.60233 1.6695 36 37 32
-0.350837 -0.561999 1.55772 38 38 35
-0.329981 -0.541176 1.5 38 39 35
-0.306996 -0.51576 1.42955 38 38 35
-0.344518 -0.593268 1.64438 37 38 34
-0.306411 -0.541176 1.5 37 37 34
-0.362809 -0.657648 1.82283 37 37 34
-0.330394 -0.615077 1.70483 37 38 35
-0.306537 -0.586515 1.62567 37 38 35
-0.306058 -0.60233 1.6695 36 37 33
-0.303605 -0.615077 1.70483 35 36 32
-0.313623 -0.654626 1.81445 36 37 34
-0.305523 -0.657648 1.82283 37 38 34
-0.285411 -0.634173 1.75776 37 38 33
-0.267887 -0.615077 1.70483 37 37 33
-0.261978 -0.622252 1.72472 38 38 34
-0.255514 -0.628572 1.74224 39 39 35
-0.234186 -0.597444 1.65596 37 38 33
-0.241261 -0.639165 1.7716 36 36 31
-0.233606 -0.643639 1.784 37 38 33
-0.21431 -0.615077 1.70483 39 39 34
-0.213423 -0.639165 1.7716 40 40 35
-0.203255 -0.636381 1.76388 40 40 35
-0.193343 -0.634173 1.75776 39 39 33
-0.188054 -0.647668 1.79517 38 38 33
-0.173384 -0.628572 1.74224 38 38 33
-0.167027 -0.639165 1.7716 37 37 32
-0.150311 -0.609034 1.68808 38 38 33
-0.140273 -0.603882 1.6738 38 38 34
-0.136506 -0.626845 1.73745 38 38 34
-0.127406 -0.626845 1.73745 38 38 34
-0.121475 -0.643639 1.784 37 38 34
-0.111351 -0.639165 1.7716 36 37 33
-0.0972602 -0.609034 1.68808 37 38 35
-0.0882855 -0.608119 1.68555 38 39 35
-0.0825581 -0.631853 1.75133 38 39 35
-0.0730039 -0.628572 1.74224 38 39 35
-0.0644476 -0.634173 1.75776 37 38 34
-0.054118 -0.621283 1.72203 37 38 34
-0.0467211 -0.643639 1.784 37 39 34
-0.0365019 -0.628572 1.74224 38 38 34
-0.0267887 -0.615077 1.70483 37 38 35
-0.0183462 -0.631853 1.75133 37 38 34
-0.00901967 -0.621283 1.72203 37 38 34
0 -0.620544 1.71999 36 38 34
0.00912549 -0.628572 1.74224 37 38 35
0.0180393 -0.621283 1.72203 38 39 36
0.0273012 -0.626845 1.73745 38 38 35
0.0381904 -0.657648 1.82283 38 38 35
0.0466589 -0.642782 1.78162 37 37 33
0.052467 -0.60233 1.6695 37 37 32
0.0638784 -0.628572 1.74224 37 38 33
0.0742342 -0.639165 1.7716 37 39 34
0.0803661 -0.615077 1.70483 36 38 33
0.0927928 -0.639165 1.7716 35 37 31
0.0964374 -0.603882 1.6738 36 38 33
0.112833 -0.647668 1.79517 37 39 35
0.117256 -0.621283 1.72203 37 39 35
0.126275 -0.621283 1.72203 36 38 34
0.135295 -0.621283 1.72203 37 39 35
0.147309 -0.634173 1.75776 38 40 36
0.156516 -0.634173 1.75776 37 39 35
0.159153 -0.609034 1.68808 37 39 35
0.174929 -0.634173 1.75776 37 38 35
0.185586 -0.639165 1.7716 37 38 35
0.189413 -0.621283 1.72203 38 39 36
0.200761 -0.628572 1.74224 38 39 36
0.2258 -0.67623 1.87433 38 40 36
0.21431 -0.615077 1.70483 39 40 36
0.22751 -0.626845 1.73745 36 37 33
0.244471 -0.647668 1.79517 35 36 31
0.245711 -0.626845 1.73745 36 36 32
0.265038 -0.652001 1.80718 36 37 32
0.263912 -0.626845 1.73745 36 38 34
0.257114 -0.590342 1.63628 37 38 35
0.285411 -0.634173 1.75776 37 38 35
0.296937 -0.639165 1.7716 36 37 35
0.300314 -0.626845 1.73745 37 37 36
0.313031 -0.634173 1.75776 38 38 37
0.321059 -0.631853 1.75133 39 39 38
0.324708 -0.621283 1.72203 39 39 37
0.327148 -0.609034 1.68808 39 39 36
0.348578 -0.631853 1.75133 39 38 36
0.354916 -0.626845 1.73745 39 38 35
0.353673 -0.609034 1.68808 38 37 35
0.382603 -0.642782 1.78162 38 37 35
0.402029 -0.659337 1.82751 38 37 34
0.391318 -0.626845 1.73745 38 37 35
0.396865 -0.621283 1.72203 38 38 36
0.409519 -0.626845 1.73745 37 36 34
0.426847 -0.639165 1.7716 36 36 34
0.441928 -0.647668 1.79517 37 37 35
0.44031 -0.631853 1.75133 37 38 35
0.457867 -0.643639 1.784 37 38 36
0.446478 -0.615077 1.70483 37 38 36
0.473243 -0.639165 1.7716 38 39 36
0.492213 -0.652001 1.80718 38 40 37
0.491802 -0.639165 1.7716 37 39 36
0.491422 -0.626845 1.73745 37 38 36
0.520609 -0.652001 1.80718 36 37 36
0.526552 -0.647668 1.79517 36 37 36
0.532621 -0.643639 1.784 38 39 38
0.538198 -0.639165 1.7716 38 40 38
0.551309 -0.643639 1.784 37 39 36
0.58316 -0.669477 1.85562 37 39 36
0.582404 -0.657648 1.82283 36 37 35
0.601711 -0.668491 1.85288 35 36 34
0.587902 -0.642782 1.78162 36 37 35
0.626157 -0.67391 1.8679 37 38 36
0.611177 -0.647668 1.79517 38 39 37
0.607649 -0.634173 1.75776 38 39 37
0.63969 -0.657648 1.82283 38 38 36
0.634561 -0.642782 1.78162 38 37 36
0.629659 -0.628572 1.74224 38 37 37
0.653225 -0.642782 1.78162 38 37 37
0.667593 -0.647668 1.79517 38 37 37
0.682578 -0.653009 1.80997 38 38 36
0.675342 -0.637235 1.76625 38 38 36
0.71089 -0.661713 1.8341 37 37 35
0.705204 -0.647668 1.79517 38 38 36
0.725618 -0.657648 1.82283 38 38 36
0.712347 -0.637235 1.76625 38 38 36
0.738319 -0.652001 1.80718 37 38 36
0.723574 -0.630892 1.74867 37 38 36
0.777547 -0.669477 1.85562 37 38 36
0.733294 -0.62358 1.7284 37 38 36
0.792015 -0.665301 1.84404 37 39 36
0.795786 -0.660415 1.8305 37 39 36
0.805373 -0.660415 1.8305 37 38 36
0.791573 -0.641462 1.77797 37 38 36
0.849325 -0.680259 1.8855 37 38 36
0.826825 -0.654626 1.81445 36 38 35
0.869077 -0.680259 1.8855 35 39 35
0.845832 -0.654626 1.81445 36 39 35
0.846245 -0.647668 1.79517 36 40 36
0.86484 -0.654626 1.81445 37 40 37
0.87838 -0.657648 1.82283 37 39 36
0.939914 -0.696153 1.92955 37 38 36
0.893351 -0.654626 1.81445 36 38 35
0.925912 -0.671344 1.86079 36 39 36
0.942468 -0.67623 1.87433 37 39 36
0.945405 -0.671344 1.86079 36 39 36
0.935665 -0.657648 1.82283 36 38 35
0.964898 -0.671344 1.86079 36 38 36
1.01432 -0.698676 1.93655 36 38 36
1.02077 -0.696153 1.92955 35 38 35
0.973856 -0.657648 1.82283 35 37 35
1.03628 -0.693007 1.92083 36 38 35
1.04025 -0.688977 1.90967 36 38 36
1.05026 -0.688977 1.90967 37 39 36
1.11041 -0.721569 2 36 38 35
1.12089 -0.721569 2 36 38 35
1.07189 -0.683637 1.89486 36 38 35
0.973323 -0.615077 1.70483 36 38 35
1.09174 -0.683637 1.89486 37 38 35
1.16279 -0.721569 2 37 39 36
1.17327 -0.721569 2 36 38 36
1.25812 -0.766907 2.12567 35 37 36
1.07191 -0.647668 1.79517 35 37 36
1.28039 -0.766907 2.12567 35 37 36
1.21517 -0.721569 2 35 38 35
1.22564 -0.721569 2 35 39 34
1.23612 -0.721569 2 35 39 34
1.16827 -0.67623 1.87433 36 40 35
-0.520119 -0.294226 0.82751 36 40 33
-0.521191 -0.297309 0.836183 36 40 33
-0.503381 -0.289583 0.814453 35 38 33
-0.493488 -0.286319 0.805271 36 38 35
-0.504598 -0.295288 0.830499 35 38 35
-0.508406 -0.300104 0.844042 36 38 35
-0.486317 -0.289583 0.814453 36 38 35
-0.538405 -0.323437 0.909666 37 38 36
-0.499339 -0.302647 0.851194 37 37 35
-0.502165 -0.307102 0.863725 38 37 35
-0.474079 -0.292561 0.822829 38 37 35
-0.496267 -0.309064 0.869241 37 37 35
-0.503672 -0.316579 0.89038 37 37 35
-0.487161 -0.309064 0.869241 36 36 34
-0.465011 -0.297794 0.837546 36 36 34
-0.46813 -0.302647 0.851194 35 36 33
-0.497732 -0.324878 0.91372 35 36 34
-0.474848 -0.312951 0.880174 36 36 35
-0.504754 -0.335922 0.944781 36 37 35
-0.488796 -0.328522 0.923969 37 37 36
-0.480531 -0.326197 0.917429 37 38 35
-0.475725 -0.326197 0.917429 38 38 35
-0.469016 -0.324878 0.91372 38 38 35
-0.46423 -0.324878 0.91372 38 39 35
-0.488288 -0.345274 0.971083 39 39 35
-0.440617 -0.314845 0.885502 39 39 36
-0.447876 -0.323437 0.909666 38 38 35
-0.440943 -0.321854 0.905214 36 37 32
-0.454065 -0.335034 0.942284 36 37 32
-0.462856 -0.345274 0.971083 37 37 34
-0.442906 -0.334063 0.939552 37 37 34
-0.452043 -0.344785 0.969708 37 37 34
-0.460926 -0.355556 1 37 37 34
-0.428143 -0.334063 0.939552 37 37 34
-0.464777 -0.366864 1.0318 37 37 34
-0.445213 -0.355556 1 36 37 34
-0.453303 -0.366326 1.03029 37 37 34
-0.42091 -0.344247 0.968195 37 37 34
-0.403537 -0.334063 0.939552 37 37 34
-0.410059 -0.343653 0.966525 37 37 34
-0.431141 -0.365837 1.02892 36 36 33
-0.441413 -0.379295 1.06677 35 35 31
-0.42383 -0.368855 1.03741 35 36 32
-0.431722 -0.380603 1.07045 36 36 33
-0.412962 -0.368855 1.03741 37 37 34
-0.420509 -0.380603 1.07045 37 37 34
-0.433332 -0.39751 1.118 38 37 34
-0.398563 -0.370623 1.04238 38 38 35
-0.42162 -0.39751 1.118 38 38 35
-0.418617 -0.400237 1.12567 38 37 34
-0.427474 -0.414544 1.1659 38 36 33
-0.435436 -0.428385 1.20483 37 36 33
-0.388345 -0.387674 1.09033 38 37 33
-0.422815 -0.428385 1.20483 38 37 33
-0.440857 -0.453433 1.27528 37 37 33
-0.414804 -0.4332 1.21838 37 37 33
-0.380268 -0.403337 1.13439 36 36 31
-0.412916 -0.444918 1.25133 36 37 32
-0.382278 -0.41855 1.17717 38 38 33
-0.421074 -0.468584 1.31789 39 39 34
-0.399623 -0.452124 1.2716 38 39 34
-0.372329 -0.428385 1.20483 38 38 33
-0.366019 -0.428385 1.20483 37 37 32
-0.370876 -0.441685 1.24224 37 37 32
-0.388008 -0.470339 1.32283 38 37 33
-0.37311 -0.460504 1.29517 38 38 34
-0.388718 -0.488652 1.37433 38 38 35
-0.376323 -0.481997 1.35562 38 39 35
-0.395236 -0.515956 1.45113 38 39 35
-0.387636 -0.515956 1.45113 38 39 35
-0.369177 -0.501214 1.40967 37 38 34
-0.384978 -0.533333 1.5 36 37 33
-0.377121 -0.533333 1.5 36 37 33
-0.369265 -0.533333 1.5 35 36 32
-0.361408 -0.533333 1.5 36 38 34
-0.339948 -0.512812 1.44228 38 38 35
-0.356958 -0.550711 1.54887 38 38 35
-0.366141 -0.578015 1.62567 39 39 35
-0.361744 -0.58467 1.64438 38 38 35
-0.337253 -0.558381 1.57045 37 37 34
-0.324508 -0.550711 1.54887 37 37 34
-0.35416 -0.616444 1.73375 37 37 34
-0.312576 -0.558381 1.57045 37 38 35
-0.337643 -0.619462 1.74224 38 38 35
-0.328517 -0.619462 1.74224 38 38 35
-0.324775 -0.629902 1.7716 37 37 34
-0.303605 -0.606163 1.70483 36 36 32
-0.288569 -0.593601 1.6695 36 36 32
-0.290593 -0.616444 1.73375 36 37 33
-0.281512 -0.616444 1.73375 37 37 32
-0.260207 -0.588785 1.65596 36 36 32
-0.264639 -0.619462 1.74224 37 37 32
-0.261638 -0.634311 1.784 38 37 33
-0.243241 -0.611551 1.71999 37 37 33
-0.241762 -0.63121 1.77528 37 36 32
-0.233606 -0.634311 1.784 37 37 32
-0.21841 -0.61776 1.73745 39 38 34
-0.207012 -0.610978 1.71838 40 40 35
-0.205573 -0.634311 1.784 39 39 34
-0.197457 -0.638282 1.79517 38 38 32
-0.186885 -0.634311 1.784 38 38 33
-0.167995 -0.600207 1.68808 38 38 33
-0.166299 -0.627158 1.76388 37 37 32
-0.154707 -0.61776 1.73745 37 37 32
-0.148468 -0.629902 1.7716 37 37 33
-0.138769 -0.628 1.76625 38 38 34
-0.12991 -0.629902 1.7716 38 38 34
-0.118305 -0.61776 1.73745 37 38 35
-0.107155 -0.606163 1.70483 37 38 34
-0.100904 -0.622696 1.75133 38 39 36
-0.092068 -0.624982 1.75776 38 39 35
-0.0821294 -0.619462 1.74224 38 39 35
-0.0752218 -0.638282 1.79517 38 39 35
-0.0642118 -0.622696 1.75133 37 38 34
-0.0535774 -0.606163 1.70483 37 38 34
-0.0470136 -0.638282 1.79517 37 38 35
-0.0357183 -0.606163 1.70483 38 39 35
-0.0276204 -0.624982 1.75776 38 39 36
-0.0185586 -0.629902 1.7716 38 39 35
-0.00876704 -0.59513 1.6738 37 39 35
0 -0.606163 1.70483 36 37 34
0.00910042 -0.61776 1.73745 35 36 32
0.0184136 -0.624982 1.75776 37 38 34
0.027059 -0.612279 1.72203 38 39 36
0.0360787 -0.612279 1.72203 38 38 35
0.0470136 -0.638282 1.79517 38 38 35
0.0535774 -0.606163 1.70483 38 38 34
0.0649549 -0.629902 1.7716 37 38 33
0.0736544 -0.624982 1.75776 37 38 34
0.0819037 -0.61776 1.73745 36 38 33
0.0892957 -0.606163 1.70483 36 37 32
0.0964374 -0.59513 1.6738 36 37 32
0.113588 -0.642552 1.80718 37 39 34
0.118631 -0.619462 1.74224 38 40 36
0.12991 -0.629902 1.7716 37 39 35
0.133943 -0.606163 1.70483 37 39 35
0.150444 -0.638282 1.79517 38 40 36
0.156516 -0.624982 1.75776 37 39 35
0.165722 -0.624982 1.75776 37 38 35
0.174929 -0.624982 1.75776 37 38 35
0.178591 -0.606163 1.70483 37 38 35
0.193343 -0.624982 1.75776 38 38 35
0.200761 -0.619462 1.74224 38 38 35
0.20931 -0.61776 1.73745 38 39 36
0.227175 -0.642552 1.80718 38 39 36
0.229328 -0.622696 1.75133 37 38 35
0.239377 -0.624982 1.75776 36 37 33
0.25054 -0.629902 1.7716 36 37 33
0.252551 -0.612279 1.72203 36 37 33
0.269099 -0.629902 1.7716 36 37 33
0.276204 -0.624982 1.75776 36 37 33
0.27961 -0.612279 1.72203 37 38 34
0.288629 -0.612279 1.72203 36 38 35
0.314218 -0.646362 1.81789 37 37 36
0.309414 -0.61776 1.73745 38 38 37
0.333262 -0.646362 1.81789 38 38 37
0.321464 -0.606163 1.70483 39 39 37
0.333728 -0.612279 1.72203 40 39 36
0.345079 -0.616444 1.73375 39 38 35
0.354916 -0.61776 1.73745 38 37 34
0.360358 -0.611551 1.71999 38 37 34
0.383113 -0.634311 1.784 38 37 35
0.386686 -0.624982 1.75776 38 37 34
0.395892 -0.624982 1.75776 38 37 35
0.396865 -0.612279 1.72203 38 38 36
0.40183 -0.606163 1.70483 38 37 35
0.435419 -0.642552 1.80718 37 37 35
0.42772 -0.61776 1.73745 37 37 35
0.457044 -0.646362 1.81789 37 37 35
0.454685 -0.629902 1.7716 37 38 36
0.473281 -0.642552 1.80718 37 39 36
0.455408 -0.606163 1.70483 38 40 36
0.500113 -0.652865 1.83618 38 39 37
0.486175 -0.622696 1.75133 37 39 36
0.504588 -0.634311 1.784 36 38 36
0.504522 -0.622696 1.75133 37 38 37
0.519639 -0.629902 1.7716 38 39 38
0.535955 -0.638282 1.79517 38 40 38
0.538198 -0.629902 1.7716 38 39 37
0.550575 -0.633466 1.78162 37 38 36
0.567938 -0.642552 1.80718 37 38 36
0.566036 -0.629902 1.7716 37 38 35
0.582969 -0.638282 1.79517 37 37 35
0.596335 -0.642552 1.80718 37 37 35
0.589235 -0.624982 1.75776 37 38 36
0.62443 -0.652123 1.8341 37 38 36
0.620579 -0.638282 1.79517 37 38 36
0.63969 -0.648117 1.82283 38 38 36
0.634561 -0.633466 1.78162 38 38 36
0.648788 -0.638282 1.79517 37 37 36
0.697661 -0.676558 1.90282 37 37 36
0.667593 -0.638282 1.79517 37 37 36
0.671888 -0.633466 1.78162 38 37 36
0.705086 -0.655659 1.84404 37 37 35
0.701539 -0.643545 1.80997 37 37 35
0.695946 -0.629902 1.7716 37 37 35
0.725618 -0.648117 1.82283 38 38 36
0.712347 -0.628 1.76625 38 38 37
0.73946 -0.643545 1.80997 38 38 37
0.78736 -0.676558 1.90282 38 39 37
0.817568 -0.693734 1.95113 37 38 36
0.745751 -0.624982 1.75776 37 38 35
0.786198 -0.650844 1.8305 37 38 35
0.795786 -0.650844 1.8305 37 38 35
0.78387 -0.633466 1.78162 37 38 36
0.811546 -0.648117 1.82283 38 39 36
0.830649 -0.655659 1.84404 37 38 36
0.840308 -0.655659 1.84404 37 39 36
0.843725 -0.650844 1.8305 36 39 36
0.819405 -0.624982 1.75776 36 39 36
0.828612 -0.624982 1.75776 37 40 37
0.886926 -0.661615 1.86079 38 41 37
0.903199 -0.66643 1.87433 39 40 37
0.943322 -0.688551 1.93655 39 40 37
0.950021 -0.686063 1.92955 38 39 36
0.932651 -0.66643 1.87433 37 38 36
0.948084 -0.670401 1.8855 37 39 36
0.936895 -0.655659 1.84404 37 40 37
0.994038 -0.688551 1.93655 36 39 36
0.956213 -0.655659 1.84404 36 38 36
0.892957 -0.606163 1.70483 36 38 35
1.02077 -0.686063 1.92955 35 37 35
1.02025 -0.678992 1.90967 35 37 35
1.00388 -0.661615 1.86079 36 38 36
1.04025 -0.678992 1.90967 36 39 36
1.01416 -0.655659 1.84404 37 39 36
1.05204 -0.673729 1.89486 37 39 36
1.07026 -0.678992 1.90967 36 38 35
1.08658 -0.682963 1.92083 36 37 35
1.09027 -0.678992 1.90967 35 36 34
1.06246 -0.655659 1.84404 35 37 34
0.991182 -0.606163 1.70483 36 37 35
1.23494 -0.748493 2.10514 35 37 35
1.18374 -0.711111 2 35 37 35
1.14028 -0.678992 1.90967 35 37 35
1.129 -0.66643 1.87433 35 37 36
1.21517 -0.711111 2 36 38 35
1.13007 -0.655659 1.84404 36 39 35
1.23612 -0.711111 2 36 40 36
1.09561 -0.624982 1.75776 37 41 37
-0.545508 -0.30405 0.867904 32 36 28
-0.495626 -0.278568 0.795167 33 37 29
-0.461254 -0.261446 0.746293 33 37 31
-0.487296 -0.278568 0.795167 34 37 34
-0.53478 -0.308349 0.880174 35 37 34
-0.500248 -0.290946 0.830499 36 38 35
-0.512158 -0.300486 0.85773 37 38 35
-0.495719 -0.293415 0.837546 37 38 35
-0.503173 -0.300486 0.85773 37 37 34
-0.478389 -0.288259 0.822829 37 37 34
-0.467792 -0.284436 0.811916 37 37 34
-0.489695 -0.300486 0.85773 37 37 34
-0.469798 -0.290946 0.830499 37 37 35
-0.445647 -0.278568 0.795167 37 37 35
-0.482608 -0.304518 0.869241 38 38 36
