ply
format ascii 1.0
element vertex 1315
property float x
property float y
property float z
property uchar red
property uchar green
property uchar blue
end_header
-0.556224 -0.09159 1.09479 37 37 33
-0.534733 -0.0889685 1.06345 37 37 33
-0.544755 -0.09159 1.09479 37 37 33
-0.527037 -0.0895537 1.07045 37 38 34
-0.531118 -0.0912175 1.09033 37 38 34
-0.542433 -0.0941734 1.12567 37 37 33
-0.521818 -0.09159 1.09479 37 37 33
-0.518398 -0.0920007 1.0997 38 38 34
-0.515175 -0.0924559 1.10514 38 38 34
-0.512181 -0.0929631 1.1112 37 38 34
-0.512953 -0.0941734 1.12567 37 38 33
-0.50054 -0.0929631 1.1112 37 38 33
-0.505043 -0.0949029 1.13439 36 37 33
-0.524812 -0.0997917 1.19282 37 38 33
-0.486034 -0.0935317 1.118 37 38 34
-0.487218 -0.0949029 1.13439 38 39 34
-0.51691 -0.101929 1.21838 38 39 34
-0.534372 -0.10669 1.27528 38 38 34
-0.482435 -0.0975397 1.1659 38 39 34
-0.504046 -0.103216 1.23375 38 39 34
-0.46621 -0.0967076 1.15596 39 39 34
-0.486458 -0.102236 1.22203 38 38 34
-0.527986 -0.112443 1.34404 39 39 35
-0.538295 -0.116187 1.3888 38 38 34
-0.505796 -0.110668 1.32283 38 38 34
-0.523746 -0.116187 1.3888 37 37 33
-0.524231 -0.117933 1.40967 37 37 32
-0.4832 -0.110255 1.31789 37 37 32
-0.485747 -0.112443 1.34404 37 38 33
-0.48283 -0.113411 1.35562 37 38 33
-0.526398 -0.12549 1.5 37 38 34
-0.501646 -0.121401 1.45113 38 38 34
-0.491035 -0.120662 1.44228 38 39 35
-0.517035 -0.129036 1.54238 37 38 33
-0.494972 -0.12549 1.5 38 38 34
-0.487115 -0.12549 1.5 37 37 33
-0.492799 -0.129036 1.54238 36 36 31
-0.48954 -0.130319 1.55772 37 37 33
-0.478649 -0.129579 1.54887 37 38 33
-0.5267 -0.145046 1.73375 37 38 34
-0.447832 -0.12549 1.5 38 38 34
-0.456904 -0.130319 1.55772 37 38 34
-0.462406 -0.134286 1.60514 38 38 34
-0.453998 -0.134286 1.60514 38 38 34
-0.481295 -0.145046 1.73375 38 38 35
-0.454714 -0.139671 1.6695 37 37 34
-0.474944 -0.148745 1.77797 37 37 32
-0.446478 -0.142627 1.70483 37 37 32
-0.447149 -0.145756 1.74224 38 38 34
-0.416331 -0.138538 1.65596 37 37 33
-0.415566 -0.141225 1.68808 38 38 33
-0.406724 -0.141225 1.68808 37 37 34
-0.40183 -0.142627 1.70483 37 37 34
-0.382913 -0.139001 1.66149 37 37 34
-0.380985 -0.141517 1.69157 38 38 35
-0.368957 -0.140312 1.67717 37 38 34
-0.366112 -0.142627 1.70483 38 38 35
-0.357183 -0.142627 1.70483 38 38 35
-0.348253 -0.142627 1.70483 37 38 35
-0.331575 -0.13937 1.6659 37 38 35
-0.327824 -0.141517 1.69157 38 39 35
-0.313292 -0.139001 1.66149 37 39 35
-0.30459 -0.139001 1.66149 37 38 34
-0.301244 -0.141517 1.69157 37 37 33
-0.287185 -0.139001 1.66149 36 37 33
-0.278482 -0.139001 1.66149 36 37 32
-0.274663 -0.141517 1.69157 35 36 31
-0.26354 -0.140312 1.67717 36 37 33
-0.248257 -0.136733 1.63439 36 38 34
-0.250028 -0.142627 1.70483 36 38 34
-0.237186 -0.140312 1.67717 36 37 34
-0.230363 -0.141517 1.69157 36 38 34
-0.214015 -0.136733 1.63439 36 38 34
-0.202224 -0.134583 1.60869 36 38 35
-0.200159 -0.139001 1.66149 37 38 35
-0.194745 -0.141388 1.69003 36 38 34
-0.182754 -0.139001 1.66149 37 38 35
-0.175694 -0.140312 1.67717 37 38 35
-0.166909 -0.140312 1.67717 35 37 33
-0.153268 -0.136003 1.62567 35 37 33
-0.147451 -0.138538 1.65596 35 37 33
-0.140555 -0.140312 1.67717 36 37 34
-0.129194 -0.137569 1.64438 36 38 34
-0.12143 -0.138538 1.65596 36 38 34
-0.113434 -0.13937 1.6659 37 38 34
-0.107155 -0.142627 1.70483 38 38 35
-0.0998913 -0.145046 1.73375 39 39 36
-0.0832985 -0.133048 1.59033 38 39 36
-0.0783231 -0.139001 1.66149 40 40 37
-0.0689036 -0.137569 1.64438 39 40 37
-0.0605252 -0.138105 1.65078 37 38 35
-0.0540537 -0.143894 1.71999 36 37 33
-0.0442602 -0.141388 1.69003 36 36 32
-0.0350681 -0.140031 1.6738 36 37 33
-0.0261077 -0.139001 1.66149 37 38 34
-0.0167314 -0.13362 1.59718 37 38 34
-0.00885203 -0.141388 1.69003 38 39 35
0 -0.142627 1.70483 37 38 34
0.00878468 -0.140312 1.67717 38 38 35
0.0166597 -0.133048 1.59033 37 38 34
0.026354 -0.140312 1.67717 36 37 33
0.0354404 -0.141517 1.69157 36 37 33
0.0425745 -0.136003 1.62567 35 37 33
0.0513635 -0.136733 1.63439 36 38 34
0.0599241 -0.136733 1.63439 37 38 35
0.0696205 -0.139001 1.66149 36 37 34
0.0766342 -0.136003 1.62567 36 37 34
0.0892957 -0.142627 1.70483 37 38 35
0.0973724 -0.141388 1.69003 38 39 36
0.105416 -0.140312 1.67717 38 39 35
0.111968 -0.137569 1.64438 38 39 34
0.122986 -0.140312 1.67717 37 38 34
0.133943 -0.142627 1.70483 38 39 34
0.140555 -0.140312 1.67717 37 38 34
0.148336 -0.13937 1.6659 37 38 33
0.160732 -0.142627 1.70483 36 37 33
0.169662 -0.142627 1.70483 35 35 31
0.177041 -0.141388 1.69003 35 36 32
0.180872 -0.137569 1.64438 36 37 33
0.194745 -0.141388 1.69003 37 38 35
0.20538 -0.142627 1.70483 38 39 36
0.21431 -0.142627 1.70483 38 39 35
0.229328 -0.146517 1.75133 37 38 34
0.232169 -0.142627 1.70483 37 37 34
0.234969 -0.139001 1.66149 37 37 34
0.241163 -0.137569 1.64438 37 38 34
0.258957 -0.142627 1.70483 38 39 35
0.270268 -0.143894 1.71999 37 38 34
0.276817 -0.142627 1.70483 37 38 34
0.279221 -0.13937 1.6659 37 38 34
0.299674 -0.145046 1.73375 37 38 34
0.303605 -0.142627 1.70483 37 38 34
0.30459 -0.139001 1.66149 37 37 34
0.324322 -0.143894 1.71999 37 37 34
0.335998 -0.145046 1.73375 38 38 35
0.333147 -0.140031 1.6738 38 38 35
0.335905 -0.137569 1.64438 37 37 34
0.363241 -0.145046 1.73375 37 37 34
0.366112 -0.142627 1.70483 37 37 34
0.371785 -0.141388 1.69003 38 38 35
0.390484 -0.145046 1.73375 38 38 35
0.396022 -0.14376 1.71838 38 38 35
0.40183 -0.142627 1.70483 38 38 35
0.414411 -0.143894 1.71999 37 37 34
0.423924 -0.144066 1.72203 37 37 34
0.417723 -0.139001 1.66149 37 37 34
0.44497 -0.145046 1.73375 37 37 34
0.450447 -0.143894 1.71999 37 37 34
0.451454 -0.141388 1.69003 38 37 34
0.460306 -0.141388 1.69003 37 37 35
0.473267 -0.142627 1.70483 37 37 35
0.490376 -0.145046 1.73375 37 38 35
0.495492 -0.143894 1.71999 36 37 34
0.512217 -0.146095 1.74629 36 37 34
0.51351 -0.143894 1.71999 37 37 35
0.517915 -0.142627 1.70483 37 37 35
0.545093 -0.147567 1.76388 37 38 35
0.544862 -0.145046 1.73375 36 37 34
0.567212 -0.14852 1.77528 35 36 33
0.568733 -0.146517 1.75133 35 36 33
0.546435 -0.138538 1.65596 35 36 33
0.576572 -0.143894 1.71999 36 37 34
0.596253 -0.146517 1.75133 36 37 35
0.613704 -0.14852 1.77528 36 37 35
0.626648 -0.149389 1.78567 35 36 33
0.626062 -0.147055 1.75776 35 36 33
0.632945 -0.146517 1.75133 37 37 35
0.62507 -0.142627 1.70483 38 38 35
0.655959 -0.147567 1.76388 36 36 34
0.672784 -0.14925 1.784 36 36 33
0.682128 -0.14925 1.784 36 36 33
0.695801 -0.150184 1.79517 36 36 33
0.709173 -0.151029 1.80527 36 36 33
0.690158 -0.145046 1.73375 37 37 34
0.724009 -0.150184 1.79517 36 37 34
0.720631 -0.147567 1.76388 36 37 34
0.718933 -0.145355 1.73745 35 37 33
0.733849 -0.146517 1.75133 35 36 33
0.737134 -0.145355 1.73745 35 36 32
0.766226 -0.14925 1.784 35 36 34
0.741154 -0.142627 1.70483 36 37 35
0.795113 -0.151189 1.80718 35 37 35
0.804578 -0.151189 1.80718 34 36 34
0.798018 -0.148212 1.7716 34 36 34
0.807297 -0.148212 1.7716 34 36 33
0.810198 -0.147055 1.75776 34 37 34
0.823362 -0.147765 1.76625 34 37 34
0.859285 -0.152498 1.82283 34 36 34
0.868832 -0.152498 1.82283 34 36 34
0.87838 -0.152498 1.82283 35 37 34
0.867856 -0.149051 1.78162 34 36 33
0.860962 -0.146294 1.74867 34 36 34
0.900624 -0.151422 1.80997 35 37 35
0.927237 -0.154273 1.84404 36 38 35
0.897372 -0.147765 1.76625 34 37 35
0.946554 -0.154273 1.84404 34 37 35
0.94919 -0.15314 1.8305 34 37 35
0.940272 -0.150184 1.79517 34 37 35
0.97553 -0.154273 1.84404 33 37 35
0.977953 -0.15314 1.8305 34 37 35
0.96848 -0.150184 1.79517 33 36 35
1.01081 -0.155241 1.85562 33 37 35
0.987286 -0.150184 1.79517 33 36 35
1.07837 -0.162492 1.94228 34 36 35
1.02589 -0.15314 1.8305 34 37 36
1.05262 -0.155674 1.86079 35 37 36
1.04069 -0.152498 1.82283 34 37 36
0.982252 -0.142627 1.70483 34 37 36
1.01293 -0.145756 1.74224 33 37 35
1.06933 -0.152498 1.82283 32 36 35
1.04856 -0.148212 1.7716 30 35 33
1.14695 -0.160697 1.92083 31 35 34
1.20469 -0.16732 2 28 33 31
1.09072 -0.150184 1.79517 28 33 32
1.04476 -0.142627 1.70483 28 34 33
1.29195 -0.174878 2.09033 29 34 33
1.16827 -0.156807 1.87433 27 33 33
-0.58657 -0.0731948 0.933233 36 39 34
-0.564218 -0.0709972 0.905214 36 38 33
-0.540391 -0.0685752 0.874334 36 38 33
-0.575778 -0.0736903 0.939552 36 38 32
-0.555162 -0.0716643 0.91372 36 37 32
-0.567582 -0.0739046 0.942284 36 37 32
-0.559222 -0.0734548 0.936549 37 38 34
-0.560544 -0.07428 0.947071 37 38 34
-0.570406 -0.0762618 0.972338 37 38 33
-0.54784 -0.0739046 0.942284 37 38 34
-0.542904 -0.0739046 0.942284 38 39 35
-0.519346 -0.0713463 0.909666 38 38 34
-0.531488 -0.0736903 0.939552 37 38 34
-0.560444 -0.0784314 1 36 37 33
-0.523162 -0.0739046 0.942284 36 36 32
-0.566628 -0.0808072 1.03029 36 36 32
-0.544731 -0.0784314 1 36 37 32
-0.539493 -0.0784314 1 37 37 33
-0.549034 -0.0806009 1.02766 37 38 34
-0.529017 -0.0784314 1 37 38 34
-0.507913 -0.0760555 0.969708 37 38 34
-0.533537 -0.0806994 1.02892 37 38 34
-0.54293 -0.0829581 1.05772 37 38 34
-0.492676 -0.0760555 0.969708 37 38 34
-0.533223 -0.0831724 1.06045 37 38 34
-0.547198 -0.0862507 1.0997 37 37 33
-0.508835 -0.0810569 1.03348 37 37 34
-0.531118 -0.0855164 1.09033 37 37 34
-0.527553 -0.0858656 1.09479 37 37 33
-0.539602 -0.0887919 1.1321 37 37 32
-0.50461 -0.0839566 1.07045 37 37 33
-0.546573 -0.09196 1.17249 37 38 34
-0.512181 -0.0871529 1.1112 37 38 33
-0.509458 -0.087686 1.118 38 39 34
-0.548818 -0.0955589 1.21838 38 39 35
-0.56777 -0.100022 1.27528 37 38 33
-0.542819 -0.0967647 1.23375 36 37 32
-0.523785 -0.0944967 1.20483 36 37 31
-0.491512 -0.0897557 1.14438 36 37 32
-0.541052 -0.100022 1.27528 38 38 33
-0.510528 -0.0955589 1.21838 37 38 33
-0.498543 -0.0944967 1.20483 38 39 34
-0.519509 -0.0997333 1.2716 38 39 34
-0.522354 -0.101582 1.29517 38 39 34
-0.541693 -0.106729 1.36079 37 38 34
-0.561578 -0.112122 1.42955 38 38 34
-0.520946 -0.105415 1.34404 38 38 34
-0.543268 -0.111438 1.42083 37 37 33
-0.531615 -0.110562 1.40967 37 37 33
-0.557825 -0.117647 1.5 36 36 32
-0.516848 -0.110562 1.40967 36 37 32
-0.509464 -0.110562 1.40967 38 38 34
-0.534255 -0.117647 1.5 38 39 34
-0.511526 -0.114323 1.45762 38 38 34
-0.501646 -0.113814 1.45113 37 38 33
-0.510685 -0.117647 1.5 37 37 32
-0.502828 -0.117647 1.5 36 37 32
-0.536439 -0.127503 1.62567 37 37 33
-0.521258 -0.125893 1.60514 36 37 32
-0.52539 -0.128971 1.64438 37 37 33
-0.527081 -0.131543 1.67717 37 38 34
-0.496035 -0.125893 1.60514 37 37 33
-0.483131 -0.124732 1.59033 36 37 33
-0.490938 -0.128971 1.64438 37 38 34
-0.500056 -0.133712 1.70483 38 38 34
-0.501902 -0.136646 1.74224 38 38 34
-0.465099 -0.128971 1.64438 38 38 34
-0.465588 -0.131543 1.67717 37 37 34
-0.478754 -0.137864 1.75776 37 37 33
-0.473243 -0.138949 1.7716 36 37 32
-0.421957 -0.126369 1.6112 36 37 32
-0.423169 -0.129318 1.64881 37 37 32
-0.413422 -0.128971 1.64438 36 37 32
-0.412051 -0.131279 1.6738 36 37 32
-0.420749 -0.136964 1.74629 37 37 33
-0.398705 -0.132672 1.69157 36 36 33
-0.396393 -0.134901 1.71999 36 36 33
-0.390484 -0.13598 1.73375 36 36 33
-0.378021 -0.134775 1.71838 36 36 33
-0.353131 -0.128971 1.64438 37 37 34
-0.350681 -0.131279 1.6738 37 37 34
-0.348253 -0.133712 1.70483 37 37 34
-0.321756 -0.12679 1.61657 37 38 34
-0.327525 -0.132551 1.69003 37 38 34
-0.318673 -0.132551 1.69003 38 39 35
-0.310104 -0.132672 1.69157 38 38 34
-0.300969 -0.132551 1.69003 37 37 33
-0.282499 -0.128187 1.63439 37 38 33
-0.295644 -0.138344 1.76388 37 37 32
-0.276817 -0.133712 1.70483 36 37 33
-0.267887 -0.133712 1.70483 37 38 34
-0.254756 -0.131543 1.67717 36 38 34
-0.25225 -0.134901 1.71999 36 38 34
-0.228616 -0.12679 1.61657 36 38 34
-0.232169 -0.133712 1.70483 37 39 35
-0.225224 -0.134901 1.71999 36 38 35
-0.207515 -0.129473 1.65078 36 38 35
-0.198869 -0.129473 1.65078 36 38 34
-0.193263 -0.131543 1.67717 36 37 34
-0.183239 -0.130659 1.6659 37 38 35
-0.177202 -0.132672 1.69157 37 39 35
-0.17101 -0.134775 1.71838 37 38 35
-0.161886 -0.134672 1.71707 36 38 34
-0.14934 -0.131543 1.67717 36 37 34
-0.136969 -0.128187 1.63439 36 37 33
-0.13177 -0.131543 1.67717 36 38 34
-0.119848 -0.128187 1.63439 37 38 35
-0.116084 -0.133712 1.70483 37 38 34
-0.105416 -0.131543 1.67717 37 38 35
-0.09314 -0.12679 1.61657 37 37 34
-0.0859722 -0.128736 1.64138 36 37 34
-0.0778182 -0.129473 1.65078 38 39 36
-0.0702774 -0.131543 1.67717 40 40 38
-0.0614928 -0.131543 1.67717 38 39 36
-0.0527081 -0.131543 1.67717 37 38 34
-0.0435128 -0.130313 1.66149 36 37 33
-0.0357183 -0.133712 1.70483 36 37 33
-0.025278 -0.126172 1.60869 36 37 33
-0.0180179 -0.134901 1.71999 36 37 33
-0.00864646 -0.129473 1.65078 36 37 34
0 -0.132551 1.69003 36 38 34
0.00870257 -0.130313 1.66149 37 38 34
0.0180179 -0.134901 1.71999 36 38 34
0.0270015 -0.134775 1.71838 36 37 34
0.0345858 -0.129473 1.65078 37 38 35
0.0418285 -0.125269 1.59718 36 37 34
0.0518788 -0.129473 1.65078 37 38 35
0.0620207 -0.132672 1.69157 37 38 35
0.0698053 -0.130659 1.6659 36 37 34
0.0803661 -0.133712 1.70483 36 38 34
0.0856058 -0.128187 1.63439 37 38 35
0.0957282 -0.130313 1.66149 38 38 35
0.104431 -0.130313 1.66149 37 38 34
0.112404 -0.129473 1.65078 37 38 33
0.117964 -0.126172 1.60869 36 37 32
0.130538 -0.130313 1.66149 36 37 32
0.142873 -0.133712 1.70483 36 37 32
0.14699 -0.129473 1.65078 36 37 32
0.156646 -0.130313 1.66149 36 37 33
0.161783 -0.127503 1.62567 36 36 33
0.175694 -0.131543 1.67717 36 37 33
0.189188 -0.134901 1.71999 37 38 34
0.187328 -0.127503 1.62567 37 38 35
0.203782 -0.132672 1.69157 38 39 36
0.216012 -0.134775 1.71838 39 40 36
0.211682 -0.12679 1.61657 38 39 35
0.226267 -0.130313 1.66149 37 38 35
0.231136 -0.128187 1.63439 37 38 34
0.245971 -0.131543 1.67717 38 38 35
0.252374 -0.130313 1.66149 37 38 34
0.267887 -0.133712 1.70483 37 37 33
0.274663 -0.132672 1.69157 37 38 34
0.290593 -0.13598 1.73375 37 37 34
0.299674 -0.13598 1.73375 37 38 34
0.295887 -0.130313 1.66149 37 38 35
0.309821 -0.132551 1.69003 37 38 34
0.313292 -0.130313 1.66149 37 37 34
0.319919 -0.129473 1.65078 38 38 35
0.345816 -0.136271 1.73745 38 38 35
0.345229 -0.132551 1.69003 37 37 34
0.346943 -0.129879 1.65596 37 36 33
0.366112 -0.133712 1.70483 37 37 34
0.378376 -0.134901 1.71999 37 37 34
0.383971 -0.133712 1.70483 37 37 34
0.396022 -0.134775 1.71838 37 37 34
0.408646 -0.13598 1.73375 36 37 34
0.407194 -0.132551 1.69003 36 36 33
0.41969 -0.133712 1.70483 36 36 33
0.432429 -0.134901 1.71999 36 36 33
0.43375 -0.132551 1.69003 36 36 33
0.442602 -0.132551 1.69003 37 37 34
0.442352 -0.129879 1.65596 38 38 35
0.455886 -0.131279 1.6738 38 38 35
0.492823 -0.139238 1.77528 38 38 35
0.482197 -0.133712 1.70483 38 38 36
0.504522 -0.137359 1.75133 37 37 35
0.517376 -0.138344 1.76388 36 36 34
0.504566 -0.132551 1.69003 37 37 35
0.513418 -0.132551 1.69003 37 38 35
0.531528 -0.134901 1.71999 37 38 35
0.531122 -0.132551 1.69003 36 38 35
0.55795 -0.136964 1.74629 35 36 33
0.548826 -0.132551 1.69003 34 36 32
0.582048 -0.138344 1.76388 35 36 33
0.591287 -0.138344 1.76388 36 37 34
0.580422 -0.133712 1.70483 36 36 34
0.59459 -0.134901 1.71999 36 37 35
0.623003 -0.139238 1.77528 35 36 34
0.607211 -0.133712 1.70483 35 36 34
0.637481 -0.138344 1.76388 36 37 35
0.64672 -0.138344 1.76388 37 37 35
0.639635 -0.134901 1.71999 36 37 34
0.680806 -0.14159 1.80527 36 37 34
0.674437 -0.138344 1.76388 36 37 34
0.683676 -0.138344 1.76388 36 37 34
0.663903 -0.132551 1.69003 36 37 34
0.74073 -0.145944 1.86079 37 37 34
0.714504 -0.138949 1.7716 36 37 34
0.715503 -0.137359 1.75133 36 38 34
0.711706 -0.134901 1.71999 36 37 34
0.742342 -0.138949 1.7716 36 37 34
0.766716 -0.141739 1.80718 36 37 34
0.776181 -0.141739 1.80718 35 36 34
0.77018 -0.138949 1.7716 35 37 34
0.784915 -0.139922 1.784 35 37 35
0.773535 -0.136271 1.73745 35 37 34
0.791785 -0.137864 1.75776 35 37 34
0.811865 -0.139735 1.78162 35 37 34
0.827439 -0.140797 1.79517 35 37 35
0.830529 -0.139735 1.78162 34 37 34
0.821294 -0.136646 1.74224 34 36 33
0.910222 -0.149778 1.90967 35 37 34
0.82152 -0.133712 1.70483 36 38 35
0.908768 -0.146323 1.86561 34 37 34
0.869618 -0.138529 1.76625 34 36 34
0.870121 -0.13715 1.74867 35 37 35
0.910104 -0.141958 1.80997 36 38 36
0.95796 -0.147882 1.8855 36 38 36
0.946554 -0.144631 1.84404 35 38 36
0.906758 -0.13715 1.74867 34 37 35
0.931262 -0.139448 1.77797 33 36 34
0.949675 -0.140797 1.79517 33 36 34
0.985189 -0.144631 1.84404 34 37 35
1.01721 -0.147882 1.8855 34 37 35
0.977883 -0.140797 1.79517 34 37 36
1.00672 -0.143569 1.8305 34 36 35
0.996688 -0.140797 1.79517 34 36 35
0.97167 -0.13598 1.73375 34 37 36
1.09151 -0.151338 1.92955 34 36 35
1.10162 -0.151338 1.92955 34 37 36
1.10027 -0.149778 1.90967 34 37 36
1.08973 -0.147007 1.87433 33 37 35
1.0531 -0.140797 1.79517 32 36 35
1.13028 -0.149778 1.90967 32 36 35
1.11918 -0.147007 1.87433 33 37 36
1.20469 -0.156863 2 33 37 35
1.12041 -0.144631 1.84404 33 36 36
1.17029 -0.149778 1.90967 30 35 34
1.23612 -0.156863 2 29 34 34
1.18106 -0.148617 1.89486 29 34 34
-0.588654 -0.0685578 0.936549 36 39 33
-0.566992 -0.0665899 0.909666 36 38 32
-0.599337 -0.0709851 0.969708 36 38 32
-0.575778 -0.0687777 0.939552 36 38 32
-0.552699 -0.0665899 0.909666 36 38 33
-0.567582 -0.0689777 0.942284 36 38 32
-0.543169 -0.0665899 0.909666 37 38 34
-0.540805 -0.0668867 0.91372 38 39 35
-0.552775 -0.0689777 0.942284 37 38 34
-0.564583 -0.0710858 0.971083 38 38 35
-0.56022 -0.0711777 0.972338 37 38 35
-0.57092 -0.0732026 1 37 37 34
-0.549324 -0.0710858 0.971083 37 38 34
-0.560444 -0.0732026 1 36 37 33
-0.555206 -0.0732026 1 36 37 33
-0.549969 -0.0732026 1 36 37 34
-0.527406 -0.0708744 0.968195 36 37 33
-0.508356 -0.0689777 0.942284 36 37 33
-0.518071 -0.0709851 0.969708 36 37 33
-0.574661 -0.0795185 1.08628 36 37 33
-0.52378 -0.0732026 1 37 37 33
-0.533537 -0.0753194 1.02892 37 38 33
-0.528147 -0.0753194 1.02892 37 38 34
-0.508066 -0.0732026 1 37 37 33
-0.519661 -0.0756531 1.03348 37 37 33
-0.514248 -0.0756531 1.03348 37 37 33
-0.508835 -0.0756531 1.03348 37 37 33
-0.521431 -0.0783595 1.07045 37 36 33
-0.525407 -0.0798153 1.09033 37 37 33
-0.542992 -0.0833931 1.13921 36 36 32
-0.502876 -0.0780901 1.06677 37 37 33
-0.556051 -0.0873177 1.19282 37 38 34
-0.515314 -0.0818402 1.118 37 39 34
-0.526757 -0.0846192 1.15596 38 39 35
-0.510985 -0.08304 1.13439 38 39 35
-0.519076 -0.0853473 1.1659 37 38 33
-0.536055 -0.0891883 1.21838 35 37 31
-0.51176 -0.086172 1.17717 34 35 28
-0.511117 -0.0871133 1.19003 36 36 31
-0.499428 -0.086172 1.17717 38 38 33
-0.524338 -0.0916008 1.25133 37 38 33
-0.498543 -0.0881969 1.20483 38 39 34
-0.545895 -0.0978121 1.33618 38 38 34
-0.522354 -0.0948096 1.29517 37 38 33
-0.486458 -0.0894561 1.22203 37 38 33
-0.527986 -0.0983874 1.34404 37 38 34
-0.532688 -0.100605 1.37433 37 38 34
-0.503909 -0.0964733 1.31789 36 36 32
-0.506867 -0.0983874 1.34404 36 37 32
-0.528384 -0.104009 1.42083 36 36 31
-0.48501 -0.0968345 1.32283 36 37 32
-0.496695 -0.100605 1.37433 38 39 35
-0.534255 -0.109804 1.5 38 39 34
-0.511526 -0.106702 1.45762 38 39 34
-0.468629 -0.0992346 1.35562 36 37 32
-0.510685 -0.109804 1.5 35 35 30
-0.53311 -0.116417 1.59033 36 36 31
-0.52478 -0.116417 1.59033 37 38 34
-0.51645 -0.116417 1.59033 37 38 34
-0.51285 -0.1175 1.60514 38 38 34
-0.510894 -0.119003 1.62567 37 37 33
-0.491461 -0.116417 1.59033 36 37 33
-0.470536 -0.113382 1.54887 36 37 33
-0.490938 -0.120373 1.64438 37 38 34
-0.500056 -0.124798 1.70483 38 38 34
-0.46832 -0.119003 1.62567 38 38 35
-0.497167 -0.128673 1.75776 37 38 34
-0.456486 -0.120373 1.64438 36 37 33
-0.424268 -0.114029 1.55772 37 37 33
-0.430396 -0.117944 1.6112 37 37 33
-0.425745 -0.119003 1.62567 37 37 33
-0.44592 -0.127186 1.73745 37 37 33
-0.406429 -0.118337 1.61657 36 37 32
-0.41969 -0.124798 1.70483 36 36 32
-0.403284 -0.122527 1.6738 36 36 32
-0.398342 -0.123715 1.69003 35 36 31
-0.38575 -0.122527 1.6738 36 36 32
-0.393309 -0.127833 1.74629 36 36 34
-0.388032 -0.129121 1.76388 37 37 34
-0.369367 -0.125908 1.71999 37 38 35
-0.350681 -0.122527 1.6738 37 38 35
-0.3394 -0.121626 1.66149 36 37 34
-0.339324 -0.124798 1.70483 37 37 34
-0.32438 -0.122527 1.6738 36 37 33
-0.321464 -0.124798 1.70483 37 38 33
-0.312535 -0.124798 1.70483 38 38 34
-0.306304 -0.125908 1.71999 38 38 34
-0.299674 -0.126915 1.73375 38 38 34
-0.288016 -0.12579 1.71838 37 37 33
-0.270496 -0.121949 1.6659 37 37 33
-0.265803 -0.123827 1.69157 36 38 34
-0.252374 -0.121626 1.66149 36 38 34
-0.244319 -0.121949 1.6659 36 38 34
-0.243241 -0.125908 1.71999 36 38 34
-0.235705 -0.126699 1.7308 37 38 35
-0.219617 -0.122773 1.67717 36 37 34
-0.210832 -0.122773 1.67717 35 37 33
-0.201642 -0.122527 1.6738 35 37 32
-0.189485 -0.120373 1.64438 36 37 33
-0.184478 -0.122773 1.67717 37 38 34
-0.175694 -0.122773 1.67717 37 38 35
-0.166574 -0.122527 1.6738 37 38 35
-0.160732 -0.124798 1.70483 37 38 34
-0.153009 -0.12579 1.71838 37 38 34
-0.139241 -0.121626 1.66149 37 38 34
-0.129194 -0.120373 1.64438 37 38 34
-0.118542 -0.118337 1.61657 37 38 34
-0.110694 -0.119003 1.62567 37 38 34
-0.106224 -0.123715 1.69003 37 38 34
-0.0966315 -0.122773 1.67717 35 36 33
-0.0885203 -0.123715 1.69003 36 36 33
-0.0817293 -0.126915 1.73375 36 37 34
-0.0714365 -0.124798 1.70483 38 39 36
-0.0599241 -0.119641 1.63439 38 39 36
-0.0535774 -0.124798 1.70483 37 38 35
-0.0446478 -0.124798 1.70483 36 37 34
-0.0348103 -0.121626 1.66149 37 38 34
-0.0256817 -0.119641 1.63439 36 37 34
-0.0169345 -0.118337 1.61657 36 37 33
-0.00878468 -0.122773 1.67717 36 37 33
0 -0.123715 1.69003 36 37 34
0.00872567 -0.121949 1.6659 37 38 34
0.0170298 -0.119003 1.62567 36 38 34
0.0256817 -0.119641 1.63439 36 37 34
0.0345858 -0.120842 1.65078 36 38 34
0.0464928 -0.129955 1.77528 36 37 34
0.0531122 -0.123715 1.69003 37 38 34
0.0614928 -0.122773 1.67717 37 38 35
0.0714365 -0.124798 1.70483 36 38 34
0.0762055 -0.118337 1.61657 36 38 34
0.0872567 -0.121949 1.6659 37 38 34
0.0957282 -0.121626 1.66149 37 38 35
0.108107 -0.125908 1.71999 37 38 33
0.116084 -0.124798 1.70483 36 38 32
0.12105 -0.120842 1.65078 36 37 32
0.128409 -0.119641 1.63439 36 37 31
0.140555 -0.122773 1.67717 36 37 32
0.144753 -0.119003 1.62567 36 37 32
0.158124 -0.122773 1.67717 36 37 33
0.161783 -0.119003 1.62567 36 37 34
0.177041 -0.123715 1.69003 36 37 34
0.187521 -0.124798 1.70483 37 38 35
0.194922 -0.123827 1.69157 37 38 35
0.189191 -0.114961 1.57045 38 39 36
0.208862 -0.121626 1.66149 38 39 35
0.21065 -0.117761 1.60869 38 38 35
0.232169 -0.124798 1.70483 37 38 35
0.239005 -0.123715 1.69003 37 38 34
0.239696 -0.119641 1.63439 37 37 34
0.256413 -0.123572 1.68808 36 37 33
0.261077 -0.121626 1.66149 37 37 34
0.272765 -0.122972 1.67988 37 38 34
0.276687 -0.120842 1.65078 37 38 35
0.292117 -0.123715 1.69003 37 38 35
0.300969 -0.123715 1.69003 38 38 35
0.30459 -0.121626 1.66149 38 39 35
0.321464 -0.124798 1.70483 38 38 35
0.330394 -0.124798 1.70483 38 38 35
0.336377 -0.123715 1.69003 37 38 34
0.35416 -0.126915 1.73375 36 37 33
0.366925 -0.128202 1.75133 37 37 34
0.355616 -0.12122 1.65596 37 37 35
0.368957 -0.122773 1.67717 37 37 34
0.387385 -0.125908 1.71999 37 37 34
0.396022 -0.12579 1.71838 36 37 34
0.405885 -0.126057 1.72203 36 36 33
0.396196 -0.120373 1.64438 35 36 33
0.415566 -0.123572 1.68808 35 35 32
0.421665 -0.122773 1.67717 35 36 32
0.44497 -0.126915 1.73375 35 36 33
0.464928 -0.129955 1.77528 37 37 34
0.467829 -0.128202 1.75133 38 38 36
0.472214 -0.126915 1.73375 38 38 35
0.48966 -0.129121 1.76388 38 38 35
0.495348 -0.128202 1.75133 38 38 35
0.495492 -0.125908 1.71999 37 37 35
0.513695 -0.128202 1.75133 37 37 35
0.530017 -0.129955 1.77528 37 37 35
0.53051 -0.127833 1.74629 37 37 35
0.541214 -0.128202 1.75133 37 38 35
0.550387 -0.128202 1.75133 36 38 35
0.55795 -0.127833 1.74629 36 37 34
0.553633 -0.124798 1.70483 35 36 33
0.582048 -0.129121 1.76388 34 36 33
0.595107 -0.129955 1.77528 35 36 34
0.590267 -0.126915 1.73375 35 36 34
0.609765 -0.129121 1.76388 35 36 34
0.626063 -0.130593 1.784 35 36 34
0.607211 -0.124798 1.70483 35 36 34
0.61614 -0.124798 1.70483 35 36 34
0.630626 -0.125908 1.71999 35 36 34
0.639036 -0.12579 1.71838 36 36 34
0.660465 -0.128202 1.75133 36 37 34
0.667711 -0.127833 1.74629 36 37 35
0.650066 -0.122773 1.67717 36 37 34
0.692915 -0.129121 1.76388 36 37 34
0.718629 -0.132151 1.80527 36 37 34
0.70633 -0.128202 1.75133 36 38 34
0.723784 -0.129686 1.7716 36 38 35
0.724676 -0.128202 1.75133 37 38 35
0.739109 -0.129121 1.76388 36 38 34
0.751621 -0.129686 1.7716 36 37 34
0.760901 -0.129686 1.7716 35 36 34
0.761369 -0.128202 1.75133 34 36 33
0.764435 -0.127186 1.73745 34 36 34
0.788738 -0.129686 1.7716 35 37 34
0.775691 -0.126057 1.72203 35 37 35
0.854112 -0.137206 1.87433 35 37 35
0.822292 -0.130593 1.784 35 37 35
0.836842 -0.131411 1.79517 35 37 34
0.835135 -0.129686 1.7716 35 37 34
0.837819 -0.128673 1.75776 35 37 34
0.870838 -0.13229 1.80718 35 37 35
0.887927 -0.133436 1.82283 35 37 34
0.907919 -0.134989 1.84404 35 37 34
0.866921 -0.127536 1.74224 34 36 34
0.933056 -0.135836 1.85562 35 37 35
0.878142 -0.126523 1.7284 35 38 36
0.946554 -0.134989 1.84404 35 37 35
0.962214 -0.135836 1.85562 34 37 35
0.903373 -0.126254 1.72472 34 36 35
0.949675 -0.131411 1.79517 33 36 34
0.934235 -0.128007 1.74867 34 37 35
0.9592 -0.130152 1.77797 34 37 35
1.03219 -0.138709 1.89486 34 37 36
1.03082 -0.137206 1.87433 34 36 35
1.07518 -0.14176 1.93655 34 37 36
1.05046 -0.137206 1.87433 35 37 36
1.06028 -0.137206 1.87433 34 36 35
1.0249 -0.131411 1.79517 33 36 35
1.11576 -0.14176 1.93655 33 37 36
1.1259 -0.14176 1.93655 32 36 35
1.12682 -0.14061 1.92083 33 36 35
1.09143 -0.134989 1.84404 34 37 36
1.14028 -0.139793 1.90967 34 37 36
1.09797 -0.133436 1.82283 33 37 36
1.09072 -0.131411 1.79517 32 36 35
1.11707 -0.133436 1.82283 30 35 34
1.12662 -0.133436 1.82283 30 35 34
1.16827 -0.137206 1.87433 31 35 35
-0.568959 -0.0615309 0.905214 36 39 33
-0.585621 -0.063865 0.939552 36 38 33
-0.596223 -0.0655722 0.964669 36 38 32
-0.573938 -0.0636608 0.936549 37 38 33
-0.552699 -0.0618335 0.909666 37 38 33
-0.567582 -0.0640507 0.942284 36 38 32
-0.543169 -0.0618335 0.909666 36 38 33
-0.573942 -0.0659148 0.969708 37 38 34
-0.605291 -0.0701357 1.0318 37 38 34
-0.581395 -0.0679739 1 37 37 35
-0.557833 -0.065812 0.968195 37 37 34
-0.532801 -0.0634355 0.933233 37 37 34
-0.531488 -0.063865 0.939552 38 38 35
-0.578269 -0.0701357 1.0318 37 37 34
-0.540488 -0.0661718 0.973489 37 37 34
-0.532477 -0.065812 0.968195 37 37 34
-0.544731 -0.0679739 1 37 38 34
-0.539493 -0.0679739 1 37 37 33
-0.56655 -0.0720827 1.06045 37 37 33
-0.529017 -0.0679739 1 36 37 33
-0.52378 -0.0679739 1 37 38 34
-0.532289 -0.0697759 1.02651 37 38 34
-0.545874 -0.0722869 1.06345 38 38 34
-0.491907 -0.065812 0.968195 37 38 33
-0.534733 -0.0722869 1.06345 37 37 33
-0.532644 -0.0727624 1.07045 37 37 33
-0.508835 -0.0702493 1.03348 37 37 33
-0.519638 -0.0725122 1.06677 37 37 33
-0.53254 -0.0751204 1.10514 37 37 33
-0.512175 -0.0730416 1.07455 37 37 33
-0.520963 -0.0751204 1.10514 37 37 33
-0.518001 -0.0755325 1.1112 37 38 34
-0.515314 -0.0759945 1.118 38 39 34
-0.519124 -0.0774364 1.13921 38 39 34
-0.507057 -0.0765159 1.12567 38 39 34
-0.519076 -0.079251 1.1659 37 38 33
-0.499101 -0.0771086 1.13439 36 37 32
-0.536357 -0.0838628 1.23375 36 36 31
-0.540208 -0.0854949 1.25776 36 37 32
-0.511164 -0.0818971 1.20483 37 38 32
-0.552229 -0.0895823 1.31789 36 37 31
-0.545326 -0.0895823 1.31789 36 37 31
-0.49926 -0.0830664 1.22203 36 37 32
-0.512849 -0.0864355 1.2716 36 37 32
-0.51557 -0.0880375 1.29517 36 37 32
-0.558152 -0.0965795 1.42083 37 38 34
-0.564969 -0.0990801 1.45762 38 39 35
-0.505796 -0.0899178 1.32283 38 38 34
-0.468474 -0.0844397 1.24224 37 38 34
-0.524231 -0.0958204 1.40967 36 37 33
-0.503894 -0.0934188 1.37433 37 37 33
-0.524448 -0.0986386 1.45113 38 38 34
-0.502081 -0.0958204 1.40967 38 38 34
-0.489503 -0.0948142 1.39486 37 38 33
-0.468629 -0.0921464 1.35562 36 37 31
-0.510685 -0.101961 1.5 36 36 31
-0.53311 -0.108101 1.59033 36 37 32
-0.494972 -0.101961 1.5 37 37 33
-0.521258 -0.109107 1.60514 37 38 34
-0.497699 -0.105884 1.55772 37 37 33
-0.471402 -0.101961 1.5 37 37 33
-0.515926 -0.113482 1.6695 37 37 33
-0.483131 -0.108101 1.59033 36 37 33
-0.500727 -0.114004 1.67717 36 37 33
-0.476835 -0.110503 1.62567 37 37 34
-0.473712 -0.111775 1.64438 37 37 34
-0.453998 -0.109107 1.60514 37 37 33
-0.441482 -0.108101 1.59033 37 38 34
-0.454714 -0.113482 1.6695 37 38 34
-0.43426 -0.110503 1.62567 38 38 34
-0.435737 -0.113096 1.66382 38 38 35
-0.44592 -0.118101 1.73745 37 37 34
-0.425285 -0.114983 1.69157 36 37 32
-0.41969 -0.115884 1.70483 37 37 33
-0.432525 -0.122024 1.79517 37 38 34
-0.383171 -0.110503 1.62567 38 38 34
-0.392901 -0.115884 1.70483 37 37 34
-0.387385 -0.116914 1.71999 37 38 35
-0.365508 -0.112938 1.66149 38 38 36
-0.372322 -0.11785 1.73375 38 38 35
-0.363241 -0.11785 1.73375 38 38 35
-0.337212 -0.11221 1.65078 37 38 35
-0.342019 -0.116805 1.71838 37 38 34
-0.330394 -0.115884 1.70483 37 37 33
-0.313292 -0.112938 1.66149 37 37 33
-0.315313 -0.116914 1.71999 38 38 34
-0.298079 -0.113775 1.6738 38 38 34
-0.294676 -0.115884 1.70483 37 38 33
-0.285746 -0.115884 1.70483 36 36 31
-0.274413 -0.114878 1.69003 36 37 32
-0.261077 -0.112938 1.66149 37 38 34
-0.248544 -0.111224 1.63628 36 38 34
-0.247857 -0.114878 1.69003 36 38 34
-0.237186 -0.114004 1.67717 36 38 34
-0.226867 -0.113238 1.6659 37 39 35
-0.221301 -0.114878 1.69003 36 38 34
-0.21431 -0.115884 1.70483 35 37 32
-0.202048 -0.114004 1.67717 35 37 32
-0.193263 -0.114004 1.67717 35 37 32
-0.181576 -0.11221 1.65078 36 37 33
-0.171212 -0.111096 1.63439 36 38 34
-0.173788 -0.118702 1.74629 37 38 34
-0.152411 -0.109885 1.61657 36 38 33
-0.147944 -0.112938 1.66149 37 38 34
-0.141633 -0.114878 1.69003 37 38 34
-0.129194 -0.111775 1.64438 37 38 34
-0.121836 -0.112938 1.66149 36 37 33
-0.111968 -0.111775 1.64438 37 38 34
-0.104431 -0.112938 1.66149 37 38 34
-0.0964374 -0.113775 1.6738 37 37 34
-0.0870257 -0.112938 1.66149 37 37 34
-0.0752913 -0.108566 1.59718 37 38 35
-0.0726482 -0.11785 1.73375 38 39 36
-0.0630035 -0.116805 1.71838 37 38 34
-0.0540537 -0.116914 1.71999 35 37 33
-0.0435128 -0.112938 1.66149 37 38 35
-0.0334628 -0.108566 1.59718 38 39 36
-0.0261077 -0.112938 1.66149 37 38 34
-0.018001 -0.116805 1.71838 36 37 33
-0.00870257 -0.112938 1.66149 36 37 34
0 -0.114004 1.67717 37 38 34
0.00878468 -0.114004 1.67717 37 38 34
0.0169345 -0.109885 1.61657 36 37 34
0.0271968 -0.117649 1.7308 36 37 34
0.0351387 -0.114004 1.67717 37 38 34
0.0443005 -0.114983 1.69157 37 38 34
0.0518788 -0.11221 1.65078 37 38 34
0.0613693 -0.113775 1.6738 37 38 34
0.0681193 -0.110503 1.62567 36 38 34
0.0778182 -0.11221 1.65078 37 38 34
0.0851491 -0.110503 1.62567 36 37 34
0.0982252 -0.115884 1.70483 36 37 33
0.101607 -0.109885 1.61657 35 36 31
0.114201 -0.114004 1.67717 36 37 32
0.119848 -0.111096 1.63439 37 38 33
0.129697 -0.11221 1.65078 37 38 33
0.140555 -0.114004 1.67717 36 37 33
0.147451 -0.112562 1.65596 36 37 33
0.159482 -0.114983 1.69157 36 38 33
0.165788 -0.113238 1.6659 36 37 33
0.170298 -0.110503 1.62567 36 37 33
0.176188 -0.108881 1.6018 36 37 33
0.19645 -0.115884 1.70483 36 37 33
0.20538 -0.115884 1.70483 37 38 34
0.216215 -0.116914 1.71999 37 38 34
0.219176 -0.113775 1.6738 37 38 34
0.224808 -0.11221 1.65078 37 38 34
0.237186 -0.114004 1.67717 37 38 34
0.237084 -0.109885 1.61657 37 37 34
0.250747 -0.11221 1.65078 37 37 34
0.267887 -0.115884 1.70483 36 37 34
0.263962 -0.110503 1.62567 37 38 34
0.280545 -0.113775 1.6738 37 38 35
0.286228 -0.112562 1.65596 37 38 34
0.298079 -0.113775 1.6738 37 38 34
0.306846 -0.113775 1.6738 38 38 35
0.315613 -0.113775 1.6738 38 38 35
0.321995 -0.112938 1.66149 37 38 35
0.339324 -0.115884 1.70483 37 38 34
0.348253 -0.115884 1.70483 37 37 34
0.357183 -0.115884 1.70483 37 37 34
0.350984 -0.111096 1.63439 37 37 34
0.36429 -0.112562 1.65596 37 37 34
0.387022 -0.116805 1.71838 37 37 34
0.37897 -0.111775 1.64438 37 37 34
0.394517 -0.113775 1.6738 37 37 34
0.400318 -0.112938 1.66149 36 37 34
0.412051 -0.113775 1.6738 36 36 33
0.420818 -0.113775 1.6738 36 36 33
0.43375 -0.114878 1.69003 36 36 34
0.430648 -0.111775 1.64438 37 37 34
0.459456 -0.116914 1.71999 38 38 35
0.473222 -0.118101 1.73745 37 38 35
0.48966 -0.119898 1.76388 37 37 34
0.468373 -0.112562 1.65596 36 36 34
0.495492 -0.116914 1.71999 36 36 34
0.487344 -0.112938 1.66149 37 37 35
0.500727 -0.114004 1.67717 37 37 35
0.522519 -0.116914 1.71999 37 38 35
0.535781 -0.11785 1.73375 37 38 35
0.54003 -0.116805 1.71838 36 38 35
0.549031 -0.116805 1.71838 36 37 35
0.558031 -0.116805 1.71838 35 37 34
0.572105 -0.11785 1.73375 35 36 34
0.595107 -0.120673 1.77528 35 37 35
0.594537 -0.118702 1.74629 35 37 34
0.589351 -0.115884 1.70483 35 36 34
0.619004 -0.119898 1.76388 35 36 35
0.61751 -0.11785 1.73375 36 37 34
0.621617 -0.116914 1.71999 35 36 33
0.642118 -0.119045 1.75133 35 36 33
0.66344 -0.121265 1.784 35 36 33
0.648644 -0.116914 1.71999 36 37 34
0.657653 -0.116914 1.71999 36 37 35
0.695801 -0.122024 1.79517 36 37 35
0.697391 -0.120673 1.77528 36 37 34
0.695151 -0.118702 1.74629 36 37 33
0.70633 -0.119045 1.75133 36 37 34
0.696506 -0.115884 1.70483 36 38 34
0.752219 -0.123569 1.81789 36 38 34
0.728033 -0.118101 1.73745 36 37 34
0.775342 -0.124223 1.82751 35 36 33
0.780784 -0.123569 1.81789 35 36 33
0.775571 -0.121265 1.784 34 35 33
0.779459 -0.120422 1.7716 33 35 32
0.794259 -0.121265 1.784 34 36 34
0.791785 -0.119482 1.75776 35 37 35
0.800991 -0.119482 1.75776 35 37 34
0.816576 -0.120422 1.7716 35 37 34
0.822259 -0.119898 1.76388 35 37 34
0.856958 -0.123569 1.81789 35 37 34
0.82207 -0.117236 1.72472 35 37 34
0.858524 -0.121104 1.78162 35 37 35
0.908768 -0.126813 1.86561 35 37 35
0.883856 -0.122024 1.79517 35 38 35
0.886519 -0.121104 1.78162 34 37 34
0.91657 -0.123905 1.82283 34 36 33
0.866168 -0.115884 1.70483 34 37 35
0.912637 -0.120855 1.77797 35 37 35
0.956213 -0.125347 1.84404 35 37 35
0.965871 -0.125347 1.84404 35 37 36
1.00242 -0.128801 1.89486 34 37 36
1.01234 -0.128801 1.89486 35 38 36
0.9592 -0.120855 1.77797 35 37 36
0.997129 -0.124426 1.8305 35 38 36
0.997892 -0.123335 1.81445 35 37 36
1.04684 -0.128165 1.8855 35 37 36
1.08533 -0.131635 1.93655 34 36 35
1.06028 -0.127406 1.87433 32 35 34
1.04069 -0.123905 1.82283 32 36 35
1.11173 -0.131159 1.92955 33 37 36
1.12183 -0.131159 1.92955 32 36 36
1.12682 -0.130566 1.92083 32 36 35
1.07888 -0.123905 1.82283 33 37 36
1.15215 -0.131159 1.92955 34 37 36
1.15028 -0.129807 1.90967 34 37 36
1.16707 -0.130566 1.92083 34 37 36
1.10012 -0.122024 1.79517 34 37 36
1.10952 -0.122024 1.79517 33 37 36
1.13617 -0.123905 1.82283 32 36 36
-0.588654 -0.0587639 0.936549 36 39 33
-0.579388 -0.0583249 0.929553 36 38 33
-0.578843 -0.0587639 0.936549 36 38 33
-0.594258 -0.0608444 0.969708 37 38 34
-0.552699 -0.0570771 0.909666 36 38 33
-0.567582 -0.0591237 0.942284 35 37 31
-0.579021 -0.0608444 0.969708 36 37 31
-0.559188 -0.0592804 0.944781 36 37 32
-0.586633 -0.0627451 1 36 37 33
-0.562904 -0.0607495 0.968195 36 36 33
-0.555801 -0.0605282 0.964669 36 36 33
-0.57092 -0.0627451 1 36 37 34
-0.565682 -0.0627451 1 37 38 35
-0.544238 -0.0609307 0.971083 37 37 34
-0.555206 -0.0627451 1 37 37 34
-0.534065 -0.0609307 0.971083 37 37 34
-0.560483 -0.0645595 1.02892 37 37 34
-0.539493 -0.0627451 1 37 37 33
-0.550439 -0.0646458 1.03029 37 37 33
-0.545043 -0.0646458 1.03029 36 37 32
-0.52378 -0.0627451 1 37 37 33
-0.567692 -0.0686925 1.09479 37 38 33
-0.528853 -0.0646458 1.03029 38 38 34
-0.538778 -0.0665379 1.06045 38 38 34
-0.53185 -0.0663665 1.05772 37 37 34
-0.530813 -0.0669344 1.06677 37 37 33
-0.52906 -0.067423 1.07455 37 37 34
-0.521431 -0.0671653 1.07045 38 38 35
-0.545531 -0.0710335 1.1321 38 38 35
-0.510217 -0.0671653 1.07045 37 38 34
-0.540753 -0.071976 1.14712 37 38 34
-0.515175 -0.0693419 1.10514 38 38 35
-0.555339 -0.0755973 1.20483 37 38 34
-0.531289 -0.0731548 1.1659 37 38 34
-0.507057 -0.07063 1.12567 37 38 34
-0.524091 -0.0738617 1.17717 37 38 33
-0.517926 -0.0738617 1.17717 36 37 32
-0.529673 -0.0764471 1.21838 36 37 31
-0.529895 -0.0774118 1.23375 36 37 32
-0.541052 -0.0800175 1.27528 37 38 33
-0.53283 -0.0797866 1.2716 37 37 32
-0.552894 -0.0838389 1.33618 36 37 32
-0.538423 -0.0826914 1.31789 36 37 32
-0.554283 -0.0862327 1.37433 36 37 31
-0.51557 -0.0812654 1.29517 36 37 32
-0.527986 -0.084332 1.34404 37 38 34
-0.546382 -0.0884496 1.40967 38 39 35
-0.538998 -0.0884496 1.40967 38 39 35
-0.5497 -0.0914586 1.45762 37 38 34
-0.504131 -0.0850582 1.35562 37 37 33
-0.503894 -0.0862327 1.37433 37 38 34
-0.526796 -0.0914586 1.45762 37 38 34
-0.534255 -0.0941176 1.5 38 38 34
-0.54127 -0.0967767 1.54238 37 38 33
-0.501646 -0.091051 1.45113 37 37 33
-0.494045 -0.091051 1.45113 37 37 32
-0.559648 -0.104753 1.6695 37 37 33
-0.494972 -0.0941176 1.5 37 37 33
-0.487115 -0.0941176 1.5 37 38 34
-0.494874 -0.0971843 1.54887 37 37 33
-0.499791 -0.0997857 1.59033 37 37 34
-0.508164 -0.103177 1.64438 37 37 34
-0.517915 -0.10697 1.70483 36 37 33
-0.498437 -0.104753 1.6695 36 36 32
-0.454311 -0.0971843 1.54887 36 37 33
-0.499457 -0.108784 1.73375 36 37 33
-0.501081 -0.111159 1.7716 36 37 33
-0.445591 -0.100714 1.60514 37 37 34
-0.456803 -0.105234 1.67717 37 38 34
-0.467118 -0.10972 1.74867 37 38 34
-0.437225 -0.104753 1.6695 37 38 34
-0.422035 -0.103177 1.64438 37 37 34
-0.435889 -0.108784 1.73375 37 37 34
-0.416046 -0.106041 1.69003 38 38 35
-0.41076 -0.10697 1.70483 38 39 35
-0.411603 -0.109571 1.74629 40 40 37
-0.386526 -0.105234 1.67717 39 39 36
-0.383971 -0.10697 1.70483 38 38 36
-0.368216 -0.105023 1.6738 38 38 36
-0.366112 -0.10697 1.70483 37 38 35
-0.363241 -0.108784 1.73375 38 38 35
-0.343156 -0.105404 1.67988 38 38 35
-0.336684 -0.106138 1.69157 37 38 34
-0.316742 -0.10255 1.63439 37 38 34
-0.318964 -0.106138 1.69157 37 38 34
-0.310104 -0.106138 1.69157 38 38 34
-0.30823 -0.108599 1.7308 38 38 34
-0.289894 -0.105234 1.67717 37 37 33
-0.283265 -0.106041 1.69003 37 36 32
-0.283548 -0.109571 1.74629 36 36 32
-0.270015 -0.10782 1.71838 36 38 34
-0.252374 -0.104251 1.66149 37 39 35
-0.241163 -0.103177 1.64438 37 38 34
-0.23671 -0.105023 1.6738 36 38 34
-0.228402 -0.105234 1.67717 36 38 34
-0.212873 -0.102003 1.62567 36 38 34
-0.216012 -0.10782 1.71838 36 37 33
-0.203782 -0.106138 1.69157 36 38 33
-0.191965 -0.104527 1.6659 36 38 34
-0.183239 -0.104527 1.6659 37 38 34
-0.171212 -0.10255 1.63439 37 38 34
-0.166909 -0.105234 1.67717 37 38 34
-0.159337 -0.106041 1.69003 37 38 34
-0.153009 -0.10782 1.71838 37 38 34
-0.139241 -0.104251 1.66149 37 38 34
-0.133943 -0.10697 1.70483 37 38 34
-0.122986 -0.105234 1.67717 37 38 34
-0.111288 -0.10255 1.63439 37 38 34
-0.108972 -0.108784 1.73375 38 39 35
-0.0941664 -0.10255 1.63439 37 39 35
-0.090005 -0.10782 1.71838 37 38 35
-0.0790621 -0.105234 1.67717 38 38 35
-0.0708163 -0.106041 1.69003 37 38 35
-0.062507 -0.10697 1.70483 36 37 34
-0.0513635 -0.10255 1.63439 36 37 33
-0.0438352 -0.105023 1.6738 37 38 35
-0.0351387 -0.105234 1.67717 37 38 35
-0.0256817 -0.10255 1.63439 36 37 34
-0.0171212 -0.10255 1.63439 36 37 34
-0.00900894 -0.107921 1.71999 37 38 34
0 -0.105234 1.67717 37 38 34
0.00900894 -0.107921 1.71999 37 38 34
0.0174051 -0.104251 1.66149 37 38 34
0.0256817 -0.10255 1.63439 37 38 34
0.0346943 -0.103903 1.65596 37 38 34
0.0439234 -0.105234 1.67717 37 38 34
0.0518788 -0.103579 1.65078 37 38 35
0.060918 -0.104251 1.66149 37 38 34
0.0681193 -0.102003 1.62567 37 38 34
0.0803661 -0.10697 1.70483 37 38 34
0.0878468 -0.105234 1.67717 36 37 34
0.0951111 -0.103579 1.65078 36 37 33
0.107155 -0.10697 1.70483 36 37 33
0.115267 -0.106216 1.69282 37 39 34
0.121836 -0.104251 1.66149 37 39 34
0.129194 -0.103177 1.64438 37 39 34
0.137807 -0.103177 1.64438 36 38 33
0.14699 -0.103579 1.65078 36 37 32
0.156124 -0.103903 1.65596 36 37 33
0.164283 -0.103579 1.65078 36 37 33
0.171944 -0.102989 1.64138 36 37 33
0.181576 -0.103579 1.65078 36 37 32
0.191456 -0.104251 1.66149 36 37 33
0.207206 -0.107921 1.71999 36 37 33
0.210832 -0.105234 1.67717 37 37 34
0.214931 -0.102989 1.64138 37 38 35
0.222575 -0.10255 1.63439 37 38 34
0.239005 -0.106041 1.69003 37 38 35
0.250028 -0.10697 1.70483 37 38 34
0.258957 -0.10697 1.70483 37 37 34
0.255447 -0.102003 1.62567 36 37 33
0.274663 -0.106138 1.69157 36 37 33
0.28111 -0.105234 1.67717 36 37 34
0.284227 -0.103177 1.64438 36 37 33
0.308755 -0.108784 1.73375 37 38 34
0.301453 -0.103177 1.64438 38 39 35
0.321464 -0.10697 1.70483 38 39 35
0.330394 -0.10697 1.70483 37 38 34
0.330698 -0.104251 1.66149 37 37 34
0.3394 -0.104251 1.66149 36 37 34
0.354081 -0.106041 1.69003 37 38 34
0.356805 -0.104251 1.66149 37 38 35
0.378376 -0.107921 1.71999 36 37 34
0.387385 -0.107921 1.71999 37 38 35
0.389489 -0.106041 1.69003 38 38 35
0.40183 -0.10697 1.70483 38 39 36
0.396196 -0.103177 1.64438 37 38 34
0.42342 -0.107921 1.71999 37 37 34
0.432024 -0.10782 1.71838 37 37 34
0.43375 -0.106041 1.69003 37 37 34
0.430648 -0.103177 1.64438 37 37 35
0.471182 -0.110675 1.76388 37 38 35
0.468026 -0.10782 1.71838 37 38 35
0.473267 -0.10697 1.70483 36 37 34
0.459805 -0.102003 1.62567 36 36 34
0.491126 -0.10697 1.70483 34 35 32
0.491942 -0.105234 1.67717 36 36 34
0.533118 -0.112042 1.78567 37 37 35
0.5267 -0.108784 1.73375 37 38 35
0.535781 -0.108784 1.73375 36 38 35
0.548803 -0.109571 1.74629 36 38 35
0.549546 -0.107921 1.71999 36 38 35
0.553633 -0.10697 1.70483 35 37 34
0.585809 -0.11139 1.77528 34 35 33
0.58539 -0.109571 1.74629 35 36 34
0.590267 -0.108784 1.73375 35 37 34
0.594033 -0.10782 1.71838 36 37 35
0.633528 -0.113272 1.80527 36 37 36
0.607211 -0.10697 1.70483 35 36 34
0.637481 -0.110675 1.76388 34 35 33
0.640271 -0.109571 1.74629 35 36 33
0.655959 -0.110675 1.76388 35 36 34
0.665198 -0.110675 1.76388 36 37 35
0.674437 -0.110675 1.76388 37 38 35
0.688093 -0.11139 1.77528 37 38 35
0.686004 -0.109571 1.74629 36 37 34
0.68468 -0.107921 1.71999 36 38 34
0.711392 -0.110675 1.76388 37 38 34
0.715503 -0.109887 1.75133 36 37 34
0.738194 -0.111937 1.784 36 37 33
0.752218 -0.112638 1.79517 35 37 33
0.737134 -0.109017 1.73745 35 36 33
0.784914 -0.114667 1.82751 35 36 33
0.77018 -0.111159 1.7716 34 36 33
0.764435 -0.109017 1.73745 34 36 33
0.788738 -0.111159 1.7716 34 36 33
0.834632 -0.116259 1.85288 34 36 33
0.818037 -0.112638 1.79517 35 36 34
0.816576 -0.111159 1.7716 35 37 34
0.869682 -0.117058 1.86561 35 37 35
0.846245 -0.112638 1.79517 35 37 34
0.855647 -0.112638 1.79517 34 37 34
0.925606 -0.120523 1.92083 35 37 34
0.913016 -0.117605 1.87433 34 37 34
0.869618 -0.110824 1.76625 35 37 34
0.907022 -0.114374 1.82283 35 37 34
0.902661 -0.112638 1.79517 34 36 34
0.936895 -0.115705 1.84404 34 36 34
0.906623 -0.110824 1.76625 35 37 35
0.923847 -0.111788 1.78162 35 37 36
1.00024 -0.119822 1.90967 35 37 36
0.97553 -0.115705 1.84404 34 37 36
0.977953 -0.114855 1.8305 34 37 36
0.978885 -0.113848 1.81445 34 37 36
0.997129 -0.114855 1.8305 34 37 36
0.987286 -0.112638 1.79517 34 37 35
1.02382 -0.115705 1.84404 34 36 35
1.04287 -0.116756 1.86079 33 35 35
1.04314 -0.115705 1.84404 32 35 34
0.989832 -0.108784 1.73375 32 35 35
0.998913 -0.108784 1.73375 32 36 36
1.05978 -0.114374 1.82283 32 36 35
1.13194 -0.12107 1.92955 32 36 35
1.14619 -0.121509 1.93655 33 36 35
1.07191 -0.112638 1.79517 34 37 36
1.12084 -0.116756 1.86079 35 39 38
0.987729 -0.102003 1.62567 35 39 38
1.10012 -0.112638 1.79517 35 39 38
1.12662 -0.114374 1.82283 34 37 37
1.31213 -0.132087 2.10514 31 35 35
-0.541038 -0.0495096 0.860791 36 39 33
-0.583749 -0.0538669 0.936549 36 38 32
-0.576794 -0.0536762 0.933233 36 37 32
-0.554735 -0.0520646 0.905214 36 37 31
-0.552699 -0.0523206 0.909666 36 37 31
-0.602347 -0.0575163 1 35 37 31
-0.579021 -0.055774 0.969708 35 37 31
-0.591871 -0.0575163 1 36 37 32
-0.568863 -0.055774 0.969708 36 37 32
-0.563784 -0.055774 0.969708 36 36 33
-0.592818 -0.0591796 1.02892 36 36 33
-0.588214 -0.0592586 1.03029 37 37 34
-0.565682 -0.0575163 1 38 38 35
-0.560444 -0.0575163 1 37 38 35
-0.572864 -0.0593456 1.0318 37 38 35
-0.534756 -0.0559253 0.972338 37 37 34
-0.544731 -0.0575163 1 37 37 34
-0.539493 -0.0575163 1 37 37 33
-0.517263 -0.0556871 0.968195 37 38 34
-0.581758 -0.0632505 1.0997 37 38 34
-0.539646 -0.0592586 1.03029 38 38 34
-0.5359 -0.0594417 1.03348 38 38 34
-0.561958 -0.0629681 1.09479 38 38 34
-0.558718 -0.0632505 1.0997 38 38 34
-0.566017 -0.0647442 1.12567 38 38 34
-0.547198 -0.0632505 1.0997 37 37 34
-0.544117 -0.0635634 1.10514 37 37 34
-0.554926 -0.0655231 1.13921 38 38 35
-0.548959 -0.0655231 1.13921 39 39 36
-0.526752 -0.0635634 1.10514 38 38 35
-0.548625 -0.0669385 1.16382 38 38 35
-0.531058 -0.0655231 1.13921 37 37 34
-0.491701 -0.0613565 1.06677 36 37 33
-0.519124 -0.0655231 1.13921 36 37 33
-0.542717 -0.0692976 1.20483 36 37 32
-0.536407 -0.0692976 1.20483 36 37 32
-0.546553 -0.071449 1.24224 36 37 31
-0.536357 -0.0709608 1.23375 36 37 31
-0.500755 -0.0670586 1.1659 36 37 31
-0.511164 -0.0692976 1.20483 37 37 32
-0.510528 -0.0700765 1.21838 36 37 32
-0.535922 -0.0744933 1.29517 37 38 33
-0.519509 -0.0731377 1.2716 37 38 34
-0.53152 -0.0758004 1.31789 37 38 34
-0.494501 -0.071449 1.24224 37 38 34
-0.497427 -0.0728301 1.26625 38 38 34
-0.520946 -0.0773044 1.34404 38 39 35
-0.505796 -0.0760843 1.32283 38 38 34
-0.535826 -0.0817211 1.42083 37 38 34
-0.542065 -0.083837 1.45762 37 38 34
-0.520942 -0.0817211 1.42083 38 38 34
-0.542112 -0.0862745 1.5 38 38 34
-0.502081 -0.0810788 1.40967 38 38 34
-0.506144 -0.0829549 1.44228 37 37 33
-0.554887 -0.0923216 1.60514 37 37 33
-0.530335 -0.0895941 1.55772 37 37 33
-0.434165 -0.0744933 1.29517 37 37 34
-0.514017 -0.0895941 1.55772 38 38 34
-0.487115 -0.0862745 1.5 37 38 34
-0.51285 -0.0923216 1.60514 38 38 34
-0.504443 -0.0923216 1.60514 38 38 34
-0.535781 -0.099719 1.73375 38 38 34
-0.517915 -0.0980557 1.70483 37 37 33
-0.500727 -0.0964647 1.67717 37 37 34
-0.519639 -0.101896 1.7716 37 37 34
-0.491126 -0.0980557 1.70483 36 37 33
-0.482197 -0.0980557 1.70483 36 37 33
-0.473267 -0.0980557 1.70483 36 37 34
-0.464337 -0.0980557 1.70483 37 38 34
-0.450256 -0.0969465 1.68555 37 38 34
-0.422821 -0.09286 1.6145 37 38 34
-0.430449 -0.0964647 1.67717 37 38 34
-0.432024 -0.0988347 1.71838 37 38 34
-0.397962 -0.0929793 1.61657 36 37 33
-0.407565 -0.097293 1.69157 36 37 33
-0.395311 -0.0964647 1.67717 37 38 34
-0.399565 -0.099719 1.73375 37 38 35
-0.377741 -0.0964647 1.67717 38 38 36
-0.371785 -0.0972043 1.69003 38 38 36
-0.387681 -0.103833 1.80527 38 38 35
-0.357183 -0.0980557 1.70483 38 38 35
-0.359065 -0.1011 1.75776 37 37 34
-0.330698 -0.095563 1.66149 36 37 33
-0.319919 -0.094947 1.65078 37 38 34
-0.318964 -0.097293 1.69157 38 38 34
-0.29962 -0.0940039 1.63439 38 38 34
-0.298679 -0.0964647 1.67717 37 37 34
-0.292117 -0.0972043 1.69003 37 37 34
-0.275614 -0.094579 1.64438 37 37 34
-0.272325 -0.0964647 1.67717 36 37 34
-0.265561 -0.0972043 1.69003 36 38 34
-0.261259 -0.0989274 1.71999 37 38 35
-0.250028 -0.0980557 1.70483 36 38 34
-0.245188 -0.099719 1.73375 36 38 34
-0.228402 -0.0964647 1.67717 36 37 34
-0.217564 -0.095563 1.66149 36 38 34
-0.211173 -0.0966205 1.67988 36 38 34
-0.208864 -0.099719 1.73375 37 39 35
-0.194922 -0.097293 1.69157 38 39 35
-0.174272 -0.091128 1.58438 37 38 34
-0.165974 -0.091128 1.58438 36 37 33
-0.169662 -0.0980557 1.70483 36 37 33
-0.153268 -0.0935024 1.62567 36 37 33
-0.14553 -0.0940039 1.63439 36 38 33
-0.138343 -0.094947 1.65078 36 37 33
-0.13278 -0.0972043 1.69003 36 38 33
-0.12105 -0.094947 1.65078 36 37 33
-0.115076 -0.0972043 1.69003 37 38 34
-0.102727 -0.0940039 1.63439 38 39 35
-0.093664 -0.0935024 1.62567 37 38 35
-0.0861295 -0.094579 1.64438 37 37 34
-0.0770452 -0.0940039 1.63439 36 37 34
-0.0714365 -0.0980557 1.70483 36 37 34
-0.0619642 -0.0972043 1.69003 36 36 33
-0.0522154 -0.095563 1.66149 35 36 32
-0.0446478 -0.0980557 1.70483 37 38 34
-0.0344518 -0.094579 1.64438 37 38 35
-0.0254018 -0.0929793 1.61657 37 37 34
-0.0177041 -0.0972043 1.69003 36 37 34
-0.00851491 -0.0935024 1.62567 37 38 34
0 -0.095563 1.66149 37 38 34
0.00870257 -0.095563 1.66149 37 38 34
0.0175694 -0.0964647 1.67717 37 38 34
0.0258389 -0.094579 1.64438 37 38 34
0.0345858 -0.094947 1.65078 37 38 34
0.0442602 -0.0972043 1.69003 37 38 34
0.0510894 -0.0935024 1.62567 37 38 35
0.0605252 -0.094947 1.65078 37 38 34
0.0702774 -0.0964647 1.67717 36 37 33
0.0796683 -0.0972043 1.69003 36 37 34
0.0876704 -0.096271 1.6738 36 37 34
0.0966315 -0.0964647 1.67717 36 37 33
0.102846 -0.0941126 1.63628 36 37 33
0.111288 -0.0940039 1.63439 37 38 33
0.123928 -0.0972043 1.69003 37 38 34
0.128409 -0.0940039 1.63439 36 38 33
0.139611 -0.0958167 1.6659 36 37 33
0.143944 -0.0929793 1.61657 35 37 32
