ply
format ascii 1.0
element vertex 1307
property float x
property float y
property float z
property uchar red
property uchar green
property uchar blue
end_header
-0.526757 -0.0846192 1.15596 37 38 35
-0.488462 -0.0793798 1.08438 38 38 35
-0.510711 -0.083972 1.14712 38 39 35
-0.553384 -0.0920715 1.25776 38 38 35
-0.540047 -0.0909351 1.24224 38 38 34
-0.529895 -0.0903137 1.23375 36 37 33
-0.504884 -0.0871133 1.19003 37 37 34
-0.498651 -0.0871133 1.19003 38 38 34
-0.556145 -0.0983874 1.34404 38 38 35
-0.492232 -0.0881969 1.20483 38 37 34
-0.485921 -0.0881969 1.20483 39 38 34
-0.557423 -0.102506 1.4003 38 37 34
-0.480058 -0.0894561 1.22203 37 36 34
-0.492868 -0.0930844 1.2716 37 37 34
-0.495219 -0.0948096 1.29517 37 37 34
-0.535826 -0.104009 1.42083 38 37 34
-0.511092 -0.100605 1.37433 38 38 35
-0.503894 -0.100605 1.37433 38 38 35
-0.509464 -0.103191 1.40967 37 37 34
-0.502081 -0.103191 1.40967 37 37 34
-0.539525 -0.112542 1.53741 37 37 34
-0.503892 -0.106702 1.45762 37 36 34
-0.491035 -0.105579 1.44228 37 37 34
-0.515367 -0.112542 1.53741 37 36 34
-0.494972 -0.109804 1.5 37 37 34
-0.487115 -0.109804 1.5 37 37 34
-0.479258 -0.109804 1.5 37 38 35
-0.499791 -0.116417 1.59033 37 37 35
-0.481381 -0.114029 1.55772 37 37 35
-0.499551 -0.120373 1.64438 37 37 36
-0.462423 -0.113382 1.54887 37 37 35
-0.482325 -0.120373 1.64438 36 37 35
-0.473712 -0.120373 1.64438 36 37 35
-0.472203 -0.122212 1.6695 37 37 35
-0.481295 -0.126915 1.73375 37 37 34
-0.464337 -0.124798 1.70483 36 37 34
-0.455408 -0.124798 1.70483 36 37 34
-0.45265 -0.126523 1.7284 37 37 35
-0.437549 -0.124798 1.70483 37 38 35
-0.413422 -0.120373 1.64438 37 37 35
-0.416046 -0.123715 1.69003 37 37 35
-0.414411 -0.125908 1.71999 37 38 35
-0.405023 -0.12579 1.71838 38 38 35
-0.386526 -0.122773 1.67717 38 38 35
-0.387022 -0.12579 1.71838 38 38 35
-0.371785 -0.123715 1.69003 38 38 35
-0.347158 -0.118337 1.61657 37 37 34
-0.342423 -0.119641 1.63439 36 36 33
-0.348253 -0.124798 1.70483 35 35 32
-0.333818 -0.122773 1.67717 35 36 33
-0.327525 -0.123715 1.69003 36 36 34
-0.324018 -0.12579 1.71838 37 37 34
-0.302626 -0.120842 1.65078 37 37 35
-0.283215 -0.116417 1.59033 37 37 35
-0.297017 -0.12579 1.71838 37 37 35
-0.278482 -0.121626 1.66149 38 37 35
-0.272325 -0.122773 1.67717 38 38 35
-0.270268 -0.125908 1.71999 38 38 35
-0.254756 -0.122773 1.67717 37 37 34
-0.245971 -0.122773 1.67717 37 37 34
-0.23671 -0.122527 1.6738 37 37 35
-0.230153 -0.123715 1.69003 38 37 35
-0.215324 -0.120373 1.64438 38 37 36
-0.208862 -0.121626 1.66149 37 37 36
-0.20069 -0.121949 1.6659 37 37 35
-0.194745 -0.123715 1.69003 37 38 36
-0.184478 -0.122773 1.67717 37 37 35
-0.167314 -0.116918 1.59718 37 37 35
-0.162651 -0.119641 1.63439 37 36 35
-0.160732 -0.124798 1.70483 37 36 34
-0.14934 -0.122773 1.67717 37 37 34
-0.141633 -0.123715 1.69003 37 37 34
-0.127009 -0.118337 1.61657 37 37 34
-0.118542 -0.118337 1.61657 36 37 34
-0.111968 -0.120373 1.64438 37 37 35
-0.107155 -0.124798 1.70483 38 38 36
-0.0973724 -0.123715 1.69003 36 37 34
-0.0892957 -0.124798 1.70483 36 37 34
-0.078531 -0.121949 1.6659 37 37 35
-0.0702774 -0.122773 1.67717 37 38 35
-0.0599241 -0.119641 1.63439 38 39 36
-0.0516777 -0.120373 1.64438 37 38 35
-0.0442602 -0.123715 1.69003 36 36 34
-0.0348103 -0.121626 1.66149 35 36 34
-0.0267887 -0.124798 1.70483 34 35 32
-0.0175694 -0.122773 1.67717 35 36 33
-0.00885203 -0.123715 1.69003 37 38 33
0 -0.122527 1.6738 37 38 34
0.00829868 -0.115981 1.58438 38 39 35
0.0172929 -0.120842 1.65078 38 39 35
0.0259394 -0.120842 1.65078 38 39 35
0.0335597 -0.117256 1.6018 38 39 36
0.0425745 -0.119003 1.62567 38 39 37
0.0544862 -0.126915 1.73375 37 38 35
0.0619642 -0.123715 1.69003 37 38 35
0.0698053 -0.121949 1.6659 38 39 36
0.0770452 -0.119641 1.63439 38 39 36
0.0864646 -0.120842 1.65078 37 38 35
0.0959824 -0.121949 1.6659 35 36 33
0.102727 -0.119641 1.63439 36 37 34
0.113133 -0.121626 1.66149 36 37 34
0.124041 -0.123827 1.69157 36 36 33
0.129697 -0.120842 1.65078 37 38 35
0.139611 -0.121949 1.6659 38 40 36
0.14934 -0.122773 1.67717 39 40 36
0.155636 -0.120842 1.65078 38 39 36
0.165349 -0.121626 1.66149 38 39 35
0.171944 -0.120153 1.64138 38 39 35
0.179772 -0.119641 1.63439 38 39 35
0.192875 -0.122527 1.6738 37 38 35
0.201642 -0.122527 1.6738 36 38 35
0.203215 -0.118337 1.61657 36 38 35
0.219617 -0.122773 1.67717 36 38 35
0.220149 -0.118337 1.61657 37 39 36
0.239005 -0.123715 1.69003 38 39 36
0.254269 -0.126915 1.73375 37 38 35
0.256709 -0.123715 1.69003 36 37 34
0.270268 -0.125908 1.71999 36 37 33
0.272325 -0.122773 1.67717 36 37 33
0.280545 -0.122527 1.6738 36 37 34
0.274885 -0.116417 1.59033 37 38 35
0.308755 -0.126915 1.73375 37 38 35
0.309464 -0.123572 1.68808 38 39 36
0.318673 -0.123715 1.69003 38 39 36
0.32438 -0.122527 1.6738 37 39 35
0.327292 -0.120373 1.64438 37 38 35
0.342602 -0.122773 1.67717 37 38 35
0.366925 -0.128202 1.75133 37 38 35
0.342994 -0.116918 1.59718 38 39 35
0.368957 -0.122773 1.67717 37 38 34
0.371798 -0.120842 1.65078 36 37 34
0.380444 -0.120842 1.65078 37 38 34
0.409519 -0.127186 1.73745 38 39 35
0.426847 -0.129686 1.7716 37 38 35
0.416046 -0.123715 1.69003 37 38 34
0.428619 -0.124798 1.70483 36 37 33
0.437549 -0.124798 1.70483 36 37 33
0.442602 -0.123715 1.69003 36 38 34
0.442352 -0.12122 1.65596 36 38 34
0.460306 -0.123715 1.69003 35 38 33
0.45129 -0.119003 1.62567 34 36 31
0.477459 -0.123572 1.68808 34 36 32
0.483157 -0.122773 1.67717 35 37 33
0.513695 -0.128202 1.75133 36 37 34
0.526615 -0.129121 1.76388 36 37 34
0.504749 -0.121626 1.66149 36 38 35
0.541214 -0.128202 1.75133 37 38 35
0.535774 -0.124798 1.70483 36 38 35
0.530857 -0.121626 1.66149 36 38 35
0.563024 -0.126915 1.73375 37 38 35
0.562563 -0.124798 1.70483 36 37 34
0.581186 -0.126915 1.73375 36 37 34
0.589263 -0.126699 1.7308 36 37 34
0.599348 -0.126915 1.73375 36 38 35
0.579313 -0.120842 1.65078 38 39 36
0.601938 -0.123715 1.69003 37 38 36
0.621035 -0.12579 1.71838 36 37 35
0.630626 -0.125908 1.71999 36 37 34
0.655959 -0.129121 1.76388 35 36 34
0.658564 -0.127833 1.74629 35 36 34
0.674437 -0.129121 1.76388 34 36 34
0.666037 -0.12579 1.71838 35 36 35
0.675038 -0.12579 1.71838 35 36 35
0.70669 -0.129955 1.77528 36 37 35
0.693689 -0.125908 1.71999 37 38 36
0.715503 -0.128202 1.75133 37 38 36
0.72987 -0.129121 1.76388 36 38 35
0.739109 -0.129121 1.76388 36 37 35
0.751621 -0.129686 1.7716 36 37 35
0.739613 -0.126057 1.72203 35 37 34
0.764164 -0.128673 1.75776 34 36 34
0.789828 -0.131411 1.79517 34 35 33
0.793202 -0.13042 1.78162 34 35 33
0.798018 -0.129686 1.7716 35 37 34
0.784711 -0.126057 1.72203 36 38 36
0.810198 -0.128673 1.75776 37 38 36
0.794731 -0.124798 1.70483 35 37 35
0.851906 -0.13229 1.80718 35 37 34
0.837819 -0.128673 1.75776 34 36 34
0.829809 -0.126057 1.72203 35 36 34
0.874453 -0.131411 1.79517 35 37 34
0.903022 -0.134261 1.8341 34 36 34
0.878869 -0.129294 1.76625 34 36 34
0.87928 -0.128007 1.74867 34 36 34
0.919584 -0.132495 1.80997 34 36 35
0.939602 -0.133997 1.8305 34 37 35
0.930869 -0.131411 1.79517 34 36 35
1.01984 -0.142531 1.94707 34 36 35
0.97553 -0.134989 1.84404 34 36 35
0.949887 -0.130152 1.77797 33 36 35
0.987541 -0.133997 1.8305 34 36 35
1.0549 -0.14176 1.93655 34 36 35
1.03082 -0.137206 1.87433 32 35 34
1.02382 -0.134989 1.84404 32 35 34
1.06196 -0.138709 1.89486 34 37 36
0.980751 -0.126915 1.73375 35 37 36
1.06236 -0.136215 1.86079 34 37 36
1.07211 -0.136215 1.86079 32 36 35
1.07212 -0.134989 1.84404 32 36 36
1.08178 -0.134989 1.84404 33 37 36
1.10936 -0.137206 1.87433 32 37 36
1.10109 -0.134989 1.84404 34 38 38
1.12084 -0.136215 1.86079 34 38 38
1.16028 -0.139793 1.90967 32 37 36
1.17029 -0.139793 1.90967 28 34 34
1.05369 -0.124798 1.70483 29 35 35
1.11892 -0.131411 1.79517 30 35 35
-0.571757 -0.0618335 0.909666 37 38 35
-0.564218 -0.0615309 0.905214 37 37 34
-0.61806 -0.0679739 1 36 37 34
-0.575778 -0.063865 0.939552 36 36 34
-0.590015 -0.0660082 0.971083 37 37 34
-0.602347 -0.0679739 1 37 37 35
-0.562646 -0.0640507 0.942284 37 37 35
-0.591871 -0.0679739 1 36 37 34
-0.551172 -0.063865 0.939552 37 37 35
-0.564583 -0.0660082 0.971083 38 38 36
-0.576158 -0.0679739 1 38 38 35
-0.55441 -0.0660082 0.971083 37 37 35
-0.548546 -0.0659148 0.969708 37 37 34
-0.526566 -0.063865 0.939552 36 36 34
-0.555206 -0.0679739 1 36 36 34
-0.549969 -0.0679739 1 36 36 34
-0.544731 -0.0679739 1 36 37 34
-0.555835 -0.0700329 1.03029 36 37 34
-0.534255 -0.0679739 1 36 37 34
-0.529017 -0.0679739 1 37 37 34
-0.538926 -0.0699395 1.02892 37 37 34
-0.518542 -0.0679739 1 36 37 34
-0.530487 -0.0702493 1.03348 36 36 33
-0.491907 -0.065812 0.968195 38 38 35
-0.536401 -0.0725122 1.06677 39 39 35
-0.514248 -0.0702493 1.03348 38 38 35
-0.508012 -0.0701357 1.0318 37 37 33
-0.487115 -0.0679739 1 36 36 32
-0.548959 -0.0774364 1.13921 36 36 33
-0.524158 -0.0747506 1.0997 36 36 33
-0.537025 -0.0774364 1.13921 36 36 34
-0.518001 -0.0755325 1.1112 37 38 35
-0.544863 -0.0803523 1.18211 38 39 36
-0.522728 -0.077974 1.14712 37 38 35
-0.503602 -0.0759945 1.118 36 37 34
-0.501161 -0.0765159 1.12567 37 38 35
-0.495265 -0.0765159 1.12567 38 38 35
-0.51176 -0.0800169 1.17717 37 38 34
-0.505594 -0.0800169 1.17717 36 37 33
-0.504884 -0.0808909 1.19003 37 37 34
-0.516971 -0.0838628 1.23375 37 38 34
-0.492418 -0.0808909 1.19003 38 38 34
-0.49926 -0.0830664 1.22203 38 37 34
-0.504675 -0.0850578 1.25133 38 37 34
-0.460155 -0.0785749 1.15596 38 37 34
-0.527986 -0.0913597 1.34404 38 37 34
-0.492868 -0.0864355 1.2716 38 37 34
-0.525489 -0.0934188 1.37433 38 37 34
-0.498867 -0.0899178 1.32283 38 37 35
-0.524231 -0.0958204 1.40967 38 38 35
-0.532049 -0.0986386 1.45113 38 38 35
-0.496695 -0.0934188 1.37433 37 37 34
-0.516848 -0.0986386 1.45113 36 37 34
-0.494697 -0.0958204 1.40967 37 37 34
-0.518542 -0.101961 1.5 36 36 34
-0.510685 -0.101961 1.5 36 36 33
-0.502828 -0.101961 1.5 36 36 33
-0.529665 -0.109107 1.60514 37 37 34
-0.54465 -0.114004 1.67717 37 37 34
-0.535865 -0.114004 1.67717 37 37 34
-0.48954 -0.105884 1.55772 36 36 34
-0.508164 -0.111775 1.64438 36 37 35
-0.499551 -0.111775 1.64438 37 37 36
-0.465063 -0.105884 1.55772 37 38 36
-0.491942 -0.114004 1.67717 37 38 36
-0.51036 -0.120422 1.7716 37 37 35
-0.490376 -0.11785 1.73375 37 37 35
-0.511912 -0.125347 1.84404 37 37 35
-0.447873 -0.111775 1.64438 37 37 35
-0.449337 -0.114339 1.68211 37 38 35
-0.456274 -0.118427 1.74224 38 38 35
-0.41723 -0.110503 1.62567 37 37 35
-0.428619 -0.115884 1.70483 36 37 34
-0.41969 -0.115884 1.70483 37 37 34
-0.396196 -0.111775 1.64438 38 38 35
-0.395311 -0.114004 1.67717 38 38 35
-0.382913 -0.112938 1.66149 37 37 34
-0.387022 -0.116805 1.71838 38 38 35
-0.368957 -0.114004 1.67717 38 38 35
-0.366112 -0.115884 1.70483 37 37 35
-0.348103 -0.112938 1.66149 37 38 35
-0.35102 -0.116805 1.71838 35 36 33
-0.333818 -0.114004 1.67717 35 36 33
-0.321995 -0.112938 1.66149 36 37 34
-0.315613 -0.113775 1.6738 37 38 35
-0.309821 -0.114878 1.69003 37 38 35
-0.303605 -0.115884 1.70483 37 37 35
-0.294676 -0.115884 1.70483 37 37 35
-0.288016 -0.116805 1.71838 38 37 35
-0.274663 -0.114983 1.69157 38 38 35
-0.263011 -0.113775 1.6738 38 38 35
-0.248257 -0.111096 1.63439 37 37 34
-0.248083 -0.114983 1.69157 37 37 34
-0.23255 -0.111775 1.64438 37 37 35
-0.222575 -0.111096 1.63439 38 37 36
-0.215324 -0.111775 1.64438 38 38 36
-0.219521 -0.118702 1.74629 38 38 36
-0.200159 -0.112938 1.66149 37 37 36
-0.191456 -0.112938 1.66149 37 37 36
-0.187521 -0.115884 1.70483 36 37 35
-0.170298 -0.110503 1.62567 36 36 35
-0.160094 -0.109349 1.60869 37 36 35
-0.159337 -0.114878 1.69003 37 37 35
-0.143242 -0.109349 1.60869 37 37 34
-0.135476 -0.109885 1.61657 37 37 34
-0.13177 -0.114004 1.67717 37 37 34
-0.119848 -0.111096 1.63439 37 37 35
-0.112404 -0.11221 1.65078 38 38 36
-0.105416 -0.114004 1.67717 38 39 36
-0.0954093 -0.112562 1.65596 37 37 35
-0.0842601 -0.109349 1.60869 36 37 34
-0.0770452 -0.111096 1.63439 36 37 35
-0.0691717 -0.11221 1.65078 37 38 35
-0.0605252 -0.11221 1.65078 38 38 36
-0.0499791 -0.108101 1.59033 37 38 35
-0.04213 -0.109349 1.60869 36 37 34
-0.033704 -0.109349 1.60869 36 36 34
-0.0261077 -0.112938 1.66149 35 36 33
-0.0181621 -0.11785 1.73375 35 36 32
-0.00870257 -0.112938 1.66149 35 37 32
0 -0.116805 1.71838 37 38 33
0.00878468 -0.114004 1.67717 38 39 35
0.0175341 -0.113775 1.6738 38 39 35
0.0259394 -0.11221 1.65078 38 39 35
0.0344518 -0.111775 1.64438 38 39 35
0.0435128 -0.112938 1.66149 37 37 35
0.0490703 -0.106136 1.56142 36 37 34
0.0599241 -0.111096 1.63439 36 37 35
0.0698053 -0.113238 1.6659 37 39 36
0.078531 -0.113238 1.6659 37 39 35
0.0851491 -0.110503 1.62567 37 39 35
0.0951111 -0.11221 1.65078 37 38 34
0.103167 -0.111571 1.64138 37 37 34
0.112404 -0.11221 1.65078 35 36 33
0.117964 -0.109349 1.60869 35 36 32
0.128409 -0.111096 1.63439 36 37 34
0.135476 -0.109885 1.61657 37 39 35
0.144753 -0.110503 1.62567 37 39 35
0.152545 -0.109981 1.618 38 39 35
0.168189 -0.114878 1.69003 37 39 35
0.175694 -0.114004 1.67717 37 38 35
0.184478 -0.114004 1.67717 37 39 35
0.19645 -0.115884 1.70483 37 38 35
0.198869 -0.11221 1.65078 36 38 35
0.204358 -0.110503 1.62567 36 38 35
0.225224 -0.116914 1.71999 38 39 36
0.226867 -0.113238 1.6659 39 41 38
0.228616 -0.109885 1.61657 38 40 36
0.237084 -0.109885 1.61657 37 38 35
0.252374 -0.112938 1.66149 36 37 34
0.265803 -0.114983 1.69157 35 36 33
0.279277 -0.116914 1.71999 35 36 33
0.275614 -0.111775 1.64438 35 37 33
0.289894 -0.114004 1.67717 35 36 33
0.300969 -0.114878 1.69003 35 37 34
0.30459 -0.112938 1.66149 37 38 36
0.308537 -0.111224 1.63628 38 39 37
0.330394 -0.115884 1.70483 37 39 36
0.339324 -0.115884 1.70483 37 38 35
0.348253 -0.115884 1.70483 36 37 34
0.363241 -0.11785 1.73375 36 37 34
0.372322 -0.11785 1.73375 37 38 34
0.375042 -0.115884 1.70483 37 38 35
0.37421 -0.112938 1.66149 36 38 34
0.396865 -0.117053 1.72203 36 37 34
0.394517 -0.113775 1.6738 38 38 35
0.396196 -0.111775 1.64438 37 38 34
0.41969 -0.115884 1.70483 36 37 33
0.44031 -0.119045 1.75133 36 37 33
0.452704 -0.119898 1.76388 36 38 33
0.454051 -0.11785 1.73375 36 38 34
0.447119 -0.113775 1.6738 36 38 34
0.468465 -0.116914 1.71999 37 39 35
0.473267 -0.115884 1.70483 35 37 33
0.490376 -0.11785 1.73375 34 36 31
0.499457 -0.11785 1.73375 35 37 33
0.500056 -0.115884 1.70483 35 37 33
0.51351 -0.116914 1.71999 35 37 34
0.491102 -0.109885 1.61657 36 37 34
0.513451 -0.112938 1.66149 36 38 35
0.531122 -0.114878 1.69003 36 38 35
0.530857 -0.112938 1.66149 37 38 35
0.567097 -0.118702 1.74629 37 38 35
0.585809 -0.120673 1.77528 36 37 34
0.571492 -0.115884 1.70483 35 37 34
0.590267 -0.11785 1.73375 35 37 34
0.59459 -0.116914 1.71999 36 37 34
0.587391 -0.113775 1.6738 36 37 35
0.61751 -0.11785 1.73375 36 37 34
0.631124 -0.118702 1.74629 36 37 35
0.642118 -0.119045 1.75133 36 37 35
0.639635 -0.116914 1.71999 36 37 35
0.648036 -0.116805 1.71838 36 37 35
0.669638 -0.119045 1.75133 35 37 35
0.671996 -0.11785 1.73375 36 37 35
0.687984 -0.119045 1.75133 35 36 35
0.702153 -0.119898 1.76388 35 36 34
0.687577 -0.115884 1.70483 36 37 35
0.696506 -0.115884 1.70483 37 38 36
0.722591 -0.118702 1.74629 36 37 35
0.742342 -0.120422 1.7716 35 37 34
0.756882 -0.121265 1.784 35 36 34
0.738733 -0.116914 1.71999 35 37 34
0.753725 -0.11785 1.73375 34 36 34
0.795113 -0.122841 1.80718 34 35 33
0.759013 -0.115884 1.70483 35 36 34
0.808634 -0.122024 1.79517 36 37 35
0.807297 -0.120422 1.7716 35 37 35
0.800837 -0.118101 1.73745 35 37 34
0.836842 -0.122024 1.79517 34 36 34
0.835135 -0.120422 1.7716 35 37 34
0.82079 -0.117053 1.72203 35 37 34
0.86505 -0.122024 1.79517 34 36 34
0.81047 -0.113096 1.66382 35 37 34
0.891144 -0.123031 1.80997 35 37 34
0.870121 -0.118864 1.74867 33 36 33
0.910104 -0.123031 1.80997 34 36 34
0.897372 -0.120059 1.76625 34 36 34
0.887195 -0.117486 1.7284 35 37 35
0.921949 -0.120855 1.77797 35 37 35
0.948025 -0.123031 1.80997 35 37 36
0.957505 -0.123031 1.80997 34 36 35
0.991372 -0.126133 1.85562 32 35 34
0.987541 -0.124426 1.8305 33 36 35
0.988388 -0.123335 1.81445 34 37 36
1.00672 -0.124426 1.8305 33 36 35
1.02382 -0.125347 1.84404 32 35 34
1.02589 -0.124426 1.8305 34 37 36
1.00576 -0.120855 1.77797 34 37 36
1.10561 -0.131635 1.93655 33 36 35
1.0343 -0.122024 1.79517 31 35 34
1.08186 -0.126485 1.86079 31 36 36
1.11159 -0.128801 1.89486 33 37 37
1.13689 -0.130566 1.92083 33 37 37
1.14028 -0.129807 1.90967 33 38 37
1.15028 -0.129807 1.90967 34 38 37
1.12041 -0.125347 1.84404 34 38 37
1.16121 -0.128801 1.89486 33 38 37
1.05369 -0.115884 1.70483 33 37 37
1.11892 -0.122024 1.79517 30 35 35
-0.565873 -0.0564897 0.900304 37 37 34
-0.585621 -0.0589523 0.939552 37 37 34
-0.576794 -0.0585558 0.933233 36 37 34
-0.575778 -0.0589523 0.939552 36 36 33
-0.572517 -0.0591237 0.942284 37 37 35
-0.582183 -0.0606447 0.966525 37 37 35
-0.564137 -0.0592804 0.944781 37 37 35
-0.574756 -0.0609307 0.971083 36 36 34
-0.586633 -0.0627451 1 37 37 35
-0.531233 -0.0573315 0.91372 38 38 36
-0.521546 -0.0567977 0.905214 37 37 35
-0.55441 -0.0609307 0.971083 36 35 33
-0.549324 -0.0609307 0.971083 36 36 34
-0.560444 -0.0627451 1 36 36 34
-0.521645 -0.0589523 0.939552 36 36 34
-0.549969 -0.0627451 1 36 36 34
-0.562056 -0.0647407 1.0318 36 37 34
-0.539493 -0.0627451 1 36 36 34
-0.518071 -0.0608444 0.969708 36 37 34
-0.529017 -0.0627451 1 37 38 35
-0.52378 -0.0627451 1 37 37 34
-0.551444 -0.0667263 1.06345 36 37 34
-0.545874 -0.0667263 1.06345 36 37 33
-0.508066 -0.0627451 1 37 38 34
-0.534733 -0.0667263 1.06345 37 38 34
-0.497591 -0.0627451 1 37 37 34
-0.492353 -0.0627451 1 36 37 33
-0.519638 -0.0669344 1.06677 36 36 33
-0.498008 -0.0648455 1.03348 36 36 33
-0.550975 -0.0725307 1.15596 36 36 34
-0.489034 -0.0650921 1.03741 36 37 34
-0.521169 -0.0701488 1.118 37 38 35
-0.528736 -0.071976 1.14712 38 38 35
-0.536423 -0.0738617 1.17717 37 38 35
-0.53605 -0.0746686 1.19003 37 37 34
-0.505043 -0.0711772 1.13439 37 38 35
-0.542819 -0.0774118 1.23375 38 38 35
-0.471422 -0.0680398 1.08438 38 38 35
-0.529895 -0.0774118 1.23375 37 37 34
-0.465491 -0.0688426 1.09718 38 38 35
-0.524338 -0.0785149 1.25133 38 38 35
-0.498543 -0.0755973 1.20483 39 38 35
-0.497765 -0.0764471 1.21838 39 38 34
-0.512849 -0.0797866 1.2716 38 38 34
-0.506189 -0.0797866 1.2716 38 37 34
-0.508787 -0.0812654 1.29517 38 37 34
-0.55071 -0.0891503 1.42083 38 37 34
-0.460679 -0.0755973 1.20483 38 37 35
-0.47753 -0.079451 1.26625 38 38 35
-0.491938 -0.083001 1.32283 38 38 35
-0.492787 -0.084332 1.34404 37 37 35
-0.509464 -0.0884496 1.40967 37 37 34
-0.520933 -0.0917706 1.46259 36 37 34
-0.511526 -0.0914586 1.45762 36 37 34
-0.54977 -0.0997857 1.59033 36 36 33
-0.510685 -0.0941176 1.5 35 35 32
-0.502828 -0.0941176 1.5 36 36 33
-0.514017 -0.097739 1.55772 37 37 34
-0.51645 -0.0997857 1.59033 37 37 34
-0.479258 -0.0941176 1.5 38 38 35
-0.499791 -0.0997857 1.59033 37 37 35
-0.463545 -0.0941176 1.5 36 37 35
-0.493865 -0.102003 1.62567 37 37 36
-0.479221 -0.100714 1.60514 38 38 36
-0.500056 -0.10697 1.70483 37 38 35
-0.458142 -0.0997857 1.59033 36 37 34
-0.465099 -0.103177 1.64438 37 37 35
-0.473267 -0.10697 1.70483 37 37 35
-0.472214 -0.108784 1.73375 37 37 35
-0.449337 -0.105544 1.68211 38 38 35
-0.441428 -0.10576 1.68555 38 38 35
-0.441438 -0.107921 1.71999 37 37 34
-0.417723 -0.104251 1.66149 37 37 34
-0.412051 -0.105023 1.6738 37 37 34
-0.407565 -0.106138 1.69157 37 37 34
-0.398705 -0.106138 1.69157 38 38 35
-0.398886 -0.108599 1.7308 38 38 35
-0.37421 -0.104251 1.66149 38 38 35
-0.368957 -0.105234 1.67717 38 38 35
-0.352486 -0.102989 1.64138 37 37 35
-0.351387 -0.105234 1.67717 36 37 34
-0.345544 -0.106138 1.69157 35 36 34
-0.336377 -0.106041 1.69003 36 36 34
-0.311762 -0.100938 1.60869 36 37 35
-0.321464 -0.10697 1.70483 37 38 36
-0.301453 -0.103177 1.64438 37 38 35
-0.306017 -0.10782 1.71838 37 37 34
-0.284227 -0.103177 1.64438 36 36 34
-0.273939 -0.10255 1.63439 37 37 34
-0.279016 -0.10782 1.71838 38 38 35
-0.258389 -0.103177 1.64438 38 38 35
-0.254244 -0.105023 1.6738 38 38 35
-0.233236 -0.0997857 1.59033 37 37 35
-0.245188 -0.108784 1.73375 37 36 35
-0.226267 -0.104251 1.66149 37 37 35
-0.217564 -0.104251 1.66149 38 38 36
-0.212643 -0.106138 1.69157 38 38 36
-0.195843 -0.102003 1.62567 37 38 36
-0.19645 -0.10697 1.70483 37 37 36
-0.174272 -0.0994124 1.58438 36 36 35
-0.170298 -0.102003 1.62567 35 36 34
-0.17101 -0.10782 1.71838 36 36 35
-0.155033 -0.103177 1.64438 37 37 35
-0.148336 -0.104527 1.6659 37 37 35
-0.140555 -0.105234 1.67717 36 37 34
-0.133943 -0.10697 1.70483 36 37 34
-0.12105 -0.103579 1.65078 37 38 35
-0.114201 -0.105234 1.67717 38 38 36
-0.108972 -0.108784 1.73375 38 39 36
-0.0957282 -0.104251 1.66149 37 37 35
-0.0856058 -0.10255 1.63439 36 36 34
-0.0775166 -0.103177 1.64438 36 37 34
-0.0696205 -0.104251 1.66149 37 38 35
-0.0592709 -0.101432 1.61657 38 38 36
-0.0522154 -0.104251 1.66149 37 38 35
-0.0439234 -0.105234 1.67717 37 38 35
-0.0334628 -0.100215 1.59718 37 37 35
-0.0261077 -0.104251 1.66149 36 37 34
-0.0174051 -0.104251 1.66149 36 37 33
-0.00861295 -0.103177 1.64438 36 37 32
0 -0.106138 1.69157 36 38 33
0.00870257 -0.104251 1.66149 37 38 34
0.0174051 -0.104251 1.66149 36 37 33
0.0249895 -0.0997857 1.59033 37 38 34
0.033704 -0.100938 1.60869 37 38 35
0.0413568 -0.099085 1.57917 35 36 34
0.0510894 -0.102003 1.62567 35 36 34
0.0596043 -0.102003 1.62567 36 37 34
0.0702774 -0.105234 1.67717 37 38 35
0.0778182 -0.103579 1.65078 37 38 35
0.0886011 -0.106138 1.69157 37 39 35
0.0982252 -0.10697 1.70483 38 39 35
0.105416 -0.105234 1.67717 37 37 34
0.111288 -0.10255 1.63439 36 36 33
0.119848 -0.10255 1.63439 36 36 33
0.13177 -0.105234 1.67717 37 37 34
0.136969 -0.10255 1.63439 37 38 34
0.147944 -0.104251 1.66149 36 38 34
0.158124 -0.105234 1.67717 36 38 34
0.166574 -0.105023 1.6738 37 38 35
0.175977 -0.105404 1.67988 37 38 35
0.184478 -0.105234 1.67717 37 38 34
0.189139 -0.102989 1.64138 37 39 35
0.202048 -0.105234 1.67717 37 39 35
0.212643 -0.106138 1.69157 37 38 35
0.217564 -0.104251 1.66149 37 39 36
0.227943 -0.105023 1.6738 39 40 37
0.239005 -0.106041 1.69003 38 40 37
0.247857 -0.106041 1.69003 37 39 36
0.251534 -0.103903 1.65596 36 38 34
0.265561 -0.106041 1.69003 36 37 34
0.26978 -0.104251 1.66149 35 36 33
0.28111 -0.105234 1.67717 35 36 32
0.284227 -0.103177 1.64438 34 35 31
0.300969 -0.106041 1.69003 35 36 33
0.312535 -0.10697 1.70483 36 37 35
0.315613 -0.105023 1.6738 37 38 36
0.327525 -0.106041 1.69003 37 38 35
0.339324 -0.10697 1.70483 36 37 35
0.345544 -0.106138 1.69157 35 37 34
0.360358 -0.107921 1.71999 36 37 34
0.366112 -0.10697 1.70483 36 37 34
0.378021 -0.10782 1.71838 36 38 35
0.383971 -0.10697 1.70483 37 38 35
0.382913 -0.104251 1.66149 37 38 35
0.383171 -0.102003 1.62567 38 39 35
0.414411 -0.107921 1.71999 37 38 34
0.42342 -0.107921 1.71999 35 37 32
0.403554 -0.100714 1.60514 36 37 33
0.426426 -0.104251 1.66149 36 38 34
0.446478 -0.10697 1.70483 36 38 33
0.451865 -0.106138 1.69157 36 38 33
0.456803 -0.105234 1.67717 36 38 34
0.461236 -0.104251 1.66149 36 38 34
0.474373 -0.105234 1.67717 35 37 33
0.491126 -0.10697 1.70483 36 37 34
0.491942 -0.105234 1.67717 36 37 34
0.516739 -0.108599 1.7308 36 37 34
0.5267 -0.108784 1.73375 36 37 34
0.510141 -0.103579 1.65078 37 38 35
0.531122 -0.106041 1.69003 37 38 35
0.549031 -0.10782 1.71838 37 38 35
0.568733 -0.109887 1.75133 37 38 35
0.582048 -0.110675 1.76388 36 37 34
0.58539 -0.109571 1.74629 35 37 34
0.590267 -0.108784 1.73375 35 36 33
0.613704 -0.11139 1.77528 36 37 34
0.608429 -0.108784 1.73375 36 37 35
0.61751 -0.108784 1.73375 36 37 35
0.626591 -0.108784 1.73375 36 38 35
0.630035 -0.10782 1.71838 37 38 35
0.644753 -0.108784 1.73375 36 38 35
0.665198 -0.110675 1.76388 36 37 36
0.662915 -0.108784 1.73375 36 37 36
0.683676 -0.110675 1.76388 36 37 36
0.658851 -0.105234 1.67717 35 36 35
0.68468 -0.107921 1.71999 35 36 35
0.70633 -0.109887 1.75133 35 36 34
0.715503 -0.109887 1.75133 35 36 34
0.69399 -0.105234 1.67717 34 36 34
0.714365 -0.10697 1.70483 34 36 33
0.778136 -0.11508 1.8341 34 36 34
0.771023 -0.112638 1.79517 35 37 34
0.764164 -0.110291 1.75776 35 37 34
0.750084 -0.10697 1.70483 35 36 34
0.773535 -0.109017 1.73745 35 37 35
0.775691 -0.108049 1.72203 35 37 34
0.82351 -0.113392 1.80718 35 36 34
0.794969 -0.108218 1.72472 34 36 34
0.812168 -0.109317 1.74224 34 36 33
0.846245 -0.112638 1.79517 34 37 34
0.849192 -0.111788 1.78162 35 38 35
0.898997 -0.117058 1.86561 35 37 35
0.874453 -0.112638 1.79517 35 37 35
0.857796 -0.109317 1.74224 34 37 34
0.928312 -0.117058 1.86561 33 35 33
0.902661 -0.112638 1.79517 33 35 33
0.942775 -0.116431 1.85562 34 36 34
0.935665 -0.114374 1.82283 34 36 35
0.938545 -0.113567 1.80997 35 37 35
0.940272 -0.112638 1.79517 35 37 35
0.940575 -0.111559 1.77797 34 36 35
0.939093 -0.110291 1.75776 33 36 35
0.978885 -0.113848 1.81445 33 36 35
1.00451 -0.115705 1.84404 33 36 36
1.00672 -0.114855 1.8305 33 36 35
1.0163 -0.114855 1.8305 34 37 36
1.0169 -0.113848 1.81445 34 37 36
0.994334 -0.110291 1.75776 34 37 36
1.10162 -0.12107 1.92955 32 36 35
1.07211 -0.116756 1.86079 31 36 35
1.08186 -0.116756 1.86079 31 36 35
1.06933 -0.114374 1.82283 33 37 36
1.18374 -0.12549 2 33 37 37
0.996874 -0.104753 1.6695 33 38 37
1.09797 -0.114374 1.82283 33 38 37
1.15129 -0.118893 1.89486 35 38 38
1.13007 -0.115705 1.84404 35 39 38
1.23612 -0.12549 2 34 38 38
1.18106 -0.118893 1.89486 32 36 36
-0.556569 -0.0509308 0.885502 37 38 35
-0.579388 -0.0534645 0.929553 37 37 34
-0.578843 -0.0538669 0.936549 36 37 34
-0.554735 -0.0520646 0.905214 37 37 34
-0.549994 -0.0520646 0.905214 37 38 35
-0.583189 -0.0556871 0.968195 38 38 36
-0.561015 -0.0540396 0.939552 38 38 36
-0.591871 -0.0575163 1 38 38 36
-0.569669 -0.0558531 0.971083 38 38 36
-0.581395 -0.0575163 1 37 37 35
-0.576158 -0.0575163 1 37 36 34
-0.553625 -0.055774 0.969708 36 36 34
-0.548546 -0.055774 0.969708 37 36 34
-0.544238 -0.0558531 0.971083 37 36 35
-0.539848 -0.0559253 0.972338 37 37 35
-0.549969 -0.0575163 1 37 37 35
-0.562056 -0.0593456 1.0318 37 38 35
-0.539493 -0.0575163 1 37 37 35
-0.534255 -0.0575163 1 36 37 34
-0.545843 -0.0593456 1.0318 37 37 34
-0.539646 -0.0592586 1.03029 37 37 34
-0.551444 -0.0611658 1.06345 37 37 34
-0.513304 -0.0575163 1 37 37 34
-0.53739 -0.0608359 1.05772 37 38 34
-0.566017 -0.0647442 1.12567 37 37 34
-0.527669 -0.0609931 1.06045 36 37 33
-0.551349 -0.0644083 1.11983 36 37 33
-0.503421 -0.0594417 1.03348 36 37 34
-0.498008 -0.0594417 1.03348 37 37 34
-0.546761 -0.065978 1.14712 37 37 34
-0.50461 -0.0615682 1.07045 37 37 35
-0.546573 -0.0674373 1.17249 37 38 35
-0.512181 -0.0639121 1.1112 37 38 35
-0.549028 -0.0692976 1.20483 36 37 34
-0.486111 -0.0620697 1.07917 36 37 34
-0.53106 -0.0686068 1.19282 37 37 35
-0.517926 -0.0677066 1.17717 38 38 35
-0.529673 -0.0700765 1.21838 38 38 35
-0.511117 -0.0684462 1.19003 38 38 35
-0.504884 -0.0684462 1.19003 38 38 35
-0.559892 -0.0768523 1.33618 38 38 35
-0.517783 -0.071972 1.25133 38 38 34
-0.545895 -0.0768523 1.33618 38 38 34
-0.510692 -0.0728301 1.26625 38 38 34
-0.51557 -0.0744933 1.29517 38 37 34
-0.527986 -0.0773044 1.34404 38 38 34
-0.564969 -0.083837 1.45762 38 38 35
-0.495219 -0.0744933 1.29517 38 38 35
-0.518291 -0.0790467 1.37433 38 37 35
-0.528384 -0.0817211 1.42083 38 38 35
-0.534431 -0.083837 1.45762 36 37 34
-0.509464 -0.0810788 1.40967 36 37 34
-0.489497 -0.0790467 1.37433 37 37 35
-0.506144 -0.0829549 1.44228 36 37 34
-0.501646 -0.0834634 1.45113 35 36 33
-0.494045 -0.0834634 1.45113 36 36 33
-0.483481 -0.0829549 1.44228 36 36 33
-0.465163 -0.0810788 1.40967 35 36 32
-0.473353 -0.083837 1.45762 34 35 31
-0.508121 -0.0914702 1.59033 36 36 34
-0.471402 -0.0862745 1.5 37 37 35
-0.496035 -0.0923216 1.60514 37 37 35
-0.493865 -0.0935024 1.62567 37 37 35
-0.508985 -0.0980557 1.70483 37 38 36
-0.526552 -0.103251 1.79517 37 38 35
-0.491126 -0.0980557 1.70483 37 38 35
-0.474373 -0.0964647 1.67717 37 38 35
-0.429972 -0.0890856 1.54887 36 37 34
-0.478754 -0.1011 1.75776 36 36 34
-0.43426 -0.0935024 1.62567 37 38 35
-0.455021 -0.0999318 1.73745 38 38 36
-0.441438 -0.0989274 1.71999 38 38 35
-0.428619 -0.0980557 1.70483 37 38 35
-0.42342 -0.0989274 1.71999 36 36 34
-0.404095 -0.0964647 1.67717 36 36 33
-0.374843 -0.0914702 1.59033 37 37 34
-0.389489 -0.0972043 1.69003 38 38 35
-0.378351 -0.0966205 1.67988 38 38 36
-0.357626 -0.0935024 1.62567 38 38 36
-0.359448 -0.096271 1.6738 37 38 35
-0.354081 -0.0972043 1.69003 36 37 35
-0.3394 -0.095563 1.66149 36 37 34
-0.342019 -0.0988347 1.71838 36 37 34
-0.313289 -0.0929793 1.61657 37 38 35
-0.308181 -0.0940039 1.63439 38 38 36
-0.307464 -0.0964647 1.67717 37 37 35
-0.296673 -0.0958167 1.6659 36 36 34
-0.302713 -0.10073 1.75133 37 37 34
-0.288016 -0.0988347 1.71838 37 37 35
-0.266514 -0.0944063 1.64138 37 37 35
-0.255447 -0.0935024 1.62567 37 37 35
-0.243814 -0.0923216 1.60514 37 37 34
-0.237084 -0.0929793 1.61657 37 37 35
-0.237186 -0.0964647 1.67717 37 37 35
-0.230153 -0.0972043 1.69003 36 36 35
-0.225013 -0.0988347 1.71838 37 37 36
-0.207515 -0.094947 1.65078 38 38 36
-0.201642 -0.096271 1.6738 37 38 36
-0.187328 -0.0935024 1.62567 37 37 36
-0.178813 -0.0935024 1.62567 36 37 35
-0.174513 -0.0958167 1.6659 35 36 34
-0.165349 -0.095563 1.66149 37 37 35
-0.15475 -0.0944063 1.64138 38 38 36
-0.143944 -0.0929793 1.61657 37 38 35
-0.141762 -0.097293 1.69157 36 37 34
-0.127724 -0.0935024 1.62567 37 38 35
-0.119848 -0.0940039 1.63439 38 39 36
-0.113133 -0.095563 1.66149 37 38 36
-0.104708 -0.0958167 1.6659 37 38 36
-0.0947425 -0.094579 1.64438 36 37 35
-0.0846727 -0.0929793 1.61657 35 36 34
-0.0790621 -0.0964647 1.67717 37 38 35
-0.0684846 -0.0940039 1.63439 38 39 36
-0.0613693 -0.096271 1.6738 38 39 36
-0.0522154 -0.095563 1.66149 37 37 34
-0.0412746 -0.0906475 1.57603 37 38 35
-0.0349027 -0.0958167 1.6659 37 38 35
-0.0258389 -0.094579 1.64438 38 39 36
-0.0172929 -0.094947 1.65078 38 39 35
-0.00846727 -0.0929793 1.61657 37 39 34
0 -0.095563 1.66149 38 39 35
0.00864646 -0.094947 1.65078 36 37 33
0.0177041 -0.0972043 1.69003 35 36 31
0.0265561 -0.0972043 1.69003 37 38 34
0.033704 -0.0925261 1.60869 38 39 36
0.0414934 -0.091128 1.58438 37 38 36
0.0515833 -0.0944063 1.64138 36 37 35
0.0602907 -0.094579 1.64438 37 38 36
0.0681193 -0.0935024 1.62567 38 39 36
0.077375 -0.0944063 1.64138 37 39 35
0.0864646 -0.094947 1.65078 38 39 36
0.09314 -0.0929793 1.61657 38 38 35
0.103355 -0.094579 1.64438 37 37 34
0.108288 -0.0914702 1.59033 37 38 35
0.116182 -0.091128 1.58438 38 38 35
0.129697 -0.094947 1.65078 37 37 34
0.141633 -0.0972043 1.69003 37 38 34
0.14553 -0.0940039 1.63439 36 38 34
0.159337 -0.0972043 1.69003 36 37 34
0.163646 -0.094579 1.64438 37 38 34
0.177041 -0.0972043 1.69003 37 39 35
0.182754 -0.095563 1.66149 37 39 35
0.191456 -0.095563 1.66149 37 38 35
0.20069 -0.0958167 1.6659 37 38 35
0.210832 -0.0964647 1.67717 36 38 34
0.219617 -0.0964647 1.67717 37 38 35
0.232169 -0.0980557 1.70483 38 39 36
0.243241 -0.0989274 1.71999 38 40 36
0.252014 -0.0988347 1.71838 38 40 36
0.254756 -0.0964647 1.67717 37 39 35
0.256817 -0.0940039 1.63439 37 38 35
0.267001 -0.094579 1.64438 36 37 34
0.272477 -0.0935024 1.62567 36 37 34
0.287185 -0.095563 1.66149 36 37 34
0.287887 -0.0929793 1.61657 36 37 34
0.307464 -0.0964647 1.67717 36 38 35
0.324322 -0.0989274 1.71999 37 38 36
0.327525 -0.0972043 1.69003 36 38 35
0.330698 -0.095563 1.66149 36 37 35
0.348253 -0.0980557 1.70483 36 38 36
0.357183 -0.0980557 1.70483 37 38 36
0.362515 -0.0970924 1.68808 37 38 35
0.368957 -0.0964647 1.67717 37 38 36
0.37421 -0.095563 1.66149 37 38 35
0.389489 -0.0972043 1.69003 37 38 35
0.395311 -0.0964647 1.67717 37 38 35
0.400318 -0.095563 1.66149 37 38 34
0.404809 -0.094579 1.64438 36 37 34
0.432429 -0.0989274 1.71999 36 37 34
0.423677 -0.094947 1.65078 36 38 34
0.435128 -0.095563 1.66149 35 37 33
0.443831 -0.095563 1.66149 35 37 33
0.456803 -0.0964647 1.67717 36 38 34
0.469158 -0.0972043 1.69003 36 38 34
0.482197 -0.0980557 1.70483 36 38 34
0.491126 -0.0980557 1.70483 37 38 35
0.500056 -0.0980557 1.70483 37 39 35
0.505026 -0.097293 1.69157 37 38 35
0.545358 -0.103251 1.79517 37 38 35
0.53103 -0.0988347 1.71838 37 38 35
0.544862 -0.099719 1.73375 37 38 35
0.553943 -0.099719 1.73375 37 38 35
0.558031 -0.0988347 1.71838 36 37 34
0.585809 -0.102108 1.77528 36 37 34
0.591287 -0.101452 1.76388 35 37 33
0.598442 -0.1011 1.75776 35 37 34
0.609765 -0.101452 1.76388 35 37 34
0.593627 -0.097293 1.69157 36 37 35
0.601938 -0.0972043 1.69003 36 38 35
0.631124 -0.10044 1.74629 37 38 36
0.630035 -0.0988347 1.71838 37 38 36
0.628494 -0.0972043 1.69003 37 38 35
0.658564 -0.10044 1.74629 36 37 36
0.657037 -0.0988347 1.71838 36 37 36
0.671996 -0.099719 1.73375 35 37 36
0.697391 -0.102108 1.77528 35 36 35
0.702153 -0.101452 1.76388 35 37 35
0.711392 -0.101452 1.76388 35 36 34
0.73754 -0.103833 1.80527 35 36 34
0.717401 -0.099719 1.73375 34 35 33
0.731738 -0.10044 1.74629 34 35 33
0.771262 -0.104559 1.81789 34 36 34
0.757587 -0.101452 1.76388 35 37 34
0.775571 -0.102609 1.784 35 37 34
0.789828 -0.103251 1.79517 35 36 34
0.788738 -0.101896 1.7716 35 36 34
0.782636 -0.0999318 1.73745 34 36 33
0.800991 -0.1011 1.75776 34 36 34
0.816576 -0.101896 1.7716 34 36 34
0.836842 -0.103251 1.79517 34 36 33
0.846245 -0.103251 1.79517 34 37 34
0.849192 -0.102472 1.78162 35 37 35
0.87838 -0.104842 1.82283 35 38 35
0.851803 -0.100577 1.74867 35 37 35
0.883856 -0.103251 1.79517 35 38 35
0.900624 -0.104103 1.80997 35 37 35
0.91657 -0.104842 1.82283 35 37 35
0.926118 -0.104842 1.82283 35 37 35
0.897598 -0.100577 1.74867 34 37 35
0.921949 -0.102262 1.77797 34 37 35
0.958778 -0.105284 1.8305 34 37 35
0.949675 -0.103251 1.79517 34 36 35
0.949887 -0.102262 1.77797 33 36 35
1.00388 -0.107026 1.86079 33 36 36
0.952553 -0.100577 1.74867 34 37 36
0.997892 -0.104361 1.81445 34 37 36
1.0074 -0.104361 1.81445 34 37 37
1.0169 -0.104361 1.81445 33 36 36
1.00216 -0.101896 1.7716 32 35 35
1.10162 -0.110981 1.92955 32 36 36
1.07991 -0.107805 1.87433 33 37 37
1.01293 -0.100207 1.74224 33 38 37
1.08178 -0.106063 1.84404 33 38 37
1.14205 -0.110981 1.92955 33 37 37
1.14695 -0.110479 1.92083 33 37 37
1.0269 -0.0980557 1.70483 34 38 38
1.10752 -0.104842 1.82283 35 39 39
1.10012 -0.103251 1.79517 35 39 39
1.12662 -0.104842 1.82283 35 39 39
1.09561 -0.1011 1.75776 35 39 39
-0.584257 -0.0486041 0.929553 38 38 35
-0.564218 -0.0473314 0.905214 38 38 35
-0.598403 -0.0506246 0.968195 37 37 34
-0.559948 -0.0477762 0.91372 37 37 34
-0.574034 -0.0494003 0.944781 37 37 35
-0.542295 -0.0470747 0.900304 38 38 36
-0.579021 -0.0507037 0.969708 38 38 36
-0.572058 -0.0505372 0.966525 38 39 36
-0.549411 -0.0489699 0.936549 38 38 36
-0.562904 -0.0506246 0.968195 37 37 35
-0.54133 -0.0491269 0.939552 37 37 35
-0.590032 -0.0540379 1.03348 38 37 35
-0.565682 -0.0522876 1 37 37 35
-0.576651 -0.0537996 1.02892 37 37 35
-0.555206 -0.0522876 1 38 38 35
-0.564548 -0.0536737 1.02651 38 38 36
-0.577659 -0.0554483 1.06045 37 38 35
-0.555835 -0.0538715 1.03029 37 38 35
-0.550439 -0.0538715 1.03029 36 37 34
-0.547708 -0.054135 1.03533 36 37 34
-0.571095 -0.0570109 1.09033 37 37 34
-0.5359 -0.0540379 1.03348 37 37 34
-0.547576 -0.0557786 1.06677 37 37 34
-0.524225 -0.0539506 1.0318 37 38 34
-0.552958 -0.0575004 1.0997 37 38 34
-0.557215 -0.058553 1.11983 36 37 34
-0.525226 -0.0557786 1.06677 36 37 34
-0.554926 -0.0595665 1.13921 36 37 34
-0.548959 -0.0595665 1.13921 37 38 34
-0.529642 -0.0581019 1.1112 37 38 35
-0.557247 -0.0618095 1.18211 37 38 35
-0.518001 -0.0581019 1.1112 36 37 34
-0.555339 -0.0629978 1.20483 36 37 34
-0.526757 -0.0604423 1.15596 36 37 34
-0.516719 -0.05998 1.14712 36 37 34
-0.536407 -0.0629978 1.20483 37 38 35
-0.546553 -0.0649536 1.24224 38 38 35
-0.523785 -0.0629978 1.20483 38 38 35
-0.505594 -0.0615514 1.17717 38 38 35
-0.499428 -0.0615514 1.17717 38 38 35
-0.53283 -0.0664889 1.2716 38 38 35
-0.535922 -0.0677212 1.29517 37 38 34
-0.529138 -0.0677212 1.29517 38 38 34
-0.522354 -0.0677212 1.29517 38 38 34
-0.51557 -0.0677212 1.29517 38 37 34
-0.550088 -0.0732185 1.4003 38 37 34
-0.502003 -0.0677212 1.29517 38 37 35
-0.525489 -0.0718606 1.37433 38 38 35
-0.531615 -0.073708 1.40967 38 38 35
-0.524231 -0.073708 1.40967 38 38 36
-0.549969 -0.0784314 1.5 37 38 35
-0.526796 -0.0762155 1.45762 37 38 35
-0.534255 -0.0784314 1.5 38 38 35
-0.54355 -0.0809869 1.54887 37 37 35
-0.501646 -0.0758758 1.45113 36 37 34
-0.467901 -0.0718606 1.37433 36 37 34
-0.522176 -0.0814492 1.55772 35 36 33
-0.494972 -0.0784314 1.5 35 36 32
-0.54465 -0.0876952 1.67717 34 35 32
-0.494874 -0.0809869 1.54887 35 35 32
-0.504443 -0.0839287 1.60514 36 37 34
-0.481381 -0.0814492 1.55772 37 37 35
-0.470536 -0.0809869 1.54887 37 38 36
-0.508985 -0.0891416 1.70483 38 39 36
-0.482325 -0.0859809 1.64438 37 38 36
-0.432118 -0.0784314 1.5 37 38 35
-0.507747 -0.0938649 1.79517 37 37 34
-0.45129 -0.0850021 1.62567 36 37 34
-0.458147 -0.0879532 1.68211 36 36 33
-0.44597 -0.0872942 1.6695 37 37 34
-0.433679 -0.0865861 1.65596 38 38 35
-0.425005 -0.0865861 1.65596 38 38 36
-0.410908 -0.0854581 1.63439 37 38 35
-0.416046 -0.0883676 1.69003 36 36 34
-0.407565 -0.0884482 1.69157 36 36 33
-0.395311 -0.0876952 1.67717 36 36 34
-0.396022 -0.0898497 1.71838 37 37 35
-0.375204 -0.0871061 1.6659 38 39 36
-0.355625 -0.0845266 1.61657 38 38 36
-0.362933 -0.0883676 1.69003 36 37 34
-0.357183 -0.0891416 1.70483 36 37 34
-0.335292 -0.0858239 1.64138 35 37 34
-0.342019 -0.0898497 1.71838 36 37 35
-0.321995 -0.0868755 1.66149 37 38 36
-0.321464 -0.0891416 1.70483 37 38 35
-0.302626 -0.0863154 1.65078 36 37 34
-0.298079 -0.0875191 1.6738 36 37 34
-0.303824 -0.0919091 1.75776 37 38 35
-0.285746 -0.0891416 1.70483 37 37 34
-0.274663 -0.0884482 1.69157 36 36 33
-0.256817 -0.0854581 1.63439 36 36 34
-0.252374 -0.0868755 1.66149 37 37 34
-0.239696 -0.0854581 1.63439 37 37 35
-0.231136 -0.0854581 1.63439 37 37 36
-0.223937 -0.0859809 1.64438 37 37 35
-0.218142 -0.0871061 1.6659 36 37 35
-0.207515 -0.0863154 1.65078 36 37 35
-0.191586 -0.0831547 1.59033 36 37 35
-0.194745 -0.0883676 1.69003 37 37 36
-0.183239 -0.0871061 1.6659 37 38 36
-0.170298 -0.0850021 1.62567 37 37 36
-0.168342 -0.0884482 1.69157 37 36 35
-0.151668 -0.0841147 1.60869 37 37 35
-0.148336 -0.0871061 1.6659 38 38 35
-0.140555 -0.0876952 1.67717 37 38 35
-0.12639 -0.0841147 1.60869 38 39 36
-0.121836 -0.0868755 1.66149 37 38 35
-0.116084 -0.0891416 1.70483 36 37 35
-0.106224 -0.0883676 1.69003 37 38 35
-0.0974612 -0.0884482 1.69157 37 37 35
-0.0892957 -0.0891416 1.70483 36 37 35
-0.0778182 -0.0863154 1.65078 38 39 36
-0.0702774 -0.0876952 1.67717 39 40 37
-0.0619642 -0.0883676 1.69003 39 40 37
-0.0526022 -0.0875191 1.6738 38 39 35
-0.0439234 -0.0876952 1.67717 38 39 36
-0.0354081 -0.0883676 1.69003 38 39 35
-0.0258389 -0.0859809 1.64438 38 39 36
-0.0174051 -0.0868755 1.66149 38 39 35
-0.00864646 -0.0863154 1.65078 38 39 34
0 -0.0854581 1.63439 37 39 34
0.00859722 -0.0858239 1.64138 37 38 34
0.0169345 -0.0845266 1.61657 37 38 34
0.0263011 -0.0875191 1.6738 39 40 36
0.0354404 -0.0884482 1.69157 38 39 36
0.0436283 -0.0871061 1.6659 38 39 36
0.0516777 -0.0859809 1.64438 38 39 36
0.0601806 -0.0858239 1.64138 38 39 36
0.0684846 -0.0854581 1.63439 37 39 35
0.0762055 -0.0845266 1.61657 37 38 34
0.0876704 -0.0875191 1.6738 37 38 35
0.0957282 -0.0868755 1.66149 37 38 34
0.0999582 -0.0831547 1.59033 37 38 34
0.111288 -0.0854581 1.63439 38 38 35
0.121836 -0.0868755 1.66149 37 38 34
0.128409 -0.0854581 1.63439 36 37 34
0.135596 -0.0846011 1.618 36 38 34
0.14553 -0.0854581 1.63439 37 38 34
0.153268 -0.0850021 1.62567 37 38 34
0.168342 -0.0884482 1.69157 36 38 34
0.172929 -0.0863154 1.65078 37 38 34
0.179772 -0.0854581 1.63439 37 39 35
0.193263 -0.0876952 1.67717 37 39 35
0.202048 -0.0876952 1.67717 38 39 35
0.21431 -0.0891416 1.70483 37 38 35
0.211682 -0.0845266 1.61657 36 37 34
0.221388 -0.0850021 1.62567 36 37 34
0.234969 -0.0868755 1.66149 37 38 35
0.250028 -0.0891416 1.70483 37 38 35
0.252374 -0.0868755 1.66149 37 38 35
0.263011 -0.0875191 1.6738 36 38 35
0.272325 -0.0876952 1.67717 36 37 34
0.273939 -0.0854581 1.63439 36 38 34
0.289894 -0.0876952 1.67717 37 38 35
0.298679 -0.0876952 1.67717 36 38 35
0.310104 -0.0884482 1.69157 36 38 35
0.321464 -0.0891416 1.70483 36 38 35
0.325033 -0.0876952 1.67717 36 37 34
0.336377 -0.0883676 1.69003 36 37 35
0.332081 -0.0850021 1.62567 37 38 36
0.344518 -0.0859809 1.64438 38 39 36
0.347158 -0.0845266 1.61657 37 38 35
0.375042 -0.0891416 1.70483 37 38 36
0.368105 -0.0854581 1.63439 37 38 35
0.389489 -0.0883676 1.69003 37 38 35
0.391615 -0.0868755 1.66149 37 38 35
0.396196 -0.0859809 1.64438 37 38 34
0.416046 -0.0883676 1.69003 37 38 35
0.424898 -0.0883676 1.69003 37 38 34
0.437549 -0.0891416 1.70483 37 38 35
0.438352 -0.0875191 1.6738 36 38 34
0.451865 -0.0884482 1.69157 35 36 32
0.455886 -0.0875191 1.6738 35 37 33
0.461236 -0.0868755 1.66149 36 38 34
0.478446 -0.0884482 1.69157 36 38 34
0.473712 -0.0859809 1.64438 37 38 35
0.500056 -0.0891416 1.70483 37 39 35
0.504566 -0.0883676 1.69003 37 38 35
0.504749 -0.0868755 1.66149 37 38 35
0.539657 -0.0913094 1.74629 37 38 35
0.52354 -0.0871061 1.6659 37 38 35
0.536731 -0.0878369 1.67988 36 38 34
0.563024 -0.0906536 1.73375 36 37 34
0.562563 -0.0891416 1.70483 36 37 34
0.567047 -0.0884482 1.69157 36 37 34
0.590267 -0.0906536 1.73375 36 38 35
0.589351 -0.0891416 1.70483 36 38 35
0.588574 -0.0876952 1.67717 36 37 35
0.621977 -0.0913094 1.74629 36 38 35
0.635269 -0.0919091 1.75776 37 38 36
0.619642 -0.0883676 1.69003 37 38 35
0.639036 -0.0898497 1.71838 37 38 36
0.642929 -0.0891416 1.70483 36 37 35
0.682128 -0.093281 1.784 34 36 35
0.660788 -0.0891416 1.70483 35 36 35
0.669717 -0.0891416 1.70483 34 36 35
0.691632 -0.0908471 1.73745 35 36 35
0.675062 -0.0875191 1.6738 34 36 34
0.690459 -0.0883676 1.69003 34 36 33
0.711706 -0.089934 1.71999 34 35 33
0.747538 -0.093281 1.784 34 35 33
0.743023 -0.0915729 1.75133 35 36 34
0.775363 -0.0943933 1.80527 36 37 35
0.748632 -0.090041 1.72203 36 37 35
0.784915 -0.093281 1.784 34 36 33
0.788738 -0.0926327 1.7716 34 35 33
0.830649 -0.0964205 1.84404 34 35 33
0.798061 -0.0915729 1.75133 35 36 34
0.810198 -0.0919091 1.75776 34 36 34
0.836842 -0.0938649 1.79517 33 35 33
0.846245 -0.0938649 1.79517 34 37 34
0.855647 -0.0938649 1.79517 35 38 35
0.898997 -0.0975484 1.86561 35 37 35
0.874453 -0.0938649 1.79517 35 37 34
0.869618 -0.0923529 1.76625 35 38 35
0.912629 -0.0959004 1.8341 36 39 36
0.910104 -0.0946389 1.80997 36 38 36
0.912064 -0.0938649 1.79517 36 38 36
0.962103 -0.0980044 1.87433 35 37 35
0.94919 -0.0957123 1.8305 34 37 35
0.971933 -0.0970256 1.85562 33 36 35
0.986942 -0.0975484 1.86561 33 36 35
1.00734 -0.0985883 1.8855 33 36 35
1.01119 -0.0980044 1.87433 33 36 35
1.01363 -0.0972963 1.86079 33 36 35
0.953508 -0.0906536 1.73375 34 37 36
0.996688 -0.0938649 1.79517 34 37 36
1.05046 -0.0980044 1.87433 33 36 35
1.01549 -0.0938649 1.79517 31 35 34
1.03591 -0.0948733 1.81445 32 36 36
1.06246 -0.0964205 1.84404 34 38 37
1.16279 -0.104575 2 35 39 38
1.11159 -0.0990778 1.89486 34 39 38
1.04037 -0.0919091 1.75776 33 38 37
0.996874 -0.0872942 1.6695 34 38 37
1.15701 -0.100436 1.92083 35 39 38
1.09072 -0.0938649 1.79517 35 39 39
1.08568 -0.0926327 1.7716 35 39 39
1.23612 -0.104575 2 36 40 39
1.19029 -0.0998518 1.90967 36 40 39
-0.607495 -0.0454835 0.966525 37 37 34
-0.561158 -0.0423673 0.900304 37 37 34
-0.562228 -0.0428078 0.909666 37 37 34
-0.554735 -0.0425983 0.905214 37 37 34
-0.549994 -0.0425983 0.905214 37 37 34
-0.581065 -0.0453962 0.964669 37 37 35
-0.54559 -0.0429986 0.91372 37 37 35
-0.554316 -0.0440729 0.936549 37 37 35
-0.528148 -0.0423673 0.900304 37 37 35
-0.562904 -0.0455621 0.968195 38 37 35
-0.576158 -0.0470588 1 38 38 35
-0.550748 -0.0453962 0.964669 38 38 35
-0.545696 -0.0453962 0.964669 38 37 35
-0.599926 -0.050374 1.07045 38 37 35
-0.555206 -0.0470588 1 38 37 35
-0.584865 -0.0500448 1.06345 37 37 35
-0.544731 -0.0470588 1 37 37 35
-0.539493 -0.0470588 1 37 37 35
-0.534255 -0.0470588 1 37 37 35
-0.562584 -0.0500448 1.06345 36 37 34
-0.52378 -0.0470588 1 36 37 34
-0.570238 -0.0517504 1.0997 37 37 34
-0.567271 -0.0520064 1.10514 37 37 35
-0.524225 -0.0485555 1.0318 37 37 35
-0.555694 -0.0520064 1.10514 37 37 34
-0.513416 -0.0485555 1.0318 37 38 34
-0.544117 -0.0520064 1.10514 37 38 35
-0.521431 -0.050374 1.07045 37 38 35
-0.514051 -0.0502008 1.06677 37 38 34
-0.542992 -0.0536098 1.13921 37 38 35
-0.518398 -0.0517504 1.0997 38 39 36
-0.518001 -0.0522918 1.1112 37 38 35
-0.515314 -0.0526116 1.118 37 37 35
-0.526757 -0.054398 1.15596 37 37 35
-0.525182 -0.0548661 1.1659 37 38 35
-0.519076 -0.0548661 1.1659 38 38 35
-0.530096 -0.056698 1.20483 38 38 35
-0.489369 -0.0529725 1.12567 38 38 35
-0.540208 -0.0591888 1.25776 37 37 34
-0.523433 -0.0580588 1.23375 38 38 35
-0.552229 -0.0620185 1.31789 38 38 35
-0.505661 -0.0575075 1.22203 38 38 35
-0.519509 -0.05984 1.2716 38 38 35
-0.492859 -0.0575075 1.22203 38 38 34
-0.498121 -0.0588862 1.25133 37 37 33
-0.527986 -0.063249 1.34404 36 36 32
-0.532688 -0.0646745 1.37433 36 36 33
-0.525489 -0.0646745 1.37433 37 36 34
-0.581664 -0.0725825 1.54238 36 37 34
-0.499827 -0.063249 1.34404 37 38 35
-0.583089 -0.0748393 1.59033 37 38 36
-0.504115 -0.0656406 1.39486 38 39 36
-0.506058 -0.0668627 1.42083 38 39 36
-0.526398 -0.0705882 1.5 37 38 35
-0.49859 -0.0678722 1.44228 36 37 34
-0.510685 -0.0705882 1.5 36 37 33
-0.559648 -0.0785648 1.6695 35 36 33
-0.511099 -0.0728882 1.54887 35 36 33
-0.542159 -0.0785648 1.6695 35 36 33
-0.519409 -0.0765019 1.62567 36 36 34
-0.516777 -0.0773828 1.64438 36 37 35
-0.526844 -0.0802274 1.70483 37 38 35
-0.538198 -0.0833694 1.7716 37 38 35
-0.508985 -0.0802274 1.70483 37 38 35
-0.489692 -0.0785648 1.6695 37 38 35
-0.51036 -0.0833694 1.7716 36 37 34
-0.507747 -0.0844785 1.79517 36 37 34
-0.459699 -0.0779274 1.65596 36 36 33
-0.476277 -0.0822903 1.74867 35 36 32
-0.455408 -0.0802274 1.70483 36 36 33
-0.438352 -0.0787672 1.6738 36 36 34
-0.430449 -0.0789257 1.67717 37 37 35
-0.428619 -0.0802274 1.70483 37 37 35
-0.41288 -0.0789257 1.67717 36 36 34
-0.400318 -0.0781879 1.66149 35 36 33
-0.37917 -0.0757032 1.60869 36 36 34
-0.380444 -0.0776839 1.65078 37 37 34
-0.387022 -0.0808647 1.71838 38 38 35
-0.371785 -0.0795308 1.69003 37 38 35
-0.362933 -0.0795308 1.69003 36 37 34
-0.354081 -0.0795308 1.69003 35 36 33
-0.337212 -0.0776839 1.65078 36 37 34
-0.328566 -0.0776839 1.65078 37 38 35
-0.32438 -0.0787672 1.6738 37 38 35
-0.321464 -0.0802274 1.70483 37 38 35
-0.317836 -0.0815882 1.73375 36 37 34
-0.29106 -0.0769123 1.63439 36 36 34
-0.300314 -0.0817624 1.73745 36 36 34
-0.278482 -0.0781879 1.66149 36 36 33
-0.26978 -0.0781879 1.66149 35 36 33
-0.263011 -0.0787672 1.6738 35 36 33
-0.248257 -0.0769123 1.63439 37 37 34
-0.250028 -0.0802274 1.70483 37 38 35
-0.23671 -0.0787672 1.6738 37 37 35
-0.236107 -0.0815882 1.73375 37 37 35
-0.217564 -0.0781879 1.66149 36 36 35
-0.205454 -0.0769123 1.63439 36 36 35
-0.19087 -0.0745593 1.58438 37 37 35
-0.193263 -0.0789257 1.67717 37 37 36
-0.187521 -0.0802274 1.70483 38 38 36
-0.174051 -0.0781879 1.66149 38 38 36
-0.162651 -0.0769123 1.63439 37 37 35
-0.155636 -0.0776839 1.65078 37 36 34
-0.147944 -0.0781879 1.66149 37 37 34
-0.136969 -0.0769123 1.63439 37 37 35
-0.128409 -0.0769123 1.63439 37 37 35
-0.120581 -0.0773828 1.64438 37 37 35
-0.111968 -0.0773828 1.64438 37 38 35
-0.103355 -0.0773828 1.64438 38 38 36
-0.0941664 -0.0769123 1.63439 38 38 36
-0.0878468 -0.0789257 1.67717 37 37 35
-0.0770452 -0.0769123 1.63439 38 39 36
-0.0689036 -0.0773828 1.64438 40 40 37
-0.0583089 -0.0748393 1.59033 38 39 36
-0.0508036 -0.076074 1.61657 36 37 34
-0.0446478 -0.0802274 1.70483 37 38 34
-0.0344518 -0.0773828 1.64438 37 38 35
-0.0259394 -0.0776839 1.65078 38 39 36
-0.0172929 -0.0776839 1.65078 38 40 36
-0.00842601 -0.0757032 1.60869 37 39 34
0 -0.0776839 1.65078 37 38 34
0.00885203 -0.0795308 1.69003 37 38 34
0.0177041 -0.0795308 1.69003 37 38 34
0.0265803 -0.0796034 1.69157 38 39 35
0.0343889 -0.0772415 1.64138 38 39 35
0.0425745 -0.0765019 1.62567 38 39 36
0.0520414 -0.0779274 1.65596 37 39 36
0.0596043 -0.0765019 1.62567 37 38 35
0.0668648 -0.0750931 1.59573 37 38 35
0.077375 -0.0772415 1.64138 37 38 35
0.0851491 -0.0765019 1.62567 37 38 34
0.0957282 -0.0781879 1.66149 37 38 34
0.100679 -0.075379 1.6018 37 37 34
0.111288 -0.0769123 1.63439 37 38 35
0.125014 -0.0802274 1.70483 37 38 35
0.13278 -0.0795308 1.69003 37 38 34
0.132779 -0.0745593 1.58438 37 38 35
0.14934 -0.0789257 1.67717 37 38 35
0.158124 -0.0789257 1.67717 37 39 35
0.160094 -0.0757032 1.60869 37 38 35
