ply
format ascii 1.0
element vertex 1330
property float x
property float y
property float z
property uchar red
property uchar green
property uchar blue
end_header
-0.473038 -0.32217 0.844042 39 40 36
-0.521645 -0.358626 0.939552 38 38 35
-0.520859 -0.361496 0.947071 38 38 35
-0.485017 -0.339857 0.89038 38 38 35
-0.459213 -0.3249 0.851194 37 37 34
-0.458247 -0.327395 0.85773 37 37 34
-0.481229 -0.347219 0.909666 38 37 35
-0.457958 -0.333733 0.874334 38 38 35
-0.50205 -0.36956 0.968195 39 38 36
-0.459337 -0.341569 0.894863 38 38 35
-0.480011 -0.360622 0.944781 38 37 34
-0.455167 -0.34552 0.905214 38 36 34
-0.482517 -0.370137 0.969708 37 35 33
-0.492353 -0.381699 1 38 36 33
-0.459001 -0.359669 0.942284 39 37 35
-0.452749 -0.358626 0.939552 39 38 35
-0.447827 -0.358626 0.939552 39 37 35
-0.42184 -0.341569 0.894863 38 36 34
-0.449694 -0.368213 0.964669 38 37 34
-0.433064 -0.358626 0.939552 37 36 34
-0.428143 -0.358626 0.939552 37 37 34
-0.464777 -0.393839 1.0318 36 37 34
-0.458699 -0.393262 1.03029 36 37 34
-0.425982 -0.36956 0.968195 35 37 34
-0.448564 -0.393839 1.0318 36 37 34
-0.429499 -0.381699 1 36 38 34
-0.438464 -0.394477 1.03348 36 37 34
-0.432351 -0.393839 1.0318 36 38 34
-0.45729 -0.42183 1.10514 36 38 34
-0.437329 -0.408589 1.07045 37 38 34
-0.433379 -0.410156 1.07455 37 38 34
-0.412137 -0.395185 1.03533 37 38 34
-0.408445 -0.396867 1.03974 37 38 34
-0.414902 -0.408589 1.07045 38 38 34
-0.414624 -0.413909 1.08438 38 38 35
-0.419057 -0.424144 1.1112 38 38 35
-0.401324 -0.411917 1.07917 38 37 35
-0.43632 -0.454234 1.19003 38 37 34
-0.421367 -0.445025 1.1659 38 37 34
-0.411718 -0.441229 1.15596 37 37 33
-0.427567 -0.465053 1.21838 38 37 32
-0.361388 -0.399027 1.0454 38 38 33
-0.426024 -0.477633 1.25133 38 38 33
-0.387499 -0.441229 1.15596 38 38 33
-0.381444 -0.441229 1.15596 38 38 33
-0.396848 -0.46645 1.22203 38 38 33
-0.413813 -0.494364 1.29517 39 38 34
-0.367537 -0.446398 1.1695 39 38 34
-0.383889 -0.474161 1.24224 39 38 34
-0.442814 -0.556373 1.45762 38 38 33
-0.378044 -0.483327 1.26625 38 37 33
-0.379894 -0.494364 1.29517 38 38 34
-0.353876 -0.46888 1.2284 38 39 35
-0.388718 -0.524582 1.37433 36 39 36
-0.37311 -0.51302 1.34404 37 39 36
-0.379912 -0.532418 1.39486 36 39 35
-0.389371 -0.556373 1.45762 36 38 35
-0.348444 -0.50785 1.3305 37 39 36
-0.397522 -0.591204 1.54887 37 38 35
-0.377121 -0.572549 1.5 37 37 34
-0.369265 -0.572549 1.5 38 37 35
-0.361408 -0.572549 1.5 38 37 34
-0.32877 -0.532418 1.39486 38 38 35
-0.358996 -0.594579 1.55772 38 39 35
-0.383971 -0.650734 1.70483 39 40 36
-0.342678 -0.594579 1.55772 39 40 36
-0.322124 -0.572549 1.5 38 39 35
-0.336295 -0.61268 1.60514 37 38 34
-0.338269 -0.632078 1.65596 37 37 34
-0.339324 -0.650734 1.70483 37 37 34
-0.300169 -0.591204 1.54887 37 37 34
-0.328517 -0.665011 1.74224 36 37 33
-0.319392 -0.665011 1.74224 37 38 33
-0.315495 -0.676218 1.7716 37 37 33
-0.306216 -0.676218 1.7716 39 39 34
-0.292016 -0.665011 1.74224 39 39 35
-0.287658 -0.676218 1.7716 38 38 34
-0.282082 -0.685214 1.79517 38 38 34
-0.282647 -0.710263 1.86079 38 37 34
-0.268458 -0.6987 1.8305 38 37 34
-0.249784 -0.674176 1.76625 37 38 34
-0.239377 -0.670937 1.75776 37 38 35
-0.223239 -0.650734 1.70483 38 39 35
-0.227175 -0.689798 1.80718 38 39 36
-0.211756 -0.670937 1.75776 38 39 35
-0.200761 -0.665011 1.74224 38 39 36
-0.187521 -0.650734 1.70483 37 38 36
-0.180393 -0.657299 1.72203 36 37 35
-0.174929 -0.670937 1.75776 36 38 36
-0.167972 -0.680045 1.78162 37 38 36
-0.156516 -0.670937 1.75776 36 38 35
-0.15145 -0.689798 1.80718 36 38 34
-0.144881 -0.70387 1.84404 36 38 34
-0.128895 -0.670937 1.75776 36 38 34
-0.122235 -0.685214 1.79517 35 37 34
-0.110482 -0.670937 1.75776 35 37 34
-0.0971141 -0.643372 1.68555 37 38 35
-0.0940272 -0.685214 1.79517 38 37 35
-0.0839861 -0.680045 1.78162 37 37 34
-0.0730039 -0.665011 1.74224 37 37 34
-0.0638784 -0.665011 1.74224 37 37 34
-0.0568815 -0.690864 1.80997 37 38 35
-0.0456274 -0.665011 1.74224 37 38 35
-0.0365019 -0.665011 1.74224 36 38 34
-0.0278378 -0.676218 1.7716 37 38 34
-0.0192132 -0.700073 1.8341 37 37 34
-0.00946563 -0.689798 1.80718 37 37 33
0 -0.674176 1.76625 36 36 32
0.00940272 -0.685214 1.79517 37 37 34
0.0182008 -0.663184 1.73745 37 37 35
0.0273765 -0.665011 1.74224 37 37 35
0.0357183 -0.650734 1.70483 36 37 34
0.0473281 -0.689798 1.80718 37 38 35
0.0547529 -0.665011 1.74224 37 39 36
0.062507 -0.650734 1.70483 37 39 36
0.0707347 -0.64434 1.68808 37 38 36
0.0835135 -0.676218 1.7716 36 37 34
0.0892957 -0.650734 1.70483 35 36 33
0.0993711 -0.658325 1.72472 36 37 34
0.112833 -0.685214 1.79517 37 38 35
0.119688 -0.670937 1.75776 36 38 35
0.132519 -0.689798 1.80718 36 37 35
0.135506 -0.658325 1.72472 37 38 36
0.149309 -0.680045 1.78162 38 39 37
0.155133 -0.665011 1.74224 37 38 36
0.169249 -0.685214 1.79517 37 38 36
0.175774 -0.674176 1.76625 37 38 36
0.178591 -0.650734 1.70483 37 38 36
0.191635 -0.665011 1.74224 37 38 36
0.200761 -0.665011 1.74224 38 39 36
0.220952 -0.700073 1.8341 38 38 36
0.229143 -0.695773 1.82283 38 39 36
0.228137 -0.665011 1.74224 37 38 36
0.244471 -0.685214 1.79517 37 38 35
0.251958 -0.680045 1.78162 37 38 35
0.26129 -0.680045 1.78162 37 38 35
0.269099 -0.676218 1.7716 37 38 35
0.289761 -0.70387 1.84404 37 38 35
0.285411 -0.670937 1.75776 37 38 35
0.285746 -0.650734 1.70483 37 38 35
0.31029 -0.685214 1.79517 38 38 36
0.319692 -0.685214 1.79517 38 39 37
0.338055 -0.70387 1.84404 38 38 36
0.324708 -0.657299 1.72203 37 38 35
0.352305 -0.693889 1.81789 38 38 35
0.362809 -0.695773 1.82283 38 39 36
0.36394 -0.680045 1.78162 39 39 36
0.368272 -0.670937 1.75776 39 39 36
0.40416 -0.71836 1.882 38 38 35
0.379417 -0.658325 1.72472 37 38 34
0.410547 -0.695773 1.82283 37 38 34
0.410598 -0.680045 1.78162 36 38 34
0.41993 -0.680045 1.78162 37 38 34
0.43919 -0.695773 1.82283 38 39 35
0.448737 -0.695773 1.82283 37 38 34
0.463618 -0.70387 1.84404 36 38 34
0.451133 -0.670937 1.75776 37 38 35
0.480331 -0.700073 1.8341 37 38 35
0.489937 -0.700073 1.8341 37 39 36
0.488941 -0.685214 1.79517 37 39 36
0.498344 -0.685214 1.79517 36 38 35
0.499568 -0.674176 1.76625 35 39 35
0.521414 -0.690864 1.80997 36 39 36
0.51807 -0.674176 1.76625 37 40 36
0.544213 -0.695773 1.82283 36 39 35
0.529278 -0.665011 1.74224 36 39 34
0.56679 -0.700073 1.8341 37 39 34
0.576397 -0.700073 1.8341 37 38 34
0.573566 -0.685214 1.79517 37 38 33
0.59561 -0.700073 1.8341 37 39 34
0.580028 -0.670937 1.75776 38 39 35
0.630883 -0.71836 1.882 38 40 36
0.635161 -0.712104 1.86561 38 39 36
0.625697 -0.690864 1.80997 37 39 35
0.670163 -0.728918 1.90967 37 39 35
0.664476 -0.712104 1.86561 37 39 36
0.677399 -0.715432 1.87433 38 39 36
0.641142 -0.667466 1.74867 38 39 36
0.690073 -0.708287 1.85562 38 39 36
0.711063 -0.719695 1.8855 38 39 36
0.727561 -0.726305 1.90282 36 38 35
0.684593 -0.674176 1.76625 36 37 34
0.698447 -0.678648 1.77797 37 39 36
0.738669 -0.708287 1.85562 38 41 37
0.764218 -0.723268 1.89486 37 40 36
0.75338 -0.70387 1.84404 36 38 35
0.763038 -0.70387 1.84404 36 39 35
0.777547 -0.708287 1.85562 36 39 35
0.826067 -0.743196 1.94707 36 39 35
0.809822 -0.719695 1.8855 36 38 35
0.78881 -0.692575 1.81445 36 39 36
0.78226 -0.678648 1.77797 37 40 37
0.864729 -0.741369 1.94228 36 39 36
0.872319 -0.739179 1.93655 36 39 36
0.800991 -0.670937 1.75776 36 39 36
0.836329 -0.692575 1.81445 36 38 35
0.902749 -0.739179 1.93655 36 39 36
0.909595 -0.736509 1.92955 36 39 36
0.878943 -0.70387 1.84404 36 38 35
0.874344 -0.692575 1.81445 36 38 35
0.939914 -0.736509 1.92955 35 37 35
0.897475 -0.695773 1.82283 35 37 35
0.925912 -0.710263 1.86079 35 37 35
0.970234 -0.736509 1.92955 35 38 35
0.980341 -0.736509 1.92955 35 38 35
1.02661 -0.763399 2 35 38 35
1.03708 -0.763399 2 36 38 35
1.00024 -0.728918 1.90967 38 38 35
1.05803 -0.763399 2 38 38 36
1.06851 -0.763399 2 38 38 36
0.983403 -0.695773 1.82283 38 39 36
0.928675 -0.650734 1.70483 38 39 36
1.09994 -0.763399 2 37 39 36
1.16057 -0.797879 2.09033 36 38 36
1.07026 -0.728918 1.90967 37 39 37
1.07189 -0.723268 1.89486 38 39 38
1.20186 -0.803529 2.10514 37 39 37
1.24217 -0.822928 2.15596 36 39 37
1.16279 -0.763399 2 37 39 38
1.24699 -0.811365 2.12567 38 41 39
1.18374 -0.763399 2 37 40 38
1.26925 -0.811365 2.12567 36 38 37
1.05878 -0.670937 1.75776 36 39 37
1.03583 -0.650734 1.70483 37 39 37
1.35117 -0.841583 2.20483 36 39 36
1.10952 -0.685214 1.79517 35 38 35
1.2466 -0.763399 2 35 38 35
-0.514075 -0.307913 0.817894 39 37 32
-0.536529 -0.324063 0.860791 39 37 32
-0.553079 -0.33689 0.894863 39 36 33
-0.554735 -0.340786 0.905214 38 36 33
-0.523003 -0.324063 0.860791 37 37 34
-0.513731 -0.321085 0.852883 38 38 35
-0.469128 -0.29578 0.785666 38 38 35
-0.499564 -0.317757 0.844042 38 38 34
-0.516339 -0.33136 0.880174 38 38 34
-0.486153 -0.314798 0.836183 37 37 34
-0.510188 -0.333365 0.885502 37 37 33
-0.516804 -0.340786 0.905214 36 36 32
-0.465459 -0.309771 0.822829 38 38 35
-0.496274 -0.333365 0.885502 40 40 37
-0.491636 -0.333365 0.885502 39 39 36
-0.515072 -0.352583 0.936549 39 38 35
-0.48236 -0.333365 0.885502 38 38 35
-0.477722 -0.333365 0.885502 37 36 33
-0.467118 -0.329161 0.874334 37 36 34
-0.465628 -0.33136 0.880174 37 37 34
-0.508633 -0.365584 0.971083 38 37 35
-0.502834 -0.365066 0.969708 39 39 36
-0.46465 -0.340786 0.905214 39 38 36
-0.466115 -0.345385 0.917429 38 37 35
-0.459445 -0.343989 0.91372 38 36 33
-0.466018 -0.352583 0.936549 37 35 33
-0.462591 -0.353714 0.939552 38 36 34
-0.472359 -0.365066 0.969708 39 37 35
-0.454065 -0.354742 0.942284 38 37 35
-0.476639 -0.376471 1 38 37 35
-0.457122 -0.365066 0.969708 38 37 34
-0.452043 -0.365066 0.969708 38 37 35
-0.460926 -0.376471 1 38 37 35
-0.441195 -0.364497 0.968195 37 37 35
-0.466365 -0.389772 1.03533 37 37 35
-0.445213 -0.376471 1 37 38 35
-0.439975 -0.376471 1 36 38 35
-0.434737 -0.376471 1 36 37 34
-0.443877 -0.389073 1.03348 36 37 34
-0.424261 -0.376471 1 36 37 34
-0.448542 -0.402992 1.07045 36 37 34
-0.441413 -0.401606 1.06677 36 37 34
-0.394113 -0.363169 0.964669 36 38 34
-0.430238 -0.401606 1.06677 37 38 35
-0.442338 -0.418334 1.1112 37 38 35
-0.422122 -0.404538 1.07455 38 38 35
-0.426239 -0.414003 1.0997 37 38 34
-0.412629 -0.406275 1.07917 38 38 34
-0.424513 -0.42378 1.12567 38 37 34
-0.399609 -0.404538 1.07455 38 37 35
-0.395672 -0.406275 1.07917 38 37 34
-0.394056 -0.410479 1.09033 38 37 34
-0.423853 -0.448011 1.19003 38 37 33
-0.398093 -0.427063 1.13439 38 37 32
-0.376923 -0.410479 1.09033 37 37 32
-0.398165 -0.440283 1.1695 38 37 32
-0.370463 -0.416052 1.10514 38 38 33
-0.385913 -0.440283 1.1695 37 37 33
-0.406362 -0.47109 1.25133 38 38 33
-0.369335 -0.435184 1.15596 39 38 34
-0.407029 -0.487592 1.29517 39 38 34
-0.383889 -0.467666 1.24224 39 38 34
-0.393462 -0.487592 1.29517 38 37 33
-0.386678 -0.487592 1.29517 38 37 33
-0.36031 -0.462457 1.2284 38 38 34
-0.37311 -0.487592 1.29517 38 39 35
-0.366326 -0.487592 1.29517 36 39 36
-0.351515 -0.476706 1.26625 36 39 36
-0.369223 -0.510349 1.35562 36 39 35
-0.385274 -0.542978 1.44228 36 38 35
-0.377719 -0.542978 1.44228 36 39 36
-0.372434 -0.546306 1.45113 37 38 35
-0.389409 -0.583106 1.54887 37 37 34
-0.369265 -0.564706 1.5 38 37 35
-0.347502 -0.542978 1.44228 38 37 35
-0.374843 -0.598714 1.59033 39 38 35
-0.374656 -0.612015 1.62567 38 39 35
-0.350837 -0.586434 1.55772 39 39 35
-0.317284 -0.542978 1.44228 38 39 35
-0.334519 -0.586434 1.55772 37 38 34
-0.336295 -0.604287 1.60514 37 37 34
-0.341036 -0.628518 1.6695 36 37 34
-0.31948 -0.604287 1.60514 37 37 34
-0.318679 -0.619062 1.64438 38 38 35
-0.334054 -0.666955 1.7716 38 38 34
-0.298022 -0.612015 1.62567 38 38 34
-0.303605 -0.641819 1.70483 37 38 34
-0.288569 -0.628518 1.6695 38 38 33
-0.300887 -0.675828 1.79517 38 38 33
-0.310076 -0.718933 1.90967 38 38 33
-0.272431 -0.652706 1.73375 39 38 34
-0.266997 -0.661746 1.75776 39 38 35
-0.259035 -0.664941 1.76625 38 37 34
-0.248584 -0.661746 1.75776 36 37 33
-0.246106 -0.680349 1.80718 36 37 33
-0.223239 -0.641819 1.70483 37 37 34
-0.227175 -0.680349 1.80718 37 38 34
-0.220159 -0.688004 1.82751 38 39 35
-0.204144 -0.666955 1.7716 37 38 36
-0.189413 -0.648295 1.72203 37 38 36
-0.180393 -0.648295 1.72203 36 37 35
-0.178652 -0.675828 1.79517 36 37 35
-0.165116 -0.659325 1.75133 37 38 35
-0.156516 -0.661746 1.75776 37 39 35
-0.153706 -0.690483 1.8341 37 39 35
-0.139189 -0.666955 1.7716 36 38 34
-0.133666 -0.686241 1.82283 36 38 34
-0.122235 -0.675828 1.79517 34 36 33
-0.112833 -0.675828 1.79517 35 37 33
-0.101275 -0.661746 1.75776 37 37 35
-0.092068 -0.661746 1.75776 37 37 35
-0.0864595 -0.690483 1.8341 36 37 34
-0.0714365 -0.641819 1.70483 36 36 34
-0.0631377 -0.648295 1.72203 36 36 34
-0.0559907 -0.670729 1.78162 36 37 35
-0.0441428 -0.634559 1.68555 37 38 35
-0.0366925 -0.659325 1.75133 37 38 35
-0.0273012 -0.654099 1.73745 38 39 35
-0.0182008 -0.654099 1.73745 38 38 34
-0.00927928 -0.666955 1.7716 37 38 34
0 -0.680349 1.80718 36 37 33
0.00927928 -0.666955 1.7716 36 37 34
0.0188054 -0.675828 1.79517 37 38 35
0.0273765 -0.655901 1.74224 37 38 35
0.0376109 -0.675828 1.79517 37 38 35
0.046034 -0.661746 1.75776 38 39 36
0.0547529 -0.655901 1.74224 39 39 36
0.0637029 -0.654099 1.73745 39 40 37
0.0730039 -0.655901 1.74224 38 39 36
0.0846245 -0.675828 1.79517 36 37 34
0.0927928 -0.666955 1.7716 36 37 34
0.0992163 -0.648295 1.72203 36 37 35
0.108236 -0.648295 1.72203 37 38 35
0.117256 -0.648295 1.72203 37 38 36
0.131638 -0.675828 1.79517 37 38 36
0.142826 -0.684384 1.81789 38 39 36
0.141469 -0.635514 1.68808 38 39 36
0.157748 -0.666955 1.7716 37 38 35
0.167972 -0.670729 1.78162 37 38 35
0.171374 -0.648295 1.72203 37 38 35
0.186885 -0.671623 1.784 37 38 35
0.191109 -0.654099 1.73745 38 39 35
0.20255 -0.661746 1.75776 38 39 36
0.207452 -0.648295 1.72203 38 39 35
0.21431 -0.641819 1.70483 38 39 36
0.241468 -0.694227 1.84404 38 39 36
0.249772 -0.690483 1.8341 37 38 35
0.255572 -0.680349 1.80718 37 38 35
0.255514 -0.655901 1.74224 36 38 35
0.285869 -0.708519 1.882 36 37 33
0.265255 -0.635514 1.68808 36 37 34
0.295175 -0.684384 1.81789 37 38 35
0.292016 -0.655901 1.74224 37 38 35
0.297649 -0.648295 1.72203 38 38 37
0.315495 -0.666955 1.7716 38 39 37
0.327048 -0.671623 1.784 38 38 36
0.338498 -0.675828 1.79517 37 38 35
0.347901 -0.675828 1.79517 37 37 34
0.342747 -0.648295 1.72203 37 38 35
0.374658 -0.690483 1.8341 38 38 35
0.373271 -0.670729 1.78162 38 38 35
0.391452 -0.686241 1.82283 37 38 35
0.378826 -0.648295 1.72203 37 37 34
0.392396 -0.655901 1.74224 37 38 34
0.401521 -0.655901 1.74224 36 38 34
0.42049 -0.671623 1.784 36 37 33
0.438001 -0.684384 1.81789 36 38 34
0.444415 -0.679632 1.80527 37 38 34
0.451331 -0.675828 1.79517 37 38 35
0.449483 -0.659325 1.75133 37 38 35
0.470136 -0.675828 1.79517 37 38 35
0.469547 -0.661746 1.75776 37 38 35
0.492213 -0.680349 1.80718 37 39 35
0.511912 -0.694227 1.84404 36 38 35
0.521571 -0.694227 1.84404 36 39 35
0.51715 -0.675828 1.79517 36 39 35
0.540888 -0.694227 1.84404 35 39 35
0.539541 -0.680349 1.80718 35 38 34
0.538198 -0.666955 1.7716 35 38 33
0.550575 -0.670729 1.78162 36 38 33
0.571306 -0.684384 1.81789 37 38 32
0.569239 -0.670729 1.78162 35 37 31
0.611168 -0.708519 1.882 36 37 32
0.605217 -0.690483 1.8341 37 38 34
0.614823 -0.690483 1.8341 37 39 35
0.611177 -0.675828 1.79517 38 39 35
0.589351 -0.641819 1.70483 37 39 35
0.611408 -0.655901 1.74224 38 40 36
0.649237 -0.686241 1.82283 38 39 36
0.658785 -0.686241 1.82283 37 39 36
0.672463 -0.690483 1.8341 38 39 36
0.710173 -0.718933 1.90967 39 40 37
0.682578 -0.6814 1.80997 38 39 36
0.713334 -0.702349 1.86561 37 38 36
0.714745 -0.694227 1.84404 37 38 35
0.750183 -0.718933 1.90967 37 39 36
0.742649 -0.702349 1.86561 38 40 37
0.724009 -0.675828 1.79517 38 40 37
0.747847 -0.689129 1.8305 37 39 35
0.767827 -0.698585 1.85562 37 38 35
0.760299 -0.683088 1.81445 36 38 35
0.77661 -0.689129 1.8305 36 38 35
0.763635 -0.669352 1.77797 35 38 35
0.830202 -0.718933 1.90967 35 38 35
0.798314 -0.683088 1.81445 36 38 35
0.864729 -0.731213 1.94228 36 38 35
0.877059 -0.733015 1.94707 36 38 35
0.826825 -0.683088 1.81445 36 38 36
0.827439 -0.675828 1.79517 36 38 36
0.836842 -0.675828 1.79517 36 39 36
0.846245 -0.675828 1.79517 37 39 36
0.855647 -0.675828 1.79517 36 39 36
0.874344 -0.683088 1.81445 36 38 35
0.89826 -0.694227 1.84404 35 37 34
0.984706 -0.752941 2 35 37 35
0.995181 -0.752941 2 35 37 35
1.00566 -0.752941 2 35 38 35
1.01613 -0.752941 2 36 38 35
0.946554 -0.694227 1.84404 35 38 35
0.945213 -0.686241 1.82283 36 37 34
1.04756 -0.752941 2 37 37 35
1.05803 -0.752941 2 37 37 35
1.06851 -0.752941 2 38 38 35
1.07899 -0.752941 2 39 39 36
1.04025 -0.718933 1.90967 38 39 36
1.05026 -0.718933 1.90967 37 38 36
1.05204 -0.71336 1.89486 36 38 35
1.02159 -0.686241 1.82283 35 37 35
1.08026 -0.718933 1.90967 36 39 37
1.04069 -0.686241 1.82283 37 39 37
1.09174 -0.71336 1.89486 36 38 36
1.10166 -0.71336 1.89486 36 39 37
1.09955 -0.705632 1.87433 38 40 38
1.13028 -0.718933 1.90967 37 39 38
1.07191 -0.675828 1.79517 36 38 37
1.26802 -0.792522 2.10514 36 38 37
1.30993 -0.811655 2.15596 37 39 37
1.10012 -0.675828 1.79517 37 39 37
1.10952 -0.675828 1.79517 36 38 36
1.2466 -0.752941 2 35 38 36
-0.52557 -0.310426 0.836183 37 35 30
-0.515785 -0.307206 0.82751 38 35 31
-0.485589 -0.291672 0.785666 38 36 32
-0.512431 -0.310426 0.836183 37 36 33
-0.527325 -0.322202 0.867904 37 36 34
-0.512714 -0.315999 0.851194 38 37 34
-0.513986 -0.319562 0.860791 38 37 34
-0.476617 -0.29895 0.805271 38 38 35
-0.516339 -0.326758 0.880174 38 38 35
-0.508334 -0.324589 0.874334 39 38 35
-0.478498 -0.308316 0.830499 39 38 35
-0.485964 -0.315999 0.851194 38 38 34
-0.512063 -0.336053 0.905214 37 37 34
-0.493289 -0.326758 0.880174 39 39 36
-0.45684 -0.305468 0.822829 38 38 35
-0.484068 -0.326758 0.880174 38 38 35
-0.48236 -0.328735 0.885502 38 37 34
-0.455355 -0.313344 0.844042 37 36 34
-0.473084 -0.328735 0.885502 37 37 34
-0.483374 -0.339211 0.91372 38 38 35
-0.474132 -0.336053 0.905214 38 38 35
-0.503547 -0.360507 0.971083 38 38 35
-0.46465 -0.336053 0.905214 38 38 35
-0.475829 -0.347686 0.936549 39 37 35
-0.472433 -0.348801 0.939552 38 36 34
-0.468872 -0.349815 0.942284 38 36 34
-0.447876 -0.337706 0.909666 38 36 34
-0.450799 -0.343564 0.925446 37 36 33
-0.454065 -0.349815 0.942284 37 36 33
-0.444816 -0.346455 0.933233 38 37 34
-0.428818 -0.337706 0.909666 38 37 35
-0.453269 -0.360973 0.972338 38 37 35
-0.43168 -0.347686 0.936549 38 37 35
-0.470943 -0.383669 1.03348 38 37 35
-0.464777 -0.383049 1.0318 37 38 35
-0.445213 -0.371242 1 37 38 35
-0.453968 -0.383049 1.0318 37 38 35
-0.448564 -0.383049 1.0318 36 38 35
-0.44251 -0.382488 1.03029 36 37 34
-0.424261 -0.371242 1 36 37 34
-0.433828 -0.384358 1.03533 36 38 34
-0.428405 -0.384358 1.03533 37 38 35
-0.422983 -0.384358 1.03533 37 38 35
-0.41756 -0.384358 1.03533 37 38 35
-0.412962 -0.385128 1.03741 37 38 34
-0.422122 -0.398919 1.07455 38 38 34
-0.418282 -0.400632 1.07917 37 38 34
-0.441991 -0.42914 1.15596 37 37 34
-0.405237 -0.398919 1.07455 37 37 34
-0.385794 -0.385128 1.03741 37 37 34
-0.427474 -0.432833 1.1659 37 37 34
-0.421367 -0.432833 1.1659 38 37 35
-0.407596 -0.424843 1.14438 38 38 34
-0.409154 -0.432833 1.1659 37 37 32
-0.440857 -0.473437 1.27528 36 37 32
-0.414804 -0.452312 1.21838 37 37 33
-0.387499 -0.42914 1.15596 38 38 34
-0.397572 -0.447284 1.20483 38 37 33
-0.396848 -0.45367 1.22203 37 37 32
-0.406283 -0.472071 1.2716 38 38 34
-0.390395 -0.461171 1.24224 38 38 34
-0.383889 -0.461171 1.24224 38 37 34
-0.384677 -0.470085 1.26625 37 37 33
-0.370876 -0.461171 1.24224 38 37 33
-0.388008 -0.491089 1.32283 38 37 34
-0.37311 -0.48082 1.29517 37 38 34
-0.398711 -0.523327 1.40967 36 39 35
-0.376323 -0.503261 1.35562 36 38 35
-0.392828 -0.535436 1.44228 36 38 35
-0.372606 -0.517832 1.39486 36 38 35
-0.405634 -0.575007 1.54887 36 38 35
-0.384978 -0.556863 1.5 36 37 34
-0.377121 -0.556863 1.5 36 36 34
-0.386607 -0.583015 1.57045 37 37 34
-0.347502 -0.535436 1.44228 37 37 34
-0.353551 -0.556863 1.5 37 37 34
-0.345695 -0.556863 1.5 37 37 33
-0.348846 -0.575007 1.54887 37 37 33
-0.349854 -0.590399 1.59033 37 37 34
-0.334519 -0.578289 1.55772 37 38 34
-0.357183 -0.632905 1.70483 37 38 35
-0.306411 -0.556863 1.5 37 37 35
-0.312576 -0.583015 1.57045 37 37 35
-0.337643 -0.646792 1.74224 37 37 35
-0.302666 -0.595894 1.60514 37 38 34
-0.294258 -0.595894 1.60514 37 38 34
-0.285851 -0.595894 1.60514 37 38 33
-0.299674 -0.643641 1.73375 38 38 33
-0.292016 -0.646792 1.74224 37 37 32
-0.260629 -0.595894 1.60514 38 37 33
-0.285112 -0.673601 1.81445 38 38 34
-0.266997 -0.652555 1.75776 38 37 34
-0.234609 -0.593874 1.5997 37 37 33
-0.253873 -0.666441 1.79517 37 37 33
-0.24295 -0.662295 1.784 36 37 33
-0.225492 -0.639291 1.72203 36 37 33
-0.21841 -0.645015 1.73745 36 37 33
-0.20931 -0.645015 1.73745 37 37 34
-0.200209 -0.645015 1.73745 37 37 35
-0.199957 -0.674878 1.81789 36 37 35
-0.180393 -0.639291 1.72203 36 37 35
-0.178652 -0.666441 1.79517 37 38 36
-0.167027 -0.657692 1.7716 37 38 35
-0.155133 -0.646792 1.74224 37 39 35
-0.142873 -0.632905 1.70483 37 38 35
-0.141984 -0.6709 1.80718 37 38 35
-0.13645 -0.690803 1.86079 37 38 35
-0.117256 -0.639291 1.72203 35 37 34
-0.115279 -0.680893 1.8341 35 36 33
-0.10038 -0.646792 1.74224 36 37 34
-0.0912549 -0.646792 1.74224 37 37 35
-0.0846245 -0.666441 1.79517 36 37 34
-0.0752218 -0.666441 1.79517 36 36 33
-0.0672463 -0.680893 1.8341 36 37 34
-0.0547529 -0.646792 1.74224 37 38 35
-0.046034 -0.652555 1.75776 38 39 36
-0.0368272 -0.652555 1.75776 38 39 35
-0.0267887 -0.632905 1.70483 38 38 34
-0.0186884 -0.662295 1.784 37 38 34
-0.00910042 -0.645015 1.73745 37 38 34
0 -0.646792 1.74224 37 37 34
0.00940272 -0.666441 1.79517 38 38 36
0.0189313 -0.6709 1.80718 39 39 36
0.0264857 -0.625746 1.68555 38 38 35
0.0368272 -0.652555 1.75776 38 38 35
0.0480331 -0.680893 1.8341 38 38 35
0.054118 -0.639291 1.72203 38 38 35
0.0662594 -0.6709 1.80718 39 39 36
0.0728033 -0.645015 1.73745 38 39 36
0.0819037 -0.645015 1.73745 37 37 35
0.0933178 -0.661413 1.78162 36 37 34
0.10265 -0.661413 1.78162 37 38 35
0.110482 -0.652555 1.75776 37 38 35
0.121313 -0.661413 1.78162 37 38 35
0.126275 -0.639291 1.72203 37 38 35
0.141984 -0.6709 1.80718 38 39 36
0.149309 -0.661413 1.78162 38 39 36
0.153334 -0.639291 1.72203 38 39 36
0.165722 -0.652555 1.75776 38 39 36
0.178652 -0.666441 1.79517 38 39 36
0.186636 -0.661413 1.78162 38 39 36
0.193343 -0.652555 1.75776 38 39 36
0.204144 -0.657692 1.7716 38 39 36
0.213423 -0.657692 1.7716 39 40 36
0.21841 -0.645015 1.73745 39 40 37
0.220714 -0.625746 1.68555 38 39 36
0.239377 -0.652555 1.75776 37 38 35
0.25054 -0.657692 1.7716 36 37 34
0.25982 -0.657692 1.7716 36 37 34
0.258957 -0.632905 1.70483 36 37 34
0.289761 -0.684585 1.84404 37 37 34
0.289671 -0.662295 1.784 37 38 34
0.300887 -0.666441 1.79517 37 38 35
0.303824 -0.652555 1.75776 38 38 36
0.313031 -0.652555 1.75776 39 39 37
0.317836 -0.643641 1.73375 38 38 36
0.345838 -0.680893 1.8341 37 38 35
0.364729 -0.698679 1.882 37 38 35
0.342747 -0.639291 1.72203 38 38 35
0.366706 -0.666441 1.79517 38 38 35
0.376109 -0.666441 1.79517 38 38 35
0.396007 -0.684585 1.84404 37 38 35
0.385271 -0.650168 1.75133 37 37 34
0.407022 -0.6709 1.80718 37 38 34
0.401521 -0.646792 1.74224 37 38 34
0.434642 -0.684585 1.84404 36 37 34
0.418619 -0.645015 1.73745 36 37 34
0.464978 -0.701202 1.8888 37 38 34
0.43682 -0.645015 1.73745 37 38 34
0.463816 -0.6709 1.80718 36 38 34
0.463964 -0.657692 1.7716 36 37 34
0.473243 -0.657692 1.7716 37 38 35
0.495131 -0.674878 1.81789 37 39 36
0.511912 -0.684585 1.84404 37 40 36
0.511144 -0.6709 1.80718 37 40 37
0.531229 -0.684585 1.84404 36 39 36
0.537971 -0.680893 1.8341 36 39 35
0.508985 -0.632905 1.70483 35 38 34
0.545358 -0.666441 1.79517 35 38 33
0.572596 -0.687868 1.85288 36 38 33
0.567938 -0.6709 1.80718 36 38 33
0.544704 -0.632905 1.70483 36 37 31
0.601711 -0.687868 1.85288 36 37 32
0.582829 -0.655706 1.76625 36 37 33
0.622037 -0.688882 1.85562 36 37 33
0.631757 -0.688882 1.85562 36 38 34
0.630142 -0.67671 1.82283 36 38 34
0.657764 -0.695831 1.87433 38 39 36
0.664476 -0.692594 1.86561 38 40 36
0.64027 -0.657692 1.7716 38 39 36
0.647588 -0.655706 1.76625 37 38 35
0.673098 -0.671936 1.80997 37 38 36
0.703563 -0.692594 1.86561 37 38 36
0.709511 -0.688882 1.85562 38 39 36
0.719231 -0.688882 1.85562 37 38 35
0.750183 -0.708948 1.90967 38 39 36
0.738669 -0.688882 1.85562 38 40 37
0.712347 -0.655706 1.76625 37 39 36
0.73946 -0.671936 1.80997 36 38 35
0.771965 -0.692594 1.86561 36 37 35
0.793992 -0.703452 1.89486 35 37 34
0.77661 -0.679558 1.8305 36 38 35
0.786198 -0.679558 1.8305 36 38 35
0.846464 -0.722834 1.94707 36 39 36
0.829573 -0.699977 1.8855 36 39 36
0.839449 -0.699977 1.8855 36 39 36
0.844295 -0.695831 1.87433 35 38 35
0.859201 -0.699977 1.8855 36 38 36
0.836329 -0.673601 1.81445 36 39 36
0.899488 -0.716331 1.92955 36 39 37
0.909595 -0.716331 1.92955 37 40 38
0.893382 -0.695831 1.87433 36 39 36
0.86505 -0.666441 1.79517 36 38 36
0.935667 -0.713094 1.92083 36 38 35
0.984706 -0.742484 2 36 38 36
0.917578 -0.684585 1.84404 36 38 36
0.973752 -0.718928 1.93655 36 39 36
0.912064 -0.666441 1.79517 36 38 35
0.946554 -0.684585 1.84404 35 38 35
0.996032 -0.713094 1.92083 36 38 35
1.00609 -0.713094 1.92083 38 38 35
0.937207 -0.657692 1.7716 37 38 35
1.03087 -0.716331 1.92955 37 37 34
1.04098 -0.716331 1.92955 37 37 34
0.992951 -0.67671 1.82283 36 37 34
1.09994 -0.742484 2 36 37 35
1.04064 -0.695831 1.87433 35 37 35
1.12089 -0.742484 2 36 38 36
1.13136 -0.742484 2 37 39 37
1.0249 -0.666441 1.79517 36 38 36
1.15232 -0.742484 2 35 38 36
1.10166 -0.703452 1.89486 36 39 37
1.11159 -0.703452 1.89486 38 40 38
1.13028 -0.708948 1.90967 36 38 37
1.257 -0.781515 2.10514 36 38 37
1.28039 -0.789136 2.12567 36 38 37
1.21517 -0.742484 2 37 39 37
1.22564 -0.742484 2 36 39 37
1.17114 -0.703452 1.89486 36 38 36
0.856619 -0.51021 1.37433 35 37 35
-0.520119 -0.302879 0.82751 38 35 31
-0.495626 -0.291042 0.795167 38 35 31
-0.491461 -0.291042 0.795167 38 36 32
-0.531871 -0.317664 0.867904 37 36 33
-0.547011 -0.329523 0.900304 38 36 34
-0.518494 -0.315061 0.860791 38 38 35
-0.503985 -0.30893 0.844042 38 38 35
-0.491548 -0.303973 0.830499 39 38 35
-0.477785 -0.2981 0.814453 39 38 35
-0.490722 -0.30893 0.844042 40 39 36
-0.521546 -0.33132 0.905214 39 39 35
-0.489695 -0.31394 0.85773 39 39 36
-0.500912 -0.324105 0.885502 38 38 35
-0.496274 -0.324105 0.885502 38 38 35
-0.452189 -0.2981 0.814453 37 37 34
-0.486998 -0.324105 0.885502 37 37 34
-0.443658 -0.2981 0.814453 37 36 33
-0.485708 -0.329523 0.900304 37 36 33
-0.458247 -0.31394 0.85773 38 37 35
-0.465628 -0.322155 0.880174 38 38 36
-0.461017 -0.322155 0.880174 38 38 35
-0.44138 -0.311548 0.851194 38 38 36
-0.482276 -0.343888 0.939552 39 39 36
-0.46423 -0.334434 0.91372 39 38 36
-0.488288 -0.355429 0.971083 39 37 35
-0.483202 -0.355429 0.971083 38 36 34
-0.45948 -0.341576 0.933233 38 36 34
-0.471623 -0.354372 0.968195 37 35 33
-0.451302 -0.342789 0.936549 37 36 34
-0.446396 -0.342789 0.936549 38 37 35
-0.442906 -0.343888 0.939552 38 37 35
-0.466164 -0.366013 1 38 38 35
-0.488788 -0.388138 1.06045 38 37 35
-0.469492 -0.3771 1.03029 38 37 35
-0.464096 -0.3771 1.03029 37 37 35
-0.460116 -0.378266 1.03348 37 37 35
-0.413379 -0.343888 0.939552 37 38 35
-0.447906 -0.3771 1.03029 37 38 35
-0.415839 -0.354372 0.968195 37 38 35
-0.424261 -0.366013 1 37 38 35
-0.433828 -0.378945 1.03533 37 38 35
-0.441413 -0.390451 1.06677 38 38 35
-0.439007 -0.393301 1.07455 38 39 35
-0.41756 -0.378945 1.03533 37 38 34
-0.439925 -0.404495 1.10514 37 38 34
-0.422122 -0.393301 1.07455 38 38 35
-0.428348 -0.404495 1.10514 38 38 34
-0.412629 -0.394989 1.07917 37 38 34
-0.42162 -0.409201 1.118 37 37 34
-0.415764 -0.409201 1.118 37 36 34
-0.397585 -0.396899 1.08438 38 37 35
-0.409976 -0.4152 1.13439 38 38 35
-0.404034 -0.4152 1.13439 38 38 34
-0.409154 -0.426736 1.1659 37 37 32
-0.392151 -0.4152 1.13439 36 37 32
-0.379438 -0.407921 1.1145 37 37 32
-0.39461 -0.43086 1.17717 37 37 33
-0.385913 -0.428053 1.1695 38 38 34
-0.396848 -0.447281 1.22203 38 38 33
-0.384951 -0.440985 1.20483 38 37 33
-0.390395 -0.454675 1.24224 38 37 33
-0.400245 -0.474048 1.29517 38 38 34
-0.371244 -0.447281 1.22203 38 38 34
-0.393463 -0.482366 1.31789 38 38 34
-0.379894 -0.474048 1.29517 37 37 34
-0.357862 -0.454675 1.24224 36 37 34
-0.37415 -0.484173 1.32283 36 38 34
-0.394428 -0.520043 1.42083 35 37 34
-0.420091 -0.564531 1.54238 35 37 34
-0.372606 -0.510538 1.39486 35 37 34
-0.339191 -0.474048 1.29517 36 37 35
-0.384978 -0.54902 1.5 35 36 33
-0.389409 -0.566908 1.54887 36 37 34
-0.357233 -0.531131 1.45113 37 37 35
-0.336076 -0.510538 1.39486 37 37 34
-0.323932 -0.503024 1.37433 36 36 33
-0.41372 -0.657055 1.79517 36 36 33
-0.376014 -0.611059 1.6695 37 37 33
-0.329981 -0.54902 1.5 38 38 35
-0.344703 -0.587501 1.60514 39 39 36
-0.314268 -0.54902 1.5 38 39 35
-0.306411 -0.54902 1.5 37 38 35
-0.312576 -0.574804 1.57045 37 37 35
-0.311073 -0.587501 1.60514 36 37 34
-0.293724 -0.570144 1.55772 37 37 34
-0.324775 -0.648428 1.7716 37 37 34
-0.310267 -0.637682 1.74224 38 38 34
-0.294676 -0.623991 1.70483 39 39 35
-0.296937 -0.648428 1.7716 38 38 34
-0.276817 -0.623991 1.70483 37 37 33
-0.292393 -0.681074 1.86079 37 36 32
-0.261978 -0.63127 1.72472 37 36 32
-0.247199 -0.616932 1.68555 37 37 33
-0.25054 -0.648428 1.7716 38 38 34
-0.239377 -0.643364 1.75776 37 37 33
-0.229328 -0.64101 1.75133 37 37 32
-0.210409 -0.612634 1.6738 37 37 33
-0.214917 -0.652967 1.784 37 37 33
-0.201809 -0.64101 1.75133 36 37 34
-0.194865 -0.648428 1.7716 36 36 34
-0.184136 -0.643364 1.75776 36 37 35
-0.174929 -0.643364 1.75776 37 38 36
-0.167972 -0.652098 1.78162 37 38 36
-0.151803 -0.623991 1.70483 37 39 35
-0.146008 -0.637682 1.74224 37 38 35
-0.135295 -0.630287 1.72203 37 38 35
-0.130645 -0.652098 1.78162 37 38 34
-0.117256 -0.630287 1.72203 36 37 34
-0.111981 -0.652098 1.78162 36 37 34
-0.102072 -0.648428 1.7716 36 37 34
-0.0892957 -0.623991 1.70483 37 37 34
-0.0846245 -0.657055 1.79517 36 37 34
-0.0746543 -0.652098 1.78162 37 36 34
-0.0638784 -0.637682 1.74224 37 38 35
-0.054118 -0.630287 1.72203 37 38 36
-0.046034 -0.643364 1.75776 38 39 36
-0.0376109 -0.657055 1.79517 37 39 35
-0.0278378 -0.648428 1.7716 37 38 34
-0.0184136 -0.643364 1.75776 37 38 34
-0.00900894 -0.629538 1.71999 37 38 34
0 -0.630287 1.72203 38 38 35
0.00912549 -0.637682 1.74224 38 39 36
0.0188054 -0.657055 1.79517 38 39 36
0.027059 -0.630287 1.72203 37 38 35
0.0364017 -0.63593 1.73745 37 37 34
0.0456274 -0.637682 1.74224 36 37 34
0.0564163 -0.657055 1.79517 36 37 34
0.0631377 -0.630287 1.72203 37 37 34
0.0721573 -0.630287 1.72203 37 37 35
0.0828612 -0.643364 1.75776 37 37 35
0.0946563 -0.661451 1.80718 37 37 35
0.0982252 -0.623991 1.70483 38 38 36
0.108236 -0.630287 1.72203 37 38 35
0.116084 -0.623991 1.70483 36 37 34
0.13401 -0.668892 1.82751 37 38 35
0.144099 -0.671303 1.8341 38 39 36
0.148468 -0.648428 1.7716 38 39 36
0.156516 -0.643364 1.75776 38 39 36
0.168196 -0.652967 1.784 38 39 36
0.177304 -0.652098 1.78162 38 39 36
0.185586 -0.648428 1.7716 38 39 36
0.199957 -0.665373 1.81789 39 40 36
0.211346 -0.671303 1.8341 39 40 37
0.20931 -0.63593 1.73745 39 40 37
0.216472 -0.630287 1.72203 38 39 36
0.22751 -0.63593 1.73745 37 38 35
0.241261 -0.648428 1.7716 37 38 35
0.252294 -0.652967 1.784 36 37 34
0.25779 -0.643364 1.75776 37 38 35
0.258957 -0.623991 1.70483 38 39 36
0.283969 -0.661451 1.80718 37 38 35
0.27961 -0.630287 1.72203 37 38 35
0.285746 -0.623991 1.70483 37 38 35
0.308359 -0.652967 1.784 36 37 35
0.321831 -0.661451 1.80718 37 37 35
0.333262 -0.665373 1.81789 36 37 35
0.340763 -0.661451 1.80718 37 38 35
0.357372 -0.674943 1.84404 38 39 36
0.352612 -0.648428 1.7716 38 38 35
0.354916 -0.63593 1.73745 38 38 35
0.371171 -0.648428 1.7716 38 38 35
0.377479 -0.643364 1.75776 38 39 35
0.403478 -0.671303 1.8341 38 38 35
0.407022 -0.661451 1.80718 37 38 35
0.410598 -0.652098 1.78162 37 38 35
0.414306 -0.643364 1.75776 36 37 33
0.432525 -0.657055 1.79517 36 37 34
0.456136 -0.678179 1.85288 37 38 35
0.44031 -0.64101 1.75133 37 38 35
0.460733 -0.657055 1.79517 36 38 34
0.456274 -0.637682 1.74224 37 38 35
0.473243 -0.648428 1.7716 37 39 36
0.482522 -0.648428 1.7716 37 40 36
0.511912 -0.674943 1.84404 37 40 36
0.501081 -0.648428 1.7716 37 40 36
0.51036 -0.648428 1.7716 36 39 35
0.530075 -0.661451 1.80718 36 39 35
0.532621 -0.652967 1.784 36 39 35
0.545358 -0.657055 1.79517 36 39 34
0.543201 -0.643364 1.75776 37 39 34
0.559907 -0.652098 1.78162 37 38 34
0.569239 -0.652098 1.78162 37 39 33
0.59561 -0.671303 1.8341 36 38 33
0.592371 -0.657055 1.79517 36 38 34
0.584031 -0.637682 1.74224 36 38 34
0.615266 -0.661451 1.80718 36 38 34
0.637475 -0.674943 1.84404 37 39 35
0.672251 -0.70114 1.91561 38 39 36
0.644657 -0.662473 1.80997 38 39 36
0.643893 -0.652098 1.78162 38 39 36
0.702352 -0.70114 1.91561 38 39 36
0.693791 -0.682839 1.86561 37 38 35
0.682578 -0.662473 1.80997 37 38 35
0.696975 -0.667179 1.82283 38 39 36
0.714745 -0.674943 1.84404 38 39 36
0.732878 -0.682839 1.86561 38 40 36
0.738669 -0.679179 1.85562 38 40 37
0.729979 -0.662473 1.80997 37 39 36
0.73946 -0.662473 1.80997 36 38 35
0.74894 -0.662473 1.80997 36 38 35
0.752218 -0.657055 1.79517 36 38 35
0.807293 -0.696457 1.90282 37 39 36
0.809822 -0.690118 1.8855 36 39 36
0.780426 -0.657055 1.79517 37 40 37
0.805373 -0.669986 1.8305 37 39 36
0.834477 -0.686031 1.87433 37 40 37
0.780969 -0.634575 1.73375 37 39 37
0.859201 -0.690118 1.8855 36 39 36
0.857687 -0.681074 1.86079 35 38 36
0.819405 -0.643364 1.75776 35 38 36
0.912892 -0.708802 1.93655 36 39 37
0.898704 -0.690118 1.8855 36 39 36
0.888602 -0.674943 1.84404 37 38 36
0.906419 -0.681074 1.86079 36 38 36
0.916166 -0.681074 1.86079 37 38 36
0.995181 -0.732026 2 37 39 36
0.890811 -0.648428 1.7716 37 39 36
0.90009 -0.648428 1.7716 36 38 35
0.955151 -0.681074 1.86079 36 38 35
0.996032 -0.70305 1.92083 37 38 34
1.04756 -0.732026 2 38 38 35
0.949675 -0.657055 1.79517 37 38 35
1.06851 -0.732026 2 36 36 33
0.994848 -0.674943 1.84404 35 35 32
1.04025 -0.698963 1.90967 35 36 34
1.0564 -0.70305 1.92083 36 37 35
1.06646 -0.70305 1.92083 36 37 35
1.06196 -0.693545 1.89486 36 38 35
1.08026 -0.698963 1.90967 36 38 36
1.09027 -0.698963 1.90967 36 39 37
1.15232 -0.732026 2 36 39 36
1.16279 -0.732026 2 36 38 36
1.17327 -0.732026 2 35 38 36
1.06251 -0.657055 1.79517 34 37 36
1.19422 -0.732026 2 35 37 36
1.20469 -0.732026 2 36 38 37
1.21517 -0.732026 2 36 39 37
1.14863 -0.686031 1.87433 36 38 36
1.33251 -0.789109 2.15596 35 38 35
1.01327 -0.595015 1.62567 33 36 34
-0.536067 -0.307707 0.852883 37 35 32
-0.515785 -0.298553 0.82751 37 36 32
-0.521668 -0.304517 0.844042 39 37 34
-0.475108 -0.279709 0.775279 38 37 34
-0.508051 -0.301682 0.836183 39 37 35
-0.512714 -0.307098 0.851194 39 38 35
-0.513986 -0.31056 0.860791 39 38 35
-0.494912 -0.301682 0.836183 39 38 35
-0.547466 -0.336696 0.933233 39 38 35
-0.511729 -0.317553 0.880174 39 38 35
-0.458142 -0.286884 0.795167 39 38 35
-0.521661 -0.329656 0.91372 38 38 35
-0.494595 -0.315446 0.874334 38 38 35
-0.499008 -0.321235 0.89038 37 37 34
-0.472589 -0.307098 0.851194 36 36 33
-0.489681 -0.321235 0.89038 36 36 32
-0.497732 -0.329656 0.91372 36 36 32
-0.474848 -0.317553 0.880174 37 36 33
-0.467118 -0.315446 0.874334 38 37 35
-0.483374 -0.329656 0.91372 37 37 35
-0.461017 -0.317553 0.880174 36 37 35
-0.461699 -0.321235 0.89038 38 38 36
-0.47092 -0.330994 0.917429 39 39 36
-0.452372 -0.321235 0.89038 39 38 36
-0.475063 -0.340862 0.944781 39 37 35
-0.468872 -0.339961 0.942284 38 36 34
-0.465165 -0.340862 0.944781 38 36 34
-0.454592 -0.336696 0.933233 38 36 34
-0.442088 -0.330994 0.917429 38 37 35
-0.447827 -0.338976 0.939552 38 37 35
-0.444194 -0.339961 0.942284 38 37 35
-0.43504 -0.336696 0.933233 38 37 35
-0.460926 -0.360784 1 38 37 35
-0.441195 -0.34931 0.968195 37 36 34
-0.45045 -0.360784 1 36 36 34
-0.445213 -0.360784 1 37 37 35
-0.46657 -0.382593 1.06045 38 38 36
-0.448564 -0.372259 1.0318 37 38 35
-0.443159 -0.372259 1.0318 37 38 35
-0.424261 -0.360784 1 36 37 34
-0.433051 -0.372862 1.03348 35 36 32
-0.455039 -0.396753 1.0997 37 37 34
-0.42383 -0.374279 1.03741 38 39 35
-0.418396 -0.374279 1.03741 38 39 35
-0.412962 -0.374279 1.03741 37 38 34
-0.420509 -0.3862 1.07045 38 38 35
-0.448046 -0.417052 1.15596 38 39 35
-0.427476 -0.403355 1.118 39 38 35
-0.435937 -0.417052 1.15596 38 38 35
-0.43777 -0.424705 1.17717 37 37 35
-0.437343 -0.430352 1.19282 37 37 35
-0.376724 -0.376074 1.04238 38 37 35
-0.388345 -0.393376 1.09033 38 38 35
-0.382634 -0.393376 1.09033 37 38 34
-0.361388 -0.377162 1.0454 37 38 33
-0.410193 -0.434685 1.20483 37 37 32
-0.427498 -0.460101 1.27528 37 36 32
-0.388444 -0.424705 1.17717 37 37 32
-0.400652 -0.445118 1.23375 38 38 33
-0.390447 -0.440891 1.22203 38 38 33
-0.407029 -0.467276 1.29517 38 37 33
-0.392962 -0.458773 1.2716 38 37 33
-0.393462 -0.467276 1.29517 38 37 33
-0.397226 -0.480023 1.3305 37 36 32
-0.36031 -0.443188 1.2284 36 36 32
-0.406095 -0.508585 1.40967 36 37 34
-0.37415 -0.477256 1.32283 36 38 35
-0.416405 -0.541176 1.5 36 38 35
-0.395236 -0.523543 1.45113 36 37 35
-0.400691 -0.541176 1.5 36 38 35
-0.369177 -0.508585 1.40967 36 38 35
-0.357994 -0.503245 1.39486 36 37 35
-0.345527 -0.495838 1.37433 36 37 34
-0.381296 -0.55881 1.54887 37 37 35
-0.347502 -0.520353 1.44228 38 38 35
-0.365071 -0.55881 1.54887 37 37 35
-0.345695 -0.541176 1.5 36 36 33
-0.337838 -0.541176 1.5 38 38 34
-0.342678 -0.561999 1.55772 38 39 36
-0.33262 -0.55881 1.54887 38 39 35
-0.34978 -0.60233 1.6695 38 38 35
-0.348253 -0.615077 1.70483 37 38 35
-0.345079 -0.62551 1.73375 37 37 35
-0.353261 -0.657648 1.82283 37 37 35
-0.314802 -0.60233 1.6695 37 38 35
-0.329095 -0.647668 1.79517 38 38 35
-0.303605 -0.615077 1.70483 38 39 35
-0.306216 -0.639165 1.7716 38 38 34
-0.311886 -0.671344 1.86079 38 37 34
-0.287658 -0.639165 1.7716 37 37 33
-0.260207 -0.597444 1.65596 37 36 32
-0.264639 -0.628572 1.74224 38 37 34
-0.250028 -0.615077 1.70483 39 38 34
-0.247674 -0.631853 1.75133 38 38 34
-0.238501 -0.631853 1.75133 37 37 33
-0.228137 -0.628572 1.74224 38 38 33
-0.21841 -0.626845 1.73745 38 38 33
-0.214917 -0.643639 1.784 38 38 34
-0.203255 -0.636381 1.76388 38 38 35
-0.191109 -0.626845 1.73745 37 37 35
-0.188054 -0.647668 1.79517 37 38 35
-0.174929 -0.634173 1.75776 37 38 35
-0.162354 -0.621283 1.72203 37 38 35
-0.157748 -0.639165 1.7716 37 38 34
-0.142873 -0.615077 1.70483 37 38 35
-0.141984 -0.652001 1.80718 37 38 35
-0.126275 -0.621283 1.72203 36 38 34
-0.116084 -0.615077 1.70483 36 38 34
-0.110077 -0.631853 1.75133 36 37 34
-0.102786 -0.643639 1.784 37 38 35
-0.0892957 -0.615077 1.70483 37 37 35
-0.0839861 -0.642782 1.78162 37 38 35
-0.0742342 -0.639165 1.7716 37 37 35
-0.0653225 -0.642782 1.78162 37 38 35
-0.0564163 -0.647668 1.79517 37 38 35
-0.0446478 -0.615077 1.70483 37 38 36
-0.0364017 -0.626845 1.73745 37 38 35
-0.0283969 -0.652001 1.80718 37 38 34
-0.0184136 -0.634173 1.75776 37 37 34
-0.00946563 -0.652001 1.80718 37 38 34
0 -0.631853 1.75133 37 38 34
0.0092068 -0.634173 1.75776 38 38 35
0.0180393 -0.621283 1.72203 38 39 36
0.027059 -0.621283 1.72203 37 38 35
0.0366925 -0.631853 1.75133 37 37 34
0.0446478 -0.615077 1.70483 37 37 34
0.0564163 -0.647668 1.79517 36 37 33
0.067611 -0.665301 1.84404 36 37 33
0.0768529 -0.661713 1.8341 36 36 33
0.0828612 -0.634173 1.75776 36 36 33
0.0934423 -0.643639 1.784 36 36 33
0.100105 -0.626845 1.73745 37 37 35
0.106102 -0.609034 1.68808 38 38 35
0.120105 -0.636381 1.76388 38 39 36
0.128895 -0.634173 1.75776 38 39 36
0.135295 -0.621283 1.72203 39 39 36
0.149309 -0.642782 1.78162 39 39 36
0.154707 -0.626845 1.73745 38 39 36
0.170381 -0.652001 1.80718 38 39 36
0.177304 -0.642782 1.78162 38 39 36
0.185586 -0.639165 1.7716 38 38 35
0.194276 -0.637235 1.76625 39 39 36
0.208244 -0.652001 1.80718 39 40 36
0.211756 -0.634173 1.75776 38 39 35
0.212204 -0.609034 1.68808 37 37 34
0.23017 -0.634173 1.75776 37 38 35
0.232169 -0.615077 1.70483 38 39 35
0.23873 -0.609034 1.68808 37 38 35
0.25779 -0.634173 1.75776 37 38 35
0.280103 -0.665301 1.84404 37 38 35
0.273012 -0.626845 1.73745 37 38 34
0.27961 -0.621283 1.72203 37 38 35
0.299015 -0.643639 1.784 37 38 35
0.307949 -0.642782 1.78162 36 37 35
0.306304 -0.620544 1.71999 36 37 34
0.335024 -0.659337 1.82751 36 37 35
0.315613 -0.603882 1.6738 37 38 35
0.343333 -0.639165 1.7716 38 38 35
0.348578 -0.631853 1.75133 38 38 35
0.354916 -0.626845 1.73745 38 38 35
0.371171 -0.639165 1.7716 38 38 35
0.385511 -0.647668 1.79517 38 38 35
0.38973 -0.639165 1.7716 37 37 34
0.415325 -0.665301 1.84404 37 38 35
0.416488 -0.652001 1.80718 38 39 36
0.414306 -0.634173 1.75776 36 38 34
0.429834 -0.643639 1.784 36 37 34
0.423924 -0.621283 1.72203 36 38 34
0.457044 -0.655868 1.81789 37 38 35
0.44592 -0.626845 1.73745 37 38 35
0.450983 -0.621283 1.72203 37 39 35
0.467829 -0.631853 1.75133 38 39 36
0.492213 -0.652001 1.80718 38 40 36
0.478042 -0.621283 1.72203 38 40 36
0.507747 -0.647668 1.79517 37 39 36
0.522705 -0.654626 1.81445 37 39 36
0.554016 -0.681449 1.8888 36 39 35
0.528919 -0.639165 1.7716 36 39 35
0.549006 -0.652001 1.80718 36 38 34
0.561784 -0.655868 1.81789 36 38 33
0.572856 -0.657648 1.82283 36 38 33
0.577403 -0.652001 1.80718 36 38 33
0.578571 -0.642782 1.78162 36 38 34
0.587902 -0.642782 1.78162 36 38 34
0.6058 -0.652001 1.80718 36 38 34
0.611177 -0.647668 1.79517 37 39 35
0.628436 -0.655868 1.81789 38 40 36
0.643643 -0.661713 1.8341 37 39 35
0.643663 -0.652001 1.80718 37 38 35
0.61614 -0.615077 1.70483 37 39 36
0.65819 -0.647668 1.79517 38 39 36
0.67788 -0.657648 1.82283 37 38 35
0.687428 -0.657648 1.82283 37 38 35
0.668619 -0.630892 1.74867 37 38 35
0.74018 -0.688977 1.90967 38 39 35
0.72895 -0.669477 1.85562 37 39 36
0.720499 -0.653009 1.80997 37 39 36
0.770188 -0.688977 1.90967 36 38 35
0.744713 -0.657648 1.82283 35 37 34
0.74894 -0.653009 1.80997 36 38 35
0.777547 -0.669477 1.85562 37 39 36
0.782356 -0.665301 1.84404 36 38 35
0.813842 -0.683637 1.89486 35 38 35
0.823767 -0.683637 1.89486 36 38 35
0.805373 -0.660415 1.8305 36 39 36
0.843617 -0.683637 1.89486 37 39 36
0.877059 -0.702473 1.94707 37 39 37
0.834137 -0.660415 1.8305 36 39 36
0.843725 -0.660415 1.8305 36 38 36
0.873747 -0.67623 1.87433 36 39 36
0.883564 -0.67623 1.87433 37 39 37
0.898704 -0.680259 1.8855 37 39 36
0.874344 -0.654626 1.81445 36 38 36
0.906419 -0.671344 1.86079 37 39 36
0.922834 -0.67623 1.87433 37 38 36
0.917578 -0.665301 1.84404 37 39 36
0.890811 -0.639165 1.7716 37 39 35
0.952286 -0.67623 1.87433 37 39 35
0.985971 -0.693007 1.92083 36 38 35
0.971921 -0.67623 1.87433 37 38 34
1.00609 -0.693007 1.92083 37 37 34
1.02077 -0.696153 1.92955 36 37 34
0.973856 -0.657648 1.82283 36 36 33
1.07899 -0.721569 2 36 36 33
1.04025 -0.688977 1.90967 36 37 35
0.974324 -0.639165 1.7716 36 37 35
1.11041 -0.721569 2 36 37 35
1.12089 -0.721569 2 36 38 35
1.13136 -0.721569 2 36 38 36
1.08181 -0.683637 1.89486 37 39 37
1.15232 -0.721569 2 37 39 37
1.0437 -0.647668 1.79517 36 38 36
1.11159 -0.683637 1.89486 35 37 35
1.07888 -0.657648 1.82283 35 37 36
1.257 -0.7595 2.10514 36 38 37
1.20469 -0.721569 2 36 38 37
1.21517 -0.721569 2 36 39 37
1.04476 -0.615077 1.70483 36 39 36
1.13973 -0.665301 1.84404 36 38 36
1.16827 -0.67623 1.87433 35 37 35
-0.517177 -0.292561 0.822829 37 36 33
-0.54497 -0.310874 0.874334 37 36 33
-0.547293 -0.314845 0.885502 38 37 34
-0.481474 -0.279348 0.785666 38 37 34
-0.483131 -0.282726 0.795167 39 37 35
-0.485052 -0.286319 0.805271 40 38 36
-0.52556 -0.312951 0.880174 40 38 35
-0.52095 -0.312951 0.880174 40 38 35
-0.487198 -0.295288 0.830499 39 37 35
-0.517663 -0.316579 0.89038 38 37 34
-0.474079 -0.292561 0.822829 38 36 34
-0.474148 -0.295288 0.830499 37 36 34
-0.497899 -0.312951 0.880174 37 37 34
-0.477047 -0.302647 0.851194 36 36 33
-0.491636 -0.314845 0.885502 35 36 32
-0.504557 -0.326197 0.917429 35 35 31
-0.493098 -0.321854 0.905214 37 36 33
-0.494946 -0.326197 0.917429 37 38 34
-0.47569 -0.316579 0.89038 37 36 34
-0.487137 -0.327407 0.920833 37 36 35
-0.476464 -0.323437 0.909666 37 37 35
-0.473802 -0.324878 0.91372 37 37 35
-0.436922 -0.302647 0.851194 38 38 36
-0.478743 -0.335034 0.942284 39 38 36
-0.457406 -0.323437 0.909666 39 37 35
-0.468872 -0.335034 0.942284 38 37 35
-0.477438 -0.344785 0.969708 39 37 35
-0.45767 -0.334063 0.939552 39 37 35
-0.438347 -0.323437 0.909666 39 38 36
-0.462201 -0.344785 0.969708 39 38 36
-0.471402 -0.355556 1 39 37 36
-0.452684 -0.345274 0.971083 38 37 35
-0.447597 -0.345274 0.971083 38 37 35
-0.441195 -0.344247 0.968195 37 36 34
-0.45045 -0.355556 1 37 37 35
-0.429483 -0.342993 0.964669 37 37 35
-0.439975 -0.355556 1 37 38 35
-0.434737 -0.355556 1 37 38 35
-0.456751 -0.378116 1.06345 37 38 35
-0.438464 -0.367458 1.03348 36 37 34
-0.448542 -0.380603 1.07045 36 36 33
-0.413786 -0.355556 1 36 36 33
-0.437329 -0.380603 1.07045 37 38 34
-0.419337 -0.369684 1.03974 38 39 36
-0.442338 -0.395093 1.1112 38 38 35
-0.408445 -0.369684 1.03974 37 37 34
-0.433332 -0.39751 1.118 38 38 35
-0.427476 -0.39751 1.118 39 39 36
-0.42162 -0.39751 1.118 38 38 35
-0.401324 -0.383704 1.07917 38 37 35
-0.402276 -0.390108 1.09718 37 37 35
-0.409976 -0.403337 1.13439 37 37 35
-0.408569 -0.407864 1.14712 38 38 35
-0.413107 -0.41855 1.17717 38 38 34
-0.403047 -0.414544 1.1659 37 38 34
-0.405154 -0.423122 1.19003 37 37 33
-0.403883 -0.428385 1.20483 37 37 32
-0.415038 -0.447204 1.25776 37 37 32
-0.441908 -0.483837 1.36079 39 38 34
-0.399807 -0.444918 1.25133 39 38 35
-0.414172 -0.468584 1.31789 38 37 34
-0.357226 -0.411007 1.15596 38 37 34
-0.393462 -0.460504 1.29517 37 37 33
-0.370876 -0.441685 1.24224 36 36 31
-0.364369 -0.441685 1.24224 36 36 32
-0.409312 -0.505185 1.42083 36 37 34
-0.366326 -0.460504 1.29517 37 38 35
-0.416405 -0.533333 1.5 37 39 35
-0.374321 -0.488652 1.37433 36 38 35
-0.372606 -0.495951 1.39486 37 38 35
-0.3653 -0.495951 1.39486 37 39 36
-0.361794 -0.501214 1.40967 37 38 35
-0.362611 -0.512812 1.44228 37 38 35
-0.369265 -0.533333 1.5 37 37 35
-0.361408 -0.533333 1.5 37 38 35
-0.353551 -0.533333 1.5 37 38 35
-0.356958 -0.550711 1.54887 38 38 35
-0.337838 -0.533333 1.5 39 39 36
-0.38327 -0.619462 1.74224 38 39 35
-0.322124 -0.533333 1.5 38 38 34
-0.340596 -0.578015 1.62567 37 38 35
-0.320801 -0.558381 1.57045 37 37 35
-0.332291 -0.593601 1.6695 37 38 35
-0.343333 -0.629902 1.7716 37 37 35
-0.328517 -0.619462 1.74224 37 38 35
-0.319392 -0.619462 1.74224 37 38 35
-0.298679 -0.596327 1.67717 37 37 34
-0.277444 -0.570715 1.60514 37 37 33
-0.300887 -0.638282 1.79517 37 37 33
-0.291484 -0.638282 1.79517 37 37 33
-0.279379 -0.632165 1.77797 38 37 34
-0.263912 -0.61776 1.73745 39 38 35
-0.250028 -0.606163 1.70483 39 39 35
-0.25054 -0.629902 1.7716 39 38 34
-0.232169 -0.606163 1.70483 38 38 34
-0.229328 -0.622696 1.75133 38 38 34
-0.212204 -0.600207 1.68808 38 38 34
-0.213867 -0.63121 1.77528 39 39 35
-0.198433 -0.612279 1.72203 38 38 35
-0.193343 -0.624982 1.75776 37 38 35
-0.176837 -0.600207 1.68808 37 38 35
-0.172908 -0.61776 1.73745 38 38 36
-0.163807 -0.61776 1.73745 37 38 35
-0.153334 -0.612279 1.72203 36 37 34
-0.15145 -0.642552 1.80718 37 38 35
-0.135295 -0.612279 1.72203 38 39 36
-0.130645 -0.633466 1.78162 37 38 35
-0.123053 -0.642552 1.80718 38 39 36
-0.108236 -0.612279 1.72203 37 38 35
-0.100105 -0.61776 1.73745 37 38 35
-0.092068 -0.624982 1.75776 37 38 35
-0.0851906 -0.642552 1.80718 38 38 36
-0.0747538 -0.634311 1.784 38 38 36
-0.0637029 -0.61776 1.73745 37 38 35
-0.0550387 -0.622696 1.75133 36 37 35
-0.0456274 -0.619462 1.74224 36 37 34
-0.0360787 -0.612279 1.72203 37 38 34
-0.0277166 -0.627158 1.76388 38 39 35
-0.0186636 -0.633466 1.78162 37 38 34
-0.00927928 -0.629902 1.7716 37 38 34
0 -0.61776 1.73745 37 37 34
0.00901967 -0.612279 1.72203 37 37 34
0.0185586 -0.629902 1.7716 38 38 35
0.0267887 -0.606163 1.70483 38 38 35
0.0360787 -0.612279 1.72203 38 38 35
0.0456274 -0.619462 1.74224 39 39 36
0.054118 -0.612279 1.72203 38 38 35
0.0642118 -0.622696 1.75133 37 37 34
0.0728033 -0.61776 1.73745 36 36 33
0.0835135 -0.629902 1.7716 36 36 33
0.092068 -0.624982 1.75776 36 36 34
0.100904 -0.622696 1.75133 38 38 35
0.111351 -0.629902 1.7716 38 38 36
0.121475 -0.634311 1.784 40 40 37
0.128895 -0.624982 1.75776 39 40 37
0.139189 -0.629902 1.7716 39 40 37
0.145607 -0.61776 1.73745 38 39 36
0.157748 -0.629902 1.7716 38 39 36
0.170381 -0.642552 1.80718 38 39 36
0.171374 -0.612279 1.72203 38 39 36
0.182008 -0.61776 1.73745 38 39 36
0.189708 -0.613234 1.72472 38 39 36
0.209479 -0.646362 1.81789 38 38 35
