ply
format ascii 1.0
element vertex 1295
property float x
property float y
property float z
property uchar red
property uchar green
property uchar blue
end_header
0.912064 -0.112638 1.79517 34 36 34
0.952495 -0.116431 1.85562 34 35 34
0.990241 -0.119822 1.90967 33 36 34
0.996658 -0.119393 1.90282 33 35 34
0.981653 -0.116431 1.85562 32 35 35
0.985189 -0.115705 1.84404 32 35 34
0.994848 -0.115705 1.84404 32 36 35
0.957507 -0.110291 1.75776 32 36 35
1.03697 -0.118306 1.8855 33 36 35
1.08103 -0.122169 1.94707 33 36 36
1.02589 -0.114855 1.8305 33 36 36
1.09872 -0.121869 1.94228 33 36 36
0.938812 -0.103177 1.64438 32 36 36
1.0343 -0.112638 1.79517 31 35 35
1.08186 -0.116756 1.86079 33 37 37
1.03928 -0.111159 1.7716 34 38 38
0.973263 -0.103177 1.64438 33 38 37
1.10109 -0.115705 1.84404 34 38 38
1.15701 -0.120523 1.92083 35 39 39
1.16028 -0.119822 1.90967 35 39 39
1.11707 -0.114374 1.82283 35 39 40
1.13973 -0.115705 1.84404 34 38 39
1.13617 -0.114374 1.82283 30 36 37
-0.562453 -0.0514692 0.894863 35 39 34
-0.54497 -0.0502885 0.874334 36 38 34
-0.61806 -0.0575163 1 36 37 33
-0.593332 -0.0556871 0.968195 35 36 32
-0.570857 -0.0540396 0.939552 35 36 32
-0.56213 -0.0536762 0.933233 35 37 33
-0.559222 -0.0538669 0.936549 35 37 33
-0.573942 -0.055774 0.969708 35 37 33
-0.605291 -0.0593456 1.0318 36 38 33
-0.581395 -0.0575163 1 35 37 32
-0.576158 -0.0575163 1 35 37 32
-0.553625 -0.055774 0.969708 35 36 31
-0.565682 -0.0575163 1 35 37 32
-0.543467 -0.055774 0.969708 35 36 31
-0.571261 -0.0591796 1.02892 34 36 31
-0.565872 -0.0591796 1.02892 35 37 33
-0.52823 -0.055774 0.969708 36 38 33
-0.539493 -0.0575163 1 36 37 32
-0.550439 -0.0592586 1.03029 36 37 32
-0.545043 -0.0592586 1.03029 37 38 34
-0.52378 -0.0575163 1 38 39 34
-0.553163 -0.0613565 1.06677 36 38 33
-0.528853 -0.0592586 1.03029 35 37 32
-0.523457 -0.0592586 1.03029 36 37 32
-0.533223 -0.0609931 1.06045 35 37 31
-0.527669 -0.0609931 1.06045 34 36 29
-0.525226 -0.0613565 1.06677 34 36 29
-0.535678 -0.0632505 1.0997 35 37 30
-0.514051 -0.0613565 1.06677 36 38 32
-0.546761 -0.065978 1.14712 37 38 33
-0.518398 -0.0632505 1.0997 37 38 32
-0.534744 -0.065978 1.14712 37 38 32
-0.525091 -0.0655231 1.13921 36 38 32
-0.526757 -0.0664865 1.15596 36 37 32
-0.542717 -0.0692976 1.20483 36 37 33
-0.549281 -0.0709608 1.23375 36 38 33
-0.530096 -0.0692976 1.20483 36 37 32
-0.523785 -0.0692976 1.20483 36 37 33
-0.540208 -0.0723419 1.25776 36 37 33
-0.53362 -0.0723419 1.25776 36 37 33
-0.53283 -0.0731377 1.2716 36 37 32
-0.535922 -0.0744933 1.29517 36 37 32
-0.511229 -0.071972 1.25133 36 38 33
-0.533511 -0.0760843 1.32283 37 38 34
-0.506189 -0.0731377 1.2716 37 39 34
-0.517714 -0.0758004 1.31789 37 39 34
-0.510812 -0.0758004 1.31789 37 38 34
-0.518332 -0.07797 1.35562 38 39 34
-0.479547 -0.0731377 1.2716 38 38 34
-0.491938 -0.0760843 1.32283 37 38 33
-0.503894 -0.0790467 1.37433 37 38 33
-0.526796 -0.083837 1.45762 37 38 33
-0.502081 -0.0810788 1.40967 38 38 34
-0.511526 -0.083837 1.45762 38 39 34
-0.518542 -0.0862745 1.5 38 39 34
-0.496257 -0.083837 1.45762 38 39 34
-0.502828 -0.0862745 1.5 38 39 34
-0.494972 -0.0862745 1.5 37 38 33
-0.51645 -0.0914702 1.59033 37 37 32
-0.52539 -0.094579 1.64438 37 37 31
-0.48472 -0.088712 1.54238 37 37 32
-0.496035 -0.0923216 1.60514 37 38 33
-0.487628 -0.0923216 1.60514 37 38 33
-0.474801 -0.0914702 1.59033 36 37 32
-0.476835 -0.0935024 1.62567 36 37 32
-0.499457 -0.099719 1.73375 37 38 34
-0.459805 -0.0935024 1.62567 38 39 34
-0.473267 -0.0980557 1.70483 37 38 33
-0.464337 -0.0980557 1.70483 37 37 31
-0.455408 -0.0980557 1.70483 37 37 32
-0.442092 -0.0970924 1.68808 36 37 31
-0.437549 -0.0980557 1.70483 37 37 32
-0.428619 -0.0980557 1.70483 36 37 32
-0.41288 -0.0964647 1.67717 37 38 34
-0.404095 -0.0964647 1.67717 37 38 34
-0.395311 -0.0964647 1.67717 36 38 34
-0.392901 -0.0980557 1.70483 36 38 34
-0.370357 -0.094579 1.64438 37 38 34
-0.371785 -0.0972043 1.69003 37 38 34
-0.369021 -0.0988347 1.71838 36 38 33
-0.362624 -0.0995494 1.7308 36 38 33
-0.345544 -0.097293 1.69157 35 37 32
-0.323566 -0.0935024 1.62567 35 37 32
-0.319919 -0.094947 1.65078 35 37 32
-0.321464 -0.0980557 1.70483 36 37 33
-0.307464 -0.0964647 1.67717 36 38 35
-0.300969 -0.0972043 1.69003 37 39 35
-0.285333 -0.094947 1.65078 37 39 35
-0.28111 -0.0964647 1.67717 36 38 35
-0.274413 -0.0972043 1.69003 36 37 34
-0.256817 -0.0940039 1.63439 35 37 33
-0.249776 -0.094579 1.64438 36 38 34
-0.243672 -0.095563 1.66149 37 38 34
-0.234969 -0.095563 1.66149 37 39 35
-0.232169 -0.0980557 1.70483 38 39 35
-0.223239 -0.0980557 1.70483 37 38 34
-0.202224 -0.0925261 1.60869 37 38 34
-0.202048 -0.0964647 1.67717 36 37 32
-0.193263 -0.0964647 1.67717 36 37 32
-0.181172 -0.0947361 1.64712 36 37 32
-0.18001 -0.0988347 1.71838 37 38 34
-0.161783 -0.0935024 1.62567 37 38 34
-0.15409 -0.0940039 1.63439 37 38 34
-0.151803 -0.0980557 1.70483 36 37 33
-0.141762 -0.097293 1.69157 37 37 33
-0.130538 -0.095563 1.66149 37 37 34
-0.125014 -0.0980557 1.70483 37 38 34
-0.116084 -0.0980557 1.70483 37 38 33
-0.105416 -0.0964647 1.67717 37 37 33
-0.0926861 -0.0925261 1.60869 37 37 33
-0.0861295 -0.094579 1.64438 37 37 33
-0.0775166 -0.094579 1.64438 36 37 33
-0.0689036 -0.094579 1.64438 37 37 33
-0.0620207 -0.097293 1.69157 37 38 34
-0.0518788 -0.094947 1.65078 37 38 35
-0.0430648 -0.094579 1.64438 37 38 34
-0.0338691 -0.0929793 1.61657 37 38 34
-0.0261077 -0.095563 1.66149 37 38 35
-0.0171212 -0.0940039 1.63439 37 38 35
-0.00878468 -0.0964647 1.67717 37 37 34
0 -0.0925261 1.60869 36 38 34
0.00856058 -0.0940039 1.63439 37 38 34
0.0172929 -0.094947 1.65078 36 38 34
0.0261077 -0.095563 1.66149 36 37 34
0.0333194 -0.0914702 1.59033 36 37 34
0.04213 -0.0925261 1.60869 37 38 35
0.052354 -0.0958167 1.6659 37 38 35
0.0592709 -0.0929793 1.61657 36 38 34
0.0698053 -0.0958167 1.6659 36 38 34
0.0770452 -0.0940039 1.63439 36 37 32
0.0851491 -0.0935024 1.62567 36 37 32
0.0951111 -0.094947 1.65078 36 38 32
0.104431 -0.095563 1.66149 36 38 32
0.115181 -0.097293 1.69157 36 38 32
0.12105 -0.094947 1.65078 36 37 32
0.135134 -0.0989274 1.71999 36 37 32
0.141633 -0.0972043 1.69003 36 37 31
0.153009 -0.0988347 1.71838 36 37 32
0.162009 -0.0988347 1.71838 36 37 32
0.160094 -0.0925261 1.60869 36 37 32
0.18001 -0.0988347 1.71838 36 37 33
0.179772 -0.0940039 1.63439 37 38 34
0.193263 -0.0964647 1.67717 37 38 35
0.202048 -0.0964647 1.67717 37 37 34
0.207515 -0.094947 1.65078 36 37 34
0.219176 -0.096271 1.6738 37 38 34
0.224808 -0.094947 1.65078 38 38 35
0.231403 -0.0941126 1.63628 39 39 36
0.237084 -0.0929793 1.61657 39 39 36
0.256943 -0.097293 1.69157 37 38 35
0.26354 -0.0964647 1.67717 36 37 34
0.267001 -0.094579 1.64438 36 36 34
0.278482 -0.095563 1.66149 36 36 34
0.282499 -0.0940039 1.63439 36 36 34
0.298679 -0.0964647 1.67717 36 37 34
0.306846 -0.096271 1.6738 36 37 35
0.308181 -0.0940039 1.63439 36 37 35
0.319919 -0.094947 1.65078 36 37 34
0.323566 -0.0935024 1.62567 36 37 34
0.341914 -0.096271 1.6738 36 36 34
0.348103 -0.095563 1.66149 35 36 33
0.357752 -0.0958167 1.6659 36 37 34
0.365508 -0.095563 1.66149 36 37 34
0.377741 -0.0964647 1.67717 36 37 34
0.38575 -0.096271 1.6738 36 37 34
0.398342 -0.0972043 1.69003 36 37 34
0.396196 -0.094579 1.64438 36 37 34
0.412051 -0.096271 1.6738 35 37 33
0.428619 -0.0980557 1.70483 35 36 32
0.437549 -0.0980557 1.70483 36 37 34
0.450447 -0.0989274 1.71999 36 38 34
0.451454 -0.0972043 1.69003 36 37 34
0.459775 -0.0970924 1.68808 36 37 34
0.48966 -0.101452 1.76388 36 37 34
0.493923 -0.10044 1.74629 37 38 35
0.506374 -0.1011 1.75776 37 38 35
0.482325 -0.094579 1.64438 36 37 34
0.527929 -0.101705 1.76828 36 37 34
0.522029 -0.0988347 1.71838 36 37 34
0.526844 -0.0980557 1.70483 36 37 35
0.531122 -0.0972043 1.69003 36 38 36
0.535865 -0.0964647 1.67717 36 37 35
0.57651 -0.102108 1.77528 35 37 35
0.567032 -0.0988347 1.71838 35 37 35
0.589235 -0.1011 1.75776 35 37 35
0.575382 -0.0972043 1.69003 35 37 34
0.594033 -0.0988347 1.71838 34 36 34
0.579313 -0.094947 1.65078 34 36 34
0.607211 -0.0980557 1.70483 34 36 34
0.626591 -0.099719 1.73375 34 36 34
0.635672 -0.099719 1.73375 34 36 34
0.651291 -0.10073 1.75133 35 37 35
0.648644 -0.0989274 1.71999 35 38 36
0.651858 -0.0980557 1.70483 35 37 36
0.670854 -0.0995494 1.7308 34 37 35
0.669717 -0.0980557 1.70483 34 36 35
0.699717 -0.1011 1.75776 34 36 34
0.711392 -0.101452 1.76388 34 36 34
0.723784 -0.101896 1.7716 34 36 34
0.699949 -0.097293 1.69157 35 37 34
0.714365 -0.0980557 1.70483 35 37 34
0.753183 -0.102108 1.77528 36 37 35
0.752196 -0.10073 1.75133 36 37 34
0.755334 -0.0999318 1.73745 36 37 34
0.742714 -0.0970924 1.68808 35 37 34
0.773535 -0.0999318 1.73745 35 36 34
0.803603 -0.102609 1.784 35 37 35
0.800991 -0.1011 1.75776 35 37 35
0.793731 -0.0990451 1.72203 35 36 34
0.812168 -0.100207 1.74224 34 36 34
0.851906 -0.103942 1.80718 34 35 33
0.874202 -0.10549 1.8341 36 37 35
0.842643 -0.100577 1.74867 36 37 36
0.903898 -0.106728 1.85562 35 36 35
0.860962 -0.100577 1.74867 34 35 34
0.912629 -0.10549 1.8341 34 36 34
0.902661 -0.103251 1.79517 34 36 35
0.942775 -0.106728 1.85562 34 36 34
0.976725 -0.109443 1.90282 33 35 34
0.930869 -0.103251 1.79517 32 35 32
0.940272 -0.103251 1.79517 31 34 33
0.964308 -0.104842 1.82283 30 34 34
0.959077 -0.103251 1.79517 31 35 34
0.93246 -0.0994113 1.7284 32 35 35
0.968512 -0.102262 1.77797 32 36 35
1.06504 -0.111383 1.93655 33 36 35
1.03312 -0.107026 1.86079 33 36 36
1.02589 -0.105284 1.8305 33 36 35
1.01549 -0.103251 1.79517 32 36 36
1.10162 -0.110981 1.92955 32 35 36
1.07211 -0.107026 1.86079 31 35 35
1.08186 -0.107026 1.86079 34 38 38
1.03928 -0.101896 1.7716 36 40 40
1.18374 -0.115033 2 35 39 39
1.07191 -0.103251 1.79517 34 39 38
1.15701 -0.110479 1.92083 35 39 38
1.16707 -0.110479 1.92083 35 39 39
1.17029 -0.109837 1.90967 35 39 39
1.13973 -0.106063 1.84404 35 39 40
1.16827 -0.107805 1.87433 33 38 39
-0.607495 -0.0505372 0.966525 35 38 34
-0.561158 -0.0470747 0.900304 36 38 33
-0.576794 -0.0487965 0.933233 36 37 33
-0.554735 -0.0473314 0.905214 35 36 32
-0.575425 -0.04952 0.947071 35 36 32
-0.583189 -0.0506246 0.968195 35 37 33
-0.579021 -0.0507037 0.969708 35 37 33
-0.591871 -0.0522876 1 34 36 31
-0.547466 -0.0487965 0.933233 35 37 33
-0.581395 -0.0522876 1 36 38 34
-0.558704 -0.0507037 0.969708 36 38 33
-0.552762 -0.0506246 0.968195 36 38 34
-0.601575 -0.0556053 1.06345 36 38 34
-0.576651 -0.0537996 1.02892 36 38 34
-0.555206 -0.0522876 1 35 37 33
-0.56746 -0.0539506 1.0318 35 37 32
-0.560483 -0.0537996 1.02892 35 38 32
-0.57063 -0.0553054 1.05772 36 38 33
-0.569926 -0.0557786 1.06677 37 38 33
-0.529017 -0.0522876 1 37 39 35
-0.557014 -0.0556053 1.06345 37 39 34
-0.553163 -0.0557786 1.06677 37 38 33
-0.528853 -0.0538715 1.03029 36 38 33
-0.556224 -0.0572437 1.09479 36 38 33
-0.520594 -0.054135 1.03533 36 38 32
-0.549906 -0.0577849 1.10514 35 37 31
-0.551349 -0.058553 1.11983 35 37 30
-0.554926 -0.0595665 1.13921 35 36 30
-0.498903 -0.054135 1.03533 36 38 32
-0.539602 -0.0591946 1.1321 38 39 34
-0.537025 -0.0595665 1.13921 37 38 33
-0.534744 -0.05998 1.14712 37 39 33
-0.528736 -0.05998 1.14712 36 37 31
-0.549028 -0.0629978 1.20483 35 36 30
-0.548818 -0.0637059 1.21838 36 37 32
-0.514647 -0.0604423 1.15596 36 38 33
-0.546553 -0.0649536 1.24224 36 37 32
-0.536357 -0.0645098 1.23375 36 37 33
-0.511117 -0.0622238 1.19003 36 37 33
-0.541052 -0.0666813 1.27528 36 37 33
-0.542706 -0.0677212 1.29517 36 37 32
-0.52617 -0.0664889 1.2716 36 37 33
-0.529138 -0.0677212 1.29517 36 38 33
-0.485921 -0.0629978 1.20483 37 38 34
-0.541693 -0.0711525 1.36079 37 38 34
-0.539886 -0.0718606 1.37433 37 38 34
-0.512724 -0.0691675 1.32283 37 38 34
-0.525489 -0.0718606 1.37433 37 38 34
-0.518291 -0.0718606 1.37433 37 38 33
-0.53965 -0.0758758 1.45113 37 38 33
-0.534431 -0.0762155 1.45762 37 38 33
-0.542112 -0.0784314 1.5 37 38 34
-0.48283 -0.0708819 1.35562 37 38 33
-0.494697 -0.073708 1.40967 37 38 33
-0.501646 -0.0758758 1.45113 37 39 34
-0.525113 -0.0806472 1.54238 38 40 35
-0.551229 -0.0859809 1.64438 38 39 34
-0.542616 -0.0859809 1.64438 38 38 32
-0.505858 -0.0814492 1.55772 37 37 31
-0.51285 -0.0839287 1.60514 37 37 31
-0.471402 -0.0784314 1.5 38 38 32
-0.502379 -0.0850021 1.62567 38 38 33
-0.470536 -0.0809869 1.54887 37 37 33
-0.465063 -0.0814492 1.55772 37 37 33
-0.482325 -0.0859809 1.64438 36 38 33
-0.462406 -0.0839287 1.60514 36 38 33
-0.482197 -0.0891416 1.70483 37 38 33
-0.45129 -0.0850021 1.62567 37 38 32
-0.442775 -0.0850021 1.62567 37 37 32
-0.46072 -0.0901815 1.72472 37 38 33
-0.442602 -0.0883676 1.69003 37 37 32
-0.441438 -0.089934 1.71999 37 38 33
-0.410908 -0.0854581 1.63439 37 38 33
-0.42342 -0.089934 1.71999 37 38 33
-0.404095 -0.0876952 1.67717 37 38 34
-0.395311 -0.0876952 1.67717 37 38 34
-0.369157 -0.0837544 1.6018 36 38 33
-0.383971 -0.0891416 1.70483 36 38 33
-0.381403 -0.0906536 1.73375 36 37 33
-0.366112 -0.0891416 1.70483 35 37 32
-0.342423 -0.0854581 1.63439 36 37 32
-0.342602 -0.0876952 1.67717 35 37 32
-0.336684 -0.0884482 1.69157 35 37 32
-0.32285 -0.0871061 1.6659 35 37 32
-0.321464 -0.0891416 1.70483 36 38 33
-0.30459 -0.0868755 1.66149 36 38 34
-0.30823 -0.0904995 1.7308 36 38 34
-0.289312 -0.0875191 1.6738 36 38 34
-0.279221 -0.0871061 1.6659 36 38 34
-0.270496 -0.0871061 1.6659 36 38 34
-0.261077 -0.0868755 1.66149 37 38 34
-0.254756 -0.0876952 1.67717 37 38 34
-0.242101 -0.0863154 1.65078 37 38 34
-0.239005 -0.0883676 1.69003 36 38 34
-0.227943 -0.0875191 1.6738 37 38 34
-0.214931 -0.0858239 1.64138 37 39 34
-0.212449 -0.0883676 1.69003 37 38 34
-0.202048 -0.0876952 1.67717 37 38 33
-0.194922 -0.0884482 1.69157 36 37 32
-0.181576 -0.0863154 1.65078 36 37 32
-0.171212 -0.0854581 1.63439 36 37 33
-0.165788 -0.0871061 1.6659 35 37 32
-0.149937 -0.0831547 1.59033 36 37 33
-0.146153 -0.0858239 1.64138 36 37 33
-0.136969 -0.0854581 1.63439 37 37 33
-0.127724 -0.0850021 1.62567 37 37 34
-0.12143 -0.0865861 1.65596 37 38 34
-0.110694 -0.0850021 1.62567 37 37 33
-0.106224 -0.0883676 1.69003 38 38 34
-0.0966315 -0.0876952 1.67717 38 38 34
-0.0867357 -0.0865861 1.65596 37 37 33
-0.0825581 -0.0915729 1.75133 36 36 32
-0.0702774 -0.0876952 1.67717 36 37 33
-0.0592709 -0.0845266 1.61657 37 38 34
-0.0522154 -0.0868755 1.66149 37 38 35
-0.0423364 -0.0845266 1.61657 37 38 35
-0.0357183 -0.0891416 1.70483 37 38 35
-0.0259394 -0.0863154 1.65078 37 38 35
-0.0177041 -0.0883676 1.69003 36 37 34
-0.00832985 -0.0831547 1.59033 36 37 34
0 -0.0871061 1.6659 36 37 34
0.00867357 -0.0865861 1.65596 36 37 34
0.0175341 -0.0875191 1.6738 36 37 34
0.0261077 -0.0868755 1.66149 36 37 33
0.0351387 -0.0876952 1.67717 36 37 33
0.0439234 -0.0876952 1.67717 36 38 34
0.052354 -0.0871061 1.6659 36 37 34
0.0599241 -0.0854581 1.63439 36 37 34
0.0681193 -0.0850021 1.62567 36 37 33
0.0791898 -0.0878369 1.67988 36 38 33
0.0861295 -0.0859809 1.64438 36 38 33
0.0982252 -0.0891416 1.70483 36 38 32
0.105416 -0.0876952 1.67717 36 37 32
0.113971 -0.0875191 1.6738 36 37 32
0.122986 -0.0876952 1.67717 36 37 31
0.130538 -0.0868755 1.66149 36 37 31
0.138777 -0.0865861 1.65596 36 37 31
0.144753 -0.0850021 1.62567 36 37 32
0.159337 -0.0883676 1.69003 36 37 31
0.165349 -0.0868755 1.66149 35 36 31
0.175694 -0.0876952 1.67717 36 37 33
0.177969 -0.0846011 1.618 38 38 35
0.190222 -0.0863154 1.65078 37 38 35
0.200159 -0.0868755 1.66149 37 38 34
0.203394 -0.0846011 1.618 36 37 34
0.219176 -0.0875191 1.6738 37 38 35
0.223937 -0.0859809 1.64438 38 39 36
0.23671 -0.0875191 1.6738 39 40 36
0.241163 -0.0859809 1.64438 38 39 36
0.254756 -0.0876952 1.67717 36 37 34
0.26354 -0.0876952 1.67717 36 36 33
0.272325 -0.0876952 1.67717 36 37 34
0.285746 -0.0891416 1.70483 36 36 34
0.287185 -0.0868755 1.66149 35 36 33
0.298679 -0.0876952 1.67717 36 37 34
0.298022 -0.0850021 1.62567 36 37 34
0.318964 -0.0884482 1.69157 36 37 34
0.330394 -0.0891416 1.70483 36 36 34
0.336684 -0.0884482 1.69157 36 37 34
0.330224 -0.0845266 1.61657 36 37 34
0.357183 -0.0891416 1.70483 36 36 34
0.347158 -0.0845266 1.61657 36 37 34
0.365508 -0.0868755 1.66149 36 37 34
0.380637 -0.0883676 1.69003 36 37 34
0.378278 -0.0858239 1.64138 35 37 34
0.398342 -0.0883676 1.69003 35 37 34
0.404095 -0.0876952 1.67717 35 37 34
0.426808 -0.0906536 1.73375 35 36 32
0.43682 -0.0908471 1.73745 35 37 32
0.455629 -0.0928251 1.77528 35 37 33
0.438352 -0.0875191 1.6738 35 37 33
0.451454 -0.0883676 1.69003 35 37 34
0.468465 -0.089934 1.71999 36 37 34
0.477027 -0.0898497 1.71838 36 38 35
0.47342 -0.0875191 1.6738 37 38 35
0.491126 -0.0891416 1.70483 36 37 34
0.495714 -0.0883676 1.69003 35 36 34
0.508985 -0.0891416 1.70483 35 36 34
0.53051 -0.0913094 1.74629 35 37 35
0.531528 -0.089934 1.71999 36 37 35
0.554332 -0.0922292 1.76388 36 38 35
0.532266 -0.0871061 1.6659 36 38 35
0.562067 -0.0904995 1.7308 35 37 35
0.558187 -0.0884482 1.69157 34 36 34
0.576032 -0.0898497 1.71838 35 37 34
0.585033 -0.0898497 1.71838 35 37 34
0.594033 -0.0898497 1.71838 35 37 34
0.619004 -0.0922292 1.76388 34 36 34
0.607211 -0.0891416 1.70483 34 36 34
0.626591 -0.0906536 1.73375 34 36 34
0.650899 -0.0928251 1.77528 34 36 35
0.655959 -0.0922292 1.76388 35 37 35
0.653834 -0.0906536 1.73375 34 37 35
0.66433 -0.0908471 1.73745 34 37 35
0.685381 -0.0924593 1.76828 34 37 35
0.669717 -0.0891416 1.70483 34 36 35
0.710825 -0.0933682 1.78567 35 36 35
0.70633 -0.0915729 1.75133 35 36 35
0.696506 -0.0891416 1.70483 35 36 34
0.718933 -0.0908471 1.73745 36 38 35
0.726482 -0.0906536 1.73375 36 37 34
0.729724 -0.089934 1.71999 36 37 34
0.744644 -0.0906536 1.73375 35 36 34
0.77018 -0.0926327 1.7716 35 36 34
0.804058 -0.0955561 1.82751 34 36 33
0.76576 -0.089934 1.71999 34 35 32
0.782636 -0.0908471 1.73745 35 36 34
0.807297 -0.0926327 1.7716 35 37 35
0.827439 -0.0938649 1.79517 35 36 34
0.836842 -0.0938649 1.79517 35 36 34
0.851906 -0.0944929 1.80718 36 37 35
0.874202 -0.0959004 1.8341 36 38 36
0.858524 -0.0931568 1.78162 35 37 35
0.851803 -0.0914336 1.74867 34 36 35
0.869618 -0.0923529 1.76625 34 36 34
0.907022 -0.0953113 1.82283 34 36 34
0.91657 -0.0953113 1.82283 34 36 34
0.888439 -0.0914336 1.74867 35 37 35
0.912637 -0.0929655 1.77797 34 36 34
0.94919 -0.0957123 1.8305 32 35 33
0.925126 -0.0923529 1.76625 30 34 33
0.97553 -0.0964205 1.84404 29 34 33
0.977953 -0.0957123 1.8305 30 34 34
0.9483 -0.0919091 1.75776 31 35 34
0.988388 -0.0948733 1.81445 31 35 35
0.997892 -0.0948733 1.81445 32 36 36
1.0074 -0.0948733 1.81445 33 36 36
0.985127 -0.0919091 1.75776 33 36 36
1.09547 -0.101257 1.93655 32 36 36
1.06236 -0.0972963 1.86079 32 36 36
1.06246 -0.0964205 1.84404 33 36 36
1.10166 -0.0990778 1.89486 35 39 39
1.12682 -0.100436 1.92083 37 41 41
1.14958 -0.101557 1.94228 36 40 40
1.07191 -0.0938649 1.79517 35 39 38
1.20469 -0.104575 2 34 38 38
1.21517 -0.104575 2 35 39 39
1.01481 -0.0865861 1.65596 35 39 39
1.10952 -0.0938649 1.79517 35 39 39
1.2466 -0.104575 2 34 39 39
-0.58657 -0.0439169 0.933233 36 39 35
-0.623298 -0.0470588 1 36 38 34
-0.578843 -0.0440729 0.936549 37 38 34
-0.593332 -0.0455621 0.968195 36 37 34
-0.58826 -0.0455621 0.968195 35 36 32
-0.565936 -0.0442142 0.939552 35 37 34
-0.57712 -0.0454835 0.966525 36 38 34
-0.572058 -0.0454835 0.966525 36 38 34
-0.567976 -0.0455621 0.968195 36 38 34
-0.581395 -0.0470588 1 36 38 34
-0.594482 -0.0485555 1.0318 36 37 33
-0.57092 -0.0470588 1 36 38 34
-0.527913 -0.0439169 0.933233 37 38 34
-0.580245 -0.0487215 1.03533 36 38 34
-0.555206 -0.0470588 1 34 37 32
-0.566628 -0.0484843 1.03029 35 37 32
-0.562966 -0.0486341 1.03348 35 37 32
-0.555835 -0.0484843 1.03029 35 37 32
-0.534255 -0.0470588 1 36 37 32
-0.560995 -0.0499034 1.06045 37 38 34
-0.557014 -0.0500448 1.06345 37 38 34
-0.535034 -0.0485555 1.0318 37 39 34
-0.529629 -0.0485555 1.0318 37 39 34
-0.543858 -0.050374 1.07045 36 38 33
-0.552958 -0.0517504 1.0997 36 38 33
-0.530813 -0.0502008 1.06677 36 38 32
-0.541438 -0.0517504 1.0997 36 38 33
-0.519638 -0.0502008 1.06677 37 38 33
-0.498008 -0.0486341 1.03348 37 38 32
-0.510217 -0.050374 1.07045 37 38 32
-0.552714 -0.055176 1.17249 36 38 32
-0.524745 -0.0529725 1.12567 36 38 32
-0.544863 -0.0556285 1.18211 36 37 31
-0.531289 -0.0548661 1.1659 36 37 32
-0.50054 -0.0522918 1.1112 36 38 33
-0.524091 -0.0553963 1.17717 36 37 32
-0.530096 -0.056698 1.20483 35 36 31
-0.51176 -0.0553963 1.17717 36 37 33
-0.540208 -0.0591888 1.25776 37 38 34
-0.53362 -0.0591888 1.25776 37 38 34
-0.53283 -0.05984 1.2716 37 38 34
-0.52617 -0.05984 1.2716 36 37 33
-0.549106 -0.063249 1.34404 36 37 32
-0.573037 -0.0668627 1.42083 37 38 34
-0.498121 -0.0588862 1.25133 37 38 34
-0.508787 -0.060949 1.29517 37 38 33
-0.502003 -0.060949 1.29517 37 37 32
-0.538998 -0.0663372 1.40967 36 37 32
-0.518291 -0.0646745 1.37433 36 37 31
-0.524231 -0.0663372 1.40967 37 37 33
-0.549969 -0.0705882 1.5 37 38 34
-0.509464 -0.0663372 1.40967 36 37 33
-0.551663 -0.0728882 1.54887 36 37 32
-0.526398 -0.0705882 1.5 36 37 32
-0.501646 -0.0682883 1.45113 36 38 33
-0.559842 -0.0773828 1.64438 37 39 34
-0.522176 -0.0733043 1.55772 38 39 34
-0.574906 -0.0819877 1.74224 38 39 33
-0.505858 -0.0733043 1.55772 38 38 32
-0.479258 -0.0705882 1.5 37 38 32
-0.544862 -0.0815882 1.73375 37 38 32
-0.478649 -0.0728882 1.54887 37 37 32
-0.538198 -0.0833694 1.7716 36 36 31
-0.500727 -0.0789257 1.67717 36 37 32
-0.500056 -0.0802274 1.70483 36 38 33
-0.462406 -0.0755359 1.60514 36 38 33
-0.474373 -0.0789257 1.67717 37 38 33
-0.441482 -0.0748393 1.59033 36 37 31
-0.474525 -0.0819877 1.74224 36 36 30
-0.442352 -0.0779274 1.65596 36 37 31
-0.442602 -0.0795308 1.69003 37 37 32
-0.441438 -0.0809406 1.71999 37 38 33
-0.441926 -0.0827182 1.75776 37 38 33
-0.397962 -0.076074 1.61657 37 38 33
-0.400318 -0.0781879 1.66149 37 38 33
-0.395311 -0.0789257 1.67717 37 38 33
-0.392901 -0.0802274 1.70483 36 37 33
-0.38982 -0.0814495 1.7308 37 38 33
-0.366478 -0.0783955 1.6659 36 38 33
-0.369367 -0.0809406 1.71999 36 38 33
-0.357183 -0.0802274 1.70483 37 38 33
-0.356722 -0.0821785 1.74629 36 38 33
-0.333818 -0.0789257 1.67717 36 38 33
-0.339405 -0.0824156 1.75133 36 38 33
-0.316248 -0.0789257 1.67717 36 38 34
-0.305398 -0.0783955 1.6659 36 38 34
-0.298679 -0.0789257 1.67717 37 38 34
-0.282499 -0.0769123 1.63439 36 38 34
-0.279221 -0.0783955 1.6659 36 38 34
-0.274663 -0.0796034 1.69157 37 38 34
-0.270015 -0.0808647 1.71838 37 38 34
-0.261015 -0.0808647 1.71838 37 38 34
-0.235928 -0.0757032 1.60869 37 38 34
-0.233454 -0.0776839 1.65078 36 38 34
-0.232169 -0.0802274 1.70483 37 38 34
-0.219176 -0.0787672 1.6738 37 38 34
-0.209416 -0.0783955 1.6659 37 38 33
-0.198869 -0.0776839 1.65078 36 37 33
-0.193263 -0.0789257 1.67717 36 37 32
-0.181576 -0.0776839 1.65078 36 38 33
-0.175694 -0.0789257 1.67717 37 38 34
-0.164283 -0.0776839 1.65078 36 38 34
-0.162009 -0.0808647 1.71838 37 38 34
-0.141607 -0.0748393 1.59033 36 37 33
-0.137807 -0.0773828 1.64438 36 36 33
-0.128409 -0.0769123 1.63439 38 38 34
-0.122986 -0.0789257 1.67717 38 38 34
-0.111968 -0.0773828 1.64438 38 38 34
-0.106224 -0.0795308 1.69003 38 38 34
-0.0957282 -0.0781879 1.66149 38 38 34
-0.0885203 -0.0795308 1.69003 37 38 34
-0.0810045 -0.0808647 1.71838 37 37 34
-0.0660394 -0.0741661 1.57603 37 37 34
-0.062507 -0.0802274 1.70483 37 38 34
-0.0510894 -0.0765019 1.62567 37 38 34
-0.0429861 -0.0772415 1.64138 37 38 34
-0.0348103 -0.0781879 1.66149 37 38 35
-0.0263966 -0.0790532 1.67988 37 37 34
-0.0174051 -0.0781879 1.66149 36 37 34
-0.00872567 -0.0783955 1.6659 35 36 33
0 -0.0773828 1.64438 35 37 33
0.00870257 -0.0781879 1.66149 36 38 34
0.0174051 -0.0781879 1.66149 37 38 35
0.0249895 -0.0748393 1.59033 36 37 33
0.0354404 -0.0796034 1.69157 35 36 32
0.0429861 -0.0772415 1.64138 35 36 33
0.0518788 -0.0776839 1.65078 35 36 33
0.0635672 -0.0815882 1.73375 35 36 33
0.0698053 -0.0783955 1.6659 35 37 32
0.0766342 -0.0765019 1.62567 37 38 33
0.0879887 -0.0790532 1.67988 37 39 34
0.0957282 -0.0781879 1.66149 36 38 32
0.103758 -0.0776839 1.65078 35 37 31
0.112404 -0.0776839 1.65078 35 37 31
0.127134 -0.0815882 1.73375 36 37 31
0.130104 -0.0779274 1.65596 36 37 31
0.141633 -0.0795308 1.69003 36 37 31
0.151803 -0.0802274 1.70483 36 37 31
0.157807 -0.0787672 1.6738 36 37 31
0.166574 -0.0787672 1.6738 36 37 33
0.169345 -0.076074 1.61657 37 38 34
0.180872 -0.0773828 1.64438 38 38 35
0.190222 -0.0776839 1.65078 38 39 35
0.200159 -0.0781879 1.66149 37 38 34
0.210409 -0.0787672 1.6738 36 37 33
0.212873 -0.0765019 1.62567 37 38 34
0.224808 -0.0776839 1.65078 38 38 35
0.23255 -0.0773828 1.64438 38 39 36
0.252014 -0.0808647 1.71838 38 39 36
0.261259 -0.0809406 1.71999 37 37 34
0.261077 -0.0781879 1.66149 36 36 33
0.267001 -0.0773828 1.64438 36 37 34
0.28111 -0.0789257 1.67717 36 37 34
0.290363 -0.0790532 1.67988 36 37 34
0.295887 -0.0781879 1.66149 36 37 34
0.321059 -0.0824156 1.75133 36 37 34
0.315613 -0.0787672 1.6738 36 37 34
0.330394 -0.0802274 1.70483 36 37 34
0.325302 -0.0769123 1.63439 36 37 34
0.335905 -0.0773828 1.64438 36 37 34
0.360358 -0.0809406 1.71999 36 37 34
0.357752 -0.0783955 1.6659 36 37 34
0.381403 -0.0815882 1.73375 36 37 35
0.377741 -0.0789257 1.67717 35 37 34
0.37897 -0.0773828 1.64438 35 37 34
0.385226 -0.0769123 1.63439 35 37 34
0.404095 -0.0789257 1.67717 36 38 34
0.426808 -0.0815882 1.73375 35 37 33
0.428619 -0.0802274 1.70483 35 37 33
0.441438 -0.0809406 1.71999 36 37 33
0.446478 -0.0802274 1.70483 35 37 33
0.463133 -0.0815882 1.73375 35 36 33
0.44515 -0.0769123 1.63439 35 36 33
0.456486 -0.0773828 1.64438 36 37 34
0.486027 -0.0808647 1.71838 37 38 35
0.486862 -0.0795308 1.69003 35 36 34
0.496166 -0.0796034 1.69157 35 36 33
0.503985 -0.0794392 1.68808 36 37 35
0.5267 -0.0815882 1.73375 37 38 36
0.543201 -0.0827182 1.75776 37 38 36
0.527081 -0.0789257 1.67717 37 38 36
0.553001 -0.0814495 1.7308 36 38 35
0.558031 -0.0808647 1.71838 36 38 35
0.580028 -0.0827182 1.75776 36 38 35
0.56222 -0.0789257 1.67717 35 37 35
0.590267 -0.0815882 1.73375 35 37 35
0.605426 -0.0824156 1.75133 35 38 35
0.616856 -0.0827182 1.75776 35 37 35
0.61751 -0.0815882 1.73375 34 36 34
0.631124 -0.0821785 1.74629 35 36 35
0.64672 -0.0830063 1.76388 35 37 35
0.644753 -0.0815882 1.73375 34 36 35
0.665198 -0.0830063 1.76388 34 37 35
0.674437 -0.0830063 1.76388 35 37 36
0.65505 -0.0795308 1.69003 35 38 36
0.692915 -0.0830063 1.76388 35 37 35
0.710161 -0.0839529 1.784 36 37 35
0.687577 -0.0802274 1.70483 35 36 34
0.70832 -0.0815882 1.73375 35 36 33
0.738194 -0.0839529 1.784 35 37 34
0.728033 -0.0817624 1.73745 35 37 34
0.737134 -0.0817624 1.73745 35 36 34
0.771023 -0.0844785 1.79517 34 35 32
0.775571 -0.0839529 1.784 34 35 32
0.784915 -0.0839529 1.784 34 35 32
0.773535 -0.0817624 1.73745 34 35 33
0.818871 -0.085548 1.81789 34 36 34
0.800991 -0.0827182 1.75776 34 36 34
0.854042 -0.0871945 1.85288 34 35 33
0.809937 -0.0817624 1.73745 35 36 34
0.828612 -0.0827182 1.75776 36 37 35
0.874202 -0.0863104 1.8341 34 36 34
0.842643 -0.0822903 1.74867 31 33 31
0.860367 -0.0831176 1.76625 33 34 33
0.849171 -0.0811633 1.72472 34 36 34
0.912629 -0.0863104 1.8341 34 35 34
0.888121 -0.0831176 1.76625 32 35 33
0.926118 -0.0857802 1.82283 34 36 34
0.946554 -0.0867784 1.84404 34 36 35
0.967399 -0.0877936 1.86561 32 35 34
0.958778 -0.0861411 1.8305 30 34 33
0.97553 -0.0867784 1.84404 31 35 35
0.959077 -0.0844785 1.79517 32 35 35
0.994848 -0.0867784 1.84404 31 35 35
1.02101 -0.088204 1.87433 29 34 34
0.997892 -0.085386 1.81445 30 35 35
1.04064 -0.088204 1.87433 32 36 36
1.02589 -0.0861411 1.8305 30 35 35
1.08658 -0.0903921 1.92083 29 34 34
1.00354 -0.0827182 1.75776 30 36 35
1.15232 -0.0941176 2 33 37 37
1.1259 -0.0911317 1.93655 36 40 40
1.06933 -0.0857802 1.82283 38 42 41
1.13689 -0.0903921 1.92083 36 40 40
1.08843 -0.0857802 1.82283 34 38 38
1.15701 -0.0903921 1.92083 34 38 38
1.12041 -0.0867784 1.84404 35 39 39
1.17713 -0.0903921 1.92083 35 40 40
1.18029 -0.0898666 1.90967 35 40 40
1.09561 -0.0827182 1.75776 34 39 39
-0.58657 -0.0390372 0.933233 36 39 35
-0.583749 -0.0391759 0.936549 36 38 34
-0.580699 -0.0393015 0.939552 37 38 35
-0.592308 -0.0404298 0.966525 37 38 35
-0.58826 -0.0404997 0.968195 35 37 34
-0.545252 -0.0378651 0.905214 36 38 35
-0.578118 -0.0404997 0.968195 37 38 35
-0.591871 -0.0418301 1 37 39 35
-0.528148 -0.0376598 0.900304 36 38 34
-0.599886 -0.0431604 1.0318 36 38 33
-0.630769 -0.045795 1.09479 35 37 33
-0.552762 -0.0404997 0.968195 35 37 33
-0.565682 -0.0418301 1 35 37 33
-0.560444 -0.0418301 1 35 37 33
-0.555206 -0.0418301 1 34 37 32
-0.566628 -0.0430972 1.03029 34 37 31
-0.562966 -0.0432303 1.03348 34 37 31
-0.558554 -0.043308 1.03533 34 36 30
-0.550439 -0.0430972 1.03029 35 37 31
-0.562584 -0.0444842 1.06345 36 38 33
-0.558751 -0.0446229 1.06677 37 38 34
-0.570238 -0.0460003 1.0997 38 39 34
-0.567271 -0.0462279 1.10514 37 39 34
-0.540304 -0.0444842 1.06345 36 38 33
-0.520594 -0.043308 1.03533 36 38 32
-0.547198 -0.0460003 1.0997 36 38 32
-0.527037 -0.0447769 1.07045 36 38 33
-0.541282 -0.0464816 1.1112 37 39 33
-0.52254 -0.0453599 1.08438 36 38 32
-0.546761 -0.047984 1.14712 36 37 31
-0.527025 -0.0467658 1.118 36 37 31
-0.515175 -0.0462279 1.10514 36 38 31
-0.57258 -0.0519629 1.24224 36 38 32
-0.531289 -0.0487699 1.1659 37 38 33
-0.507057 -0.0470867 1.12567 36 38 33
-0.542436 -0.0509647 1.21838 36 37 32
-0.530096 -0.0503982 1.20483 35 37 31
-0.536357 -0.0516078 1.23375 36 37 32
-0.491512 -0.0478697 1.14438 37 39 34
-0.530892 -0.0523433 1.25133 39 40 36
-0.512061 -0.0511178 1.22203 37 39 34
-0.51402 -0.0519629 1.24224 36 38 33
-0.549106 -0.0562214 1.34404 36 38 33
-0.546734 -0.0567055 1.35562 37 38 34
-0.51557 -0.0541769 1.29517 37 38 33
-0.499528 -0.0531911 1.2716 36 37 32
-0.525432 -0.0567055 1.35562 37 37 32
-0.543268 -0.0594335 1.42083 37 37 32
-0.531615 -0.0589664 1.40967 36 37 32
-0.542065 -0.0609724 1.45762 37 38 33
-0.565507 -0.0645178 1.54238 36 38 33
-0.5135 -0.0594335 1.42083 36 37 32
-0.516848 -0.0607007 1.45113 36 38 33
-0.54355 -0.0647895 1.54887 36 38 33
-0.545909 -0.0660567 1.57917 36 38 33
-0.510685 -0.0627451 1.5 36 38 33
-0.502828 -0.0627451 1.5 37 39 33
-0.494972 -0.0627451 1.5 39 39 34
-0.505858 -0.0651594 1.55772 38 38 33
-0.497699 -0.0651594 1.55772 38 38 33
-0.52467 -0.0698353 1.6695 37 37 32
-0.496035 -0.067143 1.60514 36 36 31
-0.487628 -0.067143 1.60514 36 36 30
-0.479221 -0.067143 1.60514 36 37 31
-0.515581 -0.0735273 1.75776 36 37 32
-0.473712 -0.0687847 1.64438 36 37 32
-0.449812 -0.0665238 1.59033 36 37 32
-0.459699 -0.0692688 1.65596 36 37 31
-0.469754 -0.0721452 1.72472 36 36 31
-0.440441 -0.0689696 1.64881 36 37 31
-0.446478 -0.0713133 1.70483 37 37 32
-0.43325 -0.0706126 1.68808 38 38 34
-0.424898 -0.0706941 1.69003 37 38 33
-0.42342 -0.0719472 1.71999 36 37 32
-0.414023 -0.0718798 1.71838 36 37 33
-0.40183 -0.0713133 1.70483 37 38 34
-0.372888 -0.0676809 1.618 37 38 34
-0.394444 -0.0732583 1.75133 37 38 34
-0.363151 -0.0690523 1.65078 37 38 33
-0.363264 -0.0707586 1.69157 37 38 33
-0.365869 -0.0730475 1.74629 37 38 33
-0.341914 -0.0700153 1.6738 37 38 34
-0.34234 -0.0719472 1.71999 37 39 34
-0.321995 -0.0695004 1.66149 37 38 33
-0.314124 -0.0696849 1.6659 37 38 34
-0.315018 -0.0718798 1.71838 37 38 34
-0.300969 -0.0706941 1.69003 36 38 34
-0.297017 -0.0718798 1.71838 36 37 33
-0.273939 -0.0683665 1.63439 37 37 33
-0.272325 -0.0701562 1.67717 37 38 34
-0.248961 -0.0662749 1.58438 37 38 34
-0.258957 -0.0713133 1.70483 36 37 33
-0.250028 -0.0713133 1.70483 36 38 33
-0.244771 -0.0723996 1.7308 36 38 33
-0.230153 -0.0706941 1.69003 36 38 33
-0.214015 -0.0683665 1.63439 36 37 33
-0.21431 -0.0713133 1.70483 36 37 32
-0.202374 -0.0702695 1.67988 36 37 33
-0.193263 -0.0701562 1.67717 37 38 33
-0.179772 -0.0683665 1.63439 37 39 34
-0.171212 -0.0683665 1.63439 37 38 34
-0.160878 -0.0676213 1.61657 36 38 33
-0.158124 -0.0701562 1.67717 37 38 34
-0.150485 -0.0706941 1.69003 36 37 33
-0.142873 -0.0713133 1.70483 37 37 33
-0.130538 -0.0695004 1.66149 38 38 34
-0.123928 -0.0706941 1.69003 38 38 34
-0.116084 -0.0713133 1.70483 37 38 34
-0.104083 -0.0692688 1.65596 38 38 34
-0.0941664 -0.0683665 1.63439 38 38 34
-0.0856058 -0.0683665 1.63439 37 38 34
-0.0766342 -0.0680017 1.62567 37 37 34
-0.0681193 -0.0680017 1.62567 37 37 34
-0.0599241 -0.0683665 1.63439 37 37 34
-0.0522154 -0.0695004 1.66149 37 38 34
-0.0435128 -0.0695004 1.66149 37 37 34
-0.0344518 -0.0687847 1.64438 36 37 34
-0.026354 -0.0701562 1.67717 36 37 33
-0.0175341 -0.0700153 1.6738 36 37 34
-0.00876704 -0.0700153 1.6738 35 36 33
0 -0.0680017 1.62567 35 36 33
0.00822568 -0.0656919 1.57045 36 38 34
0.0177202 -0.0707586 1.69157 37 38 34
0.025278 -0.0672917 1.60869 36 37 33
0.0357183 -0.0713133 1.70483 35 36 32
0.0443005 -0.0707586 1.69157 35 36 32
0.0527081 -0.0701562 1.67717 35 36 33
0.0614928 -0.0701562 1.67717 36 37 34
0.0674081 -0.0672917 1.60869 36 38 34
0.0803661 -0.0713133 1.70483 37 38 33
0.0842601 -0.0672917 1.60869 37 38 33
0.0982252 -0.0713133 1.70483 36 37 32
0.105416 -0.0701562 1.67717 35 37 31
0.116084 -0.0713133 1.70483 35 37 31
0.125014 -0.0713133 1.70483 36 37 32
0.127009 -0.0676213 1.61657 37 38 32
0.141762 -0.0707586 1.69157 36 37 31
0.150622 -0.0707586 1.69157 36 37 31
0.161886 -0.0718253 1.71707 36 37 32
0.160878 -0.0676213 1.61657 37 37 33
0.172259 -0.0687847 1.64438 37 37 33
0.182754 -0.0695004 1.66149 37 38 34
0.192875 -0.0700153 1.6738 38 38 35
0.200159 -0.0695004 1.66149 38 38 35
0.210409 -0.0700153 1.6738 36 37 34
0.216839 -0.0692688 1.65596 37 37 34
0.232169 -0.0713133 1.70483 37 38 34
0.23671 -0.0700153 1.6738 38 38 35
0.242101 -0.0690523 1.65078 38 38 35
0.250747 -0.0690523 1.65078 37 38 35
0.265803 -0.0707586 1.69157 36 37 34
0.26804 -0.0690523 1.65078 36 37 34
0.285746 -0.0713133 1.70483 36 37 34
0.292117 -0.0706941 1.69003 36 36 34
0.289507 -0.0680017 1.62567 36 37 34
0.312535 -0.0713133 1.70483 37 38 35
0.312249 -0.0692688 1.65596 36 37 34
0.330394 -0.0713133 1.70483 35 36 34
0.34234 -0.0719472 1.71999 36 37 34
0.345229 -0.0706941 1.69003 36 37 35
0.340596 -0.0680017 1.62567 36 37 35
0.376098 -0.0732583 1.75133 36 37 35
0.378376 -0.0719472 1.71999 36 38 35
0.37421 -0.0695004 1.66149 35 37 34
0.389489 -0.0706941 1.69003 35 37 34
0.405402 -0.0719472 1.71999 35 37 34
0.407565 -0.0707586 1.69157 36 38 35
0.41969 -0.0713133 1.70483 36 38 34
0.424898 -0.0706941 1.69003 36 38 34
0.422035 -0.0687847 1.64438 36 38 34
0.430648 -0.0687847 1.64438 36 37 33
0.451454 -0.0706941 1.69003 35 36 32
0.473222 -0.0726777 1.73745 35 36 33
0.456486 -0.0687847 1.64438 36 37 34
0.474373 -0.0701562 1.67717 35 37 34
0.483157 -0.0701562 1.67717 35 36 33
0.491942 -0.0701562 1.67717 35 37 34
0.499721 -0.0700153 1.6738 37 38 36
0.532041 -0.0732583 1.75133 37 38 36
0.526844 -0.0713133 1.70483 37 38 36
0.531606 -0.0707586 1.69157 37 38 35
0.516959 -0.0676809 1.618 37 38 35
0.572809 -0.0737834 1.76388 36 38 36
0.562563 -0.0713133 1.70483 36 38 36
0.576032 -0.0718798 1.71838 35 38 35
0.575907 -0.0707586 1.69157 34 37 34
0.59459 -0.0719472 1.71999 35 37 35
0.608429 -0.0725229 1.73375 35 37 35
0.623772 -0.0732583 1.75133 35 37 35
0.637481 -0.0737834 1.76388 35 37 35
0.635672 -0.0725229 1.73375 35 36 35
0.639635 -0.0719472 1.71999 33 36 34
0.637346 -0.0706941 1.69003 34 37 35
0.669638 -0.0732583 1.75133 35 37 36
0.666037 -0.0718798 1.71838 35 38 36
0.681077 -0.0725229 1.73375 35 37 35
0.697157 -0.0732583 1.75133 36 37 35
0.728085 -0.0755146 1.80527 35 36 34
0.70832 -0.0725229 1.73375 35 35 33
0.711706 -0.0719472 1.71999 35 36 34
0.714365 -0.0713133 1.70483 35 36 34
0.76162 -0.075092 1.79517 35 36 34
0.762481 -0.07426 1.77528 34 35 32
0.77018 -0.0741061 1.7716 34 35 33
0.773371 -0.0735273 1.75776 34 35 33
0.773535 -0.0726777 1.73745 35 36 34
0.826169 -0.0767203 1.8341 34 35 33
0.812948 -0.0746248 1.784 34 35 34
0.832975 -0.0755944 1.80718 33 35 33
0.836842 -0.075092 1.79517 34 35 34
0.828612 -0.0735273 1.75776 34 36 34
0.830419 -0.0728779 1.74224 34 36 34
0.812227 -0.0705065 1.68555 32 34 32
0.867856 -0.0745255 1.78162 32 34 32
0.903022 -0.0767203 1.8341 33 35 33
0.907022 -0.076249 1.82283 34 36 34
0.888121 -0.0738823 1.76625 33 35 34
0.876272 -0.0721452 1.72472 33 35 34
0.946554 -0.0771364 1.84404 34 35 34
0.94919 -0.0765699 1.8305 34 36 35
0.905301 -0.0722991 1.7284 33 36 35
0.959877 -0.0758987 1.81445 34 36 36
0.959077 -0.075092 1.79517 33 36 36
1.01119 -0.0784035 1.87433 32 36 35
0.928675 -0.0713133 1.70483 30 35 34
0.953508 -0.0725229 1.73375 29 34 34
0.987138 -0.0743724 1.77797 29 34 34
1.05672 -0.0788707 1.8855 28 34 34
1.13136 -0.0836601 2 29 34 34
1.03591 -0.0758987 1.81445 30 35 35
0.982252 -0.0713133 1.70483 34 38 38
1.08186 -0.077837 1.86079 36 40 40
1.09955 -0.0784035 1.87433 36 40 40
1.10936 -0.0784035 1.87433 34 38 38
1.10109 -0.0771364 1.84404 33 37 37
1.0269 -0.0713133 1.70483 34 38 38
1.06799 -0.0735273 1.75776 36 40 40
1.22564 -0.0836601 2 36 41 41
1.12662 -0.076249 1.82283 35 40 40
1.14939 -0.0771364 1.84404 34 39 39
-0.607495 -0.0353761 0.966525 37 40 37
-0.557766 -0.0327532 0.894863 37 40 36
-0.536417 -0.0317664 0.867904 37 38 36
-0.575778 -0.0343888 0.939552 36 37 34
-0.570857 -0.0343888 0.939552 35 36 33
-0.56213 -0.0341576 0.933233 36 37 35
-0.576012 -0.0353081 0.964669 37 38 35
-0.556093 -0.0343888 0.939552 37 39 34
-0.565907 -0.0353081 0.964669 37 39 34
-0.622353 -0.0391797 1.07045 36 38 33
-0.576158 -0.0366013 1 35 37 32
-0.57092 -0.0366013 1 35 37 33
-0.546745 -0.0353761 0.966525 35 37 33
-0.578269 -0.0377654 1.0318 35 38 33
-0.574823 -0.0378945 1.03533 35 38 33
-0.59965 -0.0399077 1.09033 35 37 32
-0.544731 -0.0366013 1 34 37 31
-0.539493 -0.0366013 1 34 36 31
-0.568154 -0.0389237 1.06345 35 37 31
-0.581758 -0.0402503 1.0997 36 37 32
-0.540438 -0.0377654 1.0318 36 38 33
-0.553163 -0.0390451 1.06677 37 39 34
-0.545874 -0.0389237 1.06345 37 39 34
-0.543858 -0.0391797 1.07045 37 39 33
-0.552958 -0.0402503 1.0997 36 39 33
-0.547198 -0.0402503 1.0997 36 38 32
-0.510769 -0.0379704 1.03741 36 38 33
-0.558778 -0.041986 1.14712 36 37 31
-0.552769 -0.041986 1.14712 35 36 30
-0.524158 -0.0402503 1.0997 36 38 31
-0.534752 -0.04152 1.13439 36 38 32
-0.518001 -0.0406714 1.1112 36 37 31
-0.537396 -0.0426736 1.1659 35 37 31
-0.5552 -0.0445941 1.21838 36 37 32
-0.510985 -0.04152 1.13439 36 38 33
-0.549281 -0.0451569 1.23375 36 37 32
-0.499101 -0.04152 1.13439 35 37 32
-0.51176 -0.043086 1.17717 36 37 32
-0.505594 -0.043086 1.17717 36 38 33
-0.530892 -0.0458004 1.25133 37 39 34
-0.53283 -0.0465422 1.2716 36 38 33
-0.51402 -0.0454675 1.24224 36 38 33
-0.521013 -0.0466769 1.27528 37 38 33
-0.554283 -0.0503024 1.37433 37 37 32
-0.565595 -0.0520043 1.42083 37 37 32
-0.558152 -0.0520043 1.42083 37 37 32
-0.532688 -0.0503024 1.37433 37 37 32
-0.508728 -0.048698 1.3305 37 38 32
-0.526033 -0.0510538 1.39486 37 38 33
-0.557825 -0.054902 1.5 36 38 32
-0.492787 -0.0491937 1.34404 36 37 32
-0.5135 -0.0520043 1.42083 36 38 33
-0.551663 -0.0566908 1.54887 37 38 34
-0.489503 -0.0510538 1.39486 36 38 33
-0.561984 -0.0595015 1.62567 36 37 32
-0.54648 -0.0587501 1.60514 35 36 31
-0.538072 -0.0587501 1.60514 36 37 31
-0.514017 -0.0570144 1.55772 38 39 32
-0.500877 -0.0564531 1.54238 38 38 33
-0.494874 -0.0566908 1.54887 37 38 31
-0.499791 -0.0582083 1.59033 37 37 31
-0.526844 -0.0623991 1.70483 36 36 30
-0.533994 -0.0643364 1.75776 35 36 30
-0.490938 -0.0601866 1.64438 36 37 31
-0.482325 -0.0601866 1.64438 37 38 32
-0.483157 -0.0613867 1.67717 36 37 32
-0.465099 -0.0601866 1.64438 36 37 32
-0.485436 -0.0640035 1.74867 36 37 31
-0.454714 -0.0611059 1.6695 36 36 31
-0.459456 -0.0629538 1.71999 36 37 31
-0.442092 -0.0617861 1.68808 36 37 32
-0.423677 -0.0604208 1.65078 37 38 34
-0.410908 -0.0598207 1.63439 37 38 34
-0.409021 -0.0608128 1.66149 36 38 33
-0.400318 -0.0608128 1.66149 36 38 33
-0.391615 -0.0608128 1.66149 37 38 33
-0.389489 -0.0618573 1.69003 37 38 33
-0.380985 -0.0619137 1.69157 37 38 34
-0.375042 -0.0623991 1.70483 37 38 33
-0.360172 -0.0613867 1.67717 37 38 33
-0.363241 -0.0634575 1.73375 36 37 32
-0.345229 -0.0618573 1.69003 37 38 34
-0.336377 -0.0618573 1.69003 38 39 34
-0.330394 -0.0623991 1.70483 37 38 34
-0.316248 -0.0613867 1.67717 37 39 34
-0.309821 -0.0618573 1.69003 37 38 34
-0.287887 -0.0591686 1.61657 36 37 33
-0.287185 -0.0608128 1.66149 36 37 32
-0.285746 -0.0623991 1.70483 35 36 31
-0.270496 -0.0609743 1.6659 36 37 33
-0.254018 -0.0591686 1.61657 36 37 33
-0.256709 -0.0618573 1.69003 37 38 33
-0.237084 -0.0591686 1.61657 37 38 34
-0.23671 -0.0612634 1.6738 37 38 34
-0.226267 -0.0608128 1.66149 36 38 33
-0.225013 -0.0628948 1.71838 36 37 33
-0.216012 -0.0628948 1.71838 36 37 32
-0.208509 -0.0633496 1.7308 36 37 32
-0.193575 -0.0614858 1.67988 37 38 33
-0.178813 -0.0595015 1.62567 37 38 33
-0.174513 -0.0609743 1.6659 36 38 34
-0.163646 -0.0601866 1.64438 37 38 34
-0.15409 -0.0598207 1.63439 37 39 34
-0.143944 -0.0591686 1.61657 36 37 33
-0.134816 -0.0588803 1.60869 36 36 31
-0.133943 -0.0623991 1.70483 37 37 32
-0.119209 -0.0595015 1.62567 37 37 33
-0.114201 -0.0613867 1.67717 38 38 34
-0.102179 -0.0595015 1.62567 38 38 34
-0.0941664 -0.0598207 1.63439 38 38 34
-0.0870257 -0.0608128 1.66149 37 37 33
-0.0789033 -0.0612634 1.6738 37 37 34
-0.0708163 -0.0618573 1.69003 37 37 33
-0.0614928 -0.0613867 1.67717 37 38 34
-0.0497921 -0.0579906 1.58438 38 38 35
-0.04213 -0.0588803 1.60869 37 38 34
-0.0334628 -0.0584589 1.59718 36 37 34
-0.025278 -0.0588803 1.60869 37 38 35
-0.0174051 -0.0608128 1.66149 37 38 35
-0.00885203 -0.0618573 1.69003 35 37 33
0 -0.0613867 1.67717 35 36 32
0.00861295 -0.0601866 1.64438 36 38 34
0.0174051 -0.0608128 1.66149 37 38 35
0.026177 -0.0609743 1.6659 36 37 34
0.0354081 -0.0618573 1.69003 36 37 33
0.0430648 -0.0601866 1.64438 36 37 34
0.0516777 -0.0601866 1.64438 36 37 34
0.0605252 -0.0604208 1.65078 37 38 35
0.0702774 -0.0613867 1.67717 37 38 34
0.0770452 -0.0598207 1.63439 37 38 33
0.0872567 -0.0609743 1.6659 36 37 32
0.0926861 -0.0588803 1.60869 36 37 31
0.103758 -0.0604208 1.65078 36 37 31
0.113971 -0.0612634 1.6738 36 37 31
0.119848 -0.0598207 1.63439 36 37 32
0.130538 -0.0608128 1.66149 37 38 33
0.140555 -0.0613867 1.67717 37 38 32
0.14553 -0.0598207 1.63439 37 38 32
0.159337 -0.0618573 1.69003 37 38 33
0.160878 -0.0591686 1.61657 37 37 33
0.172929 -0.0604208 1.65078 36 37 33
0.184478 -0.0613867 1.67717 37 37 34
0.192875 -0.0612634 1.6738 37 38 34
0.193798 -0.0588803 1.60869 37 37 34
0.216012 -0.0628948 1.71838 36 36 33
0.225013 -0.0628948 1.71838 37 37 34
0.222575 -0.0598207 1.63439 37 37 34
0.239005 -0.0618573 1.69003 38 38 35
0.243672 -0.0608128 1.66149 38 38 35
0.256709 -0.0618573 1.69003 37 37 34
0.255447 -0.0595015 1.62567 36 36 33
0.26804 -0.0604208 1.65078 36 36 34
0.278482 -0.0608128 1.66149 36 37 34
0.287185 -0.0608128 1.66149 36 37 34
0.29398 -0.0604208 1.65078 36 37 34
0.315018 -0.0628948 1.71838 36 37 34
0.313292 -0.0608128 1.66149 36 37 35
0.327148 -0.0617861 1.68808 36 36 34
0.345079 -0.0634575 1.73375 36 37 35
0.335905 -0.0601866 1.64438 36 37 35
0.350681 -0.0612634 1.6738 36 38 36
0.366112 -0.0623991 1.70483 36 38 35
0.365508 -0.0608128 1.66149 37 38 36
0.383971 -0.0623991 1.70483 36 38 35
0.389041 -0.0617861 1.68808 36 37 35
0.405402 -0.0629538 1.71999 37 38 36
0.407194 -0.0618573 1.69003 38 39 36
0.400201 -0.0595015 1.62567 37 38 35
0.424898 -0.0618573 1.69003 36 38 34
0.429585 -0.0612634 1.6738 35 37 32
0.432323 -0.0604208 1.65078 34 36 31
0.455408 -0.0623991 1.70483 34 36 31
0.449616 -0.0604208 1.65078 34 35 31
0.456486 -0.0601866 1.64438 35 36 33
0.486027 -0.0628948 1.71838 35 37 34
0.499457 -0.0634575 1.73375 36 37 34
0.515581 -0.0643364 1.75776 37 38 35
0.521363 -0.0639166 1.74629 37 38 35
0.517915 -0.0623991 1.70483 36 37 35
0.526844 -0.0623991 1.70483 36 37 35
0.544862 -0.0634575 1.73375 36 36 34
0.535865 -0.0613867 1.67717 36 37 35
0.553633 -0.0623991 1.70483 36 37 35
0.548262 -0.0608128 1.66149 36 38 35
0.556964 -0.0608128 1.66149 35 38 35
0.594537 -0.0639166 1.74629 35 37 35
0.579789 -0.0613867 1.67717 35 38 36
0.598281 -0.0623991 1.70483 35 37 35
0.597358 -0.0613867 1.67717 35 37 36
0.61614 -0.0623991 1.70483 35 37 35
0.62507 -0.0623991 1.70483 35 37 35
0.660197 -0.0649775 1.77528 35 37 35
0.673413 -0.0653577 1.78567 35 38 36
0.678794 -0.0649775 1.77528 35 37 35
0.688093 -0.0649775 1.77528 35 37 35
0.697391 -0.0649775 1.77528 35 37 35
0.695151 -0.0639166 1.74629 36 37 35
0.728085 -0.0660753 1.80527 35 36 34
0.70832 -0.0634575 1.73375 34 35 32
0.722591 -0.0639166 1.74629 34 35 33
0.747538 -0.0652967 1.784 34 36 34
0.729724 -0.0629538 1.71999 34 35 33
0.752196 -0.064101 1.75133 33 35 32
0.775571 -0.0652967 1.784 34 35 34
0.784915 -0.0652967 1.784 35 36 34
0.788738 -0.0648428 1.7716 34 35 33
0.814044 -0.0661451 1.80718 33 35 32
0.784711 -0.0630287 1.72203 33 35 33
0.816576 -0.0648428 1.7716 33 35 34
0.812168 -0.0637682 1.74224 34 36 34
0.803661 -0.0623991 1.70483 34 36 35
0.849192 -0.0652098 1.78162 34 36 35
0.883809 -0.0671303 1.8341 33 35 34
0.89826 -0.0674943 1.84404 33 35 34
0.91854 -0.0682839 1.86561 33 35 33
0.838712 -0.0616932 1.68555 34 36 34
0.927237 -0.0674943 1.84404 34 36 34
0.936895 -0.0674943 1.84404 33 36 34
0.875097 -0.0623991 1.70483 33 35 34
0.962214 -0.0679179 1.85562 33 36 34
0.915917 -0.0640035 1.74867 32 35 35
0.949675 -0.0657055 1.79517 33 36 36
0.977953 -0.0669986 1.8305 33 36 36
0.9592 -0.0650759 1.77797 32 36 35
1.02709 -0.0690118 1.8855 30 35 35
0.987286 -0.0657055 1.79517 29 34 34
1.07518 -0.0708802 1.93655 28 34 34
0.97167 -0.0634575 1.73375 28 34 34
1.00216 -0.0648428 1.7716 28 34 34
1.0528 -0.0674943 1.84404 31 36 36
1.07991 -0.0686031 1.87433 34 38 39
1.08973 -0.0686031 1.87433 34 38 38
0.979385 -0.0611059 1.6695 34 38 38
1.13689 -0.070305 1.92083 31 36 36
1.15215 -0.0706242 1.92955 30 36 36
1.08131 -0.0657055 1.79517 35 39 39
1.21517 -0.0732026 2 37 41 41
1.11707 -0.0667179 1.82283 37 41 41
1.12662 -0.0667179 1.82283 35 40 40
1.2466 -0.0732026 2 33 38 38
-0.584257 -0.0291625 0.929553 37 40 36
-0.602433 -0.0303223 0.966525 37 39 36
-0.59737 -0.0303223 0.966525 37 38 35
-0.592308 -0.0303223 0.966525 35 36 33
-0.569032 -0.0293819 0.936549 35 36 33
-0.602347 -0.0313726 1 36 37 34
-0.597109 -0.0313726 1 36 38 34
-0.570959 -0.0302641 0.964669 36 38 34
-0.567976 -0.0303748 0.968195 37 39 34
-0.559648 -0.0301991 0.962595 36 38 34
-0.55687 -0.0303223 0.966525 36 38 33
-0.57092 -0.0313726 1 35 37 33
-0.585668 -0.032481 1.03533 35 37 33
-0.560444 -0.0313726 1 36 38 34
-0.573792 -0.0324228 1.03348 35 38 34
-0.56746 -0.0323703 1.0318 35 38 32
-0.544731 -0.0313726 1 34 37 32
-0.59063 -0.0343462 1.09479 34 37 31
-0.534255 -0.0313726 1 35 37 32
-0.529017 -0.0313726 1 36 38 33
-0.539646 -0.0323229 1.03029 36 38 33
-0.555071 -0.0335826 1.07045 37 38 33
-0.577809 -0.035315 1.12567 37 38 33
-0.525074 -0.0324228 1.03348 37 39 33
-0.566017 -0.035315 1.12567 36 38 33
-0.547198 -0.0345003 1.0997 36 38 32
-0.569139 -0.0362654 1.15596 36 38 32
-0.504326 -0.032481 1.03533 36 38 32
-0.535462 -0.0348612 1.1112 37 38 33
-0.512175 -0.0337115 1.07455 38 39 34
-0.527025 -0.0350744 1.118 37 38 33
-0.534744 -0.035988 1.14712 36 38 32
-0.537396 -0.0365774 1.1659 36 37 32
-0.549028 -0.0377987 1.20483 36 37 32
-0.530257 -0.0369309 1.17717 36 38 33
-0.509494 -0.0359023 1.14438 36 38 33
-0.542819 -0.0387059 1.23375 36 38 33
-0.554411 -0.0400088 1.27528 36 37 32
-0.523292 -0.0382236 1.21838 36 38 33
-0.511164 -0.0377987 1.20483 37 38 34
-0.563185 -0.042166 1.34404 37 38 33
-0.535922 -0.0406327 1.29517 37 38 33
-0.511229 -0.0392575 1.25133 36 37 32
-0.542066 -0.042166 1.34404 36 37 31
-0.547085 -0.0431164 1.37433 37 37 32
-0.539886 -0.0431164 1.37433 37 37 32
-0.525432 -0.0425291 1.35562 37 37 32
-0.538998 -0.0442248 1.40967 37 38 33
-0.518291 -0.0431164 1.37433 37 38 33
-0.542065 -0.0457293 1.45762 36 37 31
-0.57113 -0.0488695 1.55772 36 37 32
-0.504115 -0.0437604 1.39486 36 37 33
-0.534255 -0.0470588 1.5 36 38 33
-0.526398 -0.0470588 1.5 35 37 32
-0.561984 -0.0510013 1.62567 35 36 30
-0.54648 -0.0503572 1.60514 34 36 30
-0.502828 -0.0470588 1.5 36 37 31
-0.542616 -0.0515885 1.64438 37 38 32
-0.575315 -0.0555796 1.7716 37 37 32
-0.51285 -0.0503572 1.60514 36 36 30
-0.486761 -0.0485921 1.54887 36 37 31
-0.508164 -0.0515885 1.64438 36 37 31
-0.538198 -0.0555796 1.7716 36 36 31
-0.520153 -0.0546584 1.74224 36 37 31
-0.500056 -0.0534849 1.70483 36 37 32
-0.491126 -0.0534849 1.70483 36 37 32
-0.488862 -0.0542243 1.7284 36 37 32
-0.490317 -0.0554118 1.76625 36 37 32
-0.482522 -0.0555796 1.7716 36 37 32
-0.455408 -0.0534849 1.70483 36 36 31
-0.463964 -0.0555796 1.7716 36 37 32
-0.437549 -0.0534849 1.70483 37 37 34
