ply
format ascii 1.0
element vertex 1367
property float x
property float y
property float z
property uchar red
property uchar green
property uchar blue
end_header
0.235928 0.319636 1.60869 35 36 33
0.250747 0.327999 1.65078 36 37 34
0.26177 0.331003 1.6659 36 37 34
0.265378 0.324741 1.63439 36 37 34
0.285746 0.338738 1.70483 36 37 34
0.285333 0.327999 1.65078 35 36 34
0.298679 0.333242 1.67717 35 36 34
0.302626 0.327999 1.65078 35 36 34
0.316759 0.33378 1.67988 36 37 34
0.330394 0.338738 1.70483 35 36 34
0.329596 0.329027 1.65596 35 36 33
0.348253 0.338738 1.70483 35 36 33
0.351955 0.33378 1.67988 36 36 34
0.363264 0.336103 1.69157 36 36 34
0.371785 0.335797 1.69003 35 35 33
0.377741 0.333242 1.67717 35 35 33
0.396022 0.341429 1.71838 35 36 34
0.394517 0.332573 1.6738 36 36 34
0.41076 0.338738 1.70483 35 36 34
0.425491 0.343421 1.7284 35 35 33
0.435148 0.343898 1.7308 34 35 33
0.437549 0.338738 1.70483 35 36 34
0.454051 0.344484 1.73375 35 35 34
0.448019 0.333242 1.67717 34 35 33
0.472214 0.344484 1.73375 34 35 33
0.481295 0.344484 1.73375 34 35 33
0.474373 0.333242 1.67717 32 34 33
0.486301 0.33541 1.68808 32 34 33
0.504028 0.341429 1.71838 33 34 34
0.517619 0.344484 1.73375 33 34 34
0.513886 0.336103 1.69157 32 34 33
0.53487 0.343898 1.7308 32 34 33
0.540537 0.341749 1.71999 33 35 34
0.544704 0.338738 1.70483 33 35 35
0.567097 0.346976 1.74629 33 35 34
0.585809 0.352735 1.77528 33 35 34
0.596008 0.353269 1.77797 33 35 34
0.589263 0.343898 1.7308 34 36 35
0.584767 0.336103 1.69157 35 36 35
0.623003 0.352735 1.77528 33 35 34
0.626062 0.349255 1.75776 31 34 33
0.6416 0.352735 1.77528 29 32 31
0.637029 0.345219 1.73745 29 32 32
0.639635 0.341749 1.71999 31 34 34
0.653834 0.344484 1.73375 33 35 35
0.695088 0.361203 1.81789 35 37 37
0.65505 0.335797 1.69003 36 39 38
0.692915 0.350471 1.76388 37 39 39
0.710161 0.354468 1.784 35 38 37
0.67642 0.333242 1.67717 34 37 36
0.715503 0.347977 1.75133 34 36 35
0.742815 0.356687 1.79517 32 35 34
0.720715 0.341749 1.71999 31 34 33
0.751621 0.352004 1.7716 30 34 33
0.754957 0.349255 1.75776 32 35 35
0.77018 0.352004 1.7716 35 37 37
0.779459 0.352004 1.7716 34 37 37
0.775666 0.34617 1.74224 34 37 37
0.821094 0.362183 1.82283 34 37 37
0.835776 0.364422 1.8341 34 38 38
0.842347 0.363113 1.82751 34 37 37
0.847436 0.361203 1.81789 35 38 38
0.846245 0.356687 1.79517 35 38 38
0.830419 0.34617 1.74224 35 38 38
0.86505 0.356687 1.79517 35 38 38
0.860367 0.350941 1.76625 34 38 37
0.913617 0.368697 1.85562 34 37 37
0.884699 0.353269 1.77797 34 38 38
0.867239 0.34269 1.72472 35 39 38
0.888439 0.347448 1.74867 36 40 39
0.929065 0.359628 1.80997 35 39 39
0.930869 0.356687 1.79517 33 37 37
0.940272 0.356687 1.79517 33 37 37
0.968366 0.363707 1.8305 33 37 37
0.939093 0.349255 1.75776 34 38 38
0.9483 0.349255 1.75776 35 39 39
0.957507 0.349255 1.75776 34 39 38
0.997892 0.360519 1.81445 33 38 37
1.03312 0.369726 1.86079 33 38 37
1.00609 0.356687 1.79517 32 37 37
1.01549 0.356687 1.79517 33 37 37
1.06236 0.369726 1.86079 32 37 37
1.05024 0.362183 1.82283 34 38 38
0.991182 0.338738 1.70483 35 39 39
1.12027 0.379437 1.90967 35 39 39
1.09143 0.366398 1.84404 35 40 39
1.11918 0.372417 1.87433 35 40 39
1.15028 0.379437 1.90967 35 40 39
1.09072 0.356687 1.79517 36 40 39
1.22564 0.397386 2 35 39 39
1.23612 0.397386 2 35 39 39
1.2466 0.397386 2 36 40 40
-0.726561 0.235725 1.15596 36 36 28
-0.683869 0.223739 1.09718 37 37 30
-0.61806 0.203922 1 37 37 29
-0.648192 0.215691 1.05772 36 36 29
-0.732037 0.245691 1.20483 35 35 28
-0.631786 0.213888 1.04887 35 35 29
-0.690233 0.235725 1.15596 35 36 30
-0.649389 0.223739 1.09718 36 37 32
-0.71474 0.248453 1.21838 37 38 33
-0.654457 0.229548 1.12567 36 37 33
-0.632148 0.223739 1.09718 35 37 32
-0.659959 0.235725 1.15596 36 37 32
-0.732653 0.264113 1.29517 37 38 33
-0.64785 0.235725 1.15596 36 38 32
-0.63537 0.233365 1.14438 36 38 32
-0.670068 0.248453 1.21838 36 37 32
-0.641241 0.240051 1.17717 36 37 31
-0.698734 0.264113 1.29517 36 37 31
-0.69195 0.264113 1.29517 35 36 31
-0.669868 0.258216 1.26625 36 36 31
-0.650659 0.253319 1.24224 36 37 31
-0.644152 0.253319 1.24224 35 35 29
-0.627275 0.249199 1.22203 34 34 28
-0.698253 0.280256 1.37433 36 36 30
-0.614474 0.249199 1.22203 36 36 31
-0.683856 0.280256 1.37433 37 37 33
-0.637679 0.264113 1.29517 37 37 33
-0.706865 0.295916 1.45113 40 40 36
-0.65324 0.276439 1.35562 42 42 38
-0.671902 0.287461 1.40967 39 40 35
-0.72708 0.314524 1.54238 36 37 32
-0.631939 0.276439 1.35562 36 37 31
-0.642929 0.284443 1.39486 35 36 30
-0.661261 0.295916 1.45113 35 36 30
-0.65366 0.295916 1.45113 35 37 31
-0.642123 0.294113 1.44228 36 38 33
-0.659962 0.305882 1.5 37 39 34
-0.714875 0.335325 1.64438 36 38 33
-0.706262 0.335325 1.64438 36 38 33
-0.680998 0.327322 1.60514 36 38 33
-0.730039 0.35528 1.74224 36 37 33
-0.705436 0.347652 1.70483 36 37 33
-0.67181 0.335325 1.64438 36 37 33
-0.673327 0.340447 1.6695 36 37 33
-0.664583 0.340447 1.6695 35 37 32
-0.705204 0.366073 1.79517 35 37 33
-0.681303 0.358446 1.75776 36 38 33
-0.638349 0.340447 1.6695 35 37 33
-0.632497 0.342011 1.67717 35 37 32
-0.661196 0.362566 1.77797 35 37 32
-0.666523 0.370708 1.81789 34 37 31
-0.631124 0.356107 1.74629 35 37 31
-0.620533 0.35528 1.74224 35 37 31
-0.594066 0.345203 1.69282 35 37 32
-0.617295 0.364136 1.78567 35 37 32
-0.614146 0.367852 1.80389 36 37 32
-0.579393 0.352458 1.7284 36 38 33
-0.578387 0.357431 1.75279 36 37 33
-0.567097 0.356107 1.74629 36 37 33
-0.560026 0.357431 1.75279 35 36 31
-0.535774 0.347652 1.70483 35 36 32
-0.53103 0.350414 1.71838 36 37 33
-0.53051 0.356107 1.74629 37 38 34
-0.505026 0.344948 1.69157 36 38 33
-0.496533 0.345203 1.69282 36 37 33
-0.514413 0.364136 1.78567 36 37 33
-0.47801 0.344634 1.69003 35 37 33
-0.465588 0.342011 1.67717 35 37 33
-0.483525 0.362018 1.77528 35 37 33
-0.463133 0.353549 1.73375 35 37 33
-0.439943 0.342564 1.67988 35 37 33
-0.441025 0.350414 1.71838 35 37 33
-0.428619 0.347652 1.70483 35 37 33
-0.410992 0.340447 1.6695 35 37 33
-0.414023 0.350414 1.71838 35 37 34
-0.40183 0.347652 1.70483 35 37 34
-0.396022 0.350414 1.71838 35 37 33
-0.380985 0.344948 1.69157 35 37 33
-0.372125 0.344948 1.69157 35 37 32
-0.362933 0.344634 1.69003 35 37 33
-0.354404 0.344948 1.69157 35 37 33
-0.338269 0.337686 1.65596 36 37 34
-0.331575 0.339714 1.6659 36 38 35
-0.340652 0.358446 1.75776 36 38 35
-0.321464 0.347652 1.70483 35 37 34
-0.305398 0.339714 1.6659 35 37 34
-0.30823 0.352948 1.7308 35 37 34
-0.290363 0.342564 1.67988 36 38 34
-0.288016 0.350414 1.71838 37 39 35
-0.274663 0.344948 1.69157 36 37 34
-0.261077 0.338814 1.66149 35 37 33
-0.250747 0.33663 1.65078 35 37 34
-0.250028 0.347652 1.70483 36 37 34
-0.244771 0.352948 1.7308 35 37 33
-0.235705 0.352948 1.7308 36 37 34
-0.218142 0.339714 1.6659 35 37 33
-0.206333 0.334713 1.64138 35 36 32
-0.195843 0.331508 1.62567 35 37 33
-0.193263 0.342011 1.67717 36 37 33
-0.189011 0.350414 1.71838 36 37 33
-0.185971 0.362018 1.77528 36 38 34
-0.168342 0.344948 1.69157 37 38 35
-0.15838 0.342564 1.67988 37 39 35
-0.144753 0.331508 1.62567 36 37 33
-0.139611 0.339714 1.6659 35 36 32
-0.129697 0.33663 1.65078 36 37 33
-0.122159 0.339714 1.6659 36 37 34
-0.111764 0.334713 1.64138 36 37 33
-0.104708 0.339714 1.6659 36 37 34
-0.0964374 0.341324 1.6738 36 37 33
-0.0885203 0.344634 1.69003 36 37 33
-0.0755093 0.326642 1.6018 36 37 33
-0.0702774 0.342011 1.67717 36 37 33
-0.0615921 0.342564 1.67988 36 36 33
-0.0508036 0.329654 1.61657 36 37 33
-0.0425745 0.331508 1.62567 35 36 33
-0.0342423 0.333287 1.63439 35 36 32
-0.0256817 0.333287 1.63439 36 37 34
-0.0171074 0.333018 1.63307 36 38 35
-0.00856058 0.333287 1.63439 35 37 34
0 0.344948 1.69157 34 36 33
0.00872567 0.339714 1.6659 34 36 33
0.0172929 0.33663 1.65078 34 36 34
0.026354 0.342011 1.67717 34 35 33
0.0349027 0.339714 1.6659 34 35 33
0.0454051 0.353549 1.73375 34 35 33
0.054003 0.350414 1.71838 35 36 33
0.062507 0.347652 1.70483 36 37 34
0.0730039 0.35528 1.74224 36 37 34
0.0778182 0.33663 1.65078 36 37 34
0.0864646 0.33663 1.65078 37 38 35
0.0974612 0.344948 1.69157 36 36 33
0.106321 0.344948 1.69157 35 35 31
0.119688 0.358446 1.75776 34 35 31
0.123184 0.342564 1.67988 34 34 31
0.133943 0.347652 1.70483 34 34 31
0.139611 0.339714 1.6659 34 35 31
0.147451 0.337686 1.65596 34 35 32
0.155033 0.335325 1.64438 34 35 32
0.165788 0.339714 1.6659 35 35 33
0.177202 0.344948 1.69157 35 36 33
0.182754 0.338814 1.66149 35 36 33
0.18197 0.322026 1.57917 35 36 33
0.20069 0.339714 1.6659 35 35 33
0.210832 0.342011 1.67717 35 35 32
0.217564 0.338814 1.66149 35 36 33
0.223937 0.335325 1.64438 35 36 33
0.239005 0.344634 1.69003 36 37 34
0.253837 0.352948 1.7308 36 36 33
0.249319 0.334713 1.64138 35 36 33
0.270015 0.350414 1.71838 35 36 33
0.281033 0.352948 1.7308 35 36 33
0.279221 0.339714 1.6659 35 36 33
0.287947 0.339714 1.6659 35 36 34
0.30823 0.352948 1.7308 35 37 34
0.305398 0.339714 1.6659 36 37 35
0.318964 0.344948 1.69157 36 37 35
0.327824 0.344948 1.69157 35 36 34
0.339324 0.347652 1.70483 35 35 32
0.348253 0.347652 1.70483 35 36 33
0.354404 0.344948 1.69157 36 36 34
0.375016 0.356107 1.74629 35 36 33
0.368957 0.342011 1.67717 35 35 32
0.393309 0.356107 1.74629 34 35 32
0.403617 0.357134 1.75133 34 34 31
0.408646 0.353549 1.73375 33 34 31
0.407565 0.344948 1.69157 33 33 30
0.410106 0.339714 1.6659 32 33 30
0.421665 0.342011 1.67717 32 33 30
0.43375 0.344634 1.69003 34 35 32
0.438352 0.341324 1.6738 34 35 33
0.459456 0.350743 1.71999 34 34 33
0.468026 0.350414 1.71838 34 34 32
0.469586 0.344948 1.69157 32 34 32
0.482197 0.347652 1.70483 31 33 32
0.478641 0.338814 1.66149 33 35 34
0.504501 0.350743 1.71999 35 36 35
0.508985 0.347652 1.70483 34 35 35
0.522519 0.350743 1.71999 33 35 35
0.539657 0.356107 1.74629 32 35 34
0.535774 0.347652 1.70483 33 35 34
0.527434 0.33663 1.65078 33 35 34
0.548826 0.344634 1.69003 32 35 34
0.557678 0.344634 1.69003 33 35 34
0.580198 0.352948 1.7308 33 35 34
0.611177 0.366073 1.79517 35 37 36
0.584767 0.344948 1.69157 36 38 37
0.593086 0.344634 1.69003 34 36 35
0.628243 0.359694 1.76388 32 34 34
0.606143 0.342011 1.67717 33 35 34
0.642118 0.357134 1.75133 34 36 36
0.623712 0.342011 1.67717 34 36 36
0.653834 0.353549 1.73375 33 36 35
0.678794 0.362018 1.77528 35 37 37
0.673431 0.354304 1.73745 36 39 38
0.700817 0.363796 1.784 36 39 38
0.702153 0.359694 1.76388 36 39 38
0.711392 0.359694 1.76388 35 37 36
0.720631 0.359694 1.76388 34 36 35
0.742815 0.366073 1.79517 32 35 34
0.752218 0.366073 1.79517 32 35 34
0.778136 0.374012 1.8341 32 35 34
0.795812 0.377843 1.85288 33 36 35
0.805517 0.377843 1.85288 33 36 35
0.795113 0.368522 1.80718 34 37 36
0.788738 0.361267 1.7716 34 37 36
0.803603 0.363796 1.784 33 36 36
0.835776 0.374012 1.8341 33 36 36
0.855301 0.3784 1.85562 32 36 36
0.812168 0.35528 1.74224 35 38 38
0.83986 0.363312 1.78162 36 39 39
0.841864 0.360176 1.76625 36 39 39
0.87838 0.371714 1.82283 35 38 38
0.908768 0.380439 1.86561 34 37 37
0.869618 0.360176 1.76625 34 37 37
0.878869 0.360176 1.76625 34 38 37
0.895851 0.363312 1.78162 35 38 38
0.905183 0.363312 1.78162 35 39 39
0.946554 0.37604 1.84404 35 39 39
0.930869 0.366073 1.79517 34 38 38
0.940272 0.366073 1.79517 33 37 37
0.97553 0.37604 1.84404 34 38 38
1.00137 0.382217 1.87433 35 39 39
0.978885 0.370006 1.81445 35 39 38
1.02101 0.382217 1.87433 35 39 38
1.04212 0.386403 1.89486 33 38 37
1.04064 0.382217 1.87433 33 38 37
1.05672 0.384494 1.8855 34 39 38
1.08658 0.391699 1.92083 34 39 39
1.06236 0.379455 1.86079 34 38 38
1.07991 0.382217 1.87433 34 39 38
1.01293 0.35528 1.74224 33 38 38
1.03928 0.361267 1.7716 34 38 38
1.13028 0.389422 1.90967 34 38 38
1.19422 0.407843 2 34 39 38
1.15028 0.389422 1.90967 35 40 39
1.16707 0.391699 1.92083 36 40 40
1.13007 0.37604 1.84404 35 39 38
1.23612 0.407843 2 33 38 37
1.2466 0.407843 2 34 38 38
-0.689616 0.229475 1.09718 37 36 30
-0.683869 0.229475 1.09718 38 37 31
-0.650773 0.220221 1.05293 38 37 31
-0.645258 0.220221 1.05293 36 36 30
-0.710571 0.244602 1.1695 35 35 29
-0.671314 0.233098 1.1145 35 35 29
-0.628713 0.220221 1.05293 36 36 31
-0.677328 0.239348 1.14438 38 38 34
-0.64831 0.23114 1.10514 38 38 34
-0.612168 0.220221 1.05293 36 38 33
-0.694174 0.251991 1.20483 36 37 32
-0.687863 0.251991 1.20483 35 37 31
-0.691283 0.255589 1.22203 36 37 32
-0.675241 0.251991 1.20483 36 38 32
-0.641795 0.241769 1.15596 36 37 32
-0.672081 0.255589 1.22203 36 37 32
-0.66568 0.255589 1.22203 36 37 31
-0.6656 0.258039 1.23375 36 37 31
-0.663672 0.259814 1.24224 35 37 30
-0.657165 0.259814 1.24224 35 36 30
-0.678382 0.270885 1.29517 36 36 30
-0.639751 0.258039 1.23375 36 37 31
-0.695843 0.283527 1.35562 36 36 31
-0.658031 0.270885 1.29517 37 36 31
-0.651247 0.270885 1.29517 36 37 32
-0.694071 0.291736 1.39486 37 37 33
-0.651299 0.27667 1.32283 36 37 32
-0.598372 0.25692 1.2284 36 36 32
-0.598606 0.259814 1.24224 37 37 32
-0.69476 0.304862 1.45762 37 38 32
-0.707102 0.313726 1.5 36 37 32
-0.676462 0.303503 1.45113 36 37 31
-0.642929 0.291736 1.39486 36 37 30
-0.731442 0.335715 1.60514 35 37 31
-0.723035 0.335715 1.60514 36 37 31
-0.714627 0.335715 1.60514 37 38 33
-0.715252 0.340009 1.62567 36 38 33
-0.714875 0.343924 1.64438 35 37 31
-0.644249 0.313726 1.5 35 37 32
-0.723295 0.356566 1.70483 36 38 33
-0.689036 0.343924 1.64438 36 38 33
-0.733063 0.370531 1.7716 36 38 34
-0.685205 0.350781 1.67717 37 38 34
-0.699239 0.362614 1.73375 37 39 35
-0.678647 0.356566 1.70483 37 38 34
-0.669717 0.356566 1.70483 35 37 32
-0.671996 0.362614 1.73375 35 37 32
-0.641282 0.350781 1.67717 35 37 32
-0.684269 0.379493 1.81445 35 37 32
-0.667593 0.37546 1.79517 35 38 33
-0.649549 0.370531 1.7716 35 37 32
-0.6416 0.3713 1.77528 35 37 32
-0.621977 0.365238 1.74629 35 37 32
-0.612831 0.365238 1.74629 36 37 32
-0.598329 0.361998 1.7308 35 37 31
-0.604406 0.3713 1.77528 36 37 32
-0.589235 0.367637 1.75776 36 37 33
-0.580028 0.367637 1.75776 35 37 32
-0.567097 0.365238 1.74629 35 36 32
-0.55795 0.365238 1.74629 34 36 30
-0.579523 0.385682 1.84404 35 36 31
-0.535781 0.362614 1.73375 36 37 32
-0.5267 0.362614 1.73375 36 37 32
-0.517619 0.362614 1.73375 35 36 32
-0.512217 0.365238 1.74629 35 37 32
-0.498608 0.361998 1.7308 35 37 32
-0.486027 0.359399 1.71838 35 37 33
-0.484776 0.365238 1.74629 35 37 32
-0.478754 0.367637 1.75776 35 37 32
-0.458678 0.359127 1.71707 35 37 33
-0.443005 0.353793 1.69157 35 37 33
-0.437549 0.356566 1.70483 34 36 31
-0.412667 0.343296 1.64138 34 36 32
-0.416425 0.353793 1.69157 34 36 31
-0.404095 0.350781 1.67717 34 36 32
-0.398705 0.353793 1.69157 35 37 33
-0.392901 0.356566 1.70483 35 37 34
-0.375204 0.348424 1.6659 36 37 33
-0.378021 0.359399 1.71838 35 37 33
-0.369021 0.359399 1.71838 35 37 33
-0.344518 0.343924 1.64438 35 36 32
-0.348253 0.356566 1.70483 36 37 34
-0.325302 0.341832 1.63439 36 38 34
-0.330394 0.356566 1.70483 36 38 34
-0.316248 0.350781 1.67717 36 38 34
-0.305398 0.348424 1.6659 36 38 34
-0.306017 0.359399 1.71838 36 38 34
-0.297017 0.359399 1.71838 35 37 33
-0.283523 0.353793 1.69157 36 37 34
-0.283548 0.365238 1.74629 35 37 33
-0.26354 0.350781 1.67717 36 37 33
-0.26335 0.362614 1.73375 36 37 34
-0.245971 0.350781 1.67717 36 37 33
-0.235593 0.348424 1.6659 35 36 32
-0.232169 0.356566 1.70483 35 37 32
-0.223239 0.356566 1.70483 36 37 33
-0.21431 0.356566 1.70483 36 36 32
-0.20069 0.348424 1.6659 36 37 33
-0.197861 0.359127 1.71707 36 37 32
-0.177969 0.338404 1.618 36 37 33
-0.177333 0.354054 1.69282 36 38 34
-0.160094 0.336459 1.60869 37 38 35
-0.155636 0.345262 1.65078 37 38 35
-0.150733 0.354054 1.69282 36 38 34
-0.145049 0.361998 1.7308 36 37 33
-0.129697 0.345262 1.65078 37 37 34
-0.120361 0.343296 1.64138 36 37 33
-0.112404 0.345262 1.65078 36 36 32
-0.104708 0.348424 1.6659 36 36 32
-0.0941664 0.341832 1.63439 36 37 34
-0.090005 0.359399 1.71838 36 37 33
-0.079741 0.353793 1.69157 36 37 33
-0.0725247 0.361998 1.7308 36 36 33
-0.0614928 0.350781 1.67717 35 36 32
-0.054003 0.359399 1.71838 36 37 33
-0.0414934 0.331375 1.58438 36 37 34
-0.0351387 0.350781 1.67717 35 37 34
-0.026354 0.350781 1.67717 36 37 34
-0.0169495 0.338404 1.618 36 38 34
-0.00872567 0.348424 1.6659 35 37 34
0 0.341832 1.63439 34 36 33
0.00859722 0.343296 1.64138 34 36 32
0.0178591 0.356566 1.70483 34 36 33
0.0267887 0.356566 1.70483 34 35 33
0.0351387 0.350781 1.67717 34 36 33
0.0432323 0.345262 1.65078 34 36 33
0.0513635 0.341832 1.63439 35 36 33
0.0599241 0.341832 1.63439 35 36 33
0.0701363 0.350076 1.6738 35 36 33
0.0770452 0.341832 1.63439 36 37 34
0.0878468 0.350781 1.67717 36 37 34
0.0959824 0.348424 1.6659 35 36 32
0.101607 0.338107 1.61657 35 35 31
0.114385 0.351347 1.67988 34 35 31
0.118646 0.338404 1.618 34 34 31
0.132902 0.353793 1.69157 35 35 32
0.141633 0.35347 1.69003 35 35 32
0.147451 0.346344 1.65596 35 35 32
0.153268 0.340009 1.62567 35 36 33
0.164283 0.345262 1.65078 35 36 33
0.178591 0.356566 1.70483 34 35 32
0.186062 0.353793 1.69157 34 35 32
0.189485 0.343924 1.64438 35 35 33
0.202048 0.350781 1.67717 35 35 33
0.210832 0.350781 1.67717 35 35 33
0.227026 0.362614 1.73375 36 36 34
0.222575 0.341832 1.63439 36 37 34
0.234186 0.346344 1.65596 37 38 35
0.251823 0.359127 1.71707 36 36 34
0.261015 0.359399 1.71838 35 36 32
0.259394 0.345262 1.65078 35 35 32
0.263962 0.340009 1.62567 35 35 32
0.290593 0.362614 1.73375 35 36 33
0.289894 0.350781 1.67717 35 36 34
0.301244 0.353793 1.69157 36 37 34
0.310104 0.353793 1.69157 36 37 34
0.314124 0.348424 1.6659 35 36 34
0.32285 0.348424 1.6659 35 36 33
0.333818 0.350781 1.67717 35 36 34
0.348253 0.356566 1.70483 36 36 34
0.365869 0.365238 1.74629 36 36 34
0.369021 0.359399 1.71838 35 36 33
0.375042 0.356566 1.70483 35 35 33
0.383971 0.356566 1.70483 34 35 32
0.382913 0.347502 1.66149 34 34 32
0.40183 0.356566 1.70483 34 34 31
0.407565 0.353793 1.69157 33 34 31
0.41969 0.356566 1.70483 32 33 30
0.424898 0.35347 1.69003 32 33 30
0.437549 0.356566 1.70483 33 34 31
0.457336 0.365238 1.74629 33 34 31
0.463133 0.362614 1.73375 33 34 32
0.456803 0.350781 1.67717 34 34 33
0.477474 0.359736 1.71999 33 34 33
0.495348 0.366292 1.75133 33 34 33
0.508137 0.368917 1.76388 34 35 34
0.500056 0.356566 1.70483 34 35 35
0.51351 0.359736 1.71999 33 34 34
0.513886 0.353793 1.69157 32 35 34
0.548615 0.3713 1.77528 32 34 34
0.540537 0.359736 1.71999 32 35 34
0.55956 0.366292 1.75133 33 35 34
0.567097 0.365238 1.74629 33 35 34
0.577906 0.366292 1.75133 33 35 34
0.571492 0.356566 1.70483 33 35 34
0.594537 0.365238 1.74629 35 37 35
0.599348 0.362614 1.73375 36 38 37
0.619004 0.368917 1.76388 36 38 37
0.602487 0.353793 1.69157 35 37 36
0.6416 0.3713 1.77528 36 38 37
0.654707 0.373473 1.78567 36 38 38
0.66406 0.373473 1.78567 36 38 38
0.665198 0.368917 1.76388 35 37 37
0.677387 0.370531 1.7716 34 37 36
0.688093 0.3713 1.77528 35 38 37
0.675671 0.359736 1.71999 36 39 38
0.695151 0.365238 1.74629 36 39 38
0.699239 0.362614 1.73375 35 38 37
0.715503 0.366292 1.75133 35 37 36
0.705436 0.356566 1.70483 34 36 36
0.714365 0.356566 1.70483 34 36 36
0.729724 0.359736 1.71999 33 36 35
0.738733 0.359736 1.71999 33 36 35
0.748632 0.360164 1.72203 33 36 35
0.773371 0.367637 1.75776 34 37 36
0.816562 0.383602 1.8341 34 37 36
0.814044 0.377972 1.80718 33 36 36
0.800991 0.367637 1.75776 33 36 36
0.794969 0.360726 1.72472 32 36 36
0.854989 0.383602 1.8341 34 37 38
0.846245 0.37546 1.79517 36 39 40
0.849192 0.372627 1.78162 36 39 39
0.851116 0.369412 1.76625 35 38 38
0.881663 0.378556 1.80997 34 38 38
0.907919 0.385682 1.84404 34 38 38
0.870121 0.365735 1.74867 34 38 38
0.910104 0.378556 1.80997 34 38 38
0.854621 0.351813 1.68211 35 38 38
0.912637 0.371862 1.77797 35 39 38
0.971921 0.392018 1.87433 35 38 38
0.940272 0.37546 1.79517 35 38 38
0.914354 0.361496 1.7284 35 39 39
0.969381 0.379493 1.81445 35 39 39
0.9483 0.367637 1.75776 34 38 38
0.988388 0.379493 1.81445 34 39 38
1.06119 0.403567 1.92955 33 38 37
0.946534 0.356566 1.70483 32 37 37
1.00609 0.37546 1.79517 33 38 37
1.01549 0.37546 1.79517 33 38 38
1.01144 0.370531 1.7716 34 39 38
1.05024 0.381245 1.82283 34 38 38
1.10166 0.396311 1.89486 32 37 37
1.12027 0.399407 1.90967 33 38 38
1.14205 0.403567 1.92955 34 38 38
1.19422 0.418301 2 34 39 38
1.15701 0.401743 1.92083 35 39 39
1.13882 0.392018 1.87433 35 40 39
1.22564 0.418301 2 35 39 38
1.23612 0.418301 2 34 38 38
1.2466 0.418301 2 33 37 38
-0.628536 0.214379 1 36 35 29
-0.728948 0.250717 1.1695 38 37 31
-0.744659 0.258291 1.20483 38 38 33
-0.672376 0.235212 1.09718 37 37 32
-0.710571 0.250717 1.1695 37 37 32
-0.665675 0.236918 1.10514 37 37 32
-0.665477 0.238925 1.1145 37 37 32
-0.677328 0.245332 1.14438 37 38 34
-0.653802 0.238925 1.1145 38 38 34
-0.654457 0.241319 1.12567 37 38 34
-0.632148 0.235212 1.09718 36 37 33
-0.676852 0.254157 1.18555 36 37 32
-0.620655 0.235212 1.09718 36 38 32
-0.619368 0.236918 1.10514 36 37 32
-0.694747 0.268259 1.25133 36 37 31
-0.688193 0.268259 1.25133 36 38 32
-0.681639 0.268259 1.25133 36 38 32
-0.639594 0.254157 1.18555 36 38 32
-0.652878 0.261979 1.22203 36 37 31
-0.711021 0.288134 1.34404 35 36 28
-0.620965 0.254157 1.18555 34 35 28
-0.683383 0.282529 1.31789 35 36 30
-0.608546 0.254157 1.18555 35 36 30
-0.578794 0.244223 1.13921 36 36 31
-0.691054 0.294628 1.37433 36 37 32
-0.662044 0.285231 1.3305 36 37 32
-0.676657 0.294628 1.37433 36 36 31
-0.64437 0.283587 1.32283 36 36 31
-0.679286 0.302203 1.40967 35 36 30
-0.691664 0.311091 1.45113 36 36 30
-0.707102 0.321569 1.5 35 36 30
-0.699246 0.321569 1.5 36 37 31
-0.691389 0.321569 1.5 35 37 30
-0.683532 0.321569 1.5 35 37 30
-0.723035 0.344108 1.60514 35 37 31
-0.689579 0.332046 1.54887 37 38 32
-0.638459 0.311091 1.45113 37 38 33
-0.729128 0.35955 1.67717 36 38 32
-0.689405 0.344108 1.60514 36 37 31
-0.708305 0.357906 1.6695 36 37 32
-0.628536 0.321569 1.5 36 37 33
-0.717401 0.37168 1.73375 36 37 34
-0.696506 0.365481 1.70483 36 37 34
-0.673327 0.357906 1.6695 37 38 35
-0.678647 0.365481 1.70483 37 38 34
-0.681077 0.37168 1.73375 36 38 34
-0.660788 0.365481 1.70483 36 38 33
-0.641282 0.35955 1.67717 36 38 33
-0.65946 0.374878 1.74867 36 38 33
-0.667593 0.384846 1.79517 36 38 33
-0.642118 0.375449 1.75133 36 38 33
-0.626591 0.37168 1.73375 36 38 32
-0.61646 0.371048 1.7308 36 38 32
-0.608429 0.37168 1.73375 35 37 32
-0.602282 0.373499 1.74224 35 37 31
-0.594537 0.374369 1.74629 36 37 32
-0.598589 0.382809 1.78567 36 38 33
-0.598735 0.388981 1.81445 36 37 33
-0.567097 0.374369 1.74629 36 37 33
-0.549031 0.368384 1.71838 35 36 32
-0.561177 0.382809 1.78567 36 37 32
-0.513451 0.35619 1.66149 36 37 33
-0.533994 0.376827 1.75776 36 37 33
-0.538972 0.387012 1.80527 36 37 33
-0.512217 0.374369 1.74629 35 37 32
-0.50307 0.374369 1.74629 35 37 32
-0.489542 0.371048 1.7308 35 37 33
-0.480476 0.371048 1.7308 35 36 32
-0.464337 0.365481 1.70483 34 36 32
-0.462345 0.371048 1.7308 35 37 33
-0.454051 0.37168 1.73375 35 37 33
-0.441025 0.368384 1.71838 35 37 32
-0.435148 0.371048 1.7308 35 37 33
-0.41969 0.365481 1.70483 34 36 32
-0.417727 0.37168 1.73375 34 36 33
-0.395949 0.360131 1.67988 36 37 34
-0.398886 0.371048 1.7308 37 38 35
-0.378351 0.360131 1.67988 36 38 34
-0.375042 0.365481 1.70483 36 37 33
-0.354505 0.353893 1.65078 34 35 30
-0.36002 0.368384 1.71838 33 35 29
-0.340301 0.357135 1.6659 35 36 32
-0.336684 0.362638 1.69157 35 37 33
-0.330394 0.365481 1.70483 36 38 34
-0.316248 0.35955 1.67717 36 38 34
-0.30796 0.360131 1.67988 36 38 34
-0.306017 0.368384 1.71838 36 38 35
-0.299674 0.37168 1.73375 36 37 34
-0.281564 0.360131 1.67988 36 37 33
-0.26978 0.35619 1.66149 36 37 33
-0.256817 0.350378 1.63439 36 37 33
-0.258957 0.365481 1.70483 36 37 34
-0.250028 0.365481 1.70483 36 37 33
-0.229902 0.348509 1.62567 35 36 32
-0.228402 0.35955 1.67717 35 36 32
-0.22664 0.371048 1.7308 36 37 32
-0.210832 0.35955 1.67717 36 36 32
-0.208509 0.371048 1.7308 36 36 32
-0.191965 0.357135 1.6659 36 36 32
-0.186062 0.362638 1.69157 36 37 33
-0.178591 0.365481 1.70483 37 38 34
-0.168467 0.362906 1.69282 37 38 34
-0.166714 0.379083 1.76828 36 37 34
-0.148336 0.357135 1.6659 36 37 33
-0.139611 0.357135 1.6659 36 36 32
-0.132902 0.362638 1.69157 36 37 33
-0.125014 0.365481 1.70483 36 37 33
-0.113434 0.357135 1.6659 36 36 32
-0.107155 0.365481 1.70483 35 36 32
-0.0961896 0.357906 1.6695 36 37 33
-0.0879887 0.360131 1.67988 36 37 33
-0.0766342 0.348509 1.62567 36 37 33
-0.0703909 0.360131 1.67988 36 37 33
-0.0605252 0.353893 1.65078 36 36 33
-0.0510894 0.348509 1.62567 35 37 33
-0.0446478 0.365481 1.70483 35 37 33
-0.0344518 0.352522 1.64438 35 37 34
-0.0256817 0.350378 1.63439 36 38 34
-0.018251 0.373499 1.74224 36 38 34
-0.0090005 0.368384 1.71838 35 37 33
0 0.362638 1.69157 34 36 33
0.00886011 0.362638 1.69157 34 36 33
0.018001 0.368384 1.71838 35 37 34
0.0259394 0.353893 1.65078 34 36 33
0.0354404 0.362638 1.69157 34 36 32
0.0446478 0.365481 1.70483 35 37 34
0.0531122 0.362307 1.69003 36 37 34
0.0620207 0.362638 1.69157 35 36 33
0.0696205 0.35619 1.66149 35 35 32
0.0780621 0.355003 1.65596 35 36 32
0.0864646 0.353893 1.65078 36 36 33
0.0957282 0.35619 1.66149 35 36 33
0.102727 0.350378 1.63439 35 36 32
0.113434 0.357135 1.6659 34 35 32
0.120361 0.351878 1.64138 34 35 31
0.136882 0.373499 1.74224 35 36 33
0.138777 0.355003 1.65596 36 37 34
0.150825 0.363128 1.69386 36 37 35
0.15838 0.360131 1.67988 37 38 35
0.165788 0.357135 1.6659 36 36 34
0.170298 0.348509 1.62567 35 35 32
0.185893 0.362307 1.69003 35 35 32
0.194922 0.362638 1.69157 35 35 32
0.202374 0.360131 1.67988 35 35 33
0.21431 0.365481 1.70483 35 35 33
0.225013 0.368384 1.71838 35 35 32
0.221388 0.348509 1.62567 35 35 32
0.227502 0.34487 1.60869 35 36 33
0.25779 0.376827 1.75776 35 36 32
0.256943 0.362638 1.69157 35 36 32
0.265803 0.362638 1.69157 35 36 32
0.274413 0.362307 1.69003 35 36 32
0.276687 0.353893 1.65078 35 36 33
0.282499 0.350378 1.63439 35 36 33
0.301244 0.362638 1.69157 35 36 34
0.296355 0.346559 1.61657 35 36 34
0.318964 0.362638 1.69157 35 36 33
0.330394 0.365481 1.70483 35 36 33
0.342019 0.368384 1.71838 35 36 34
0.343156 0.360131 1.67988 35 36 33
0.351387 0.35955 1.67717 34 35 32
0.360754 0.360131 1.67988 35 35 32
0.372125 0.362638 1.69157 34 35 32
0.387022 0.368384 1.71838 35 35 32
0.382913 0.35619 1.66149 35 35 33
0.405023 0.368384 1.71838 35 35 33
0.41076 0.365481 1.70483 35 35 33
0.41969 0.365481 1.70483 33 34 31
0.41503 0.353893 1.65078 32 33 30
0.441025 0.368384 1.71838 32 33 31
0.450025 0.368384 1.71838 31 33 30
0.455408 0.365481 1.70483 33 34 32
0.464337 0.365481 1.70483 34 35 34
0.481295 0.37168 1.73375 34 35 34
0.482197 0.365481 1.70483 33 35 33
0.491126 0.365481 1.70483 34 35 34
0.495714 0.362307 1.69003 34 35 35
0.496046 0.35619 1.66149 33 35 35
0.53051 0.374369 1.74629 33 35 34
0.53103 0.368384 1.71838 32 34 34
0.54003 0.368384 1.71838 32 35 34
0.544704 0.365481 1.70483 32 35 34
0.558031 0.368384 1.71838 32 35 34
0.562563 0.365481 1.70483 33 35 34
0.571492 0.365481 1.70483 33 35 34
0.580422 0.365481 1.70483 34 36 36
0.605426 0.375449 1.75133 36 38 37
0.623003 0.380583 1.77528 36 38 37
0.636001 0.382809 1.78567 36 38 37
0.648788 0.384846 1.79517 36 38 37
0.630626 0.368729 1.71999 37 39 38
0.667593 0.384846 1.79517 37 40 39
0.669496 0.380583 1.77528 36 39 38
0.674437 0.37814 1.76388 35 38 37
0.699718 0.387012 1.80527 35 38 37
0.687984 0.375449 1.75133 36 39 38
0.70669 0.380583 1.77528 36 39 38
0.719505 0.382452 1.784 35 38 37
0.720631 0.37814 1.76388 35 38 37
0.733063 0.379794 1.7716 34 37 36
0.742342 0.379794 1.7716 34 37 36
0.743023 0.375449 1.75133 34 36 35
0.738733 0.368729 1.71999 33 36 35
0.774538 0.381943 1.78162 35 37 36
0.750084 0.365481 1.70483 36 38 38
0.799231 0.384846 1.79517 34 37 36
0.791785 0.376827 1.75776 31 35 35
0.800991 0.376827 1.75776 30 35 35
0.845382 0.393192 1.8341 32 36 36
0.823362 0.378647 1.76625 35 38 38
0.859285 0.390776 1.82283 36 40 40
0.849192 0.381943 1.78162 35 39 39
0.872183 0.38802 1.80997 35 39 38
0.89826 0.395324 1.84404 35 38 38
0.891144 0.38802 1.80997 35 39 38
0.870121 0.374878 1.74867 35 38 38
0.894011 0.381159 1.77797 34 38 38
0.930015 0.392421 1.8305 35 38 38
0.921467 0.384846 1.79517 35 39 38
0.921949 0.381159 1.77797 35 38 38
0.92068 0.376827 1.75776 35 38 38
0.97553 0.395324 1.84404 34 38 38
1.00137 0.401818 1.87433 34 38 38
1.04785 0.416385 1.94228 34 38 38
1.05802 0.416385 1.94228 35 40 39
0.997892 0.388981 1.81445 36 41 40
1.0074 0.388981 1.81445 37 41 41
1.05046 0.401818 1.87433 39 43 43
1.04314 0.395324 1.84404 39 43 43
1.10162 0.413656 1.92955 35 39 39
1.0343 0.384846 1.79517 34 38 38
1.16279 0.428758 2 34 38 38
1.06933 0.390776 1.82283 35 39 39
1.07888 0.390776 1.82283 34 39 39
1.19422 0.428758 2 34 39 38
1.3506 0.480689 2.24224 34 39 38
1.21517 0.428758 2 35 39 38
1.22564 0.428758 2 34 39 38
1.23612 0.428758 2 34 38 38
1.2466 0.428758 2 33 38 38
-0.664812 0.232283 1.05772 37 36 30
-0.679603 0.239446 1.09033 37 37 31
-0.688827 0.244753 1.1145 37 37 32
-0.682989 0.244753 1.1145 37 37 32
-0.732037 0.264591 1.20483 38 38 34
-0.689316 0.251316 1.14438 38 38 34
-0.659887 0.242697 1.10514 37 37 33
-0.67141 0.24912 1.13439 36 36 31
-0.686068 0.256832 1.1695 36 36 32
-0.647964 0.244753 1.1145 37 37 33
-0.673817 0.256832 1.1695 37 37 33
-0.739437 0.284429 1.29517 37 37 32
-0.702712 0.272805 1.24224 36 37 32
-0.641364 0.251316 1.14438 36 37 31
-0.678481 0.268368 1.22203 36 37 32
-0.672081 0.268368 1.22203 37 38 32
-0.681639 0.274802 1.25133 37 38 32
-0.698734 0.284429 1.29517 37 38 32
-0.663672 0.272805 1.24224 36 37 31
-0.669868 0.278078 1.26625 35 36 29
-0.620965 0.260355 1.18555 35 35 29
-0.685942 0.290504 1.32283 35 36 30
-0.608546 0.260355 1.18555 35 36 31
-0.631139 0.272805 1.24224 35 36 30
-0.714435 0.312026 1.42083 35 36 30
-0.674541 0.297704 1.35562 36 36 31
-0.68378 0.304991 1.3888 36 37 32
-0.660341 0.297704 1.35562 38 38 34
-0.65324 0.297704 1.35562 37 38 33
-0.69476 0.320105 1.45762 37 38 33
-0.707102 0.329412 1.5 36 37 32
-0.657135 0.309574 1.40967 36 37 31
-0.691389 0.329412 1.5 36 37 31
-0.731442 0.352501 1.60514 36 37 31
-0.697691 0.340145 1.54887 36 38 32
-0.699183 0.344882 1.57045 37 39 33
-0.70622 0.352501 1.60514 37 39 34
-0.697812 0.352501 1.60514 37 39 34
-0.689405 0.352501 1.60514 36 37 32
-0.751621 0.389057 1.7716 36 37 32
-0.699561 0.366636 1.6695 36 37 32
-0.733063 0.389057 1.7716 36 37 33
-0.685205 0.36832 1.67717 36 37 33
-0.663197 0.36112 1.64438 37 38 34
-0.714607 0.394233 1.79517 37 38 34
-0.645971 0.36112 1.64438 37 39 34
-0.681303 0.386018 1.75776 36 38 34
-0.686399 0.394233 1.79517 36 38 34
-0.65946 0.384021 1.74867 36 38 33
-0.653683 0.386018 1.75776 36 38 34
-0.642118 0.384606 1.75133 36 38 34
-0.607122 0.368915 1.67988 36 38 33
-0.602487 0.371482 1.69157 36 38 32
-0.589524 0.368915 1.67988 36 37 32
-0.605929 0.384926 1.75279 36 38 32
-0.598442 0.386018 1.75776 37 38 34
-0.571492 0.374395 1.70483 37 38 34
-0.558187 0.371482 1.69157 37 38 34
-0.536081 0.362525 1.65078 36 37 33
-0.556655 0.382609 1.74224 36 37 33
-0.557913 0.389865 1.77528 37 37 34
-0.543201 0.386018 1.75776 37 38 34
-0.533994 0.386018 1.75776 37 38 34
-0.521363 0.3835 1.74629 36 37 33
-0.500056 0.374395 1.70483 35 37 32
-0.475555 0.362525 1.65078 34 36 31
-0.502122 0.389865 1.77528 34 36 32
-0.468617 0.370716 1.68808 34 36 31
-0.483525 0.389865 1.77528 35 37 32
-0.459026 0.377369 1.71838 36 38 34
-0.457336 0.3835 1.74629 36 38 34
-0.437549 0.374395 1.70483 35 37 32
-0.432024 0.377369 1.71838 35 36 32
-0.423024 0.377369 1.71838 34 36 32
-0.417727 0.380745 1.73375 35 37 33
-0.411603 0.3835 1.74629 35 37 34
-0.386526 0.36832 1.67717 36 38 34
-0.375204 0.365846 1.6659 36 38 34
-0.363151 0.362525 1.65078 35 37 32
-0.360754 0.368915 1.67988 33 35 29
-0.354404 0.371482 1.69157 33 35 29
-0.351349 0.377723 1.71999 35 37 32
-0.344492 0.380098 1.7308 36 37 33
-0.325033 0.36832 1.67717 36 38 34
-0.329282 0.3835 1.74629 35 37 33
-0.310104 0.371482 1.69157 35 37 33
-0.301244 0.371482 1.69157 36 38 34
-0.285333 0.362525 1.65078 36 38 34
-0.288016 0.377369 1.71838 36 37 33
-0.274663 0.371482 1.69157 36 37 33
-0.26177 0.365846 1.6659 37 37 34
-0.265255 0.3835 1.74629 37 38 34
-0.250028 0.374395 1.70483 36 37 33
-0.244771 0.380098 1.7308 35 37 33
-0.230153 0.371144 1.69003 36 37 33
-0.223239 0.374395 1.70483 37 38 34
-0.216012 0.377369 1.71838 36 37 33
-0.20069 0.365846 1.6659 35 36 31
-0.193263 0.36832 1.67717 35 36 31
-0.187521 0.374395 1.70483 36 37 32
-0.170298 0.357009 1.62567 36 37 33
-0.167178 0.368915 1.67988 36 37 33
-0.160732 0.374395 1.70483 36 37 33
-0.150622 0.371482 1.69157 35 36 32
-0.144008 0.377369 1.71838 35 36 32
-0.135008 0.377369 1.71838 36 37 33
-0.122159 0.365846 1.6659 36 37 33
-0.113434 0.365846 1.6659 36 37 33
-0.106321 0.371482 1.69157 36 36 32
-0.0959824 0.365846 1.6659 36 37 33
-0.0864646 0.362525 1.65078 36 37 33
-0.079741 0.371482 1.69157 36 37 33
-0.0702774 0.36832 1.67717 36 37 33
-0.062507 0.374395 1.70483 36 37 33
-0.052354 0.365846 1.6659 35 37 33
-0.0432323 0.362525 1.65078 35 36 32
-0.0340596 0.357009 1.62567 35 37 33
-0.0267887 0.374395 1.70483 36 38 34
-0.018001 0.377369 1.71838 36 37 34
-0.00886011 0.371482 1.69157 35 36 33
0 0.365846 1.6659 34 36 33
0.00859722 0.36046 1.64138 34 36 33
0.0171944 0.36046 1.64138 35 37 34
0.0267887 0.374395 1.70483 35 37 34
0.0348103 0.364877 1.66149 35 37 34
0.0439943 0.368915 1.67988 36 38 35
0.0518788 0.362525 1.65078 36 37 35
0.0614928 0.36832 1.67717 36 37 34
0.0699561 0.366636 1.6695 35 35 32
0.077375 0.36046 1.64138 34 35 32
0.0851491 0.357009 1.62567 35 36 33
0.0959824 0.365846 1.6659 35 36 34
0.105586 0.368915 1.67988 35 36 33
0.114201 0.36832 1.67717 35 36 33
0.123184 0.368915 1.67988 35 36 33
0.129697 0.362525 1.65078 35 36 33
0.134816 0.353282 1.60869 35 36 34
0.149581 0.368915 1.67988 36 36 34
0.157062 0.365846 1.6659 36 37 35
0.164283 0.362525 1.65078 35 36 34
0.173471 0.363661 1.65596 34 35 31
0.181576 0.362525 1.65078 34 35 32
0.194745 0.371144 1.69003 35 35 32
0.198869 0.362525 1.65078 35 35 33
0.212643 0.371482 1.69157 35 35 33
0.218142 0.365846 1.6659 34 35 32
0.226867 0.365846 1.6659 35 35 32
0.235593 0.365846 1.6659 34 35 31
0.250028 0.374395 1.70483 34 35 31
0.250747 0.362525 1.65078 35 35 32
0.265803 0.371482 1.69157 35 36 32
0.276817 0.374395 1.70483 35 36 33
0.273939 0.358924 1.63439 35 36 33
0.289312 0.36758 1.6738 34 35 32
0.30823 0.380098 1.7308 35 36 33
0.307464 0.36832 1.67717 36 36 34
0.328517 0.382609 1.74224 35 36 34
0.325558 0.368915 1.67988 35 36 34
0.339324 0.374395 1.70483 35 36 33
0.356722 0.3835 1.74629 34 35 32
0.351387 0.36832 1.67717 33 34 31
0.360172 0.36832 1.67717 34 35 31
0.386686 0.386018 1.75776 34 35 32
0.380637 0.371144 1.69003 35 35 33
0.381637 0.363661 1.65596 35 35 33
0.407952 0.380098 1.7308 35 36 34
0.407194 0.371144 1.69003 35 35 33
0.404809 0.36112 1.64438 33 34 32
0.422346 0.368915 1.67988 32 34 31
0.426426 0.364877 1.66149 32 34 31
0.450025 0.377369 1.71838 32 34 32
0.448019 0.36832 1.67717 32 34 32
0.483525 0.389865 1.77528 33 34 33
0.461236 0.364877 1.66149 34 35 34
0.489542 0.380098 1.7308 34 35 34
0.460114 0.350753 1.59718 34 36 34
0.517376 0.387363 1.76388 34 35 35
0.51351 0.377723 1.71999 33 35 35
0.522029 0.377369 1.71838 32 34 34
0.535781 0.380745 1.73375 31 34 34
0.531606 0.371482 1.69157 32 34 34
0.544704 0.374395 1.70483 32 35 34
0.570822 0.386018 1.75776 33 35 35
0.571132 0.380098 1.7308 33 35 35
0.576572 0.377723 1.71999 33 35 34
0.585033 0.377369 1.71838 34 36 35
0.59459 0.377723 1.71999 35 37 36
0.612831 0.3835 1.74629 37 39 38
0.61751 0.380745 1.73375 36 38 37
0.652439 0.396452 1.80527 36 38 37
0.654096 0.39178 1.784 37 39 38
0.655959 0.387363 1.76388 37 40 39
0.665198 0.387363 1.76388 36 39 38
0.651858 0.374395 1.70483 35 38 37
0.673431 0.381558 1.73745 35 38 37
0.705204 0.394233 1.79517 36 39 38
0.697157 0.384606 1.75133 36 39 38
0.711392 0.387363 1.76388 35 38 37
0.72885 0.39178 1.784 35 37 37
0.724676 0.384606 1.75133 34 37 36
0.730039 0.382609 1.74224 34 36 36
0.766716 0.39687 1.80718 34 36 36
0.776181 0.39687 1.80718 34 36 35
0.775571 0.39178 1.784 35 37 37
0.789828 0.394233 1.79517 36 38 37
0.799231 0.394233 1.79517 34 37 36
0.784792 0.382609 1.74224 31 35 35
0.811865 0.391259 1.78162 30 34 35
0.785802 0.374395 1.70483 32 36 36
0.877322 0.413303 1.882 35 38 39
0.853223 0.397484 1.80997 36 39 39
0.868832 0.400307 1.82283 35 39 39
0.872183 0.397484 1.80997 35 38 38
0.887927 0.400307 1.82283 35 39 39
0.860962 0.384021 1.74867 35 39 39
0.886519 0.391259 1.78162 35 39 38
0.894011 0.390455 1.77797 34 38 38
0.903324 0.390455 1.77797 35 38 38
0.946554 0.404966 1.84404 35 39 38
0.956213 0.404966 1.84404 35 38 38
0.931262 0.390455 1.77797 34 37 37
0.929887 0.386018 1.75776 33 37 37
1.03087 0.423745 1.92955 34 37 37
1.01119 0.411618 1.87433 33 38 38
1.0549 0.425281 1.93655 35 40 39
0.987286 0.394233 1.79517 39 43 42
0.996688 0.394233 1.79517 41 45 44
1.00609 0.394233 1.79517 43 47 46
1.09151 0.423745 1.92955 39 43 43
1.0528 0.404966 1.84404 34 39 39
0.982252 0.374395 1.70483 34 38 38
1.01293 0.382609 1.74224 34 39 39
1.0916 0.408644 1.86079 34 39 39
1.09143 0.404966 1.84404 34 39 39
1.11918 0.411618 1.87433 34 39 39
1.14136 0.416127 1.89486 35 39 39
1.03583 0.374395 1.70483 34 39 38
1.11707 0.400307 1.82283 34 38 38
1.17114 0.416127 1.89486 33 38 38
1.09561 0.386018 1.75776 33 37 38
-0.628536 0.224837 1 36 36 30
-0.659272 0.237813 1.05772 36 36 31
-0.722822 0.262947 1.1695 36 37 31
-0.708397 0.259902 1.15596 38 38 33
-0.666629 0.246686 1.09718 39 39 34
-0.704445 0.262947 1.1695 39 39 34
-0.665477 0.25058 1.1145 38 38 34
-0.713105 0.27089 1.20483 37 36 32
-0.660353 0.253091 1.12567 36 35 30
-0.647964 0.25058 1.1145 36 36 31
-0.666014 0.259902 1.15596 37 37 32
-0.697684 0.274758 1.22203 37 37 32
-0.681552 0.27089 1.20483 37 38 33
-0.64785 0.259902 1.15596 37 38 32
-0.658223 0.266554 1.18555 36 38 32
-0.727514 0.29742 1.32283 36 37 32
-0.66568 0.274758 1.22203 36 37 32
-0.683133 0.284699 1.26625 36 37 30
-0.624812 0.262947 1.1695 35 36 29
-0.711021 0.30219 1.34404 35 36 29
-0.692871 0.29742 1.32283 35 36 29
-0.671598 0.291201 1.29517 36 36 30
-0.723587 0.316944 1.40967 36 37 31
-0.737268 0.326266 1.45113 35 36 30
-0.624632 0.279301 1.24224 35 35 30
-0.644463 0.291201 1.29517 35 35 29
-0.694053 0.316944 1.40967 34 35 29
-0.686669 0.316944 1.40967 36 37 32
-0.804495 0.375365 1.6695 37 37 33
-0.714959 0.337255 1.5 37 38 32
-0.707102 0.337255 1.5 36 37 31
-0.699246 0.337255 1.5 36 37 31
-0.713917 0.348244 1.54887 36 37 31
-0.709833 0.350232 1.55772 36 37 31
-0.675676 0.337255 1.5 36 38 32
-0.759013 0.383309 1.70483 37 39 33
-0.70622 0.360894 1.60514 38 39 34
-0.757415 0.391719 1.74224 37 38 32
-0.706262 0.369718 1.64438 35 37 30
-0.739164 0.391719 1.74224 36 37 31
-0.65272 0.350232 1.55772 36 37 32
-0.69399 0.377089 1.67717 36 37 32
-0.75338 0.414608 1.84404 36 36 31
-0.724009 0.403619 1.79517 36 37 32
-0.722284 0.407955 1.81445 36 37 33
-0.669717 0.383309 1.70483 36 37 33
-0.703276 0.407955 1.81445 35 37 32
-0.662915 0.38981 1.73375 36 37 33
-0.66609 0.397118 1.76625 36 38 33
-0.639635 0.386716 1.71999 37 38 34
-0.650899 0.399148 1.77528 37 38 34
-0.625526 0.389148 1.7308 36 38 33
-0.632301 0.399148 1.77528 36 38 33
-0.607395 0.389148 1.7308 36 37 33
-0.599348 0.38981 1.73375 36 37 32
-0.607942 0.401483 1.78567 36 37 33
-0.576032 0.386354 1.71838 36 37 33
-0.592371 0.403619 1.79517 36 37 32
-0.562067 0.389148 1.7308 35 36 31
-0.564977 0.397575 1.76828 36 37 32
-0.547529 0.391719 1.74224 37 37 34
-0.53487 0.389148 1.7308 37 38 34
-0.5267 0.38981 1.73375 37 37 34
-0.521363 0.392631 1.74629 36 37 33
-0.500056 0.383309 1.70483 35 37 33
-0.50307 0.392631 1.74629 35 36 32
-0.489542 0.389148 1.7308 34 36 32
-0.46634 0.377698 1.67988 35 36 32
-0.457541 0.377698 1.67988 35 37 33
-0.462345 0.389148 1.7308 36 38 34
-0.443005 0.380327 1.69157 37 38 34
-0.451133 0.395209 1.75776 36 37 33
-0.435148 0.389148 1.7308 35 36 32
-0.429896 0.392631 1.74629 35 37 33
-0.420749 0.392631 1.74629 36 37 34
-0.418435 0.399148 1.77528 36 37 34
-0.389845 0.380327 1.69157 36 38 34
-0.394444 0.393763 1.75133 36 38 34
-0.372125 0.380327 1.69157 36 38 33
-0.372322 0.38981 1.73375 35 37 32
-0.344518 0.369718 1.64438 35 36 31
-0.345544 0.380327 1.69157 35 37 32
-0.342019 0.386354 1.71838 35 37 32
-0.335998 0.38981 1.73375 36 38 33
-0.326361 0.389148 1.7308 36 37 33
-0.312535 0.383309 1.70483 36 37 33
-0.298679 0.377089 1.67717 36 37 34
-0.285333 0.371156 1.65078 35 36 32
-0.283523 0.380327 1.69157 35 35 31
-0.279016 0.386354 1.71838 35 36 32
-0.26354 0.377089 1.67717 36 37 33
-0.256943 0.380327 1.69157 36 37 33
-0.235928 0.361693 1.60869 36 37 32
-0.2394 0.380608 1.69282 36 37 32
-0.225513 0.37232 1.65596 36 37 32
-0.216162 0.371156 1.65078 36 37 33
-0.21431 0.383309 1.70483 36 37 33
-0.20538 0.383309 1.70483 35 36 31
-0.194745 0.379981 1.69003 35 36 30
-0.187521 0.383309 1.70483 36 36 31
-0.175694 0.377089 1.67717 36 36 32
-0.16252 0.367173 1.63307 36 37 32
-0.159482 0.380327 1.69157 36 37 32
-0.147944 0.373565 1.66149 35 36 31
-0.138777 0.37232 1.65596 35 36 31
-0.135008 0.386354 1.71838 36 36 32
-0.124041 0.380327 1.69157 36 37 32
-0.111764 0.369043 1.64138 36 36 32
-0.107924 0.386061 1.71707 35 36 31
-0.0945694 0.369043 1.64138 36 36 32
-0.0912549 0.391719 1.74224 35 36 32
-0.077375 0.369043 1.64138 36 36 32
-0.0725247 0.389148 1.7308 36 37 33
-0.0615921 0.377698 1.67988 36 37 33
-0.0527081 0.377089 1.67717 35 36 32
-0.0446478 0.383309 1.70483 35 37 33
-0.0348103 0.373565 1.66149 36 37 33
-0.0261077 0.373565 1.66149 36 37 34
-0.0174513 0.374556 1.6659 36 37 34
-0.00864646 0.371156 1.65078 35 37 33
0 0.37232 1.65596 35 36 33
0.00879887 0.377698 1.67988 35 37 34
0.018001 0.386354 1.71838 35 37 35
0.026177 0.374556 1.6659 35 37 34
0.0345858 0.371156 1.65078 35 37 34
0.0439234 0.377089 1.67717 36 37 34
0.0527081 0.377089 1.67717 36 37 34
0.062507 0.383309 1.70483 35 36 33
0.0691717 0.371156 1.65078 34 35 31
0.0790621 0.377089 1.67717 35 35 32
0.0886666 0.380608 1.69282 35 36 33
0.0961896 0.375365 1.6695 35 36 34
0.103758 0.371156 1.65078 35 36 34
0.116084 0.383309 1.70483 35 36 34
0.12105 0.371156 1.65078 35 36 34
0.129697 0.371156 1.65078 35 36 34
0.142873 0.383309 1.70483 35 36 33
0.148657 0.375365 1.6695 36 36 34
0.160732 0.383309 1.70483 36 37 34
0.168189 0.379981 1.69003 35 35 33
0.174051 0.373565 1.66149 33 34 30
0.180542 0.369043 1.64138 34 34 31
0.189139 0.369043 1.64138 35 35 33
0.196893 0.36747 1.63439 36 36 34
0.210409 0.376332 1.6738 36 36 34
0.212873 0.365509 1.62567 36 36 34
0.222575 0.36747 1.63439 36 37 35
0.234969 0.373565 1.66149 34 35 32
0.255514 0.391719 1.74224 33 34 30
0.268595 0.397575 1.76828 34 34 30
0.265803 0.380327 1.69157 34 35 31
0.276817 0.383309 1.70483 34 35 31
0.283523 0.380327 1.69157 34 35 32
0.292117 0.379981 1.69003 34 35 33
0.289507 0.365509 1.62567 34 35 33
0.307464 0.377089 1.67717 35 36 33
0.321464 0.383309 1.70483 34 36 33
0.330394 0.383309 1.70483 35 36 34
0.339324 0.383309 1.70483 35 36 34
0.35102 0.386354 1.71838 33 34 31
0.36002 0.386354 1.71838 32 33 30
0.360172 0.377089 1.67717 33 34 32
0.368957 0.377089 1.67717 34 35 33
0.390484 0.38981 1.73375 34 35 33
0.396022 0.386354 1.71838 34 35 33
0.392655 0.374556 1.6659 34 35 33
0.404095 0.377089 1.67717 34 35 33
0.409021 0.373565 1.66149 34 35 32
0.435148 0.389148 1.7308 32 34 31
0.430449 0.377089 1.67717 33 34 32
0.439234 0.377089 1.67717 33 35 33
0.455408 0.383309 1.70483 33 35 32
0.464337 0.383309 1.70483 33 35 33
0.484776 0.392631 1.74629 33 35 33
0.478446 0.380327 1.69157 33 34 33
0.473712 0.369718 1.64438 33 34 33
0.504501 0.386716 1.71999 32 34 34
0.487953 0.36747 1.63439 31 32 33
0.522029 0.386354 1.71838 31 33 33
0.535781 0.38981 1.73375 31 34 35
0.516777 0.369718 1.64438 32 35 35
0.549546 0.386716 1.71999 34 36 36
0.558031 0.386354 1.71838 35 37 36
0.572105 0.38981 1.73375 34 36 36
0.56653 0.379981 1.69003 34 35 34
0.585033 0.386354 1.71838 33 35 34
0.620579 0.403619 1.79517 34 35 34
0.629982 0.403619 1.79517 36 37 36
0.628243 0.396585 1.76388 37 38 37
0.6416 0.399148 1.77528 38 40 38
0.613693 0.376332 1.6738 38 40 38
0.660197 0.399148 1.77528 37 39 37
0.658564 0.392631 1.74629 35 38 37
0.669638 0.393763 1.75133 35 38 37
0.676858 0.392631 1.74629 35 38 37
0.657528 0.376332 1.6738 36 39 38
0.697157 0.393763 1.75133 36 40 38
0.70633 0.393763 1.75133 35 38 37
0.702698 0.386716 1.71999 35 37 36
0.733063 0.39832 1.7716 35 37 36
0.728033 0.390643 1.73745 35 37 36
0.756882 0.401108 1.784 34 36 36
0.754957 0.395209 1.75776 33 36 35
0.727664 0.376332 1.6738 35 38 37
0.789828 0.403619 1.79517 37 39 38
0.775666 0.391719 1.74224 36 39 38
0.826169 0.412372 1.8341 34 38 37
0.804859 0.397118 1.76625 33 37 36
0.840189 0.409839 1.82283 34 37 38
0.859626 0.414608 1.84404 35 38 38
0.846245 0.403619 1.79517 34 38 38
0.862703 0.406947 1.80997 35 38 38
0.858524 0.400574 1.78162 35 38 38
0.881663 0.406947 1.80997 35 39 39
0.877188 0.400574 1.78162 36 40 40
0.886519 0.400574 1.78162 35 39 39
0.933056 0.41721 1.85562 35 38 38
0.921862 0.407955 1.81445 35 38 38
0.952495 0.41721 1.85562 35 39 39
0.921949 0.399752 1.77797 35 38 38
0.92068 0.395209 1.75776 34 37 37
0.940575 0.399752 1.77797 34 37 38
1.03768 0.436697 1.94228 35 38 38
0.978885 0.407955 1.81445 35 39 39
0.977883 0.403619 1.79517 34 39 39
0.987286 0.403619 1.79517 36 40 40
1.02382 0.414608 1.84404 36 41 40
1.04287 0.418374 1.86079 38 43 42
1.08026 0.429363 1.90967 37 42 41
1.09664 0.431874 1.92083 35 39 39
1.04541 0.407955 1.81445 34 38 38
1.05978 0.409839 1.82283 34 39 38
1.12682 0.431874 1.92083 34 39 39
1.18374 0.449673 2 34 39 39
1.19422 0.449673 2 34 39 39
1.0269 0.383309 1.70483 34 39 39
1.10752 0.409839 1.82283 34 38 38
1.11707 0.409839 1.82283 33 38 38
1.12662 0.409839 1.82283 33 38 38
1.16827 0.421419 1.87433 34 38 38
-0.735073 0.269062 1.1695 36 36 31
-0.653761 0.24131 1.04887 36 36 31
-0.657276 0.244663 1.06345 36 37 31
-0.72653 0.272753 1.18555 38 38 33
-0.702342 0.265946 1.15596 38 38 33
-0.748258 0.285796 1.24224 39 39 34
-0.690233 0.265946 1.15596 38 38 34
-0.692194 0.269062 1.1695 37 37 33
-0.620491 0.243344 1.05772 36 36 30
-0.66534 0.263283 1.14438 36 36 31
-0.642127 0.256407 1.1145 37 37 32
-0.687863 0.27719 1.20483 37 37 32
-0.691283 0.281148 1.22203 37 38 33
-0.638463 0.262093 1.13921 37 38 33
-0.618777 0.256407 1.1145 37 37 32
-0.672081 0.281148 1.22203 36 37 31
-0.676685 0.285796 1.24224 36 37 31
-0.670179 0.285796 1.24224 35 36 29
-0.676501 0.29132 1.26625 35 36 29
-0.637377 0.27719 1.20483 34 35 28
-0.692871 0.304337 1.32283 35 36 29
-0.702943 0.31188 1.35562 35 36 30
-0.744868 0.333854 1.45113 36 37 31
-0.672085 0.304337 1.32283 36 37 32
-0.701377 0.32091 1.39486 35 36 31
-0.717667 0.33182 1.44228 35 35 30
-0.694053 0.324315 1.40967 35 35 30
-0.660341 0.31188 1.35562 35 36 31
-0.746367 0.356342 1.54887 36 37 31
-0.714959 0.345098 1.5 36 37 31
-0.707102 0.345098 1.5 36 37 31
-0.699246 0.345098 1.5 36 37 31
-0.664786 0.33182 1.44228 36 37 31
-0.760772 0.384094 1.6695 36 37 31
-0.697691 0.356342 1.54887 36 38 32
-0.743283 0.384094 1.6695 37 38 33
-0.750084 0.392223 1.70483 37 38 33
-0.741154 0.392223 1.70483 36 38 32
-0.644249 0.345098 1.5 35 36 30
-0.751621 0.407584 1.7716 35 36 30
-0.67259 0.369286 1.60514 36 37 31
-0.705436 0.392223 1.70483 37 37 33
-0.723784 0.407584 1.7716 36 37 32
-0.663197 0.378316 1.64438 35 36 31
-0.678647 0.392223 1.70483 36 36 31
-0.698447 0.409048 1.77797 35 37 32
-0.660788 0.392223 1.70483 35 37 32
-0.686399 0.413006 1.79517 35 37 32
-0.662889 0.4044 1.75776 36 38 33
-0.64613 0.399727 1.73745 37 39 35
-0.644476 0.4044 1.75776 37 38 34
-0.631124 0.401761 1.74629 36 38 33
-0.607211 0.392223 1.70483 35 37 32
-0.608429 0.398876 1.73375 35 36 31
-0.594033 0.395339 1.71838 35 37 31
-0.611177 0.413006 1.79517 35 37 32
-0.58539 0.401761 1.74629 36 37 32
-0.567032 0.395339 1.71838 35 36 31
-0.567097 0.401761 1.74629 35 36 31
-0.553001 0.398198 1.7308 36 36 32
-0.535774 0.392223 1.70483 37 38 34
-0.538404 0.400829 1.74224 38 38 34
-0.539316 0.40843 1.77528 36 37 33
-0.524787 0.4044 1.75776 36 36 32
-0.507673 0.398198 1.7308 36 37 33
-0.498608 0.398198 1.7308 36 37 33
-0.497167 0.4044 1.75776 35 36 32
-0.480476 0.398198 1.7308 34 36 30
-0.468026 0.395339 1.71838 35 36 32
-0.462345 0.398198 1.7308 36 37 33
-0.458656 0.402921 1.75133 36 38 33
-0.437549 0.392223 1.70483 36 37 33
-0.435889 0.398876 1.73375 35 36 32
-0.416425 0.389172 1.69157 36 37 33
-0.417017 0.398198 1.7308 35 37 33
