ply
format ascii 1.0
element vertex 1361
property float x
property float y
property float z
property uchar red
property uchar green
property uchar blue
end_header
-0.645337 0.131125 1.09033 37 37 34
-0.586633 0.120261 1 36 36 33
-0.649998 0.134452 1.118 36 36 32
-0.62177 0.129782 1.07917 35 35 31
-0.616118 0.129782 1.07917 35 35 31
-0.689213 0.146524 1.21838 35 36 32
-0.63576 0.136423 1.13439 36 37 34
-0.629818 0.136423 1.13439 36 37 34
-0.647407 0.141568 1.17717 36 37 34
-0.590698 0.13041 1.08438 36 37 34
-0.603151 0.134452 1.118 35 36 34
-0.601393 0.135374 1.12567 34 35 33
-0.60011 0.136423 1.13439 35 36 34
-0.650659 0.149393 1.24224 36 37 35
-0.618528 0.143451 1.19282 36 37 35
-0.598464 0.140213 1.1659 36 37 35
-0.639026 0.15126 1.25776 36 36 34
-0.612634 0.146524 1.21838 35 36 34
-0.599513 0.144895 1.20483 36 37 35
-0.601672 0.146964 1.22203 36 37 35
-0.630895 0.155759 1.29517 35 36 35
-0.602988 0.150487 1.25133 35 36 34
-0.58247 0.146964 1.22203 35 37 34
-0.641479 0.163651 1.36079 35 36 34
-0.60376 0.155759 1.29517 35 37 34
-0.596976 0.155759 1.29517 36 37 35
-0.63286 0.167019 1.3888 36 36 34
-0.634984 0.169528 1.40967 36 36 34
-0.627601 0.169528 1.40967 36 36 35
-0.678608 0.185489 1.54238 36 36 34
-0.697812 0.193036 1.60514 36 37 34
-0.60545 0.169528 1.40967 36 37 35
-0.615657 0.174514 1.45113 36 37 34
-0.628536 0.180392 1.5 36 37 34
-0.640902 0.18627 1.54887 36 36 34
-0.63279 0.18627 1.54887 35 36 33
-0.624677 0.18627 1.54887 35 36 33
-0.638961 0.193036 1.60514 35 36 33
-0.624738 0.191256 1.59033 37 37 34
-0.616409 0.191256 1.59033 37 38 35
-0.592226 0.18627 1.54887 37 38 35
-0.629605 0.200777 1.6695 37 37 34
-0.658829 0.213055 1.7716 37 37 34
-0.602907 0.197756 1.64438 37 37 34
-0.559775 0.18627 1.54887 36 36 33
-0.579014 0.195505 1.62567 35 36 33
-0.563294 0.193036 1.60514 36 36 33
-0.607649 0.211391 1.75776 36 36 34
-0.611177 0.215889 1.79517 35 36 32
-0.559648 0.200777 1.6695 35 36 32
-0.548262 0.199814 1.66149 36 37 34
-0.558031 0.206654 1.71838 37 37 35
-0.553943 0.208503 1.73375 36 37 34
-0.554332 0.212127 1.76388 36 36 33
-0.53103 0.206654 1.71838 37 38 34
-0.525804 0.208149 1.7308 37 38 34
-0.505026 0.203431 1.69157 36 38 34
-0.496166 0.203431 1.69157 36 37 34
-0.506374 0.211391 1.75776 36 37 34
-0.489542 0.208149 1.7308 36 37 33
-0.465588 0.201699 1.67717 36 38 34
-0.460726 0.203431 1.69157 37 38 34
-0.455408 0.205026 1.70483 36 37 32
-0.450025 0.206654 1.71838 35 36 32
-0.441025 0.206654 1.71838 35 37 32
-0.432024 0.206654 1.71838 36 37 33
-0.429896 0.210012 1.74629 35 37 34
-0.417017 0.208149 1.7308 35 37 34
-0.398705 0.203431 1.69157 35 37 34
-0.405099 0.211391 1.75776 35 37 34
-0.380637 0.203245 1.69003 36 37 34
-0.381403 0.208503 1.73375 36 38 34
-0.371689 0.208149 1.7308 36 38 34
-0.357183 0.205026 1.70483 37 38 35
-0.342602 0.201699 1.67717 36 38 34
-0.330698 0.199814 1.66149 37 38 35
-0.319919 0.198525 1.65078 36 37 34
-0.308181 0.196554 1.63439 36 37 34
-0.294258 0.193036 1.60514 36 37 35
-0.298679 0.201699 1.67717 36 37 34
-0.287185 0.199814 1.66149 36 37 34
-0.285746 0.205026 1.70483 36 37 34
-0.276817 0.205026 1.70483 36 37 34
-0.265255 0.203011 1.68808 36 37 35
-0.256943 0.203431 1.69157 37 37 35
-0.237084 0.194411 1.61657 36 37 35
-0.241098 0.205026 1.70483 35 36 34
-0.230153 0.203245 1.69003 34 35 33
-0.21065 0.193464 1.60869 36 37 34
-0.198118 0.189536 1.57603 37 38 36
-0.198869 0.198525 1.65078 36 37 35
-0.189485 0.197756 1.64438 36 37 35
-0.189011 0.206654 1.71838 36 37 35
-0.180179 0.206848 1.71999 36 37 35
-0.162651 0.196554 1.63439 36 37 35
-0.164641 0.210012 1.74629 36 37 35
-0.14553 0.196554 1.63439 36 37 35
-0.140555 0.201699 1.67717 36 37 34
-0.130538 0.199814 1.66149 37 38 35
-0.12105 0.198525 1.65078 37 38 35
-0.111288 0.196554 1.63439 36 38 34
-0.103758 0.198525 1.65078 35 37 33
-0.0926861 0.193464 1.60869 35 36 33
-0.0864646 0.198525 1.65078 36 37 34
-0.0803661 0.205026 1.70483 36 37 34
-0.0702774 0.201699 1.67717 36 37 33
-0.0640271 0.210012 1.74629 35 36 33
-0.0510894 0.195505 1.62567 35 37 33
-0.0432323 0.198525 1.65078 35 36 33
-0.0342423 0.196554 1.63439 35 36 32
-0.0261077 0.199814 1.66149 35 36 32
-0.0181621 0.208503 1.73375 35 36 32
-0.00892957 0.205026 1.70483 36 37 34
0 0.198525 1.65078 36 38 35
0.00870257 0.199814 1.66149 35 37 34
0.0172929 0.198525 1.65078 34 36 34
0.0263966 0.202025 1.67988 36 37 35
0.0348103 0.199814 1.66149 37 38 37
0.0417905 0.191905 1.59573 36 37 35
0.0531606 0.203431 1.69157 35 36 35
0.0615921 0.202025 1.67988 35 36 35
0.0689036 0.197756 1.64438 36 37 36
0.0770452 0.196554 1.63439 37 38 36
0.0886011 0.203431 1.69157 36 37 36
0.0954093 0.199148 1.65596 35 36 35
0.107155 0.205026 1.70483 35 36 35
0.114201 0.201699 1.67717 35 36 35
0.124041 0.203431 1.69157 36 37 35
0.130885 0.200344 1.6659 36 37 35
0.141762 0.203431 1.69157 37 37 35
0.149581 0.202025 1.67988 35 35 33
0.163181 0.208149 1.7308 35 35 33
0.163347 0.197395 1.64138 36 37 35
0.175977 0.202025 1.67988 37 37 35
0.176188 0.192635 1.6018 36 37 34
0.193575 0.202025 1.67988 36 37 34
0.200159 0.199814 1.66149 36 37 34
0.209416 0.200344 1.6659 35 36 34
0.218142 0.200344 1.6659 36 36 34
0.224808 0.198525 1.65078 35 36 34
0.239223 0.203431 1.69157 35 36 34
0.252014 0.206654 1.71838 35 36 34
0.254756 0.201699 1.67717 35 37 34
0.25278 0.193464 1.60869 34 36 33
0.261206 0.193464 1.60869 34 36 33
0.280545 0.201294 1.6738 34 36 33
0.297295 0.206848 1.71999 34 36 34
0.306017 0.206654 1.71838 34 36 33
0.309821 0.203245 1.69003 34 36 34
0.321464 0.205026 1.70483 35 36 34
0.333728 0.207094 1.72203 36 37 35
0.333147 0.201294 1.6738 36 37 35
0.348253 0.205026 1.70483 35 36 34
0.354081 0.203245 1.69003 35 36 34
0.376098 0.210618 1.75133 34 35 33
0.375042 0.205026 1.70483 34 35 33
0.380985 0.203431 1.69157 34 35 34
0.38575 0.201294 1.6738 35 36 34
0.387583 0.197756 1.64438 35 36 35
0.407194 0.203245 1.69003 35 36 35
0.426808 0.208503 1.73375 35 36 35
0.435889 0.208503 1.73375 35 36 35
0.43375 0.203245 1.69003 34 36 34
0.467211 0.214546 1.784 34 35 34
0.463133 0.208503 1.73375 35 36 35
0.468026 0.206654 1.71838 35 36 35
0.473267 0.205026 1.70483 35 36 35
0.478446 0.203431 1.69157 35 36 35
0.495028 0.206654 1.71838 35 36 35
0.504501 0.206848 1.71999 35 36 35
0.496046 0.199814 1.66149 34 34 34
0.501495 0.198525 1.65078 34 35 34
0.535781 0.208503 1.73375 34 35 34
0.535774 0.205026 1.70483 33 35 34
0.55795 0.210012 1.74629 33 36 34
0.567097 0.210012 1.74629 33 36 34
0.577906 0.210618 1.75133 33 36 34
0.58539 0.210012 1.74629 33 35 34
0.580422 0.205026 1.70483 32 35 34
0.603684 0.210012 1.74629 32 35 33
0.607395 0.208149 1.7308 32 35 34
0.639385 0.215889 1.79517 31 34 33
0.644752 0.214546 1.784 32 35 34
0.642118 0.210618 1.75133 33 35 34
0.667593 0.215889 1.79517 33 35 35
0.642929 0.205026 1.70483 32 35 34
0.657653 0.206848 1.71999 30 34 34
0.695801 0.215889 1.79517 30 34 33
0.687984 0.210618 1.75133 31 35 34
0.710161 0.214546 1.784 33 36 35
0.711392 0.212127 1.76388 30 34 33
0.709832 0.208948 1.73745 28 32 31
0.718933 0.208948 1.73745 29 32 31
0.739109 0.212127 1.76388 28 31 32
0.753183 0.213498 1.77528 30 34 35
0.780784 0.218623 1.81789 32 35 36
0.790306 0.218623 1.81789 30 35 36
0.766541 0.209524 1.74224 30 35 36
0.779715 0.210618 1.75133 33 37 38
0.798018 0.213055 1.7716 36 39 40
0.818037 0.215889 1.79517 35 39 39
0.840189 0.219216 1.82283 35 39 39
0.836842 0.215889 1.79517 35 38 39
0.83986 0.214261 1.78162 35 38 39
0.878943 0.221767 1.84404 34 37 38
0.888602 0.221767 1.84404 33 37 38
0.867856 0.214261 1.78162 32 37 38
0.891144 0.21767 1.80997 33 38 38
0.870121 0.210297 1.74867 33 38 38
0.876047 0.209524 1.74224 33 38 38
0.919584 0.21767 1.80997 34 39 39
0.952495 0.223159 1.85562 34 39 39
0.962214 0.223159 1.85562 34 38 38
0.965871 0.221767 1.84404 33 37 38
0.949675 0.215889 1.79517 31 35 37
1.01659 0.228836 1.90282 29 34 36
1.04475 0.232892 1.93655 30 36 37
0.985946 0.21767 1.80997 32 38 39
0.953508 0.208503 1.73375 35 40 41
1.05646 0.228836 1.90282 35 41 42
1.05046 0.22541 1.87433 35 40 41
0.994334 0.211391 1.75776 35 40 41
1.07009 0.22541 1.87433 35 40 41
1.07211 0.223781 1.86079 35 40 40
1.08973 0.22541 1.87433 36 41 41
1.07383 0.220138 1.8305 37 42 42
1.07888 0.219216 1.82283 37 42 42
1.08843 0.219216 1.82283 36 41 41
1.15028 0.229659 1.90967 35 40 40
1.05856 0.209524 1.74224 34 39 39
1.16121 0.227879 1.89486 34 39 39
1.12662 0.219216 1.82283 34 39 39
1.18106 0.227879 1.89486 36 40 40
-0.628536 0.12549 1 35 35 33
-0.701625 0.14126 1.12567 35 36 33
-0.61806 0.12549 1 36 36 34
-0.672376 0.137685 1.09718 36 36 34
-0.66247 0.136826 1.09033 36 36 34
-0.626282 0.130477 1.03974 36 36 33
-0.647496 0.13608 1.08438 36 36 33
-0.696733 0.147723 1.17717 36 36 33
-0.690568 0.147723 1.17717 36 36 33
-0.606034 0.130808 1.04238 35 35 32
-0.666014 0.145061 1.15596 35 35 32
-0.619097 0.13608 1.08438 35 35 32
-0.63243 0.140298 1.118 35 36 33
-0.64785 0.145061 1.15596 37 38 35
-0.578735 0.130808 1.04238 37 38 34
-0.641211 0.14631 1.1659 37 38 34
-0.609007 0.140298 1.118 36 37 35
-0.585018 0.13608 1.08438 36 37 35
-0.659137 0.154824 1.23375 35 36 35
-0.589589 0.139859 1.1145 35 36 34
-0.623314 0.149337 1.19003 36 37 35
-0.631779 0.152894 1.21838 36 37 35
-0.598464 0.14631 1.1659 36 37 35
-0.604614 0.149337 1.19003 35 36 34
-0.684244 0.170766 1.36079 35 36 34
-0.677117 0.170766 1.36079 35 36 34
-0.601672 0.153353 1.22203 35 36 34
-0.621208 0.160035 1.27528 35 36 34
-0.612755 0.159573 1.2716 35 36 34
-0.671902 0.176899 1.40967 36 36 34
-0.599434 0.159573 1.2716 35 36 34
-0.616655 0.166002 1.32283 36 37 35
-0.596976 0.162531 1.29517 36 37 35
-0.612464 0.168664 1.34404 36 37 35
-0.619069 0.172465 1.37433 36 36 34
-0.627601 0.176899 1.40967 37 37 35
-0.638459 0.182102 1.45113 36 36 34
-0.630858 0.182102 1.45113 36 36 34
-0.623257 0.182102 1.45113 36 36 34
-0.652262 0.192929 1.53741 36 37 34
-0.584481 0.175042 1.39486 36 37 34
-0.600455 0.182102 1.45113 36 37 34
-0.63279 0.194369 1.54887 35 36 33
-0.628243 0.195478 1.55772 35 36 33
-0.690158 0.217569 1.73375 36 36 33
-0.645971 0.206354 1.64438 37 37 34
-0.637358 0.206354 1.64438 37 38 35
-0.613739 0.201429 1.60514 38 38 35
-0.642929 0.21394 1.70483 37 38 35
-0.633999 0.21394 1.70483 37 37 34
-0.62507 0.21394 1.70483 36 37 34
-0.580109 0.201429 1.60514 36 36 34
-0.630991 0.222318 1.7716 36 37 34
-0.616856 0.220582 1.75776 36 36 34
-0.599348 0.217569 1.73375 36 36 34
-0.60532 0.223117 1.77797 36 37 34
-0.584031 0.218634 1.74224 37 37 35
-0.576244 0.219143 1.74629 38 38 35
-0.563024 0.217569 1.73375 37 38 35
-0.535865 0.210469 1.67717 37 37 34
-0.561177 0.224084 1.78567 36 37 33
-0.534128 0.216897 1.7284 36 37 33
-0.522029 0.215639 1.71838 36 37 33
-0.516739 0.217199 1.7308 36 37 33
-0.512217 0.219143 1.74629 36 37 34
-0.52006 0.226544 1.80527 37 38 35
-0.492776 0.218634 1.74224 37 38 35
-0.484776 0.219143 1.74629 37 39 35
-0.456803 0.210469 1.67717 37 38 34
-0.463133 0.217569 1.73375 36 37 33
-0.457336 0.219143 1.74629 36 37 33
-0.423677 0.207157 1.65078 36 37 33
-0.448942 0.224084 1.78567 36 37 33
-0.410106 0.209055 1.6659 35 37 34
-0.404095 0.210469 1.67717 35 37 34
-0.395311 0.210469 1.67717 35 36 33
-0.402456 0.219143 1.74629 35 36 33
-0.383971 0.21394 1.70483 35 36 33
-0.384162 0.219143 1.74629 35 37 34
-0.369021 0.215639 1.71838 36 38 34
-0.357183 0.21394 1.70483 36 38 35
-0.348253 0.21394 1.70483 36 38 34
-0.336684 0.212276 1.69157 36 38 34
-0.338429 0.219143 1.74629 36 37 34
-0.314124 0.209055 1.6659 36 37 34
-0.314779 0.215476 1.71707 36 37 35
-0.301244 0.212276 1.69157 36 36 34
-0.287185 0.208501 1.66149 35 36 33
-0.278482 0.208501 1.66149 35 36 34
-0.267001 0.206354 1.64438 36 36 34
-0.267887 0.21394 1.70483 36 37 34
-0.254244 0.210046 1.6738 36 37 34
-0.245477 0.210046 1.6738 36 37 35
-0.243241 0.215842 1.71999 36 37 34
-0.223937 0.206354 1.64438 35 36 34
-0.219617 0.210469 1.67717 36 36 34
-0.21431 0.21394 1.70483 37 37 35
-0.202048 0.210469 1.67717 37 38 35
-0.19645 0.21394 1.70483 37 38 36
-0.184478 0.210469 1.67717 37 38 36
-0.172259 0.206354 1.64438 37 38 36
-0.172908 0.218033 1.73745 37 38 36
-0.160732 0.21394 1.70483 36 38 35
-0.158075 0.22278 1.77528 36 37 34
-0.139241 0.208501 1.66149 36 37 34
-0.125486 0.20043 1.59718 36 38 34
-0.123928 0.212082 1.69003 36 38 34
-0.117007 0.215639 1.71838 37 38 35
-0.106321 0.212276 1.69157 36 37 34
-0.0957282 0.208501 1.66149 35 36 33
-0.0856058 0.205099 1.63439 35 37 33
-0.0775166 0.206354 1.64438 36 37 34
-0.0691717 0.207157 1.65078 36 37 33
-0.0619642 0.212082 1.69003 37 38 34
-0.0513635 0.205099 1.63439 37 38 34
-0.0439234 0.210469 1.67717 37 38 34
-0.036002 0.215639 1.71838 36 37 34
-0.0255447 0.204005 1.62567 35 36 33
-0.0174051 0.208501 1.66149 35 36 33
-0.00864646 0.207157 1.65078 36 37 34
0 0.210469 1.67717 35 37 34
0.00864646 0.207157 1.65078 35 37 34
0.0173471 0.207807 1.65596 34 37 34
0.0265803 0.212276 1.69157 34 36 34
0.0357183 0.21394 1.70483 35 36 34
0.0443005 0.212276 1.69157 34 35 34
0.0518788 0.207157 1.65078 35 36 34
0.0620666 0.212433 1.69282 36 37 35
0.0674081 0.201875 1.60869 37 38 36
0.0775166 0.206354 1.64438 37 38 37
0.0861295 0.206354 1.64438 36 37 36
0.0954093 0.207807 1.65596 36 37 35
0.103355 0.206354 1.64438 36 37 35
0.111968 0.206354 1.64438 36 37 36
0.122159 0.209055 1.6659 37 38 36
0.128958 0.205977 1.64138 37 38 36
0.144008 0.215639 1.71838 36 37 35
0.149581 0.210808 1.67988 35 35 32
0.163181 0.217199 1.7308 35 35 33
0.166909 0.210469 1.67717 37 37 35
0.175977 0.210808 1.67988 37 37 35
0.188867 0.215476 1.71707 37 37 35
0.191965 0.209055 1.6659 37 37 35
0.200159 0.208501 1.66149 35 36 34
0.210832 0.210469 1.67717 35 36 33
0.221503 0.212276 1.69157 35 36 33
0.226267 0.208501 1.66149 35 36 33
0.235593 0.209055 1.6659 35 36 33
0.245971 0.210469 1.67717 35 36 34
0.240662 0.198825 1.58438 34 36 33
0.270015 0.215639 1.71838 34 36 33
0.279016 0.215639 1.71838 34 36 33
0.288286 0.215842 1.71999 34 36 34
0.294676 0.21394 1.70483 34 36 34
0.298679 0.210469 1.67717 35 37 35
0.30459 0.208501 1.66149 35 37 35
0.324322 0.215842 1.71999 35 36 34
0.333019 0.215639 1.71838 35 36 34
0.339324 0.21394 1.70483 35 36 34
0.342602 0.210469 1.67717 35 36 34
0.351387 0.210469 1.67717 35 36 34
0.356805 0.208501 1.66149 34 36 33
0.365508 0.208501 1.66149 34 35 33
0.383971 0.21394 1.70483 33 34 32
0.389489 0.212082 1.69003 34 35 34
0.408646 0.217569 1.73375 35 36 34
0.414411 0.215842 1.71999 35 36 35
0.407658 0.207807 1.65596 35 36 35
0.421665 0.210469 1.67717 35 36 35
0.449483 0.219775 1.75133 35 36 35
0.450025 0.215639 1.71838 35 36 35
0.451454 0.212082 1.69003 36 37 36
0.472214 0.217569 1.73375 36 37 36
0.473267 0.21394 1.70483 37 37 36
0.510605 0.226544 1.80527 36 36 35
0.491126 0.21394 1.70483 35 36 35
0.496166 0.212276 1.69157 35 35 34
0.522868 0.219775 1.75133 33 34 33
0.5267 0.217569 1.73375 34 34 34
0.55476 0.225276 1.79517 33 35 34
0.560654 0.223874 1.784 33 35 34
0.57053 0.224084 1.78567 33 35 34
0.558031 0.215639 1.71838 33 36 34
0.580028 0.220582 1.75776 33 35 34
0.58539 0.219143 1.74629 33 35 34
0.598442 0.220582 1.75776 32 35 33
0.589351 0.21394 1.70483 30 34 32
0.612831 0.219143 1.74629 31 34 32
0.61646 0.217199 1.7308 32 35 33
0.600477 0.208501 1.66149 33 35 34
0.62507 0.21394 1.70483 33 35 34
0.655959 0.22135 1.76388 32 35 34
0.648644 0.215842 1.71999 31 34 34
0.669638 0.219775 1.75133 30 34 34
0.699718 0.226544 1.80527 30 34 34
0.681077 0.217569 1.73375 32 35 35
0.697157 0.219775 1.75133 33 36 35
0.724009 0.225276 1.79517 29 34 33
0.741291 0.227696 1.81445 28 33 32
0.738194 0.223874 1.784 28 32 31
0.769404 0.230423 1.83618 27 31 32
0.735563 0.217569 1.73375 29 33 34
0.752196 0.219775 1.75133 30 35 36
0.790306 0.228128 1.81789 29 35 36
0.776064 0.22135 1.76388 32 36 37
0.799231 0.225276 1.79517 33 37 38
0.775691 0.216098 1.72203 35 38 39
0.840308 0.231409 1.84404 35 39 39
0.832975 0.226783 1.80718 35 39 39
0.819405 0.220582 1.75776 34 38 39
0.846245 0.225276 1.79517 34 38 38
0.862703 0.227133 1.80997 33 37 38
0.858524 0.223576 1.78162 32 37 38
0.908768 0.234116 1.86561 32 37 38
0.891144 0.227133 1.80997 32 37 38
0.878869 0.221647 1.76625 33 38 38
0.938084 0.234116 1.86561 33 38 38
0.942775 0.232862 1.85562 34 39 39
0.921467 0.225276 1.79517 34 38 39
0.896248 0.216897 1.7284 33 37 38
0.992491 0.237787 1.89486 33 37 38
0.959877 0.227696 1.81445 31 36 37
0.959077 0.225276 1.79517 31 35 37
1.02656 0.238785 1.90282 31 36 38
1.05802 0.243738 1.94228 33 38 39
1.03082 0.235211 1.87433 35 40 41
1.0163 0.22971 1.8305 36 41 42
1.08141 0.24214 1.92955 37 42 42
1.09872 0.243738 1.94228 36 40 41
1.03591 0.227696 1.81445 35 40 41
1.07991 0.235211 1.87433 35 40 40
1.1259 0.243018 1.93655 37 41 41
1.12682 0.241046 1.92083 37 42 41
1.07888 0.228747 1.82283 37 42 41
1.08843 0.228747 1.82283 35 40 41
1.08131 0.225276 1.79517 34 39 40
1.21517 0.25098 2 34 39 39
1.17029 0.239644 1.90967 33 38 39
1.23612 0.25098 2 34 39 39
1.16827 0.235211 1.87433 36 41 40
-0.628536 0.130719 1 35 35 33
-0.675895 0.14175 1.08438 35 36 34
-0.678123 0.143422 1.09718 36 36 34
-0.664535 0.14175 1.08438 36 36 34
-0.607584 0.130719 1 36 36 34
-0.627873 0.136259 1.04238 36 36 33
-0.620836 0.135913 1.03974 35 35 32
-0.645337 0.142527 1.09033 36 36 33
-0.636136 0.14175 1.08438 36 36 33
-0.633915 0.142527 1.09033 36 36 33
-0.624776 0.14175 1.08438 36 36 33
-0.622493 0.142527 1.09033 35 36 33
-0.613417 0.14175 1.08438 35 36 33
-0.611072 0.142527 1.09033 36 37 34
-0.653573 0.153879 1.17717 36 37 34
-0.641211 0.152406 1.1659 37 38 34
-0.567816 0.136259 1.04238 37 38 35
-0.585018 0.14175 1.08438 36 37 35
-0.650924 0.159265 1.21838 36 37 35
-0.622744 0.153879 1.17717 36 36 35
-0.712755 0.177881 1.36079 36 37 35
-0.671598 0.169303 1.29517 36 37 34
-0.642314 0.163573 1.25133 36 37 34
-0.576343 0.148286 1.13439 35 36 34
-0.612634 0.159265 1.21838 36 37 34
-0.606252 0.159265 1.21838 36 37 35
-0.569139 0.151106 1.15596 36 37 34
-0.630895 0.169303 1.29517 36 37 35
-0.612755 0.166222 1.2716 37 38 36
-0.62816 0.172274 1.31789 35 36 34
-0.633583 0.175692 1.34404 35 36 34
-0.626544 0.175692 1.34404 35 36 34
-0.609726 0.172919 1.32283 36 37 35
-0.602798 0.172919 1.32283 36 36 34
-0.625586 0.181543 1.3888 35 36 34
-0.667819 0.196078 1.5 35 36 34
-0.620217 0.18427 1.40967 35 36 33
-0.630858 0.18969 1.45113 35 35 33
-0.628183 0.191189 1.46259 35 36 33
-0.636392 0.196078 1.5 36 37 33
-0.608056 0.18969 1.45113 36 37 34
-0.620679 0.196078 1.5 37 37 34
-0.63279 0.202467 1.54887 36 36 34
-0.647368 0.209822 1.60514 36 36 33
-0.597109 0.196078 1.5 36 36 34
-0.611925 0.203623 1.55772 36 36 34
-0.581395 0.196078 1.5 37 37 34
-0.613739 0.209822 1.60514 36 37 34
-0.620132 0.214952 1.64438 36 36 33
-0.615824 0.216465 1.65596 36 36 33
-0.614928 0.219238 1.67717 36 36 33
-0.64027 0.231582 1.7716 36 37 34
-0.61751 0.226634 1.73375 36 37 34
-0.629982 0.234662 1.79517 36 36 33
-0.599348 0.226634 1.73375 35 36 33
-0.580422 0.222854 1.70483 36 37 34
-0.56653 0.220919 1.69003 37 38 35
-0.571132 0.226249 1.7308 37 38 35
-0.558031 0.224624 1.71838 37 37 34
-0.530857 0.217189 1.66149 37 37 34
-0.552408 0.229773 1.75776 36 37 34
-0.53487 0.226249 1.7308 35 36 33
-0.533994 0.229773 1.75776 36 37 34
-0.520153 0.227744 1.74224 36 37 33
-0.511027 0.227744 1.74224 35 37 33
-0.495492 0.224835 1.71999 36 37 33
-0.493923 0.228274 1.74629 36 37 34
-0.480476 0.226249 1.7308 36 37 34
-0.47563 0.228274 1.74629 36 37 33
-0.44097 0.215789 1.65078 36 37 32
-0.457336 0.228274 1.74629 36 37 33
-0.451133 0.229773 1.75776 36 37 33
-0.428619 0.222854 1.70483 35 37 32
-0.429896 0.228274 1.74629 35 36 32
-0.404748 0.219592 1.67988 35 36 33
-0.425504 0.235983 1.80527 34 36 33
-0.402456 0.228274 1.74629 34 36 32
-0.380985 0.22112 1.69157 34 36 32
-0.363151 0.215789 1.65078 34 36 32
-0.366112 0.222854 1.70483 35 37 34
-0.357183 0.222854 1.70483 36 38 35
-0.356722 0.228274 1.74629 36 38 34
-0.342019 0.224624 1.71838 36 37 34
-0.330394 0.222854 1.70483 35 36 32
-0.314124 0.217765 1.6659 35 36 32
-0.30796 0.219592 1.67988 35 36 32
-0.306017 0.224624 1.71838 35 36 32
-0.289312 0.218798 1.6738 35 36 33
-0.292695 0.228274 1.74629 36 37 34
-0.274663 0.22112 1.69157 37 38 35
-0.258389 0.214952 1.64438 37 38 35
-0.249776 0.214952 1.64438 37 38 35
-0.245971 0.219238 1.67717 37 38 36
-0.241098 0.222854 1.70483 37 38 35
-0.217508 0.208782 1.59718 37 37 35
-0.223239 0.222854 1.70483 36 37 35
-0.210832 0.219238 1.67717 37 38 35
-0.208864 0.226634 1.73375 35 37 34
-0.187328 0.212505 1.62567 35 36 34
-0.172739 0.205287 1.57045 35 36 34
-0.174051 0.217189 1.66149 36 37 35
-0.168189 0.220919 1.69003 37 38 36
-0.160732 0.222854 1.70483 37 38 36
-0.143242 0.210287 1.60869 36 38 35
-0.139611 0.217765 1.6659 36 38 35
-0.131506 0.218798 1.6738 36 37 34
-0.125014 0.222854 1.70483 35 36 33
-0.116084 0.222854 1.70483 35 37 33
-0.104708 0.217765 1.6659 36 37 34
-0.0959824 0.217765 1.6659 36 37 34
-0.0856058 0.213645 1.63439 36 37 34
-0.0778182 0.215789 1.65078 35 36 32
-0.0689036 0.214952 1.64438 34 35 30
-0.0575798 0.205287 1.57045 35 37 32
-0.0510894 0.212505 1.62567 36 37 34
-0.0442602 0.220919 1.69003 36 37 34
-0.0342423 0.213645 1.63439 36 37 34
-0.0251698 0.209386 1.6018 35 36 33
-0.0177041 0.220919 1.69003 34 35 32
-0.00885203 0.220919 1.69003 35 36 33
0 0.219238 1.67717 34 37 33
0.00886011 0.22112 1.69157 35 38 35
0.0170298 0.212505 1.62567 35 38 35
0.026354 0.219238 1.67717 35 36 34
0.0348103 0.217189 1.66149 34 35 33
0.0439234 0.219238 1.67717 34 36 34
0.0527932 0.219592 1.67988 35 36 35
0.0620207 0.22112 1.69157 36 37 35
0.0702774 0.219238 1.67717 36 37 35
0.079741 0.22112 1.69157 35 37 35
0.0856058 0.213645 1.63439 35 36 34
0.0982252 0.222854 1.70483 35 37 35
0.106321 0.22112 1.69157 36 37 35
0.113434 0.217765 1.6659 36 37 35
0.12105 0.215789 1.65078 37 38 36
0.136215 0.226634 1.73375 37 38 35
0.139241 0.217189 1.66149 37 37 35
0.144753 0.212505 1.62567 36 36 34
0.160732 0.222854 1.70483 36 36 33
0.164283 0.215789 1.65078 36 37 34
0.177333 0.221284 1.69282 36 37 34
0.176946 0.210287 1.60869 37 37 35
0.190819 0.216465 1.65596 37 37 35
0.196893 0.213645 1.63439 36 36 34
0.210409 0.218798 1.6738 35 35 33
0.219617 0.219238 1.67717 35 35 33
0.234013 0.224624 1.71838 35 36 34
0.246962 0.228274 1.74629 35 36 34
0.239696 0.213645 1.63439 35 37 34
0.252374 0.217189 1.66149 35 37 34
0.26354 0.219238 1.67717 35 37 34
0.26804 0.215789 1.65078 34 37 34
0.283265 0.220919 1.69003 35 37 35
0.282499 0.213645 1.63439 34 36 35
0.303605 0.222854 1.70483 34 36 35
0.312535 0.222854 1.70483 35 37 35
0.311273 0.215789 1.65078 35 36 34
0.335998 0.226634 1.73375 35 36 34
0.339324 0.222854 1.70483 35 36 34
0.356722 0.228274 1.74629 35 36 34
0.36002 0.224624 1.71838 35 37 35
0.360754 0.219592 1.67988 34 36 34
0.368957 0.219238 1.67717 34 35 33
0.387022 0.224624 1.71838 33 35 33
0.389489 0.220919 1.69003 34 35 34
0.398342 0.220919 1.69003 35 36 35
0.407194 0.220919 1.69003 35 36 34
0.41288 0.219238 1.67717 35 36 35
0.428619 0.222854 1.70483 34 36 34
0.441438 0.224835 1.71999 34 35 34
0.454051 0.226634 1.73375 33 35 33
0.455408 0.222854 1.70483 35 36 34
0.460726 0.22112 1.69157 35 36 35
0.484776 0.228274 1.74629 36 36 35
0.47342 0.218798 1.6738 34 35 34
0.50307 0.228274 1.74629 34 35 34
0.491942 0.219238 1.67717 34 35 34
0.513029 0.224624 1.71838 34 35 34
0.517915 0.222854 1.70483 34 36 35
0.531528 0.224835 1.71999 34 36 35
0.52354 0.217765 1.6659 34 36 35
0.549546 0.224835 1.71999 34 36 35
0.570822 0.229773 1.75776 34 36 34
0.562563 0.222854 1.70483 34 36 34
0.580198 0.226249 1.7308 34 36 35
0.575382 0.220919 1.69003 31 34 32
0.599348 0.226634 1.73375 29 33 30
0.603599 0.224835 1.71999 30 34 32
0.628243 0.230573 1.76388 32 35 33
0.635269 0.229773 1.75776 33 36 35
0.64672 0.230573 1.76388 33 36 35
0.655959 0.230573 1.76388 32 35 34
0.669496 0.232063 1.77528 31 34 33
0.682766 0.23342 1.78567 30 34 34
0.666662 0.224835 1.71999 31 35 34
0.709173 0.235983 1.80527 32 35 35
0.697157 0.228932 1.75133 33 36 35
0.699239 0.226634 1.73375 31 34 34
0.733412 0.234662 1.79517 29 33 33
0.742815 0.234662 1.79517 26 30 31
0.733849 0.228932 1.75133 25 29 30
0.748348 0.230573 1.76388 29 34 35
0.752196 0.228932 1.75133 32 36 37
0.790306 0.237633 1.81789 33 37 38
0.773371 0.229773 1.75776 34 37 38
0.773535 0.227118 1.73745 34 38 39
0.788888 0.228932 1.75133 35 38 39
0.835776 0.239751 1.8341 35 38 39
0.803043 0.227744 1.74224 35 38 39
0.849737 0.238278 1.82283 35 38 39
0.853223 0.236597 1.80997 35 38 39
0.855647 0.234662 1.79517 34 37 38
0.847025 0.229773 1.75776 32 37 38
0.840137 0.225454 1.72472 32 37 38
0.897475 0.238278 1.82283 31 37 37
0.910839 0.239281 1.8305 32 37 37
0.927237 0.241051 1.84404 32 38 37
0.897372 0.230882 1.76625 33 38 38
0.952495 0.242564 1.85562 33 38 39
0.94919 0.239281 1.8305 32 36 38
0.925126 0.230882 1.76625 32 36 38
0.97553 0.241051 1.84404 32 36 38
0.910816 0.222854 1.70483 32 37 38
0.987541 0.239281 1.8305 34 38 39
0.988388 0.237183 1.81445 34 39 40
0.997892 0.237183 1.81445 35 40 41
1.02382 0.241051 1.84404 35 40 41
1.0169 0.237183 1.81445 36 41 42
1.06659 0.246471 1.8855 35 40 41
1.04507 0.239281 1.8305 34 39 40
1.1067 0.251089 1.92083 33 38 38
1.12183 0.252229 1.92955 35 40 39
1.02205 0.227744 1.74224 36 41 40
1.13689 0.251089 1.92083 35 40 40
1.07191 0.234662 1.79517 34 39 39
1.15701 0.251089 1.92083 34 39 40
1.10752 0.238278 1.82283 34 39 39
1.16121 0.247695 1.89486 34 39 40
1.23612 0.261438 2 35 40 40
1.18106 0.247695 1.89486 36 41 40
-0.659255 0.142592 1.04887 36 37 35
-0.656288 0.143143 1.05293 36 36 34
-0.64262 0.14135 1.03974 36 36 34
-0.664535 0.14742 1.08438 36 37 34
-0.666629 0.149159 1.09718 36 36 33
-0.656759 0.148228 1.09033 36 36 33
-0.672145 0.153032 1.12567 36 36 33
-0.620798 0.142592 1.04887 36 36 33
-0.613264 0.142119 1.0454 36 36 33
-0.649998 0.151989 1.118 36 36 33
-0.636733 0.150241 1.10514 36 36 33
-0.647644 0.154217 1.13439 36 36 33
-0.613417 0.14742 1.08438 35 36 33
-0.641364 0.155576 1.14438 36 37 33
-0.620719 0.151989 1.118 36 37 34
-0.623877 0.154217 1.13439 37 38 35
-0.629686 0.15715 1.15596 36 37 35
-0.628997 0.158502 1.1659 36 37 35
-0.62891 0.160034 1.17717 36 37 35
-0.657165 0.168879 1.24224 36 36 35
-0.578848 0.150241 1.10514 36 37 35
-0.599413 0.15715 1.15596 36 37 35
-0.618445 0.163794 1.20483 36 37 34
-0.604614 0.161782 1.19003 35 36 33
-0.620365 0.167726 1.23375 36 36 34
-0.592148 0.161782 1.19003 37 37 35
-0.593203 0.163794 1.20483 36 37 35
-0.630895 0.176075 1.29517 36 37 35
-0.643876 0.181651 1.33618 36 37 34
-0.630512 0.179836 1.32283 35 36 34
-0.664519 0.191641 1.40967 35 36 34
-0.579086 0.168879 1.24224 35 36 34
-0.691389 0.203922 1.5 36 36 34
-0.626268 0.186838 1.37433 35 36 34
-0.634984 0.191641 1.40967 35 36 34
-0.667819 0.203922 1.5 34 35 33
-0.613705 0.189628 1.39486 34 35 33
-0.633682 0.19816 1.45762 34 35 32
-0.626047 0.19816 1.45762 35 36 33
-0.611906 0.196075 1.44228 37 37 34
-0.666388 0.216202 1.59033 37 37 34
-0.672678 0.221006 1.62567 37 37 34
-0.655776 0.218215 1.60514 36 36 33
-0.687577 0.231768 1.70483 36 35 33
-0.667636 0.228008 1.67717 36 36 33
-0.608452 0.210566 1.54887 35 35 32
-0.637358 0.22355 1.64438 34 35 31
-0.641282 0.228008 1.67717 34 35 31
-0.687428 0.247809 1.82283 35 36 32
-0.633999 0.231768 1.70483 36 37 34
-0.583089 0.216202 1.59033 36 37 33
-0.594294 0.22355 1.64438 37 37 34
-0.607211 0.231768 1.70483 36 36 34
-0.616856 0.238964 1.75776 35 36 33
-0.610583 0.240118 1.76625 36 36 33
-0.591527 0.236203 1.73745 36 36 34
-0.576572 0.233828 1.71999 36 37 34
-0.5835 0.240394 1.76828 37 37 35
-0.570822 0.238964 1.75776 37 37 35
-0.553943 0.235699 1.73375 37 38 35
-0.535774 0.231768 1.70483 36 37 34
-0.526844 0.231768 1.70483 35 36 32
-0.522029 0.233609 1.71838 35 37 33
-0.521363 0.237404 1.74629 35 37 33
-0.496166 0.229965 1.69157 35 37 33
-0.495028 0.233609 1.71838 35 36 32
-0.482197 0.231768 1.70483 35 36 32
-0.48796 0.238964 1.75776 34 36 31
-0.468026 0.233609 1.71838 34 36 31
-0.462345 0.235299 1.7308 34 36 31
-0.439234 0.228008 1.67717 35 37 32
-0.441025 0.233609 1.71838 36 37 33
-0.435148 0.235299 1.7308 35 37 32
-0.41288 0.228008 1.67717 34 36 32
-0.41076 0.231768 1.70483 34 36 32
-0.40183 0.231768 1.70483 34 36 32
-0.389845 0.229965 1.69157 34 36 32
-0.393309 0.237404 1.74629 34 36 32
-0.372125 0.229965 1.69157 34 36 32
-0.371689 0.235299 1.7308 34 36 33
-0.345858 0.22442 1.65078 35 37 34
-0.356722 0.237404 1.74629 35 37 33
-0.336684 0.229965 1.69157 35 37 33
-0.325033 0.228008 1.67717 35 36 32
-0.316248 0.228008 1.67717 35 36 32
-0.309821 0.229756 1.69003 34 35 32
-0.298679 0.228008 1.67717 35 36 32
-0.287947 0.226476 1.6659 35 36 33
-0.280545 0.22755 1.6738 36 37 34
-0.26804 0.22442 1.65078 38 38 36
-0.265561 0.229756 1.69003 37 38 36
-0.249776 0.22355 1.64438 37 38 36
-0.243672 0.225876 1.66149 37 38 36
-0.243241 0.233828 1.71999 37 38 36
-0.232169 0.231768 1.70483 37 38 35
-0.219617 0.228008 1.67717 36 37 35
-0.205454 0.222191 1.63439 36 37 35
-0.198869 0.22442 1.65078 35 35 33
-0.194745 0.229756 1.69003 34 35 32
-0.185893 0.229756 1.69003 34 35 32
-0.172929 0.22442 1.65078 35 36 34
-0.166909 0.228008 1.67717 35 36 34
-0.151668 0.218698 1.60869 35 37 34
-0.14934 0.228008 1.67717 36 38 34
-0.139241 0.225876 1.66149 36 38 35
-0.13177 0.228008 1.67717 37 38 35
-0.122986 0.228008 1.67717 36 37 34
-0.113133 0.225876 1.66149 35 36 32
-0.102727 0.222191 1.63439 36 37 33
-0.0982252 0.231768 1.70483 36 37 33
-0.0846727 0.219769 1.61657 36 37 33
-0.0770452 0.222191 1.63439 35 36 32
-0.0674081 0.218698 1.60869 35 36 32
-0.0605252 0.22442 1.65078 35 37 32
-0.054003 0.233609 1.71838 36 37 33
-0.0446478 0.231768 1.70483 35 36 32
-0.0354404 0.229965 1.69157 35 36 33
-0.0259394 0.22442 1.65078 34 36 32
-0.0175694 0.228008 1.67717 34 36 32
-0.00892957 0.231768 1.70483 35 37 34
0 0.22442 1.65078 35 37 34
0.0083657 0.217133 1.59718 36 38 35
0.0175694 0.228008 1.67717 36 38 35
0.0254018 0.219769 1.61657 35 37 35
0.0357183 0.231768 1.70483 35 36 34
0.0436283 0.226476 1.6659 35 36 35
0.0522154 0.225876 1.66149 35 36 35
0.0596043 0.221006 1.62567 36 37 35
0.0687778 0.223142 1.64138 36 37 35
0.0810045 0.233609 1.71838 35 37 35
0.0859722 0.223142 1.64138 35 36 34
0.0951111 0.22442 1.65078 36 37 35
0.102727 0.222191 1.63439 36 37 35
0.117116 0.233828 1.71999 34 35 34
0.125912 0.233432 1.71707 35 36 33
0.132902 0.229965 1.69157 35 36 34
0.136969 0.222191 1.63439 36 37 34
0.153009 0.233609 1.71838 37 37 35
0.155636 0.22442 1.65078 37 36 34
0.161783 0.221006 1.62567 37 37 34
0.177202 0.229965 1.69157 37 36 34
0.189011 0.233609 1.71838 37 37 34
0.190819 0.225124 1.65596 37 37 35
0.203782 0.229965 1.69157 36 36 34
0.212643 0.229965 1.69157 35 36 33
0.218142 0.226476 1.6659 35 35 33
0.232169 0.231768 1.70483 35 36 34
0.241098 0.231768 1.70483 36 37 34
0.244319 0.226476 1.6659 35 37 35
0.254244 0.22755 1.6738 36 37 35
0.259394 0.22442 1.65078 35 37 35
0.272765 0.228376 1.67988 35 37 35
0.28111 0.228008 1.67717 34 37 35
0.297017 0.233609 1.71838 34 36 34
0.30823 0.235299 1.7308 34 36 34
0.306846 0.22755 1.6738 34 36 34
0.318673 0.229756 1.69003 35 36 34
0.327525 0.229756 1.69003 35 37 35
0.320188 0.218698 1.60869 35 36 34
0.340301 0.226476 1.6659 35 36 34
0.363241 0.235699 1.73375 35 36 34
0.369021 0.233609 1.71838 34 36 34
0.375042 0.231768 1.70483 34 35 33
0.37421 0.225876 1.66149 34 35 34
0.376666 0.222191 1.63439 35 36 35
0.405023 0.233609 1.71838 35 37 35
0.417727 0.235699 1.73375 35 36 35
0.416046 0.229756 1.69003 35 36 34
0.451331 0.244049 1.79517 34 36 34
0.437549 0.231768 1.70483 34 35 33
0.446478 0.231768 1.70483 33 35 33
0.443831 0.225876 1.66149 34 35 34
0.460726 0.229965 1.69157 35 36 35
0.492823 0.241345 1.77528 36 36 35
0.465099 0.22355 1.64438 34 35 34
0.51142 0.241345 1.77528 33 34 33
0.504028 0.233609 1.71838 33 35 34
0.508985 0.231768 1.70483 33 35 33
0.533994 0.238964 1.75776 34 35 34
0.53103 0.233609 1.71838 34 36 35
0.552408 0.238964 1.75776 34 36 35
0.55795 0.237404 1.74629 34 36 35
0.562067 0.235299 1.7308 34 36 35
0.553435 0.228008 1.67717 34 36 35
0.598589 0.242757 1.78567 34 36 34
0.604406 0.241345 1.77528 31 34 32
0.613704 0.241345 1.77528 30 34 31
0.593627 0.229965 1.69157 31 34 32
0.612608 0.233828 1.71999 32 35 34
0.621617 0.233828 1.71999 33 36 34
0.644476 0.238964 1.75776 32 35 34
0.660197 0.241345 1.77528 32 35 34
0.669496 0.241345 1.77528 31 34 34
0.669638 0.23809 1.75133 30 34 34
0.683676 0.239796 1.76388 30 34 34
0.705204 0.244049 1.79517 31 34 34
0.70669 0.241345 1.77528 31 35 34
0.704298 0.237404 1.74629 30 34 33
0.702039 0.233609 1.71838 28 32 32
0.722591 0.237404 1.74629 26 30 30
0.733849 0.23809 1.75133 26 30 31
0.766716 0.245682 1.80718 30 34 35
0.754957 0.238964 1.75776 32 36 37
0.766825 0.239796 1.76388 35 39 40
0.770542 0.23809 1.75133 36 40 40
0.782578 0.238964 1.75776 36 39 40
0.814044 0.245682 1.80718 36 39 39
0.82351 0.245682 1.80718 36 38 39
0.827439 0.244049 1.79517 35 38 39
0.831636 0.242531 1.784 35 38 39
0.864596 0.249341 1.8341 35 38 39
0.861372 0.245682 1.80718 34 38 38
0.87838 0.247809 1.82283 33 38 38
0.893415 0.249341 1.8341 32 37 38
0.891144 0.246061 1.80997 32 37 37
0.878869 0.240118 1.76625 32 37 37
0.895851 0.242208 1.78162 32 38 38
0.912064 0.244049 1.79517 33 38 38
0.935665 0.247809 1.82283 32 38 38
0.956213 0.250693 1.84404 31 36 37
0.971933 0.252267 1.85562 32 36 37
0.981653 0.252267 1.85562 33 37 38
1.00734 0.25633 1.8855 34 38 39
1.03025 0.259615 1.90967 35 39 40
1.00451 0.250693 1.84404 35 40 40
1.09994 0.271895 2 36 41 41
0.996688 0.244049 1.79517 35 40 41
1.03997 0.252267 1.85562 36 41 42
1.09151 0.262318 1.92955 35 40 41
1.00354 0.238964 1.75776 34 39 40
1.04541 0.246671 1.81445 34 38 39
1.12923 0.264049 1.94228 34 39 38
1.13604 0.263269 1.93655 35 40 39
1.14205 0.262318 1.92955 35 40 40
1.14695 0.261133 1.92083 35 40 40
1.11075 0.250693 1.84404 34 39 40
1.16707 0.261133 1.92083 35 40 40
1.17713 0.261133 1.92083 35 40 41
1.17114 0.257602 1.89486 35 40 41
1.16827 0.254811 1.87433 36 41 41
-0.628536 0.141176 1 37 38 36
-0.623298 0.141176 1 36 36 35
-0.701119 0.160149 1.13439 35 35 33
-0.695177 0.160149 1.13439 35 35 32
-0.607584 0.141176 1 35 35 31
-0.631786 0.148076 1.04887 36 36 32
-0.696172 0.164598 1.1659 36 36 33
-0.67141 0.160149 1.13439 36 36 33
-0.639626 0.15393 1.09033 35 35 32
-0.659527 0.160149 1.13439 36 36 32
-0.628204 0.15393 1.09033 36 36 33
-0.622493 0.15393 1.09033 36 37 34
-0.659531 0.164598 1.1659 36 37 34
-0.659739 0.166189 1.17717 36 37 34
-0.660712 0.168004 1.19003 36 37 34
-0.574935 0.147585 1.0454 35 36 33
-0.629686 0.163194 1.15596 34 35 33
-0.635076 0.166189 1.17717 35 36 34
-0.622891 0.164598 1.1659 36 37 35
-0.60011 0.160149 1.13439 36 37 35
-0.610677 0.164598 1.1659 36 37 35
-0.61708 0.168004 1.19003 37 37 35
-0.664814 0.182847 1.29517 36 37 34
-0.658031 0.182847 1.29517 36 36 34
-0.629205 0.176659 1.25133 36 37 34
-0.608073 0.172523 1.22203 36 37 34
-0.611619 0.175375 1.24224 36 37 34
-0.619415 0.17952 1.2716 36 37 35
-0.624112 0.182847 1.29517 36 37 34
-0.630512 0.186752 1.32283 35 36 34
-0.664519 0.199012 1.40967 35 36 34
-0.640665 0.194024 1.37433 36 37 34
-0.654899 0.200588 1.42083 36 37 35
-0.664221 0.205782 1.45762 36 36 35
-0.640015 0.200588 1.42083 35 36 34
-0.648951 0.205782 1.45762 36 36 35
-0.604672 0.194024 1.37433 36 37 35
-0.633682 0.205782 1.45762 36 37 34
-0.60545 0.199012 1.40967 36 37 34
-0.615657 0.204865 1.45113 36 37 34
-0.666388 0.224518 1.59033 36 36 34
-0.664183 0.226608 1.60514 36 36 33
-0.655776 0.226608 1.60514 35 35 32
-0.641398 0.224518 1.59033 36 36 34
-0.597109 0.211765 1.5 37 37 34
-0.620352 0.222941 1.57917 36 37 34
-0.695801 0.253435 1.79517 36 37 34
-0.628745 0.232148 1.64438 36 36 33
-0.657035 0.245963 1.74224 36 36 33
-0.658829 0.250108 1.7716 36 36 33
-0.635672 0.244765 1.73375 35 36 33
-0.626591 0.244765 1.73375 36 36 33
-0.620533 0.245963 1.74224 36 37 34
-0.616856 0.248155 1.75776 35 36 34
-0.620579 0.253435 1.79517 35 36 34
-0.580422 0.240682 1.70483 35 36 33
-0.576032 0.242594 1.71838 35 36 32
-0.571132 0.244349 1.7308 36 37 34
-0.54465 0.236777 1.67717 37 38 35
-0.540467 0.23881 1.69157 36 37 34
-0.532 0.238987 1.69282 36 37 34
-0.522746 0.23881 1.69157 35 37 33
-0.514266 0.238987 1.69282 36 37 34
-0.513029 0.242594 1.71838 36 38 34
-0.511027 0.245963 1.74224 37 38 34
-0.506374 0.248155 1.75776 36 38 34
-0.475139 0.23716 1.67988 36 37 34
-0.484776 0.246535 1.74629 36 37 33
-0.478754 0.248155 1.75776 35 36 32
-0.451865 0.23881 1.69157 35 36 32
-0.439943 0.23716 1.67988 35 37 32
-0.423677 0.233052 1.65078 36 37 33
-0.435148 0.244349 1.7308 36 37 34
-0.416425 0.23881 1.69157 36 37 34
-0.417727 0.244765 1.73375 36 37 34
-0.405023 0.242594 1.71838 35 37 34
-0.376666 0.230737 1.63439 35 37 34
-0.380985 0.23881 1.69157 34 36 33
-0.359544 0.230737 1.63439 34 36 33
-0.376098 0.247247 1.75133 35 36 33
-0.357183 0.240682 1.70483 35 37 34
-0.357752 0.247247 1.75133 35 37 33
-0.34234 0.242822 1.71999 35 37 33
-0.335998 0.244765 1.73375 36 37 33
-0.332599 0.249019 1.76388 35 36 33
-0.307464 0.236777 1.67717 35 36 34
-0.303605 0.240682 1.70483 36 37 34
-0.294676 0.240682 1.70483 35 36 33
-0.28111 0.236777 1.67717 35 36 33
-0.276817 0.240682 1.70483 37 38 35
-0.255447 0.229506 1.62567 37 38 35
-0.252374 0.234564 1.66149 37 38 35
-0.250028 0.240682 1.70483 36 37 35
-0.243241 0.242822 1.71999 37 38 35
-0.230153 0.238593 1.69003 37 38 36
-0.221301 0.238593 1.69003 37 38 35
-0.216012 0.242594 1.71838 36 37 35
-0.198098 0.232148 1.64438 35 36 33
-0.190819 0.233782 1.65596 34 35 32
-0.185893 0.238593 1.69003 35 36 33
-0.16852 0.22711 1.60869 35 36 34
-0.168189 0.238593 1.69003 35 37 34
-0.155636 0.233052 1.65078 35 37 33
-0.151803 0.240682 1.70483 37 38 35
-0.150444 0.253435 1.79517 37 39 35
-0.13177 0.236777 1.67717 36 38 34
-0.121836 0.234564 1.66149 36 38 34
-0.114201 0.236777 1.67717 35 37 33
-0.101112 0.22711 1.60869 36 37 33
-0.0966315 0.236777 1.67717 36 37 33
-0.0840738 0.226608 1.60514 36 37 33
-0.0790621 0.236777 1.67717 36 37 33
-0.0702774 0.236777 1.67717 35 37 32
-0.0599241 0.230737 1.63439 36 37 33
-0.0527081 0.236777 1.67717 36 38 34
-0.0439234 0.236777 1.67717 36 37 34
-0.0354081 0.238593 1.69003 36 37 34
-0.0254018 0.228222 1.61657 35 36 34
-0.0175341 0.236302 1.6738 35 36 33
-0.00870257 0.234564 1.66149 35 36 33
0 0.236777 1.67717 34 36 33
0.00872567 0.235187 1.6659 35 37 34
0.0175694 0.236777 1.67717 36 38 35
0.0270268 0.242822 1.71999 35 37 34
0.0351387 0.236777 1.67717 34 35 33
0.0432323 0.233052 1.65078 34 35 34
0.0526022 0.236302 1.6738 34 36 34
0.0613693 0.236302 1.6738 35 36 35
0.0696205 0.234564 1.66149 35 37 35
0.0803661 0.240682 1.70483 35 36 34
0.0885203 0.238593 1.69003 35 36 34
0.0926861 0.22711 1.60869 36 37 35
0.106321 0.23881 1.69157 37 38 36
0.115181 0.23881 1.69157 35 36 34
0.126007 0.242594 1.71838 34 35 32
0.131983 0.23716 1.67988 35 36 33
0.140782 0.23716 1.67988 35 36 33
0.150485 0.238593 1.69003 36 36 34
0.162954 0.244009 1.7284 36 36 33
0.162651 0.230737 1.63439 35 36 33
0.178591 0.240682 1.70483 35 35 32
0.183239 0.235187 1.6659 36 36 34
0.19645 0.240682 1.70483 36 37 34
0.208509 0.244349 1.7308 36 37 34
0.207515 0.233052 1.65078 36 37 35
0.225013 0.242594 1.71838 36 37 34
0.224808 0.233052 1.65078 36 37 34
0.239005 0.238593 1.69003 36 37 34
0.239696 0.230737 1.63439 35 37 35
0.258957 0.240682 1.70483 36 37 35
0.270268 0.242822 1.71999 36 38 35
0.272325 0.236777 1.67717 35 37 35
0.28111 0.236777 1.67717 34 37 35
0.289894 0.236777 1.67717 34 36 34
0.300969 0.238593 1.69003 33 36 34
0.307464 0.236777 1.67717 34 36 34
0.314124 0.235187 1.6659 35 36 34
0.330394 0.240682 1.70483 35 36 34
0.336377 0.238593 1.69003 35 36 34
0.342602 0.236777 1.67717 35 37 34
0.351387 0.236777 1.67717 35 37 34
0.369367 0.242822 1.71999 35 36 34
0.375042 0.240682 1.70483 34 35 33
0.37421 0.234564 1.66149 34 35 34
0.386526 0.236777 1.67717 35 36 35
0.398342 0.238593 1.69003 34 36 34
0.41076 0.240682 1.70483 34 35 34
0.41969 0.240682 1.70483 34 35 34
0.432429 0.242822 1.71999 34 35 34
0.409919 0.225484 1.59718 34 35 33
0.446478 0.240682 1.70483 34 35 34
0.463133 0.244765 1.73375 34 35 34
0.468465 0.242822 1.71999 34 35 34
0.469158 0.238593 1.69003 34 35 34
0.502122 0.250628 1.77528 33 35 33
0.495028 0.242594 1.71838 34 35 34
0.503646 0.24241 1.71707 34 36 34
0.513029 0.242594 1.71838 34 35 34
0.53051 0.246535 1.74629 34 35 34
0.531528 0.242822 1.71999 34 36 35
0.54003 0.242594 1.71838 34 36 35
0.57053 0.252094 1.78567 34 36 34
0.582969 0.253435 1.79517 33 36 34
0.567032 0.242594 1.71838 34 36 35
0.58539 0.246535 1.74629 33 36 34
0.569857 0.236302 1.6738 31 34 33
0.609765 0.249019 1.76388 30 34 31
0.603034 0.242594 1.71838 31 34 33
0.601938 0.238593 1.69003 32 35 34
0.637481 0.249019 1.76388 33 35 34
0.635672 0.244765 1.73375 31 34 33
0.64613 0.245287 1.73745 32 35 34
0.658564 0.246535 1.74629 32 35 35
0.662915 0.244765 1.73375 32 35 35
0.678811 0.247247 1.75133 31 35 35
0.681077 0.244765 1.73375 31 35 34
0.702153 0.249019 1.76388 30 34 34
0.728085 0.254862 1.80527 29 33 32
0.725287 0.250628 1.77528 28 32 32
0.742815 0.253435 1.79517 28 32 32
0.742342 0.250108 1.7716 28 32 33
0.775342 0.258001 1.82751 31 35 36
0.771023 0.253435 1.79517 33 36 37
0.755334 0.245287 1.73745 35 39 39
0.734539 0.235694 1.6695 37 41 41
0.794259 0.251859 1.784 36 40 40
0.814044 0.255131 1.80718 35 38 39
0.807297 0.250108 1.7716 35 38 39
0.803043 0.245963 1.74224 35 38 39
0.819405 0.248155 1.75776 36 39 39
0.864596 0.258931 1.8341 35 39 39
0.889225 0.263381 1.86561 34 38 39
0.839545 0.245963 1.74224 34 38 38
0.913016 0.264612 1.87433 32 37 38
0.91854 0.263381 1.86561 31 37 37
0.950232 0.2696 1.90967 33 38 38
0.902661 0.253435 1.79517 34 39 39
0.888439 0.246871 1.74867 35 39 39
0.906623 0.249353 1.76625 34 39 40
0.930869 0.253435 1.79517 32 37 39
0.971933 0.261969 1.85562 32 36 38
0.949675 0.253435 1.79517 33 37 39
1.00734 0.266188 1.8855 34 38 39
0.93246 0.244009 1.7284 35 39 39
0.997129 0.258423 1.8305 34 39 39
1.01416 0.260335 1.84404 35 40 40
1.07837 0.274205 1.94228 35 39 40
0.985127 0.248155 1.75776 35 40 41
1.13136 0.282353 2 35 40 41
1.10889 0.274205 1.94228 35 40 40
1.1067 0.271176 1.92083 35 39 39
1.05491 0.256158 1.81445 34 39 39
1.0531 0.253435 1.79517 34 39 39
1.10135 0.2627 1.86079 35 40 39
1.08343 0.256158 1.81445 35 40 40
1.04943 0.245963 1.74224 35 40 41
1.03583 0.240682 1.70483 36 40 41
1.17029 0.2696 1.90967 35 40 41
1.0864 0.248155 1.75776 35 40 40
1.19029 0.2696 1.90967 36 41 41
-0.628536 0.146405 1 34 36 33
-0.592834 0.13925 0.951125 35 35 33
-0.646117 0.153051 1.0454 36 35 33
-0.638793 0.15261 1.04238 36 36 33
-0.666629 0.160633 1.09718 36 35 32
-0.653175 0.15876 1.08438 37 36 33
-0.683322 0.167544 1.14438 36 36 33
-0.684178 0.169238 1.15596 36 36 33
-0.671334 0.167544 1.14438 36 36 32
-0.637895 0.160633 1.09718 36 36 32
-0.602313 0.153051 1.0454 36 36 33
-0.647644 0.16608 1.13439 37 37 34
-0.613417 0.15876 1.08438 36 37 34
-0.63576 0.16608 1.13439 36 37 34
-0.684986 0.180627 1.23375 36 37 34
-0.647407 0.172344 1.17717 35 36 33
-0.617935 0.16608 1.13439 34 35 32
-0.617387 0.167544 1.14438 34 35 33
-0.63578 0.174227 1.19003 35 36 34
-0.644542 0.178377 1.21838 36 37 35
-0.667965 0.186708 1.27528 37 37 35
-0.639751 0.180627 1.23375 38 38 36
-0.652717 0.186169 1.2716 37 38 35
-0.612135 0.176394 1.20483 36 36 34
-0.614474 0.178912 1.22203 35 36 34
-0.599513 0.176394 1.20483 35 36 33
-0.669989 0.199227 1.36079 36 37 34
-0.619415 0.186169 1.2716 37 38 35
-0.655734 0.199227 1.36079 36 37 34
-0.617328 0.189619 1.29517 36 37 34
-0.657541 0.204215 1.39486 36 37 34
-0.59028 0.185386 1.26625 37 38 35
-0.654899 0.208017 1.42083 36 37 35
-0.664221 0.213403 1.45762 36 36 35
-0.675676 0.219608 1.5 35 36 35
-0.648951 0.213403 1.45762 36 37 35
-0.638459 0.212452 1.45113 37 38 36
-0.652106 0.219608 1.5 37 38 35
-0.732224 0.249596 1.70483 36 37 34
-0.575135 0.198469 1.35562 36 36 33
-0.67259 0.235 1.60514 36 36 34
-0.705436 0.249596 1.70483 37 37 34
-0.636402 0.228058 1.55772 36 36 34
-0.663197 0.240746 1.64438 37 37 34
-0.654584 0.240746 1.64438 37 37 34
-0.705204 0.262822 1.79517 37 37 35
-0.650066 0.245547 1.67717 37 37 34
-0.672096 0.257346 1.75776 37 38 35
-0.629605 0.244424 1.6695 37 38 35
-0.644753 0.25383 1.73375 36 37 34
-0.65819 0.262822 1.79517 35 36 33
-0.64027 0.259371 1.7716 34 36 32
-0.667582 0.274412 1.87433 35 36 33
-0.606552 0.253047 1.7284 35 36 33
-0.610583 0.258588 1.76625 35 37 34
-0.591527 0.254372 1.73745 35 36 34
-0.556964 0.243251 1.66149 35 36 33
-0.567032 0.251579 1.71838 34 36 33
-0.562067 0.253399 1.7308 35 36 33
-0.544704 0.249596 1.70483 36 37 34
-0.527932 0.245943 1.67988 36 37 34
-0.518296 0.245547 1.67717 36 38 34
-0.525804 0.253399 1.7308 37 38 35
-0.517619 0.25383 1.73375 37 39 35
-0.496166 0.247655 1.69157 37 38 35
-0.501902 0.255073 1.74224 37 38 35
-0.466909 0.241683 1.65078 37 38 34
-0.484776 0.255666 1.74629 37 38 35
-0.460726 0.247655 1.69157 36 37 33
-0.455408 0.249596 1.70483 35 37 32
-0.423737 0.236883 1.618 36 37 33
-0.441025 0.251579 1.71838 37 38 34
-0.425285 0.247655 1.69157 36 38 34
-0.41288 0.245547 1.67717 36 38 34
-0.426048 0.258886 1.76828 36 38 35
-0.395949 0.245943 1.67988 36 38 35
-0.383929 0.243897 1.6659 35 37 34
-0.383971 0.249596 1.70483 34 36 32
-0.378021 0.251579 1.71838 34 36 33
-0.381241 0.25991 1.77528 35 37 33
-0.357183 0.249596 1.70483 36 38 34
-0.3394 0.243251 1.66149 37 38 34
-0.345079 0.25383 1.73375 37 38 34
-0.321995 0.243251 1.66149 37 38 34
-0.318673 0.247429 1.69003 36 37 33
-0.307464 0.245547 1.67717 36 37 34
-0.300969 0.247429 1.69003 36 37 34
-0.297017 0.251579 1.71838 36 37 34
-0.288016 0.251579 1.71838 36 37 34
-0.274413 0.247429 1.69003 37 38 35
-0.259394 0.241683 1.65078 36 37 34
-0.26335 0.25383 1.73375 36 36 34
-0.243672 0.243251 1.66149 35 36 34
-0.231136 0.239283 1.63439 36 37 34
-0.230153 0.247429 1.69003 37 38 35
-0.221301 0.247429 1.69003 37 38 35
-0.21431 0.249596 1.70483 37 38 35
-0.203597 0.247429 1.69003 35 36 33
-0.192875 0.245053 1.6738 35 36 33
-0.182754 0.243251 1.66149 36 37 34
-0.180179 0.251815 1.71999 36 37 35
-0.165349 0.243251 1.66149 37 39 36
-0.164641 0.255666 1.74629 37 39 35
-0.153152 0.251815 1.71999 38 40 36
-0.145049 0.253399 1.7308 37 38 35
-0.128409 0.239283 1.63439 35 37 33
-0.125014 0.249596 1.70483 35 37 33
-0.114201 0.245547 1.67717 35 36 32
-0.105416 0.245547 1.67717 35 37 32
-0.093664 0.238006 1.62567 36 37 34
-0.0870257 0.243251 1.66149 36 37 33
-0.0783231 0.243251 1.66149 36 37 33
-0.0689036 0.240746 1.64438 35 37 32
-0.0613693 0.245053 1.6738 36 38 34
-0.052354 0.243897 1.6659 37 38 34
-0.0436283 0.243897 1.6659 37 38 34
-0.0345858 0.241683 1.65078 36 37 34
-0.0265803 0.247655 1.69157 36 38 35
-0.0181621 0.25383 1.73375 36 37 34
-0.00870257 0.243251 1.66149 35 37 34
0 0.241683 1.65078 34 37 33
0.00842601 0.235521 1.60869 35 37 34
0.0175341 0.245053 1.6738 35 37 34
0.0267887 0.249596 1.70483 34 36 34
0.0348103 0.243251 1.66149 34 36 34
0.0442602 0.247429 1.69003 34 35 34
0.052354 0.243897 1.6659 34 36 34
0.0605252 0.241683 1.65078 35 36 34
0.0702774 0.245547 1.67717 35 36 34
0.0796683 0.247429 1.69003 35 36 34
0.0842601 0.235521 1.60869 35 36 34
0.0989305 0.251389 1.71707 35 37 35
0.104083 0.242441 1.65596 36 37 35
0.110694 0.238006 1.62567 35 37 34
0.12105 0.241683 1.65078 35 36 34
0.130104 0.242441 1.65596 36 37 34
0.136969 0.239283 1.63439 36 37 34
0.14699 0.241683 1.65078 35 36 33
0.157807 0.245053 1.6738 35 36 33
0.167178 0.245943 1.67988 35 36 33
0.178591 0.249596 1.70483 35 36 33
0.183239 0.243897 1.6659 35 36 34
0.190222 0.241683 1.65078 36 36 34
0.196893 0.239283 1.63439 36 37 35
0.210832 0.245547 1.67717 36 37 35
0.218142 0.243897 1.6659 36 37 35
0.224808 0.241683 1.65078 36 37 34
0.239005 0.247429 1.69003 36 37 34
0.248083 0.247655 1.69157 36 37 35
0.254756 0.245547 1.67717 36 38 35
0.267887 0.249596 1.70483 35 37 35
0.276817 0.249596 1.70483 34 37 34
0.279221 0.243897 1.6659 34 36 34
0.287947 0.243897 1.6659 33 36 34
0.303605 0.249596 1.70483 33 36 34
0.309821 0.247429 1.69003 34 36 34
0.326917 0.25383 1.73375 35 36 34
0.325033 0.245547 1.67717 36 37 35
0.330698 0.243251 1.66149 36 37 35
0.353558 0.253399 1.7308 36 37 35
0.351387 0.245547 1.67717 35 37 34
0.359448 0.245053 1.6738 35 37 34
0.368957 0.245547 1.67717 34 36 34
0.393309 0.255666 1.74629 34 35 34
0.399565 0.25383 1.73375 34 35 34
0.411603 0.255666 1.74629 34 35 33
0.407565 0.247655 1.69157 34 35 34
0.409021 0.243251 1.66149 34 35 34
