ply
format ascii 1.0
element vertex 1348
property float x
property float y
property float z
property uchar red
property uchar green
property uchar blue
end_header
0.0783231 0.0781879 1.66149 36 37 34
0.0872567 0.0783955 1.6659 36 38 34
0.093664 0.0765019 1.62567 37 38 34
0.104431 0.0781879 1.66149 37 38 35
0.113133 0.0781879 1.66149 36 37 34
0.118542 0.076074 1.61657 35 36 32
0.132902 0.0796034 1.69157 35 37 33
0.136239 0.0765019 1.62567 36 38 34
0.150485 0.0795308 1.69003 36 38 34
0.155636 0.0776839 1.65078 36 38 34
0.160094 0.0757032 1.60869 36 37 34
0.177041 0.0795308 1.69003 36 37 34
0.182754 0.0781879 1.66149 35 37 34
0.193263 0.0789257 1.67717 35 36 33
0.198869 0.0776839 1.65078 36 37 34
0.200777 0.0751614 1.59718 36 37 33
0.217564 0.0781879 1.66149 36 37 33
0.220149 0.076074 1.61657 36 37 33
0.23255 0.0773828 1.64438 37 38 34
0.247857 0.0795308 1.69003 37 38 34
0.248257 0.0769123 1.63439 37 38 34
0.265803 0.0796034 1.69157 37 38 34
0.267001 0.0773828 1.64438 36 38 34
0.285746 0.0802274 1.70483 35 37 32
0.289894 0.0789257 1.67717 35 36 32
0.301244 0.0796034 1.69157 35 37 33
0.312535 0.0802274 1.70483 36 37 34
0.324708 0.0810369 1.72203 36 38 34
0.330394 0.0802274 1.70483 34 36 33
0.339324 0.0802274 1.70483 33 36 32
0.340301 0.0783955 1.6659 34 36 33
0.349027 0.0783955 1.6659 35 37 33
0.356805 0.0781879 1.66149 34 37 33
0.36429 0.0779274 1.65596 35 37 33
0.37421 0.0781879 1.66149 35 37 34
0.392901 0.0802274 1.70483 36 37 33
0.381027 0.076074 1.61657 35 37 33
0.407194 0.0795308 1.69003 35 36 32
0.407658 0.0779274 1.65596 36 37 34
0.417723 0.0781879 1.66149 36 38 35
0.452704 0.0830063 1.76388 34 37 33
0.433679 0.0779274 1.65596 33 36 32
0.451454 0.0795308 1.69003 34 36 33
0.473222 0.0817624 1.73745 34 37 34
0.469158 0.0795308 1.69003 35 37 34
0.465099 0.0773828 1.64438 34 37 34
0.486862 0.0795308 1.69003 35 37 34
0.500056 0.0802274 1.70483 35 37 34
0.516739 0.0814495 1.7308 35 37 34
0.522519 0.0809406 1.71999 35 37 34
0.536925 0.0817624 1.73745 35 36 33
0.544862 0.0815882 1.73375 34 35 32
0.553943 0.0815882 1.73375 34 36 32
0.54465 0.0789257 1.67717 34 35 31
0.562563 0.0802274 1.70483 34 36 32
0.576572 0.0809406 1.71999 34 36 32
0.604406 0.0835426 1.77528 34 36 33
0.599348 0.0815882 1.73375 34 36 33
0.611408 0.0819877 1.74224 34 37 33
0.607211 0.0802274 1.70483 34 36 33
0.6416 0.0835426 1.77528 34 36 34
0.630035 0.0808647 1.71838 35 37 35
0.649417 0.0821785 1.74629 34 37 35
0.653834 0.0815882 1.73375 34 37 35
0.651858 0.0802274 1.70483 34 36 35
0.64399 0.0781879 1.66149 34 37 35
0.692915 0.0830063 1.76388 33 35 34
0.678647 0.0802274 1.70483 32 35 33
0.724009 0.0844785 1.79517 33 35 34
0.685205 0.0789257 1.67717 34 36 35
0.724676 0.0824156 1.75133 34 36 35
0.730039 0.0819877 1.74224 33 36 34
0.723295 0.0802274 1.70483 34 37 35
0.752196 0.0824156 1.75133 34 36 35
0.741154 0.0802274 1.70483 33 35 34
0.742714 0.0794392 1.68808 32 34 34
0.799231 0.0844785 1.79517 33 35 35
0.830649 0.0867784 1.84404 33 36 35
0.804859 0.0831176 1.76625 33 35 35
0.800837 0.0817624 1.73745 33 36 35
0.825856 0.0833694 1.7716 32 35 34
0.846245 0.0844785 1.79517 30 34 33
0.855647 0.0844785 1.79517 28 32 31
0.851116 0.0831176 1.76625 26 30 30
0.887927 0.0857802 1.82283 25 30 30
0.897475 0.0857802 1.82283 26 30 32
0.848309 0.0802274 1.70483 26 31 33
0.922235 0.0863104 1.8341 26 32 34
0.885172 0.0819877 1.74224 28 33 35
0.921467 0.0844785 1.79517 31 36 37
0.956213 0.0867784 1.84404 34 38 39
0.992491 0.08917 1.89486 35 39 40
0.949675 0.0844785 1.79517 36 39 40
1.04023 0.0916269 1.94707 35 39 40
1.01721 0.0887295 1.8855 34 38 39
0.928675 0.0802274 1.70483 33 37 38
1.00672 0.0861411 1.8305 30 35 37
1.11041 0.0941176 2 30 35 37
1.0169 0.085386 1.81445 31 37 38
0.980751 0.0815882 1.73375 33 38 39
1.06236 0.0875666 1.86079 34 39 40
1.04541 0.085386 1.81445 34 39 40
1.0437 0.0844785 1.79517 36 40 41
1.0916 0.0875666 1.86079 36 41 42
1.10936 0.088204 1.87433 36 40 41
1.14695 0.0903921 1.92083 36 40 41
1.11075 0.0867784 1.84404 36 40 41
1.16028 0.0898666 1.90967 35 40 41
1.22564 0.0941176 2 35 39 40
1.18029 0.0898666 1.90967 35 39 40
1.2466 0.0941176 2 33 38 39
-0.628536 0.0522876 1 36 36 31
-0.623298 0.0522876 1 37 37 31
-0.5935 0.0502098 0.960263 37 37 32
-0.635745 0.0542434 1.03741 37 36 32
-0.607584 0.0522876 1 37 36 32
-0.559913 0.0486041 0.929553 36 36 32
-0.597109 0.0522876 1 36 36 31
-0.616954 0.0545035 1.04238 35 36 30
-0.608576 0.0542434 1.03741 35 36 31
-0.601937 0.054135 1.03533 35 36 30
-0.576158 0.0522876 1 35 36 31
-0.595115 0.0545035 1.04238 35 36 32
-0.585668 0.054135 1.03533 35 37 32
-0.622765 0.0581019 1.1112 36 37 33
-0.59916 0.056427 1.07917 36 37 32
-0.57054 0.0542434 1.03741 36 38 32
-0.585342 0.0561858 1.07455 36 38 33
-0.579714 0.0561858 1.07455 36 38 32
-0.593664 0.0581019 1.1112 37 37 33
-0.566285 0.0559711 1.07045 37 37 33
-0.562829 0.0561858 1.07455 36 37 32
-0.594828 0.05998 1.14712 36 36 32
-0.573872 0.0584573 1.118 36 37 32
-0.576343 0.0593143 1.13439 36 37 31
-0.58625 0.0609623 1.1659 36 37 32
-0.599513 0.0629978 1.20483 37 38 32
-0.593203 0.0629978 1.20483 37 38 33
-0.56793 0.0609623 1.1659 37 38 34
-0.624112 0.0677212 1.29517 37 38 33
-0.580726 0.0637059 1.21838 36 38 33
-0.539465 0.0598371 1.14438 37 39 34
-0.561649 0.0629978 1.20483 38 39 34
-0.576771 0.0654291 1.25133 37 39 34
-0.590192 0.0677212 1.29517 37 39 33
-0.572793 0.0664889 1.2716 36 37 32
-0.576625 0.0677212 1.29517 35 36 30
-0.582011 0.0691675 1.32283 36 37 31
-0.584305 0.0702767 1.34404 36 37 32
-0.582236 0.0708819 1.35562 36 37 32
-0.589214 0.072617 1.3888 36 36 31
-0.575878 0.0718606 1.37433 36 37 32
-0.603143 0.0762155 1.45762 37 37 32
-0.592854 0.0758758 1.45113 36 37 32
-0.587874 0.0762155 1.45762 36 36 32
-0.616564 0.0809869 1.54887 36 36 32
-0.589252 0.0784314 1.5 36 36 32
-0.622146 0.0839287 1.60514 36 37 33
-0.592226 0.0809869 1.54887 37 38 34
-0.565682 0.0784314 1.5 37 38 34
-0.62086 0.0872942 1.6695 38 38 34
-0.57113 0.0814492 1.55772 37 38 34
-0.594294 0.0859809 1.64438 37 37 34
-0.607211 0.0891416 1.70483 36 37 33
-0.546653 0.0814492 1.55772 35 36 32
-0.589351 0.0891416 1.70483 36 37 33
-0.580422 0.0891416 1.70483 38 39 34
-0.571492 0.0891416 1.70483 37 39 34
-0.608499 0.0964205 1.84404 37 38 33
-0.534003 0.0859809 1.64438 37 38 34
-0.519409 0.0850021 1.62567 37 38 34
-0.552408 0.0919091 1.75776 37 38 34
-0.540391 0.0914336 1.74867 37 38 34
-0.522519 0.089934 1.71999 37 38 34
-0.508985 0.0891416 1.70483 37 38 34
-0.491942 0.0876952 1.67717 37 38 34
-0.491126 0.0891416 1.70483 37 37 33
-0.466909 0.0863154 1.65078 37 37 33
-0.469158 0.0883676 1.69003 36 37 33
-0.460306 0.0883676 1.69003 36 37 32
-0.455408 0.0891416 1.70483 36 37 32
-0.446478 0.0891416 1.70483 36 37 32
-0.437549 0.0891416 1.70483 36 37 32
-0.41503 0.0863154 1.65078 35 36 32
-0.412051 0.0875191 1.6738 36 37 33
-0.404095 0.0876952 1.67717 37 38 34
-0.40183 0.0891416 1.70483 36 37 34
-0.366513 0.0831547 1.59033 35 37 33
-0.377741 0.0876952 1.67717 34 36 31
-0.375042 0.0891416 1.70483 35 36 33
-0.362933 0.0883676 1.69003 35 36 33
-0.348103 0.0868755 1.66149 34 36 32
-0.3394 0.0868755 1.66149 34 35 31
-0.34234 0.089934 1.71999 34 36 32
-0.316742 0.0854581 1.63439 35 37 33
-0.308181 0.0854581 1.63439 36 37 34
-0.301453 0.0859809 1.64438 36 37 34
-0.29398 0.0863154 1.65078 36 37 34
-0.283708 0.0858239 1.64138 35 36 32
-0.283265 0.0883676 1.69003 35 36 32
-0.270496 0.0871061 1.6659 35 36 32
-0.261077 0.0868755 1.66149 36 37 34
-0.253044 0.0871061 1.6659 36 37 35
-0.25225 0.089934 1.71999 36 37 34
-0.239223 0.0884482 1.69157 35 36 34
-0.230363 0.0884482 1.69157 36 37 34
-0.216162 0.0863154 1.65078 38 38 35
-0.21431 0.0891416 1.70483 38 37 35
-0.198098 0.0859809 1.64438 37 37 34
-0.189485 0.0859809 1.64438 37 36 34
-0.172739 0.0821148 1.57045 36 36 34
-0.177041 0.0883676 1.69003 36 37 35
-0.17254 0.0906536 1.73375 36 37 35
-0.156124 0.0865861 1.65596 36 37 35
-0.150485 0.0883676 1.69003 36 37 34
-0.138343 0.0863154 1.65078 35 36 34
-0.129194 0.0859809 1.64438 35 36 33
-0.123928 0.0883676 1.69003 36 36 34
-0.114201 0.0876952 1.67717 37 37 35
-0.106224 0.0883676 1.69003 37 37 35
-0.0916283 0.0831547 1.59033 37 37 35
-0.0870257 0.0868755 1.66149 37 37 35
-0.0758341 0.0841147 1.60869 37 38 35
-0.0708809 0.0884482 1.69157 37 38 35
-0.0596043 0.0850021 1.62567 37 38 35
-0.0531606 0.0884482 1.69157 38 39 36
-0.0428029 0.0854581 1.63439 37 38 35
-0.0340596 0.0850021 1.62567 36 37 34
-0.0261077 0.0868755 1.66149 35 37 34
-0.0171212 0.0854581 1.63439 35 36 33
-0.00851491 0.0850021 1.62567 34 36 32
0 0.0863154 1.65078 35 37 33
0.00859722 0.0858239 1.64138 35 38 34
0.0177041 0.0883676 1.69003 36 38 35
0.024236 0.0806472 1.54238 36 38 35
0.0331947 0.0828437 1.58438 36 38 35
0.0433679 0.0865861 1.65596 35 37 34
0.052354 0.0871061 1.6659 35 36 34
0.062507 0.0891416 1.70483 36 37 35
0.0702774 0.0876952 1.67717 36 37 34
0.079741 0.0884482 1.69157 36 38 34
0.0876704 0.0875191 1.6738 37 38 34
0.0947425 0.0859809 1.64438 37 38 35
0.102727 0.0854581 1.63439 37 38 35
0.116084 0.0891416 1.70483 36 38 34
0.122986 0.0876952 1.67717 35 37 33
0.128958 0.0858239 1.64138 34 36 32
0.142873 0.0891416 1.70483 35 37 33
0.146153 0.0858239 1.64138 36 38 34
0.152411 0.0845266 1.61657 36 38 34
0.166909 0.0876952 1.67717 36 37 34
0.178591 0.0891416 1.70483 36 37 34
0.181576 0.0863154 1.65078 36 37 34
0.185372 0.0841147 1.60869 35 36 33
0.194919 0.0846011 1.618 34 36 32
0.210832 0.0876952 1.67717 35 37 33
0.21065 0.0841147 1.60869 36 37 33
0.232169 0.0891416 1.70483 37 38 34
0.237186 0.0876952 1.67717 37 38 34
0.242101 0.0863154 1.65078 37 38 34
0.248257 0.0854581 1.63439 37 38 34
0.256817 0.0854581 1.63439 36 38 34
0.267001 0.0859809 1.64438 37 38 34
0.279221 0.0871061 1.6659 35 37 32
0.285333 0.0863154 1.65078 34 35 30
0.301244 0.0884482 1.69157 35 36 33
0.309821 0.0883676 1.69003 36 37 34
0.313292 0.0868755 1.66149 36 38 34
0.315052 0.0850021 1.62567 36 38 35
0.336377 0.0883676 1.69003 35 37 34
0.348253 0.0891416 1.70483 34 36 33
0.354081 0.0883676 1.69003 34 36 33
0.369367 0.089934 1.71999 34 36 33
0.361744 0.0859809 1.64438 34 37 33
0.372964 0.0865861 1.65596 35 37 33
0.389041 0.0882658 1.68808 35 36 32
0.395311 0.0876952 1.67717 35 37 33
0.414411 0.089934 1.71999 35 36 32
0.416046 0.0883676 1.69003 35 37 34
0.413422 0.0859809 1.64438 35 37 34
0.437549 0.0891416 1.70483 34 36 32
0.450447 0.089934 1.71999 33 36 32
0.455408 0.0891416 1.70483 34 36 33
0.469023 0.090041 1.72203 35 37 34
0.448765 0.0845266 1.61657 35 38 35
0.493923 0.0913094 1.74629 35 37 34
0.495492 0.089934 1.71999 35 37 34
0.513695 0.0915729 1.75133 36 37 34
0.505026 0.0884482 1.69157 35 37 34
0.532041 0.0915729 1.75133 35 36 33
0.535781 0.0906536 1.73375 35 36 33
0.526022 0.0875191 1.6738 35 36 32
0.56357 0.0922292 1.76388 35 36 33
0.563024 0.0906536 1.73375 35 37 33
0.585809 0.0928251 1.77528 36 37 34
0.58539 0.0913094 1.74629 35 37 34
0.590267 0.0906536 1.73375 35 37 34
0.574369 0.0868755 1.66149 35 37 34
0.608429 0.0906536 1.73375 34 36 33
0.597358 0.0876952 1.67717 33 36 32
0.61614 0.0891416 1.70483 33 35 33
0.642118 0.0915729 1.75133 33 36 34
0.649417 0.0913094 1.74629 34 37 35
0.637346 0.0883676 1.69003 34 37 35
0.651858 0.0891416 1.70483 34 37 35
0.660788 0.0891416 1.70483 34 36 35
0.681077 0.0906536 1.73375 32 35 33
0.695151 0.0913094 1.74629 33 35 34
0.699239 0.0906536 1.73375 33 36 34
0.73754 0.0943933 1.80527 33 36 34
0.72987 0.0922292 1.76388 33 36 34
0.702774 0.0876952 1.67717 34 36 35
0.735563 0.0906536 1.73375 35 37 36
0.762481 0.0928251 1.77528 34 36 35
0.785647 0.0944929 1.80718 34 35 35
0.736431 0.0875191 1.6738 33 35 34
0.809349 0.0950533 1.81789 33 35 35
0.782636 0.0908471 1.73745 33 35 35
0.807297 0.0926327 1.7716 32 35 35
0.810198 0.0919091 1.75776 33 36 35
0.812168 0.0910974 1.74224 33 35 35
0.853223 0.0946389 1.80997 30 33 34
0.837819 0.0919091 1.75776 28 31 32
0.831104 0.0901815 1.72472 26 30 31
0.860367 0.0923529 1.76625 26 31 32
0.839379 0.0891416 1.70483 29 35 35
0.848309 0.0891416 1.70483 31 36 37
0.933056 0.0970256 1.85562 30 35 37
0.888439 0.0914336 1.74867 29 34 36
0.939602 0.0957123 1.8305 31 36 37
0.921949 0.0929655 1.77797 34 37 38
0.950373 0.0948733 1.81445 34 37 38
0.97553 0.0964205 1.84404 34 38 39
0.969381 0.0948733 1.81445 35 38 39
0.919745 0.0891416 1.70483 35 38 39
1.02101 0.0980044 1.87433 33 37 38
1.02053 0.0970256 1.85562 31 36 37
0.996688 0.0938649 1.79517 31 36 37
0.985127 0.0919091 1.75776 33 38 39
1.09151 0.100892 1.92955 34 39 40
0.989832 0.0906536 1.73375 35 39 41
1.07991 0.0980044 1.87433 35 40 41
1.11027 0.0998518 1.90967 35 39 41
1.13194 0.100892 1.92955 35 40 41
1.09143 0.0964205 1.84404 36 41 42
1.14695 0.100436 1.92083 37 41 42
1.09797 0.0953113 1.82283 36 41 42
1.16028 0.0998518 1.90967 35 40 41
1.22564 0.104575 2 34 39 39
1.12662 0.0953113 1.82283 35 39 40
1.16827 0.0980044 1.87433 34 39 40
-0.628536 0.0575163 1 35 35 30
-0.601276 0.0554842 0.964669 36 36 31
-0.639897 0.0595485 1.03533 37 36 32
-0.59117 0.0554842 0.964669 37 36 32
-0.607584 0.0575163 1 37 37 33
-0.624877 0.0596677 1.03741 37 37 32
-0.597109 0.0575163 1 36 36 31
-0.61401 0.0596677 1.03741 36 36 32
-0.565907 0.0554842 0.964669 36 37 32
-0.581395 0.0575163 1 35 36 31
-0.596514 0.0595485 1.03533 35 36 32
-0.611139 0.0615682 1.07045 35 36 32
-0.605532 0.0615682 1.07045 34 36 32
-0.580245 0.0595485 1.03533 35 37 33
-0.596599 0.0618044 1.07455 36 38 33
-0.593508 0.0620697 1.07917 37 38 33
-0.605305 0.0639121 1.1112 37 38 34
-0.618861 0.065978 1.14712 37 38 32
-0.608628 0.0655231 1.13921 37 37 32
-0.570898 0.0620697 1.07917 36 36 32
-0.631067 0.0692976 1.20483 35 36 31
-0.610412 0.0677066 1.17717 36 36 32
-0.556619 0.0623698 1.08438 36 37 32
-0.612135 0.0692976 1.20483 36 37 31
-0.591915 0.0677066 1.17717 36 37 32
-0.593537 0.0686068 1.19282 36 37 31
-0.569139 0.0664865 1.15596 36 37 31
-0.586892 0.0692976 1.20483 36 37 32
-0.573448 0.0684462 1.19003 36 37 32
-0.607848 0.0733494 1.27528 36 38 33
-0.560982 0.0684462 1.19003 37 39 34
-0.561649 0.0692976 1.20483 38 39 34
-0.605866 0.0756025 1.31445 38 39 34
-0.600549 0.0758004 1.31789 37 38 32
-0.550466 0.070287 1.22203 36 37 31
-0.605841 0.0782677 1.36079 35 36 30
-0.604672 0.0790467 1.37433 35 36 31
-0.523785 0.0692976 1.20483 36 37 31
-0.556273 0.0744933 1.29517 36 37 31
-0.589214 0.0798787 1.3888 37 37 32
-0.563185 0.0773044 1.34404 37 38 33
-0.577175 0.0802274 1.39486 37 37 33
-0.543573 0.0765254 1.3305 36 37 32
-0.604965 0.0862745 1.5 36 36 32
-0.597109 0.0862745 1.5 36 37 32
-0.553766 0.0810788 1.40967 36 37 33
-0.603766 0.0895941 1.55772 36 37 33
-0.595607 0.0895941 1.55772 36 37 33
-0.584114 0.0890856 1.54887 37 38 34
-0.576001 0.0890856 1.54887 37 38 34
-0.644476 0.1011 1.75776 36 37 33
-0.603371 0.0960236 1.6695 37 37 33
-0.579014 0.0935024 1.62567 37 38 34
-0.598281 0.0980557 1.70483 36 37 33
-0.518542 0.0862745 1.5 36 37 33
-0.559842 0.094579 1.64438 37 38 34
-0.581186 0.099719 1.73375 37 38 34
-0.553435 0.0964647 1.67717 36 37 33
-0.553633 0.0980557 1.70483 35 36 31
-0.553943 0.099719 1.73375 36 37 33
-0.54318 0.0994113 1.7284 36 37 34
-0.543201 0.1011 1.75776 37 37 34
-0.513418 0.0972043 1.69003 37 38 34
-0.517619 0.099719 1.73375 37 38 34
-0.487344 0.095563 1.66149 37 38 34
-0.486862 0.0972043 1.69003 37 38 34
-0.474373 0.0964647 1.67717 37 38 33
-0.473267 0.0980557 1.70483 36 37 33
-0.464337 0.0980557 1.70483 36 37 32
-0.451454 0.0972043 1.69003 36 37 33
-0.450025 0.0988347 1.71838 37 37 33
-0.426426 0.095563 1.66149 36 37 32
-0.428619 0.0980557 1.70483 35 36 31
-0.41969 0.0980557 1.70483 36 38 34
-0.420749 0.10044 1.74629 37 38 35
-0.408646 0.099719 1.73375 37 38 34
-0.399565 0.099719 1.73375 36 37 34
-0.380985 0.097293 1.69157 35 37 33
-0.365508 0.095563 1.66149 36 37 34
-0.360172 0.0964647 1.67717 36 37 34
-0.351387 0.0964647 1.67717 36 37 34
-0.332081 0.0935024 1.62567 35 36 32
-0.317897 0.0918639 1.59718 34 36 32
-0.325033 0.0964647 1.67717 35 36 33
-0.321464 0.0980557 1.70483 36 37 34
-0.307464 0.0964647 1.67717 36 37 34
-0.308755 0.099719 1.73375 36 38 34
-0.282499 0.0940039 1.63439 36 37 33
-0.268477 0.0921299 1.6018 35 36 32
-0.274413 0.0972043 1.69003 36 37 33
-0.26354 0.0964647 1.67717 36 38 35
-0.256709 0.0972043 1.69003 36 37 34
-0.245971 0.0964647 1.67717 36 37 35
-0.231136 0.0940039 1.63439 35 36 33
-0.230153 0.0972043 1.69003 36 36 33
-0.21065 0.0925261 1.60869 37 37 34
-0.207515 0.094947 1.65078 37 37 34
-0.203782 0.097293 1.69157 37 37 33
-0.191965 0.0958167 1.6659 37 36 33
-0.184478 0.0964647 1.67717 36 36 34
-0.178591 0.0980557 1.70483 36 37 35
-0.161783 0.0935024 1.62567 36 37 35
-0.152411 0.0929793 1.61657 37 37 35
-0.143944 0.0929793 1.61657 36 37 34
-0.139241 0.095563 1.66149 35 36 34
-0.131506 0.096271 1.6738 35 36 33
-0.123928 0.0972043 1.69003 36 36 34
-0.111288 0.0940039 1.63439 36 37 34
-0.105416 0.0964647 1.67717 36 37 34
-0.0957282 0.095563 1.66149 36 37 34
-0.0846727 0.0929793 1.61657 36 36 34
-0.0755093 0.0921299 1.6018 36 37 34
-0.0696205 0.095563 1.66149 37 37 35
-0.060918 0.095563 1.66149 38 38 36
-0.052354 0.0958167 1.6659 38 39 36
-0.0435128 0.095563 1.66149 37 38 35
-0.033704 0.0925261 1.60869 37 38 35
-0.0260207 0.0952447 1.65596 37 38 35
-0.0178591 0.0980557 1.70483 37 38 35
-0.00856058 0.0940039 1.63439 36 38 34
0 0.0929793 1.61657 36 38 35
0.00861295 0.094579 1.64438 35 38 34
0.0177041 0.0972043 1.69003 35 37 34
0.0263966 0.0966205 1.67988 36 38 35
0.0343889 0.0944063 1.64138 36 38 35
0.0439943 0.0966205 1.67988 36 37 35
0.0522154 0.095563 1.66149 35 37 34
0.060715 0.0952447 1.65596 36 37 35
0.0696205 0.095563 1.66149 36 37 34
0.0758341 0.0925261 1.60869 36 37 34
0.0846727 0.0929793 1.61657 36 37 34
0.0941664 0.0940039 1.63439 36 37 34
0.101607 0.0929793 1.61657 36 37 34
0.114201 0.0964647 1.67717 36 37 34
0.118646 0.0930612 1.618 36 37 34
0.130885 0.0958167 1.6659 35 37 33
0.136969 0.0940039 1.63439 36 37 34
0.14642 0.094579 1.64438 37 38 35
0.156646 0.095563 1.66149 36 38 35
0.164283 0.094947 1.65078 36 37 34
0.175694 0.0964647 1.67717 35 37 34
0.185893 0.0972043 1.69003 35 37 34
0.189485 0.094579 1.64438 35 37 34
0.207012 0.0988347 1.71838 35 37 34
0.207515 0.094947 1.65078 36 37 34
0.215324 0.094579 1.64438 36 38 34
0.222575 0.0940039 1.63439 37 38 34
0.229902 0.0935024 1.62567 37 38 34
0.243672 0.095563 1.66149 36 38 34
0.256943 0.097293 1.69157 36 37 33
0.26354 0.0964647 1.67717 35 37 32
0.265378 0.0940039 1.63439 36 38 34
0.272477 0.0935024 1.62567 36 38 34
0.285333 0.094947 1.65078 36 37 33
0.301244 0.097293 1.69157 36 38 34
0.29962 0.0940039 1.63439 36 37 34
0.315613 0.096271 1.6738 35 37 34
0.327525 0.0972043 1.69003 35 36 33
0.333818 0.0964647 1.67717 35 36 34
0.341914 0.096271 1.6738 34 36 34
0.357183 0.0980557 1.70483 34 36 33
0.354505 0.094947 1.65078 34 37 34
0.36429 0.0952447 1.65596 34 37 34
0.376983 0.096271 1.6738 34 36 33
0.389041 0.0970924 1.68808 34 35 31
0.394517 0.096271 1.6738 35 36 33
0.384822 0.0918639 1.59718 35 36 33
0.409021 0.095563 1.66149 35 37 34
0.428619 0.0980557 1.70483 35 37 34
0.426426 0.095563 1.66149 34 37 33
0.438352 0.096271 1.6738 34 37 34
0.451454 0.0972043 1.69003 35 37 34
0.455886 0.096271 1.6738 35 37 34
0.469158 0.0972043 1.69003 35 37 34
0.490376 0.099719 1.73375 35 37 34
0.478641 0.095563 1.66149 35 37 34
0.504501 0.0989274 1.71999 36 37 35
0.517619 0.099719 1.73375 35 36 33
0.532041 0.10073 1.75133 34 36 32
0.526844 0.0980557 1.70483 34 36 33
0.535774 0.0980557 1.70483 34 36 32
0.549031 0.0988347 1.71838 35 36 33
0.558031 0.0988347 1.71838 35 37 33
0.562563 0.0980557 1.70483 35 37 34
0.567047 0.097293 1.69157 35 37 34
0.600526 0.101452 1.76388 35 37 34
0.583561 0.0970924 1.68808 35 37 34
0.614599 0.10073 1.75133 34 36 33
0.621977 0.10044 1.74629 33 35 32
0.606143 0.0964647 1.67717 33 35 33
0.644476 0.1011 1.75776 33 36 34
0.655959 0.101452 1.76388 33 36 34
0.665198 0.101452 1.76388 34 36 35
0.662915 0.099719 1.73375 34 36 35
0.676858 0.10044 1.74629 34 36 35
0.663903 0.0972043 1.69003 34 36 35
0.695151 0.10044 1.74629 34 36 35
0.687577 0.0980557 1.70483 33 36 34
0.709832 0.0999318 1.73745 32 35 34
0.72987 0.101452 1.76388 32 35 34
0.752218 0.103251 1.79517 33 36 34
0.723295 0.0980557 1.70483 33 36 35
0.754957 0.1011 1.75776 32 35 34
0.757415 0.100207 1.74224 32 35 34
0.779459 0.101896 1.7716 32 35 34
0.766672 0.0990451 1.72203 33 35 35
0.802533 0.102472 1.78162 33 36 35
0.828393 0.104559 1.81789 32 35 35
0.837915 0.104559 1.81789 31 35 34
0.869682 0.107303 1.86561 29 32 33
0.859285 0.104842 1.82283 27 31 32
0.841864 0.101588 1.76625 26 30 32
0.812227 0.0969465 1.68555 25 29 31
0.887927 0.104842 1.82283 30 35 36
0.883856 0.103251 1.79517 34 38 39
0.866921 0.100207 1.74224 35 39 40
0.87928 0.100577 1.74867 36 40 41
0.970236 0.109837 1.90967 34 38 39
0.912637 0.102262 1.77797 31 36 37
0.94919 0.105284 1.8305 32 36 37
0.892957 0.0980557 1.70483 34 37 38
0.949675 0.103251 1.79517 34 37 38
1.00734 0.108447 1.8855 34 38 39
0.987541 0.105284 1.8305 34 37 38
1.00451 0.106063 1.84404 32 36 37
1.03082 0.107805 1.87433 32 36 37
1.0163 0.105284 1.8305 33 37 38
0.97167 0.099719 1.73375 35 39 40
1.05262 0.107026 1.86079 35 39 40
0.989832 0.099719 1.73375 35 40 41
1.07211 0.107026 1.86079 36 40 41
1.07212 0.106063 1.84404 35 40 41
1.01708 0.099719 1.73375 35 39 40
1.14619 0.111383 1.93655 37 41 42
1.04031 0.100207 1.74224 38 42 43
1.04943 0.100207 1.74224 37 41 42
1.10752 0.104842 1.82283 35 40 41
1.11707 0.104842 1.82283 34 39 40
1.18719 0.110479 1.92083 35 39 40
1.19029 0.109837 1.90967 33 38 39
-0.581676 0.0580672 0.925446 36 36 31
-0.599983 0.0603981 0.962595 36 36 31
-0.594941 0.0603981 0.962595 37 36 32
-0.612822 0.0627451 1 37 36 32
-0.584858 0.0603981 0.962595 37 37 33
-0.623628 0.064962 1.03533 37 37 33
-0.597109 0.0627451 1 37 37 32
-0.61539 0.0652384 1.03974 36 37 32
-0.608576 0.0650921 1.03741 36 37 33
-0.581395 0.0627451 1 36 38 33
-0.553263 0.0602518 0.960263 37 38 34
-0.634406 0.0697223 1.1112 36 37 33
-0.585668 0.064962 1.03533 35 37 32
-0.580245 0.064962 1.03533 35 37 32
-0.602057 0.0680398 1.08438 36 38 33
-0.571823 0.0652384 1.03974 37 38 33
-0.609007 0.0701488 1.118 37 38 33
-0.575513 0.0669344 1.06677 36 38 32
-0.57655 0.0677124 1.07917 37 37 32
-0.591439 0.0701488 1.118 36 36 32
-0.565246 0.0677124 1.07917 36 36 32
-0.579728 0.0701488 1.118 36 36 32
-0.577809 0.07063 1.12567 36 37 32
-0.553962 0.0684131 1.09033 35 36 31
-0.599785 0.0748438 1.19282 36 37 32
-0.560121 0.07063 1.12567 36 37 32
-0.558518 0.0711772 1.13439 36 37 32
-0.593489 0.0764471 1.21838 36 37 32
-0.602988 0.0785149 1.25133 36 37 32
-0.588054 0.0774118 1.23375 36 37 33
-0.560982 0.0746686 1.19003 37 38 33
-0.592774 0.0797866 1.2716 37 38 33
-0.576771 0.0785149 1.25133 37 38 34
-0.570217 0.0785149 1.25133 36 38 32
-0.605424 0.084332 1.34404 37 38 32
-0.58894 0.083001 1.32283 37 38 33
-0.587887 0.0838389 1.33618 36 37 32
-0.597474 0.0862327 1.37433 37 37 32
-0.60545 0.0884496 1.40967 36 37 32
-0.575135 0.0850582 1.35562 38 39 34
-0.575878 0.0862327 1.37433 37 38 34
-0.600455 0.091051 1.45113 37 38 34
-0.561482 0.0862327 1.37433 36 37 33
-0.604965 0.0941176 1.5 36 36 32
-0.613979 0.0967767 1.54238 36 37 33
-0.630553 0.100714 1.60514 37 38 34
-0.581395 0.0941176 1.5 37 38 34
-0.573539 0.0941176 1.5 37 38 33
-0.565682 0.0941176 1.5 37 38 34
-0.596924 0.100714 1.60514 37 38 34
-0.614928 0.105234 1.67717 37 37 33
-0.594294 0.103177 1.64438 37 37 33
-0.585681 0.103177 1.64438 37 38 34
-0.598281 0.10697 1.70483 37 38 34
-0.568455 0.103177 1.64438 36 37 33
-0.530335 0.097739 1.55772 36 37 33
-0.571492 0.10697 1.70483 37 38 34
-0.542616 0.103177 1.64438 37 38 33
-0.54465 0.105234 1.67717 36 37 32
-0.535865 0.105234 1.67717 35 36 32
-0.51515 0.102852 1.63921 36 37 33
-0.50953 0.103454 1.64881 36 37 34
-0.532041 0.109887 1.75133 37 37 34
-0.487953 0.10255 1.63439 37 38 34
-0.488637 0.104527 1.6659 37 38 34
-0.479912 0.104527 1.6659 37 38 34
-0.482197 0.10697 1.70483 37 38 34
-0.484776 0.109571 1.74629 36 37 33
-0.456803 0.105234 1.67717 36 37 33
-0.443831 0.104251 1.66149 36 37 33
-0.446478 0.10697 1.70483 36 37 33
-0.437549 0.10697 1.70483 36 37 33
-0.421665 0.105234 1.67717 35 37 32
-0.404809 0.103177 1.64438 36 38 34
-0.407194 0.106041 1.69003 37 38 35
-0.398705 0.106138 1.69157 37 38 34
-0.396393 0.107921 1.71999 36 38 34
-0.38982 0.108599 1.7308 36 38 34
-0.380755 0.108599 1.7308 36 37 34
-0.359448 0.105023 1.6738 37 38 35
-0.340596 0.102003 1.62567 37 38 35
-0.348253 0.10697 1.70483 36 37 33
-0.321756 0.101432 1.61657 34 36 32
-0.333331 0.107921 1.71999 34 35 32
-0.308181 0.10255 1.63439 35 37 34
-0.305398 0.104527 1.6659 36 37 34
-0.298679 0.105234 1.67717 36 37 34
-0.292384 0.106138 1.69157 36 38 34
-0.281564 0.105404 1.67988 36 37 34
-0.267001 0.103177 1.64438 36 37 34
-0.26354 0.105234 1.67717 36 37 34
-0.256709 0.106041 1.69003 36 37 34
-0.247857 0.106041 1.69003 36 37 34
-0.243014 0.10782 1.71838 35 36 33
-0.230153 0.106041 1.69003 37 37 34
-0.214015 0.10255 1.63439 38 38 35
-0.205454 0.10255 1.63439 38 37 34
-0.203782 0.106138 1.69157 36 36 33
-0.190222 0.103579 1.65078 36 35 32
-0.189011 0.10782 1.71838 35 35 33
-0.167314 0.100215 1.59718 36 36 34
-0.161783 0.102003 1.62567 36 37 34
-0.162161 0.107921 1.71999 37 38 35
-0.14904 0.105023 1.6738 37 37 35
-0.142873 0.10697 1.70483 36 36 34
-0.130538 0.104251 1.66149 36 36 34
-0.12105 0.103579 1.65078 36 37 34
-0.111968 0.103177 1.64438 37 37 35
-0.108972 0.108784 1.73375 37 37 35
-0.0926861 0.100938 1.60869 36 37 35
-0.0870257 0.104251 1.66149 36 36 34
-0.0766342 0.102003 1.62567 36 37 34
-0.0693886 0.103903 1.65596 37 38 35
-0.0614928 0.105234 1.67717 38 38 35
-0.0516777 0.103177 1.64438 38 38 35
-0.0439234 0.105234 1.67717 37 38 35
-0.0344518 0.103177 1.64438 37 38 34
-0.0259394 0.103579 1.65078 36 37 34
-0.0174051 0.104251 1.66149 36 38 34
-0.00859722 0.102989 1.64138 36 38 34
0 0.106041 1.69003 36 38 35
0.00864646 0.103579 1.65078 36 38 34
0.0178591 0.10697 1.70483 35 37 34
0.0254242 0.101521 1.618 35 37 34
0.0342423 0.10255 1.63439 35 37 35
0.0429861 0.102989 1.64138 36 37 35
0.0513635 0.10255 1.63439 36 38 35
0.062507 0.10697 1.70483 36 38 35
0.0687778 0.102989 1.64138 36 37 34
0.0778182 0.103579 1.65078 36 37 34
0.0864646 0.103579 1.65078 36 37 34
0.0957282 0.104251 1.66149 36 37 34
0.102727 0.10255 1.63439 36 37 34
0.114201 0.105234 1.67717 35 37 33
0.119209 0.102003 1.62567 35 37 33
0.130538 0.104251 1.66149 36 38 34
0.138343 0.103579 1.65078 37 38 35
0.150485 0.106041 1.69003 37 39 35
0.150583 0.100215 1.59718 36 38 34
0.17101 0.10782 1.71838 36 37 34
0.172929 0.103579 1.65078 36 38 35
0.185679 0.105919 1.68808 36 37 34
0.189485 0.103177 1.64438 35 37 34
0.20538 0.10697 1.70483 35 37 34
0.205454 0.10255 1.63439 36 37 34
0.219176 0.105023 1.6738 36 38 34
0.225513 0.103903 1.65596 37 38 34
0.222883 0.0988882 1.57603 36 38 34
0.248083 0.106138 1.69157 36 37 33
0.249319 0.102989 1.64138 36 37 33
0.259394 0.103579 1.65078 36 37 33
0.265378 0.10255 1.63439 37 38 34
0.283265 0.106041 1.69003 37 38 34
0.271447 0.0985378 1.57045 37 39 35
0.298679 0.105234 1.67717 37 38 34
0.296355 0.101432 1.61657 36 37 34
0.324322 0.107921 1.71999 35 36 33
0.316742 0.10255 1.63439 33 35 31
0.323566 0.102003 1.62567 34 35 32
0.345229 0.106041 1.69003 34 36 34
0.348103 0.104251 1.66149 34 37 34
0.359448 0.105023 1.6738 35 37 34
0.371785 0.106041 1.69003 34 37 34
0.383971 0.10697 1.70483 35 37 34
0.380444 0.103579 1.65078 36 37 34
0.387583 0.103177 1.64438 37 38 35
0.41076 0.10697 1.70483 35 37 33
0.409021 0.104251 1.66149 35 36 33
0.432024 0.10782 1.71838 34 37 33
0.437549 0.10697 1.70483 35 37 34
0.442602 0.106041 1.69003 35 37 34
0.455408 0.10697 1.70483 35 37 34
0.460306 0.106041 1.69003 35 38 34
0.464653 0.105023 1.6738 36 38 35
0.47342 0.105023 1.6738 35 37 34
0.496082 0.108049 1.72203 35 37 34
0.512217 0.109571 1.74629 35 37 35
0.499721 0.105023 1.6738 34 36 34
0.545358 0.112638 1.79517 34 35 33
0.535781 0.108784 1.73375 34 36 33
0.531122 0.106041 1.69003 35 36 33
0.55795 0.109571 1.74629 35 36 33
0.548826 0.106041 1.69003 34 36 33
0.562563 0.10697 1.70483 35 36 33
0.591287 0.110675 1.76388 35 36 33
0.598442 0.110291 1.75776 34 36 32
0.589351 0.10697 1.70483 34 36 33
0.598281 0.10697 1.70483 34 36 33
0.628243 0.110675 1.76388 34 36 33
0.625526 0.108599 1.7308 34 36 34
0.60918 0.104251 1.66149 33 36 34
0.671351 0.113272 1.80527 33 36 34
0.653834 0.108784 1.73375 34 36 35
0.662915 0.108784 1.73375 34 36 35
0.676858 0.109571 1.74629 34 36 35
0.700817 0.111937 1.784 35 37 36
0.678647 0.10697 1.70483 35 37 35
0.728085 0.113272 1.80527 34 37 35
0.696506 0.10697 1.70483 32 35 34
0.717401 0.108784 1.73375 32 35 34
0.721573 0.108049 1.72203 33 35 34
0.743023 0.109887 1.75133 32 35 34
0.740766 0.108218 1.72472 31 34 33
0.748632 0.108049 1.72203 31 34 33
0.779459 0.111159 1.7716 32 35 34
0.773535 0.109017 1.73745 33 36 35
0.802533 0.111788 1.78162 32 35 34
0.776872 0.10697 1.70483 31 34 34
0.816576 0.111159 1.7716 29 33 33
0.825856 0.111159 1.7716 26 29 31
0.83986 0.111788 1.78162 26 29 32
0.849192 0.111788 1.78162 26 31 32
0.86505 0.112638 1.79517 29 34 35
0.908768 0.117058 1.86561 33 37 38
0.891144 0.113567 1.80997 34 38 39
0.874646 0.110291 1.75776 35 39 40
0.902661 0.112638 1.79517 37 41 42
0.947855 0.117058 1.86561 36 40 40
0.972641 0.118893 1.89486 34 37 38
0.94919 0.114855 1.8305 33 36 36
0.950373 0.113848 1.81445 34 37 37
0.860006 0.102003 1.62567 34 37 38
1.00734 0.118306 1.8855 34 37 38
1.02227 0.118893 1.89486 33 36 37
0.997129 0.114855 1.8305 32 36 37
1.03697 0.118306 1.8855 32 36 37
1.0163 0.114855 1.8305 34 38 38
1.05046 0.117605 1.87433 36 40 41
1.06028 0.117605 1.87433 35 40 40
1.10561 0.121509 1.93655 35 40 40
1.0343 0.112638 1.79517 35 40 41
1.08973 0.117605 1.87433 35 40 41
1.03928 0.111159 1.7716 35 39 40
1.13689 0.120523 1.92083 36 41 42
1.10109 0.115705 1.84404 37 41 43
1.20469 0.12549 2 37 41 42
1.12041 0.115705 1.84404 36 40 41
1.17029 0.119822 1.90967 34 38 39
1.05369 0.10697 1.70483 33 37 39
1.11892 0.112638 1.79517 32 37 38
-0.628536 0.0679739 1 37 38 33
-0.648066 0.0706749 1.03974 38 38 34
-0.61806 0.0679739 1 39 38 34
-0.567134 0.0629061 0.925446 38 38 34
-0.652882 0.0730416 1.07455 37 36 32
-0.602347 0.0679739 1 36 35 31
-0.597109 0.0679739 1 36 36 32
-0.635997 0.0730416 1.07455 35 36 31
-0.630369 0.0730416 1.07455 35 36 31
-0.558292 0.0652728 0.960263 37 38 34
-0.62177 0.0733551 1.07917 38 39 35
-0.57092 0.0679739 1 37 39 34
-0.589655 0.0708545 1.04238 36 38 33
-0.607737 0.0737098 1.08438 36 37 33
-0.596599 0.0730416 1.07455 36 38 33
-0.590971 0.0730416 1.07455 35 37 31
-0.585342 0.0730416 1.07455 35 37 31
-0.577498 0.0727624 1.07045 36 37 31
-0.597295 0.0759945 1.118 36 37 32
-0.616784 0.079251 1.1659 36 37 33
-0.560678 0.0727624 1.07045 36 36 32
-0.539147 0.0706749 1.03974 36 37 33
-0.625397 0.0828177 1.21838 36 38 34
-0.617809 0.0826562 1.216 36 37 33
-0.581249 0.0785749 1.15596 36 37 32
-0.575194 0.0785749 1.15596 37 38 34
-0.58729 0.0810807 1.19282 38 39 35
-0.600978 0.0838628 1.23375 37 38 34
-0.602988 0.0850578 1.25133 36 37 32
-0.561086 0.0800169 1.17717 36 37 33
-0.599434 0.0864355 1.2716 36 38 33
-0.583326 0.0850578 1.25133 37 38 34
-0.586113 0.0864355 1.2716 37 39 34
-0.600549 0.0895823 1.31789 37 38 34
-0.583409 0.0880375 1.29517 37 38 33
-0.586743 0.0895823 1.31789 38 39 34
-0.582011 0.0899178 1.32283 37 38 34
-0.563057 0.0880375 1.29517 37 38 33
-0.628183 0.0994182 1.46259 36 37 31
-0.575135 0.0921464 1.35562 37 38 33
-0.612862 0.0994182 1.46259 37 38 34
-0.577175 0.0948142 1.39486 37 37 34
-0.589242 0.0980376 1.44228 36 37 33
-0.604965 0.101961 1.5 36 37 34
-0.620084 0.105884 1.55772 36 37 34
-0.608452 0.105283 1.54887 37 38 34
-0.650066 0.114004 1.67717 37 38 34
-0.595607 0.105884 1.55772 37 38 34
-0.565682 0.101961 1.5 38 39 35
-0.557825 0.101961 1.5 37 38 34
-0.602907 0.111775 1.64438 37 37 33
-0.542112 0.101961 1.5 37 37 33
-0.534255 0.101961 1.5 37 38 34
-0.585882 0.113482 1.6695 37 38 34
-0.602282 0.118427 1.74224 36 37 33
-0.568393 0.113482 1.6695 37 38 34
-0.53311 0.108101 1.59033 38 39 34
-0.553435 0.114004 1.67717 37 38 34
-0.54465 0.114004 1.67717 36 37 33
-0.537442 0.114339 1.68211 36 37 34
-0.535774 0.115884 1.70483 37 38 34
-0.53216 0.117053 1.72203 37 38 34
-0.533994 0.119482 1.75776 37 38 34
-0.496046 0.112938 1.66149 37 38 34
-0.504028 0.116805 1.71838 37 38 34
-0.483157 0.114004 1.67717 37 38 34
-0.474373 0.114004 1.67717 37 39 34
-0.46246 0.113238 1.6659 36 37 33
-0.44515 0.111096 1.63439 36 37 33
-0.471182 0.119898 1.76388 36 37 33
-0.454051 0.11785 1.73375 36 37 32
-0.441025 0.116805 1.71838 35 37 32
-0.416331 0.112562 1.65596 35 36 31
-0.41969 0.115884 1.70483 36 37 33
-0.414023 0.116805 1.71838 37 38 34
-0.395311 0.114004 1.67717 36 38 34
-0.398886 0.117649 1.7308 36 37 34
-0.387385 0.116914 1.71999 36 37 33
-0.365508 0.112938 1.66149 35 36 32
-0.366112 0.115884 1.70483 36 37 34
-0.338691 0.109885 1.61657 37 39 35
-0.330224 0.109885 1.61657 36 37 34
-0.330698 0.112938 1.66149 35 36 33
-0.318679 0.111775 1.64438 36 37 35
-0.311273 0.11221 1.65078 37 38 35
-0.307464 0.114004 1.67717 36 37 35
-0.295887 0.112938 1.66149 36 37 34
-0.289894 0.114004 1.67717 36 38 34
-0.276687 0.11221 1.65078 36 37 34
-0.265378 0.111096 1.63439 37 38 35
-0.255447 0.110503 1.62567 37 38 35
-0.250747 0.11221 1.65078 36 37 34
-0.247857 0.114878 1.69003 36 37 34
-0.231136 0.111096 1.63439 37 37 34
-0.224808 0.11221 1.65078 37 37 34
-0.218142 0.113238 1.6659 37 37 34
-0.203215 0.109885 1.61657 37 36 33
-0.200159 0.112938 1.66149 36 36 32
-0.191456 0.112938 1.66149 35 35 31
-0.182754 0.112938 1.66149 35 36 33
-0.175694 0.114004 1.67717 36 37 35
-0.164798 0.112562 1.65596 37 38 35
-0.160732 0.115884 1.70483 37 38 36
-0.147944 0.112938 1.66149 36 37 35
-0.144008 0.116805 1.71838 36 36 34
-0.128409 0.111096 1.63439 37 37 35
-0.119209 0.110503 1.62567 38 38 36
-0.112404 0.11221 1.65078 37 38 36
-0.104708 0.113238 1.6659 37 38 36
-0.0947425 0.111775 1.64438 37 37 35
-0.0878468 0.114004 1.67717 36 37 34
-0.0790621 0.114004 1.67717 37 37 34
-0.0696205 0.112938 1.66149 37 38 35
-0.0587295 0.108881 1.6018 37 38 35
-0.050556 0.109349 1.60869 37 38 35
-0.0428029 0.111096 1.63439 37 38 34
-0.0340596 0.110503 1.62567 37 37 34
-0.0263966 0.114188 1.67988 37 38 34
-0.0177041 0.114878 1.69003 37 37 34
-0.00856058 0.111096 1.63439 36 38 35
0 0.114004 1.67717 37 39 35
0.00872567 0.113238 1.6659 36 38 35
0.0177202 0.114983 1.69157 35 37 34
0.026177 0.113238 1.6659 36 38 35
0.0342147 0.111006 1.63307 36 38 35
0.0432323 0.11221 1.65078 36 38 35
0.054003 0.116805 1.71838 36 38 35
0.0587295 0.108881 1.6018 36 37 35
0.0698053 0.113238 1.6659 35 37 34
0.078531 0.113238 1.6659 35 37 34
0.0892957 0.115884 1.70483 36 38 34
0.0941664 0.111096 1.63439 36 37 34
0.107155 0.115884 1.70483 36 37 34
0.114201 0.114004 1.67717 35 37 33
0.123928 0.114878 1.69003 36 37 33
0.12448 0.107697 1.58438 36 38 34
0.141633 0.114878 1.69003 36 38 34
0.14904 0.113775 1.6738 36 38 34
0.152411 0.109885 1.61657 35 37 34
0.164798 0.112562 1.65596 37 38 35
0.169345 0.109885 1.61657 38 39 36
0.180872 0.111775 1.64438 36 38 35
0.189485 0.111775 1.64438 35 37 34
0.193798 0.109349 1.60869 35 36 33
0.212643 0.114983 1.69157 35 37 33
0.223239 0.115884 1.70483 36 38 34
0.224808 0.11221 1.65078 37 38 34
0.237186 0.114004 1.67717 36 37 34
0.242101 0.11221 1.65078 36 37 33
0.252374 0.112938 1.66149 36 37 33
0.265803 0.114983 1.69157 36 37 33
0.261206 0.109349 1.60869 36 37 33
0.270953 0.109885 1.61657 36 37 32
0.287947 0.113238 1.6659 36 37 34
0.29106 0.111096 1.63439 37 38 34
0.302626 0.11221 1.65078 37 38 35
0.318964 0.114983 1.69157 37 38 35
0.32438 0.113775 1.6738 35 36 33
0.332291 0.113482 1.6695 34 36 33
0.357752 0.119045 1.75133 35 37 34
0.363241 0.11785 1.73375 35 38 35
0.356805 0.112938 1.66149 35 38 35
0.365508 0.112938 1.66149 35 38 35
0.383971 0.115884 1.70483 35 38 34
0.37897 0.111775 1.64438 36 38 34
0.40183 0.115884 1.70483 34 36 33
0.414411 0.116914 1.71999 33 35 31
0.416046 0.114878 1.69003 34 36 32
0.428619 0.115884 1.70483 34 36 32
0.43375 0.114878 1.69003 34 36 32
0.430648 0.111775 1.64438 34 36 33
0.43659 0.111096 1.63439 34 36 33
0.453735 0.113238 1.6659 34 37 34
0.477474 0.116914 1.71999 35 37 34
0.47342 0.113775 1.6738 35 37 34
0.495492 0.116914 1.71999 35 37 34
0.508538 0.11785 1.73375 35 37 35
0.521363 0.118702 1.74629 34 36 33
0.493865 0.110503 1.62567 32 35 32
0.535781 0.11785 1.73375 34 36 33
0.527081 0.114004 1.67717 35 37 34
0.553943 0.11785 1.73375 35 37 33
0.57651 0.120673 1.77528 34 36 32
0.576244 0.118702 1.74629 34 36 33
0.56653 0.114878 1.69003 34 36 33
0.565667 0.112938 1.66149 34 36 32
0.584234 0.114878 1.69003 34 35 32
0.616856 0.119482 1.75776 34 36 32
0.607211 0.115884 1.70483 34 35 32
0.61614 0.115884 1.70483 34 36 34
0.64672 0.119898 1.76388 33 36 34
0.628494 0.114878 1.69003 34 36 34
0.665198 0.119898 1.76388 34 37 35
0.674437 0.119898 1.76388 34 36 35
0.671996 0.11785 1.73375 33 36 34
0.682531 0.118101 1.73745 34 36 35
0.690158 0.11785 1.73375 34 36 35
0.70633 0.119045 1.75133 33 36 34
0.723784 0.120422 1.7716 32 35 34
0.717401 0.11785 1.73375 33 35 34
0.747538 0.121265 1.784 33 36 35
0.751621 0.120422 1.7716 32 35 34
0.732224 0.115884 1.70483 30 34 33
0.780426 0.122024 1.79517 31 35 34
0.789828 0.122024 1.79517 32 35 35
0.775666 0.118427 1.74224 32 35 34
0.814044 0.122841 1.80718 31 34 34
0.784711 0.117053 1.72203 31 34 34
0.810198 0.119482 1.75776 30 33 34
0.830529 0.121104 1.78162 27 30 33
0.821294 0.118427 1.74224 26 30 32
0.841864 0.120059 1.76625 27 32 34
0.872183 0.123031 1.80997 32 36 37
0.881663 0.123031 1.80997 33 37 38
0.907919 0.125347 1.84404 33 37 38
0.917578 0.125347 1.84404 35 39 39
0.910104 0.123031 1.80997 37 41 41
0.905183 0.121104 1.78162 35 39 39
0.902266 0.119482 1.75776 33 37 37
0.977711 0.128165 1.8855 34 37 37
0.965871 0.125347 1.84404 35 38 38
0.97553 0.125347 1.84404 34 37 38
0.985189 0.125347 1.84404 34 37 38
0.96848 0.122024 1.79517 32 36 37
0.988388 0.123335 1.81445 31 35 36
0.987286 0.122024 1.79517 31 35 36
1.04684 0.128165 1.8855 32 37 37
1.07652 0.130566 1.92083 35 39 40
1.01549 0.122024 1.79517 36 40 40
1.01144 0.120422 1.7716 35 40 40
1.07211 0.126485 1.86079 35 40 40
1.11027 0.129807 1.90967 33 38 39
0.979385 0.113482 1.6695 31 36 37
1.14205 0.131159 1.92955 35 39 40
1.19422 0.135948 2 37 41 42
1.20469 0.135948 2 37 42 42
1.16707 0.130566 1.92083 36 41 42
1.22564 0.135948 2 34 39 40
1.10952 0.122024 1.79517 33 38 39
1.13617 0.123905 1.82283 33 37 39
-0.603559 0.0702938 0.960263 39 40 35
-0.59853 0.0702938 0.960263 40 40 35
-0.639897 0.075789 1.03533 40 39 35
-0.612822 0.0732026 1 39 38 35
-0.607584 0.0732026 1 37 36 32
-0.626282 0.0761115 1.03974 33 33 28
-0.641625 0.0786601 1.07455 34 35 29
-0.654098 0.0808989 1.10514 35 36 31
-0.633075 0.0789978 1.07917 36 37 33
-0.630456 0.0793798 1.08438 37 38 34
-0.576158 0.0732026 1 37 39 34
-0.593606 0.0761115 1.03974 37 38 34
-0.605532 0.0783595 1.07045 36 38 33
-0.584195 0.0763048 1.04238 36 37 33
-0.555206 0.0732026 1 35 37 32
-0.647407 0.086172 1.17717 35 37 31
-0.565106 0.0759408 1.03741 36 37 32
-0.628997 0.0853473 1.1659 36 37 32
-0.617577 0.0846192 1.15596 36 37 32
-0.611522 0.0846192 1.15596 35 36 32
-0.631067 0.0881969 1.20483 35 36 32
-0.559593 0.0789978 1.07917 36 38 34
-0.598464 0.0853473 1.1659 37 38 35
-0.571913 0.0824017 1.12567 37 39 35
-0.58625 0.0853473 1.1659 37 38 34
-0.56446 0.08304 1.13439 36 38 34
-0.558518 0.08304 1.13439 37 39 35
-0.600978 0.0903137 1.23375 37 38 34
-0.594516 0.0903137 1.23375 36 37 34
-0.596434 0.0916008 1.25133 36 38 34
-0.56796 0.0881969 1.20483 36 38 34
-0.569668 0.0894561 1.22203 37 39 34
-0.607452 0.0964733 1.31789 37 38 34
-0.590192 0.0948096 1.29517 37 38 34
-0.625586 0.101664 1.3888 38 39 34
-0.58894 0.0968345 1.32283 39 39 35
-0.569841 0.0948096 1.29517 38 39 35
-0.575083 0.0968345 1.32283 38 38 34
-0.556273 0.0948096 1.29517 36 38 33
-0.575135 0.0992346 1.35562 36 37 32
-0.584481 0.102108 1.39486 35 36 31
-0.5833 0.103191 1.40967 34 35 31
-0.595508 0.106702 1.45762 36 36 33
-0.622057 0.112906 1.54238 37 38 35
-0.597109 0.109804 1.5 37 38 34
-0.589252 0.109804 1.5 37 38 34
-0.637358 0.120373 1.64438 37 38 34
-0.613739 0.1175 1.60514 37 38 34
-0.565682 0.109804 1.5 38 38 34
-0.591419 0.116417 1.59033 37 38 34
-0.588517 0.1175 1.60514 36 37 33
-0.594294 0.120373 1.64438 36 37 33
-0.61751 0.126915 1.73375 37 38 34
-0.608429 0.126915 1.73375 38 38 34
-0.637475 0.134989 1.84404 37 38 34
-0.580422 0.124798 1.70483 38 38 34
-0.589235 0.128673 1.75776 38 39 35
-0.553435 0.122773 1.67717 38 39 35
-0.563024 0.126915 1.73375 37 38 34
-0.573566 0.131411 1.79517 36 37 34
-0.547529 0.127536 1.74224 37 37 34
-0.513451 0.121626 1.66149 37 38 34
-0.501495 0.120842 1.65078 37 38 34
-0.487953 0.119641 1.63439 37 38 34
-0.504028 0.12579 1.71838 37 38 34
-0.495028 0.12579 1.71838 37 38 34
-0.493923 0.127833 1.74629 37 38 34
-0.458263 0.120842 1.65078 36 37 33
-0.44515 0.119641 1.63439 36 37 33
-0.459026 0.12579 1.71838 36 37 33
-0.454051 0.126915 1.73375 36 37 33
-0.430449 0.122773 1.67717 36 37 33
-0.425285 0.123827 1.69157 35 37 32
-0.426083 0.126699 1.7308 36 37 33
-0.407565 0.123827 1.69157 36 38 34
-0.40183 0.124798 1.70483 36 37 34
-0.392901 0.124798 1.70483 36 37 34
-0.383971 0.124798 1.70483 36 37 34
-0.371785 0.123715 1.69003 35 36 32
-0.363264 0.123827 1.69157 35 36 32
-0.357183 0.124798 1.70483 36 37 33
-0.342602 0.122773 1.67717 36 37 33
-0.33599 0.123572 1.68808 36 37 34
-0.336715 0.127186 1.73745 36 38 35
-0.313292 0.121626 1.66149 36 38 35
-0.301453 0.120373 1.64438 36 37 34
-0.300969 0.123715 1.69003 36 38 35
-0.294676 0.124798 1.70483 37 38 35
-0.288016 0.12579 1.71838 37 38 35
-0.270496 0.121949 1.6659 37 38 35
-0.267887 0.124798 1.70483 36 37 34
-0.258957 0.124798 1.70483 36 37 34
-0.244319 0.121949 1.6659 36 37 34
-0.245711 0.127186 1.73745 37 37 35
-0.219076 0.117761 1.60869 37 37 35
-0.221301 0.123715 1.69003 37 37 34
-0.203215 0.118337 1.61657 37 37 34
-0.207012 0.12579 1.71838 37 36 33
-0.189485 0.120373 1.64438 36 36 33
-0.185893 0.123715 1.69003 36 36 34
-0.175341 0.122527 1.6738 36 37 34
-0.163646 0.120373 1.64438 36 37 35
-0.160732 0.124798 1.70483 36 37 35
-0.14699 0.120842 1.65078 36 36 34
-0.139241 0.121626 1.66149 36 37 34
-0.127724 0.119003 1.62567 37 38 35
-0.125014 0.124798 1.70483 37 38 36
-0.111764 0.120153 1.64138 37 38 36
-0.104431 0.121626 1.66149 37 37 35
-0.0966315 0.122773 1.67717 37 37 35
-0.0878468 0.122773 1.67717 37 37 35
-0.078531 0.121949 1.6659 37 38 35
-0.0689036 0.120373 1.64438 36 37 34
-0.0619642 0.123715 1.69003 36 37 34
-0.0517636 0.120573 1.64712 36 37 34
-0.0432323 0.120842 1.65078 36 37 34
-0.0348103 0.121626 1.66149 37 37 34
-0.024677 0.114961 1.57045 37 38 35
-0.0174513 0.121949 1.6659 37 37 34
-0.00861295 0.120373 1.64438 36 37 34
0 0.120842 1.65078 36 38 35
0.00842601 0.117761 1.60869 36 39 35
0.0175694 0.122773 1.67717 37 39 35
0.0267887 0.124798 1.70483 37 39 36
0.0349027 0.121949 1.6659 36 38 35
0.0436283 0.121949 1.6659 35 37 35
0.0513635 0.119641 1.63439 36 37 35
0.0605252 0.120842 1.65078 35 37 35
0.0691717 0.120842 1.65078 35 37 34
0.079741 0.123827 1.69157 35 37 33
0.0867357 0.12122 1.65596 36 37 34
0.0926861 0.117761 1.60869 36 37 34
0.103758 0.120842 1.65078 35 37 33
0.107314 0.11537 1.57603 34 36 31
0.118542 0.118337 1.61657 35 36 32
0.128409 0.119641 1.63439 36 37 34
0.139241 0.121626 1.66149 36 38 34
0.143944 0.118337 1.61657 36 38 34
0.163181 0.126699 1.7308 36 38 34
0.164283 0.120842 1.65078 37 39 35
0.172929 0.120842 1.65078 38 39 36
0.178813 0.119003 1.62567 36 38 35
0.193575 0.122972 1.67988 35 37 34
0.192968 0.117256 1.6018 35 36 33
0.205454 0.119641 1.63439 36 37 34
0.209748 0.117256 1.6018 37 38 34
0.224808 0.120842 1.65078 36 38 34
0.233454 0.120842 1.65078 35 37 33
0.239696 0.119641 1.63439 36 37 33
0.254244 0.122527 1.6738 36 37 33
0.265561 0.123715 1.69003 35 37 33
0.274413 0.123715 1.69003 35 36 32
0.288286 0.125908 1.71999 35 36 32
0.276068 0.116918 1.59718 35 36 32
0.295887 0.121626 1.66149 36 37 34
0.310104 0.123827 1.69157 37 38 35
0.304822 0.118337 1.61657 37 38 35
0.330394 0.124798 1.70483 35 37 34
0.333818 0.122773 1.67717 35 37 34
0.351349 0.125908 1.71999 35 38 35
0.350681 0.122527 1.6738 35 38 35
0.363264 0.123827 1.69157 35 38 35
0.365508 0.121626 1.66149 36 39 36
0.383971 0.124798 1.70483 35 38 35
0.389489 0.123715 1.69003 33 36 32
0.395311 0.122773 1.67717 31 34 29
0.421963 0.128202 1.75133 33 35 31
0.42342 0.125908 1.71999 34 36 33
0.417723 0.121626 1.66149 34 36 32
0.441438 0.125908 1.71999 34 36 32
0.443005 0.123827 1.69157 34 36 32
0.448019 0.122773 1.67717 34 36 33
0.464337 0.124798 1.70483 34 37 34
0.473267 0.124798 1.70483 34 37 34
0.474373 0.122773 1.67717 34 36 34
0.504522 0.128202 1.75133 34 36 34
0.509623 0.127186 1.73745 34 36 34
0.505026 0.123827 1.69157 34 36 34
0.522029 0.12579 1.71838 34 36 33
0.548615 0.129955 1.77528 34 35 33
0.527081 0.122773 1.67717 35 37 34
0.56357 0.129121 1.76388 35 37 35
0.553633 0.124798 1.70483 35 37 34
0.562563 0.124798 1.70483 35 37 34
0.571492 0.124798 1.70483 35 37 34
0.585033 0.12579 1.71838 34 36 33
0.624072 0.132151 1.80527 34 36 32
0.598281 0.124798 1.70483 34 35 32
0.597358 0.122773 1.67717 34 35 32
0.637481 0.129121 1.76388 34 36 34
0.635672 0.126915 1.73375 34 36 34
0.639635 0.125908 1.71999 34 36 34
0.648036 0.12579 1.71838 34 36 34
0.657653 0.125908 1.71999 33 35 34
0.666662 0.125908 1.71999 33 35 34
0.692915 0.129121 1.76388 32 35 34
0.697157 0.128202 1.75133 32 35 34
0.694514 0.126057 1.72203 31 35 33
0.733412 0.131411 1.79517 31 35 34
0.752219 0.133075 1.81789 33 36 34
0.721573 0.126057 1.72203 33 36 35
0.753183 0.129955 1.77528 31 35 34
0.752196 0.128202 1.75133 31 34 34
0.761369 0.128202 1.75133 31 35 34
0.764435 0.127186 1.73745 31 35 34
0.782578 0.128673 1.75776 31 34 33
0.784792 0.127536 1.74224 31 34 34
0.785935 0.126254 1.72472 32 35 34
0.827439 0.131411 1.79517 30 33 34
0.830529 0.13042 1.78162 27 31 33
0.821294 0.127536 1.74224 26 31 33
0.849192 0.13042 1.78162 28 33 35
0.851116 0.129294 1.76625 31 35 37
0.908768 0.136568 1.86561 32 37 37
0.903022 0.134261 1.8341 33 37 38
0.860036 0.126523 1.7284 34 38 38
0.888121 0.129294 1.76625 36 41 41
0.888439 0.128007 1.74867 35 39 39
0.976725 0.139291 1.90282 34 37 37
0.921949 0.130152 1.77797 33 36 36
0.92068 0.128673 1.75776 34 37 37
0.934377 0.129294 1.76625 34 37 38
1.00137 0.137206 1.87433 34 37 38
0.994848 0.134989 1.84404 32 35 36
1.02709 0.138024 1.8855 30 34 36
1.04212 0.138709 1.89486 30 35 36
1.04684 0.138024 1.8855 31 36 37
0.99645 0.130152 1.77797 34 39 39
1.05262 0.136215 1.86079 35 39 39
0.973323 0.124798 1.70483 34 39 39
0.998913 0.126915 1.73375 34 38 39
1.08186 0.136215 1.86079 33 37 38
1.06933 0.133436 1.82283 32 37 37
1.09143 0.134989 1.84404 34 39 39
1.08843 0.133436 1.82283 37 41 42
1.15701 0.14061 1.92083 39 43 44
1.16028 0.139793 1.90967 38 42 43
1.281 0.153018 2.09033 36 40 41
1.18719 0.14061 1.92083 34 39 40
1.09561 0.128673 1.75776 33 38 39
-0.655172 0.0817552 1.04238 39 40 36
-0.623298 0.0784314 1 40 40 35
-0.641178 0.0813651 1.03741 39 39 35
-0.589899 0.0754976 0.962595 38 38 34
-0.584858 0.0754976 0.962595 37 36 32
-0.602347 0.0784314 1 35 35 30
-0.620836 0.081548 1.03974 34 35 30
-0.612783 0.0812025 1.03533 35 37 32
-0.586633 0.0784314 1 37 38 34
-0.630456 0.0850498 1.08438 36 38 33
-0.576158 0.0784314 1 36 38 33
-0.616118 0.0846405 1.07917 36 38 33
-0.610465 0.0846405 1.07917 35 37 32
-0.596005 0.0834079 1.06345 35 37 32
-0.629818 0.0889715 1.13439 35 36 31
-0.593508 0.0846405 1.07917 35 37 32
-0.585342 0.0842787 1.07455 36 38 33
-0.563984 0.0819918 1.0454 36 37 33
-0.534255 0.0784314 1 35 37 33
-0.591439 0.087686 1.118 36 37 33
-0.582024 0.0871529 1.1112 36 37 34
-0.57306 0.0866774 1.10514 36 38 34
-0.612281 0.0935547 1.19282 37 38 35
-0.571913 0.0882875 1.12567 37 38 34
-0.632439 0.098648 1.25776 36 38 34
-0.569435 0.0897557 1.14438 36 37 34
-0.593203 0.0944967 1.20483 36 37 34
-0.593489 0.0955589 1.21838 36 37 34
-0.55703 0.0906634 1.15596 35 37 33
-0.596434 0.0981437 1.25133 36 38 34
-0.56796 0.0944967 1.20483 36 38 34
-0.592774 0.0997333 1.2716 36 38 34
-0.587809 0.100022 1.27528 36 37 33
-0.566073 0.0974304 1.24224 36 37 33
-0.559567 0.0974304 1.24224 36 37 33
-0.636455 0.112122 1.42955 38 38 34
-0.582011 0.103751 1.32283 38 39 35
