ply
format ascii 1.0
element vertex 1326
property float x
property float y
property float z
property uchar red
property uchar green
property uchar blue
end_header
-0.0703909 -0.421617 1.67988 38 39 35
-0.062507 -0.42788 1.70483 38 39 35
-0.0535774 -0.42788 1.70483 38 39 35
-0.0442602 -0.424164 1.69003 37 38 34
-0.0357183 -0.42788 1.70483 37 38 34
-0.0267887 -0.42788 1.70483 38 39 36
-0.0177041 -0.424164 1.69003 39 40 36
-0.0090005 -0.431279 1.71838 38 39 35
0 -0.420092 1.6738 37 38 34
0.00892957 -0.42788 1.70483 37 38 34
0.0175341 -0.420092 1.6738 38 39 35
0.026354 -0.420937 1.67717 39 40 36
0.0351387 -0.420937 1.67717 37 39 35
0.0450447 -0.431683 1.71999 37 39 35
0.0522154 -0.417002 1.66149 37 39 35
0.0644476 -0.441164 1.75776 37 39 35
0.0720715 -0.431683 1.71999 38 39 35
0.0778182 -0.414314 1.65078 38 39 35
0.0876704 -0.420092 1.6738 37 39 35
0.0990055 -0.431279 1.71838 37 38 34
0.106224 -0.424164 1.69003 37 38 35
0.118053 -0.435137 1.73375 36 38 34
0.121836 -0.417002 1.66149 36 37 34
0.135008 -0.431279 1.71838 36 37 33
0.138343 -0.414314 1.65078 37 38 34
0.151803 -0.42788 1.70483 36 37 34
0.162009 -0.431279 1.71838 36 38 34
0.166909 -0.420937 1.67717 37 38 34
0.175694 -0.420937 1.67717 37 38 34
0.187521 -0.42788 1.70483 36 37 34
0.190222 -0.414314 1.65078 35 36 33
0.203597 -0.424164 1.69003 35 36 32
0.217574 -0.434398 1.7308 36 37 34
0.219617 -0.420937 1.67717 37 38 35
0.230153 -0.424164 1.69003 38 39 35
0.247674 -0.43955 1.75133 38 39 35
0.247857 -0.424164 1.69003 38 39 35
0.254244 -0.420092 1.6738 38 39 35
0.267887 -0.42788 1.70483 39 39 36
0.279277 -0.431683 1.71999 39 39 35
0.278482 -0.417002 1.66149 39 39 35
0.302713 -0.43955 1.75133 39 40 36
0.303605 -0.42788 1.70483 37 40 36
0.302626 -0.414314 1.65078 36 38 34
0.321464 -0.42788 1.70483 37 39 35
0.327824 -0.424551 1.69157 37 38 34
0.342019 -0.431279 1.71838 37 39 35
0.35416 -0.435137 1.73375 37 39 35
0.351387 -0.420937 1.67717 38 39 34
0.372322 -0.435137 1.73375 38 40 35
0.368957 -0.420937 1.67717 39 40 35
0.377741 -0.420937 1.67717 39 40 35
0.407524 -0.443805 1.76828 38 40 35
0.411603 -0.438285 1.74629 38 39 34
0.417017 -0.434398 1.7308 37 38 33
0.426808 -0.435137 1.73375 37 38 33
0.444572 -0.443805 1.76828 37 38 34
0.448189 -0.438285 1.74629 38 39 34
0.454051 -0.435137 1.73375 37 38 34
0.471182 -0.4427 1.76388 37 38 34
0.464337 -0.42788 1.70483 37 39 35
0.469158 -0.424164 1.69003 37 38 35
0.495348 -0.43955 1.75133 36 38 34
0.506374 -0.441164 1.75776 36 37 33
0.504028 -0.431279 1.71838 36 37 34
0.538972 -0.453088 1.80527 37 38 35
0.539316 -0.44556 1.77528 38 39 35
0.522746 -0.424551 1.69157 38 39 35
0.54003 -0.431279 1.71838 38 39 35
0.573566 -0.450552 1.79517 38 38 35
0.558031 -0.431279 1.71838 37 37 34
0.576244 -0.438285 1.74629 36 37 33
0.571492 -0.42788 1.70483 37 37 34
0.607942 -0.448167 1.78567 38 38 35
0.594033 -0.431279 1.71838 38 39 36
0.623003 -0.44556 1.77528 36 38 34
0.636001 -0.448167 1.78567 36 37 34
0.625526 -0.434398 1.7308 36 38 34
0.65819 -0.450552 1.79517 36 39 35
0.660197 -0.44556 1.77528 37 39 35
0.660465 -0.43955 1.75133 38 39 35
0.657653 -0.431683 1.71999 37 39 35
0.681303 -0.441164 1.75776 37 39 34
0.700817 -0.447749 1.784 37 38 34
0.714607 -0.450552 1.79517 37 38 34
0.724009 -0.450552 1.79517 37 38 34
0.702698 -0.431683 1.71999 37 38 34
0.752219 -0.456256 1.81789 38 40 35
0.742342 -0.444637 1.7716 38 41 36
0.775342 -0.458669 1.82751 38 41 36
0.771023 -0.450552 1.79517 37 39 35
0.790306 -0.456256 1.81789 36 38 34
0.815222 -0.465037 1.85288 37 39 35
0.804578 -0.453566 1.80718 37 39 35
0.791785 -0.441164 1.75776 37 39 35
0.835776 -0.460322 1.8341 36 39 34
0.845382 -0.460322 1.8341 37 39 35
0.842441 -0.453566 1.80718 37 38 34
0.859285 -0.457494 1.82283 37 38 34
0.906959 -0.477571 1.90282 38 39 35
0.851116 -0.443294 1.76625 38 39 36
0.903898 -0.465723 1.85562 37 38 35
0.891144 -0.454267 1.80997 36 37 34
0.858205 -0.432871 1.72472 35 37 34
0.902661 -0.450552 1.79517 36 38 35
0.912064 -0.450552 1.79517 37 39 35
0.929065 -0.454267 1.80997 37 38 35
0.94087 -0.455392 1.81445 38 39 36
0.948025 -0.454267 1.80997 38 39 36
1.03218 -0.489694 1.95113 37 39 36
1.03461 -0.486036 1.93655 37 39 36
0.9483 -0.441164 1.75776 37 39 36
1.02709 -0.473224 1.8855 37 39 36
1.0564 -0.482091 1.92083 36 38 34
1.04064 -0.470421 1.87433 37 38 34
1.08141 -0.48428 1.92955 37 39 35
1.04314 -0.462818 1.84404 37 38 35
1.09664 -0.482091 1.92083 37 38 35
1.0343 -0.450552 1.79517 37 38 35
1.11027 -0.479289 1.90967 37 38 35
1.17327 -0.501961 2 36 38 35
1.18374 -0.501961 2 37 39 36
1.01797 -0.42788 1.70483 37 38 35
1.15701 -0.482091 1.92083 36 38 35
1.06799 -0.441164 1.75776 36 38 35
1.17029 -0.479289 1.90967 35 37 34
1.18029 -0.479289 1.90967 35 36 34
1.16827 -0.470421 1.87433 35 37 34
-0.526427 -0.205828 0.837546 38 35 31
-0.554972 -0.218812 0.89038 37 36 32
-0.537243 -0.213617 0.869241 37 37 32
-0.535811 -0.214869 0.874334 37 37 31
-0.501985 -0.203039 0.826197 37 37 32
-0.529493 -0.216028 0.87905 37 37 31
-0.49333 -0.203039 0.826197 37 37 31
-0.484938 -0.201352 0.819331 38 38 34
-0.522326 -0.218812 0.89038 38 39 34
-0.497451 -0.210269 0.855615 38 39 34
-0.506471 -0.216028 0.87905 38 38 34
-0.499175 -0.214869 0.874334 38 38 34
-0.488593 -0.212262 0.863725 38 38 34
-0.499008 -0.218812 0.89038 37 37 33
-0.499129 -0.22093 0.898997 37 36 33
-0.470562 -0.210269 0.855615 37 37 34
-0.48236 -0.217613 0.885502 37 38 34
-0.498475 -0.227067 0.923969 37 37 34
-0.507104 -0.233262 0.949179 37 37 34
-0.475585 -0.22093 0.898997 38 39 35
-0.486881 -0.228439 0.929553 39 39 35
-0.494133 -0.234184 0.952929 38 39 35
-0.465242 -0.222741 0.906367 38 38 35
-0.508066 -0.245752 1 38 39 35
-0.478253 -0.233741 0.951125 38 39 35
-0.472302 -0.233262 0.949179 37 37 34
-0.467331 -0.233262 0.949179 36 37 33
-0.499513 -0.252006 1.02545 37 37 34
-0.481877 -0.245752 1 38 37 34
-0.464508 -0.239497 0.974549 38 38 34
-0.446451 -0.232744 0.947071 38 37 34
-0.479644 -0.252858 1.02892 38 38 35
-0.497416 -0.265207 1.07917 38 39 35
-0.469492 -0.253196 1.03029 39 39 36
-0.463476 -0.252858 1.02892 39 39 36
-0.472125 -0.260607 1.06045 39 39 36
-0.46657 -0.260607 1.06045 38 38 35
-0.462322 -0.261345 1.06345 39 39 35
-0.429499 -0.245752 1 39 39 36
-0.438464 -0.253978 1.03348 38 39 35
-0.460799 -0.270252 1.0997 37 38 34
-0.462611 -0.274749 1.118 36 37 33
-0.435825 -0.26216 1.06677 36 37 33
-0.46621 -0.284079 1.15596 37 38 35
-0.47483 -0.293138 1.19282 37 38 35
-0.407529 -0.254944 1.03741 37 38 35
-0.448046 -0.284079 1.15596 37 38 34
-0.424877 -0.273079 1.1112 38 38 35
-0.416771 -0.271589 1.10514 37 38 34
-0.429882 -0.284079 1.15596 37 38 34
-0.429888 -0.288141 1.17249 37 37 34
-0.417773 -0.284079 1.15596 37 37 34
-0.41526 -0.286523 1.1659 37 37 34
-0.435941 -0.305282 1.24224 37 38 35
-0.399608 -0.284079 1.15596 37 38 35
-0.448686 -0.323875 1.31789 37 38 35
-0.413576 -0.303196 1.23375 37 38 35
-0.443508 -0.3303 1.34404 37 38 35
-0.433916 -0.328369 1.33618 37 38 35
-0.443729 -0.3413 1.3888 37 39 35
-0.422389 -0.3303 1.34404 38 40 36
-0.400245 -0.318289 1.29517 38 39 35
-0.431638 -0.349172 1.42083 37 38 35
-0.410313 -0.337745 1.37433 37 38 35
-0.427544 -0.358213 1.45762 37 37 34
-0.390524 -0.333145 1.35562 37 37 34
-0.412275 -0.358213 1.45762 37 37 35
-0.394428 -0.349172 1.42083 37 37 34
-0.408548 -0.368627 1.5 37 37 34
-0.413747 -0.380638 1.54887 37 38 35
-0.420369 -0.394465 1.60514 37 38 35
-0.384978 -0.368627 1.5 37 38 35
-0.35941 -0.351315 1.42955 37 38 35
-0.395147 -0.394465 1.60514 37 38 35
-0.386739 -0.394465 1.60514 37 38 35
-0.342031 -0.356616 1.45113 39 40 37
-0.355461 -0.379042 1.54238 40 41 37
-0.383971 -0.418965 1.70483 38 39 36
-0.375042 -0.418965 1.70483 38 39 36
-0.372322 -0.426072 1.73375 37 38 35
-0.351387 -0.412167 1.67717 37 38 35
-0.363192 -0.436938 1.77797 36 37 35
-0.33116 -0.408886 1.66382 36 37 35
-0.32438 -0.41134 1.6738 37 38 36
-0.321464 -0.418965 1.70483 38 39 36
-0.300903 -0.403372 1.64138 37 39 36
-0.301244 -0.415706 1.69157 37 38 35
-0.292384 -0.415706 1.69157 37 38 35
-0.290593 -0.426072 1.73375 36 38 34
-0.274663 -0.415706 1.69157 36 37 34
-0.272431 -0.426072 1.73375 36 37 34
-0.258957 -0.418965 1.70483 35 36 33
-0.250028 -0.418965 1.70483 35 36 33
-0.239005 -0.415328 1.69003 36 37 34
-0.232169 -0.418965 1.70483 37 38 35
-0.223239 -0.418965 1.70483 39 40 36
-0.217945 -0.426072 1.73375 39 40 36
-0.207012 -0.422294 1.71838 38 39 36
-0.193263 -0.412167 1.67717 38 39 35
-0.190377 -0.425348 1.7308 37 39 35
-0.18251 -0.428158 1.74224 37 39 35
-0.168342 -0.415706 1.69157 37 38 35
-0.155636 -0.405683 1.65078 37 38 35
-0.147944 -0.408315 1.66149 36 38 34
-0.145296 -0.426072 1.73375 36 38 34
-0.130885 -0.409399 1.6659 37 39 34
-0.123928 -0.415328 1.69003 37 39 34
-0.114201 -0.412167 1.67717 38 39 35
-0.109761 -0.429154 1.74629 38 39 35
-0.0951111 -0.405683 1.65078 38 39 35
-0.0855368 -0.401329 1.63307 38 39 35
-0.0809431 -0.421974 1.71707 38 39 35
-0.0708809 -0.415706 1.69157 38 39 35
-0.062507 -0.418965 1.70483 38 39 35
-0.054003 -0.422294 1.71838 37 38 34
-0.04213 -0.395339 1.60869 36 37 33
-0.0365869 -0.429154 1.74629 36 37 33
-0.0267887 -0.418965 1.70483 38 39 35
-0.0172259 -0.40411 1.64438 39 40 36
-0.00900894 -0.42269 1.71999 38 39 35
0 -0.415328 1.69003 37 38 34
0.00886011 -0.415706 1.69157 37 38 33
0.0173471 -0.406954 1.65596 37 37 33
0.026354 -0.412167 1.67717 38 39 35
0.0348103 -0.408315 1.66149 38 39 35
0.0454051 -0.426072 1.73375 38 40 35
0.054003 -0.422294 1.71838 38 40 36
0.0592709 -0.397275 1.61657 38 39 35
0.0698053 -0.409399 1.6659 37 39 35
0.0790621 -0.412167 1.67717 37 38 34
0.0878468 -0.412167 1.67717 37 39 35
0.0957282 -0.408315 1.66149 37 39 35
0.105416 -0.412167 1.67717 38 39 35
0.113434 -0.409399 1.6659 37 39 35
0.117964 -0.395339 1.60869 37 38 34
0.13177 -0.412167 1.67717 37 38 34
0.139611 -0.409399 1.6659 37 39 35
0.155943 -0.430393 1.75133 37 38 34
0.159337 -0.415328 1.69003 36 37 33
0.164283 -0.405683 1.65078 36 38 34
0.178591 -0.418965 1.70483 37 39 35
0.187521 -0.418965 1.70483 37 38 35
0.198197 -0.42269 1.71999 36 37 34
0.195843 -0.39951 1.62567 35 37 34
0.219521 -0.429154 1.74629 37 38 35
0.213842 -0.401329 1.63307 37 38 35
0.230153 -0.415328 1.69003 37 38 35
0.239005 -0.415328 1.69003 37 39 35
0.245971 -0.412167 1.67717 38 39 35
0.256709 -0.415328 1.69003 39 39 35
0.270268 -0.42269 1.71999 39 39 36
0.279277 -0.42269 1.71999 39 39 35
0.288286 -0.42269 1.71999 38 39 35
0.306852 -0.436278 1.77528 37 38 34
0.316151 -0.436278 1.77528 36 38 34
0.317296 -0.425348 1.7308 37 39 35
0.324018 -0.422294 1.71838 38 40 36
0.333019 -0.422294 1.71838 38 40 36
0.330698 -0.408315 1.66149 38 39 35
0.348253 -0.418965 1.70483 38 39 35
0.36002 -0.422294 1.71838 38 39 34
0.362933 -0.415328 1.69003 38 39 35
0.381403 -0.426072 1.73375 38 40 35
0.383971 -0.418965 1.70483 39 40 35
0.392901 -0.418965 1.70483 39 40 35
0.407952 -0.425348 1.7308 38 39 34
0.41076 -0.418965 1.70483 37 38 33
0.416425 -0.415706 1.69157 38 39 34
0.439043 -0.429154 1.74629 38 39 35
0.434145 -0.415706 1.69157 37 39 34
0.454051 -0.426072 1.73375 36 37 33
0.462345 -0.425348 1.7308 36 38 34
0.47563 -0.429154 1.74629 37 39 35
0.473267 -0.418965 1.70483 38 39 35
0.486483 -0.42269 1.71999 38 39 35
0.50307 -0.429154 1.74629 37 39 35
0.523765 -0.43883 1.78567 37 39 35
0.500727 -0.412167 1.67717 38 39 35
0.5267 -0.426072 1.73375 38 39 35
0.531528 -0.42269 1.71999 38 39 35
0.555715 -0.434559 1.76828 38 38 35
0.553943 -0.426072 1.73375 37 38 34
0.567097 -0.429154 1.74629 37 37 34
0.567032 -0.422294 1.71838 37 37 34
0.595107 -0.436278 1.77528 37 37 34
0.580422 -0.418965 1.70483 38 39 35
0.620579 -0.441165 1.79517 39 40 36
0.598281 -0.418965 1.70483 37 38 35
0.61646 -0.425348 1.7308 35 37 34
0.645354 -0.43883 1.78567 35 37 34
0.654096 -0.438421 1.784 36 38 34
0.644753 -0.426072 1.73375 37 38 34
0.676996 -0.441165 1.79517 38 39 35
0.674437 -0.433477 1.76388 36 38 34
0.688093 -0.436278 1.77528 36 37 33
0.686004 -0.429154 1.74629 37 38 34
0.697157 -0.430393 1.75133 37 38 34
0.728085 -0.443648 1.80527 37 38 33
0.72885 -0.438421 1.784 37 38 34
0.756198 -0.449114 1.82751 37 39 35
0.747538 -0.438421 1.784 37 39 35
0.751621 -0.435373 1.7716 36 39 34
0.780784 -0.44675 1.81789 36 38 34
0.775571 -0.438421 1.784 36 38 34
0.789828 -0.441165 1.79517 36 38 34
0.799231 -0.441165 1.79517 37 39 35
0.821094 -0.447963 1.82283 37 40 35
0.804859 -0.434059 1.76625 38 40 36
0.821197 -0.437837 1.78162 38 40 35
0.830529 -0.437837 1.78162 37 39 35
0.883564 -0.460621 1.87433 37 38 34
0.862703 -0.444803 1.80997 37 39 35
0.898997 -0.458478 1.86561 38 39 35
0.881663 -0.444803 1.80997 37 39 35
0.849171 -0.423853 1.72472 37 39 35
0.900624 -0.444803 1.80997 37 39 35
0.902661 -0.441165 1.79517 37 39 36
0.919584 -0.444803 1.80997 37 39 35
0.906623 -0.434059 1.76625 36 37 34
0.977711 -0.463365 1.8855 37 38 34
0.940272 -0.441165 1.79517 37 38 35
0.968366 -0.449848 1.8305 36 38 35
0.977953 -0.449848 1.8305 36 37 35
0.9483 -0.431973 1.75776 37 38 35
0.997129 -0.449848 1.8305 38 39 36
1.09994 -0.491503 2 37 39 35
0.987138 -0.436938 1.77797 37 38 34
1.00609 -0.441165 1.79517 37 38 35
1.08658 -0.472048 1.92083 37 38 34
1.09664 -0.472048 1.92083 36 37 34
1.0343 -0.441165 1.79517 36 37 34
1.12183 -0.474191 1.92955 35 37 33
1.00011 -0.418965 1.70483 35 36 33
1.12151 -0.465666 1.89486 36 38 35
1.14028 -0.469303 1.90967 37 38 35
1.15028 -0.469303 1.90967 37 39 36
1.16707 -0.472048 1.92083 37 39 36
1.04476 -0.418965 1.70483 36 38 35
1.18029 -0.469303 1.90967 36 38 35
1.16827 -0.460621 1.87433 35 37 34
-0.526427 -0.201449 0.837546 38 36 32
-0.52204 -0.201449 0.837546 37 37 33
-0.506396 -0.197068 0.819331 36 37 33
-0.535811 -0.210297 0.874334 37 38 33
-0.512827 -0.203011 0.844042 38 39 34
-0.493521 -0.197068 0.819331 38 39 34
-0.503985 -0.203011 0.844042 37 38 33
-0.520284 -0.211432 0.87905 37 38 33
-0.498666 -0.204456 0.850047 38 39 34
-0.502165 -0.207746 0.863725 37 38 34
-0.503754 -0.210297 0.874334 37 38 34
-0.513255 -0.216229 0.898997 37 38 33
-0.508546 -0.216229 0.898997 38 37 33
-0.487161 -0.209072 0.869241 37 37 33
-0.496834 -0.215235 0.894863 37 37 33
-0.506429 -0.221481 0.920833 36 36 33
-0.476277 -0.210297 0.874334 35 36 32
-0.512075 -0.228299 0.949179 35 35 31
-0.507104 -0.228299 0.949179 37 37 33
-0.502132 -0.228299 0.949179 39 39 35
-0.485474 -0.222933 0.926867 39 39 35
-0.505851 -0.234637 0.975527 39 39 36
-0.501638 -0.235057 0.977273 39 39 35
-0.469438 -0.222236 0.923969 38 39 35
-0.490523 -0.234637 0.975527 37 38 34
-0.474168 -0.229201 0.952929 36 37 33
-0.479822 -0.234401 0.974549 36 37 33
-0.487115 -0.240523 1 37 37 34
-0.494652 -0.246899 1.02651 38 38 34
-0.488304 -0.246409 1.02447 38 38 35
-0.459865 -0.234637 0.975527 37 37 34
-0.466164 -0.240523 1 37 37 34
-0.460926 -0.240523 1 38 38 35
-0.455688 -0.240523 1 39 39 36
-0.45045 -0.240523 1 39 39 36
-0.458699 -0.247809 1.03029 38 39 36
-0.490351 -0.268062 1.1145 38 39 35
-0.447906 -0.247809 1.03029 38 39 35
-0.483473 -0.270748 1.12567 39 39 36
-0.464476 -0.263321 1.09479 38 39 36
-0.460799 -0.264502 1.0997 37 38 35
-0.442936 -0.257467 1.07045 37 37 34
-0.422224 -0.248574 1.03348 37 38 35
-0.445713 -0.265811 1.10514 38 39 36
-0.435804 -0.263321 1.09479 38 39 36
-0.439188 -0.268904 1.118 38 38 35
-0.430698 -0.267269 1.1112 38 39 36
-0.448312 -0.282011 1.17249 39 39 36
-0.445797 -0.284324 1.18211 38 39 35
-0.418617 -0.270748 1.12567 38 38 35
-0.433414 -0.284324 1.18211 37 38 35
-0.435436 -0.28979 1.20483 36 37 34
-0.404034 -0.272846 1.13439 37 38 35
-0.447537 -0.306734 1.27528 37 38 35
-0.432579 -0.300974 1.25133 37 38 35
-0.41605 -0.293927 1.22203 37 38 35
-0.409649 -0.293927 1.22203 37 38 35
-0.412916 -0.300974 1.25133 37 38 35
-0.379788 -0.281292 1.1695 37 39 35
-0.404574 -0.304562 1.26625 37 39 35
-0.407029 -0.311517 1.29517 37 39 35
-0.429181 -0.334038 1.3888 37 38 35
-0.431638 -0.341743 1.42083 37 39 35
-0.424196 -0.341743 1.42083 38 39 36
-0.413478 -0.339057 1.40967 38 38 35
-0.381079 -0.318171 1.32283 37 37 34
-0.424261 -0.360784 1.5 37 37 34
-0.40464 -0.350591 1.45762 36 37 34
-0.369223 -0.326057 1.35562 37 37 34
-0.387636 -0.349029 1.45113 37 38 35
-0.420369 -0.386072 1.60514 37 38 35
-0.384978 -0.360784 1.5 37 38 35
-0.399833 -0.382512 1.59033 37 38 35
-0.391503 -0.382512 1.59033 37 38 35
-0.396196 -0.395512 1.64438 37 38 35
-0.353551 -0.360784 1.5 38 39 36
-0.37897 -0.395512 1.64438 38 39 36
-0.383971 -0.410051 1.70483 38 39 35
-0.394914 -0.431779 1.79517 38 38 35
-0.346005 -0.38753 1.6112 37 38 34
-0.357183 -0.410051 1.70483 36 37 33
-0.353067 -0.41572 1.7284 36 36 34
-0.351548 -0.424823 1.76625 37 37 35
-0.321995 -0.399627 1.66149 38 39 36
-0.316759 -0.40405 1.67988 38 40 36
-0.307464 -0.403398 1.67717 39 40 37
-0.301244 -0.406862 1.69157 38 39 36
-0.292117 -0.406491 1.69003 37 39 35
-0.279221 -0.400688 1.6659 36 38 34
-0.289942 -0.429494 1.78567 35 36 33
-0.270015 -0.413309 1.71838 35 37 33
-0.265255 -0.420023 1.74629 34 36 32
-0.252014 -0.413309 1.71838 35 37 33
-0.23255 -0.395512 1.64438 37 38 35
-0.226867 -0.400688 1.6659 38 39 36
-0.217564 -0.399627 1.66149 39 40 37
-0.209416 -0.400688 1.6659 38 40 36
-0.196893 -0.393107 1.63439 37 38 35
-0.198011 -0.413309 1.71838 37 39 35
-0.189011 -0.413309 1.71838 38 39 35
-0.174513 -0.400688 1.6659 38 39 36
-0.17117 -0.413696 1.71999 37 38 35
-0.158124 -0.403398 1.67717 37 38 34
-0.153009 -0.413309 1.71838 37 39 35
-0.136969 -0.393107 1.63439 37 39 35
-0.129697 -0.397051 1.65078 37 39 35
-0.124041 -0.406862 1.69157 37 39 35
-0.116084 -0.410051 1.70483 38 39 35
-0.106321 -0.406862 1.69157 38 39 35
-0.0967876 -0.40405 1.67988 38 40 36
-0.0886011 -0.406862 1.69157 38 40 36
-0.0803661 -0.410051 1.70483 38 39 35
-0.0725247 -0.416298 1.7308 38 39 35
-0.0635672 -0.417007 1.73375 38 39 35
-0.0531606 -0.406862 1.69157 37 38 34
-0.0443005 -0.406862 1.69157 35 36 32
-0.0345858 -0.397051 1.65078 37 37 33
-0.0270268 -0.413696 1.71999 39 40 36
-0.0177041 -0.406491 1.69003 39 40 36
-0.00908103 -0.417007 1.73375 38 39 35
0 -0.410051 1.70483 37 38 34
0.00878468 -0.403398 1.67717 37 38 34
0.0177202 -0.406862 1.69157 37 38 34
0.0259394 -0.397051 1.65078 37 38 34
0.0354404 -0.406862 1.69157 37 39 35
0.0450447 -0.413696 1.71999 38 40 36
0.0544862 -0.417007 1.73375 38 40 36
0.0635672 -0.417007 1.73375 37 39 34
0.072004 -0.413309 1.71838 37 38 34
0.079741 -0.406862 1.69157 36 38 34
0.0900894 -0.413696 1.71999 38 39 35
0.0982252 -0.410051 1.70483 39 40 36
0.105416 -0.403398 1.67717 39 40 36
0.111288 -0.393107 1.63439 38 40 36
0.121836 -0.399627 1.66149 38 39 35
0.137201 -0.420023 1.74629 37 39 35
0.140273 -0.402588 1.6738 37 39 35
0.150485 -0.406491 1.69003 37 38 34
0.164641 -0.420023 1.74629 36 37 33
0.165349 -0.399627 1.66149 35 37 33
0.177041 -0.406491 1.69003 36 38 34
0.190702 -0.417007 1.73375 37 39 35
0.194922 -0.406862 1.69157 36 38 35
0.203597 -0.406491 1.69003 36 37 34
0.217945 -0.417007 1.73375 37 38 35
0.215324 -0.395512 1.64438 37 38 35
0.230153 -0.406491 1.69003 37 39 35
0.239005 -0.406491 1.69003 38 39 35
0.242101 -0.397051 1.65078 38 39 35
0.26602 -0.421235 1.75133 38 39 35
0.278957 -0.426995 1.77528 39 39 35
0.284367 -0.421235 1.75133 38 39 35
0.285746 -0.410051 1.70483 37 37 34
0.292117 -0.406491 1.69003 35 37 33
0.301244 -0.406862 1.69157 36 38 34
0.317836 -0.417007 1.73375 37 39 35
0.323773 -0.412996 1.71707 38 40 36
0.325033 -0.403398 1.67717 39 40 36
0.330698 -0.399627 1.66149 38 40 36
0.357752 -0.421235 1.75133 39 40 36
0.36002 -0.413309 1.71838 38 39 35
0.376098 -0.421235 1.75133 38 39 34
0.385271 -0.421235 1.75133 38 39 35
0.376983 -0.402588 1.6738 39 40 36
0.40651 -0.424254 1.76388 39 40 35
0.391615 -0.399627 1.66149 39 40 35
0.407866 -0.407163 1.69282 38 39 34
0.41288 -0.403398 1.67717 38 39 34
0.421665 -0.403398 1.67717 38 39 34
0.451133 -0.422782 1.75776 37 39 35
0.45328 -0.416298 1.7308 36 38 33
0.459026 -0.413309 1.71838 36 37 33
0.464337 -0.410051 1.70483 36 38 34
0.492823 -0.426995 1.77528 38 39 35
0.486027 -0.413309 1.71838 38 39 36
0.504522 -0.421235 1.75133 38 39 36
0.512217 -0.420023 1.74629 38 39 35
0.526615 -0.424254 1.76388 39 40 36
0.53051 -0.420023 1.74629 39 40 36
0.535781 -0.417007 1.73375 39 39 36
0.548803 -0.420023 1.74629 38 38 34
0.556655 -0.419048 1.74224 37 37 33
0.553633 -0.410051 1.70483 37 37 34
0.572105 -0.417007 1.73375 38 38 35
0.576032 -0.413309 1.71838 37 37 34
0.585033 -0.413309 1.71838 38 39 35
0.598329 -0.416298 1.7308 38 39 36
0.607395 -0.416298 1.7308 37 38 34
0.626062 -0.422782 1.75776 36 38 34
0.621617 -0.413696 1.71999 35 37 33
0.650899 -0.426995 1.77528 35 37 33
0.679621 -0.439558 1.82751 36 37 33
0.669496 -0.426995 1.77528 37 38 34
0.674437 -0.424254 1.76388 36 37 33
0.673431 -0.417897 1.73745 36 37 33
0.692915 -0.424254 1.76388 37 38 34
0.702153 -0.424254 1.76388 37 37 33
0.715988 -0.426995 1.77528 36 37 32
0.72885 -0.429093 1.784 37 38 34
0.733063 -0.42611 1.7716 37 39 35
0.742342 -0.42611 1.7716 36 39 34
0.748348 -0.424254 1.76388 35 38 33
0.771023 -0.431779 1.79517 35 37 32
0.790306 -0.437245 1.81789 35 38 33
0.784915 -0.429093 1.784 36 38 34
0.804578 -0.434668 1.80718 37 39 35
0.808634 -0.431779 1.79517 38 40 36
0.818037 -0.431779 1.79517 39 41 37
0.840189 -0.438432 1.82283 38 40 36
0.830529 -0.428521 1.78162 38 39 35
0.900219 -0.459318 1.90967 37 39 35
0.889225 -0.448723 1.86561 38 39 35
0.86505 -0.431779 1.79517 38 39 36
0.860367 -0.424823 1.76625 38 40 36
0.940229 -0.459318 1.90967 38 40 36
0.907022 -0.438432 1.82283 38 40 36
0.933056 -0.446318 1.85562 37 39 36
0.942775 -0.446318 1.85562 38 39 35
0.976725 -0.457672 1.90282 37 38 35
1.01174 -0.46929 1.95113 37 38 35
0.965871 -0.443534 1.84404 37 38 35
0.949675 -0.431779 1.79517 36 37 34
0.969381 -0.436417 1.81445 36 37 34
0.987541 -0.440277 1.8305 35 37 34
0.977883 -0.431779 1.79517 37 38 35
1.0682 -0.467164 1.94228 37 39 36
1.04064 -0.45082 1.87433 37 39 35
1.02589 -0.440277 1.8305 37 39 35
1.09547 -0.465784 1.93655 37 38 34
1.14184 -0.481046 2 35 36 33
1.11173 -0.464102 1.92955 36 37 34
1.21531 -0.502773 2.09033 36 37 34
1.12682 -0.462004 1.92083 36 37 34
1.18374 -0.481046 2 37 39 36
1.14028 -0.459318 1.90967 37 39 36
1.08131 -0.431779 1.79517 38 40 37
1.16028 -0.459318 1.90967 37 40 37
1.11707 -0.438432 1.82283 36 39 36
1.15845 -0.45082 1.87433 36 38 35
1.2466 -0.481046 2 35 37 35
-0.526427 -0.19707 0.837546 38 36 32
-0.52204 -0.19707 0.837546 37 37 32
-0.533834 -0.203229 0.863725 36 38 33
-0.49756 -0.191039 0.811916 37 38 34
-0.540981 -0.209501 0.89038 38 40 35
-0.526652 -0.205726 0.874334 37 39 34
-0.531654 -0.209501 0.89038 37 38 33
-0.529643 -0.210556 0.894863 37 38 34
-0.527381 -0.211529 0.898997 38 39 35
-0.535368 -0.216667 0.920833 38 39 34
-0.512999 -0.209501 0.89038 37 38 34
-0.496267 -0.204527 0.869241 38 38 34
-0.497263 -0.206835 0.87905 38 38 34
-0.492658 -0.206835 0.87905 37 37 33
-0.496834 -0.210556 0.894863 37 37 33
-0.504557 -0.215866 0.917429 36 36 32
-0.501606 -0.216667 0.920833 35 36 31
-0.487065 -0.212428 0.90282 36 36 32
-0.49196 -0.216667 0.920833 37 37 33
-0.502132 -0.223336 0.949179 38 38 35
-0.468711 -0.210556 0.894863 38 39 35
-0.483307 -0.219306 0.93205 39 39 35
-0.474277 -0.217405 0.923969 39 39 35
-0.484151 -0.224219 0.952929 38 38 35
-0.47916 -0.224219 0.952929 37 37 34
-0.475002 -0.224613 0.954604 37 37 33
-0.492353 -0.235294 1 37 37 34
-0.487115 -0.235294 1 38 38 34
-0.469102 -0.229056 0.973489 38 38 35
-0.464974 -0.229536 0.975527 37 37 34
-0.471402 -0.235294 1 37 36 33
-0.478522 -0.241532 1.02651 37 37 34
-0.448707 -0.229056 0.973489 37 37 34
-0.455688 -0.235294 1 38 39 35
-0.463476 -0.242098 1.02892 38 38 35
-0.459372 -0.242778 1.0318 38 38 35
-0.467892 -0.250224 1.06345 37 38 35
-0.459828 -0.248874 1.05772 38 38 35
-0.468298 -0.256549 1.09033 38 38 35
-0.438464 -0.243171 1.03348 37 38 35
-0.445611 -0.250224 1.06345 36 37 34
-0.45729 -0.260032 1.10514 36 37 34
-0.462516 -0.266376 1.1321 37 38 35
-0.453993 -0.264863 1.12567 37 38 35
-0.453488 -0.268049 1.13921 38 39 36
-0.469331 -0.281113 1.19473 38 39 35
-0.466989 -0.28349 1.20483 39 39 36
-0.420479 -0.258752 1.0997 38 39 36
-0.4389 -0.273839 1.16382 38 38 35
-0.45221 -0.286118 1.216 38 38 35
-0.427474 -0.27433 1.1659 37 38 35
-0.421367 -0.27433 1.1659 37 38 35
-0.423853 -0.280007 1.19003 37 39 36
-0.447537 -0.300066 1.27528 37 38 36
-0.439585 -0.2992 1.2716 37 38 36
-0.410193 -0.28349 1.20483 37 38 35
-0.413576 -0.290294 1.23375 36 37 34
-0.409915 -0.292291 1.24224 37 38 35
-0.412943 -0.2992 1.2716 37 38 35
-0.413813 -0.304745 1.29517 37 38 35
-0.426026 -0.318968 1.35562 37 38 35
-0.415349 -0.316245 1.34404 37 38 35
-0.417512 -0.323373 1.37433 38 38 35
-0.393463 -0.310093 1.31789 38 38 35
-0.379894 -0.304745 1.29517 38 38 35
-0.40183 -0.328203 1.39486 37 37 35
-0.366326 -0.304745 1.29517 37 37 34
-0.429972 -0.364441 1.54887 37 37 34
-0.397006 -0.34297 1.45762 37 38 35
-0.400691 -0.352941 1.5 37 38 35
-0.420369 -0.377679 1.60514 36 37 34
-0.422035 -0.386914 1.64438 37 38 35
-0.389409 -0.364441 1.54887 37 38 35
-0.41288 -0.394628 1.67717 37 38 35
-0.373184 -0.364441 1.54887 37 38 35
-0.383171 -0.38251 1.62567 37 38 35
-0.408288 -0.416847 1.7716 37 38 35
-0.361517 -0.377679 1.60514 38 39 35
-0.38973 -0.416847 1.7716 37 38 35
-0.341524 -0.374196 1.59033 36 37 33
-0.357183 -0.401137 1.70483 35 35 32
-0.363192 -0.418345 1.77797 35 36 32
-0.357303 -0.422392 1.79517 36 37 34
-0.333331 -0.404703 1.71999 37 38 35
-0.318673 -0.397654 1.69003 38 39 36
-0.310104 -0.398017 1.69157 38 39 35
-0.303605 -0.401137 1.70483 37 39 35
-0.299165 -0.407248 1.7308 37 38 35
-0.288286 -0.404703 1.71999 36 38 34
-0.278804 -0.404017 1.71707 36 37 34
-0.26354 -0.394628 1.67717 36 38 34
-0.248257 -0.384561 1.63439 36 37 34
-0.250028 -0.401137 1.70483 36 37 34
-0.234969 -0.39094 1.66149 37 38 35
-0.222575 -0.384561 1.63439 37 39 35
-0.225013 -0.404324 1.71838 38 39 35
-0.210832 -0.394628 1.67717 38 39 35
-0.207012 -0.404324 1.71838 37 38 35
-0.198011 -0.404324 1.71838 37 38 34
-0.181576 -0.388419 1.65078 38 39 36
-0.177202 -0.398017 1.69157 39 41 37
-0.17254 -0.407941 1.73375 38 39 36
-0.157062 -0.391978 1.6659 36 38 34
-0.154377 -0.407941 1.73375 37 39 35
-0.141762 -0.398017 1.69157 38 39 36
-0.135984 -0.407248 1.7308 37 38 35
-0.126007 -0.404324 1.71838 36 38 34
-0.116084 -0.401137 1.70483 37 38 34
-0.108787 -0.407248 1.7308 37 38 34
-0.0974612 -0.398017 1.69157 38 39 35
-0.0878468 -0.394628 1.67717 39 40 36
-0.0810045 -0.404324 1.71838 38 39 35
-0.0708163 -0.397654 1.69003 38 38 34
-0.060918 -0.39094 1.66149 38 39 35
-0.0527081 -0.394628 1.67717 38 39 35
-0.0450447 -0.404703 1.71999 37 38 34
-0.0338691 -0.38037 1.61657 37 38 34
-0.0265803 -0.398017 1.69157 38 39 35
-0.0178591 -0.401137 1.70483 38 39 35
-0.00908103 -0.407941 1.73375 38 39 35
0 -0.393836 1.6738 37 38 34
0.00856058 -0.384561 1.63439 37 38 34
0.0181621 -0.407941 1.73375 37 38 34
0.0265803 -0.398017 1.69157 37 38 34
0.0342423 -0.384561 1.63439 36 38 34
0.0439234 -0.394628 1.67717 38 39 35
0.0508036 -0.38037 1.61657 38 40 35
0.0619642 -0.397654 1.69003 38 39 35
0.072004 -0.404324 1.71838 37 38 34
0.0815903 -0.407248 1.7308 37 38 34
0.0892957 -0.401137 1.70483 37 38 34
0.0959824 -0.391978 1.6659 38 39 35
0.107155 -0.401137 1.70483 37 39 35
0.114201 -0.394628 1.67717 37 39 35
0.124041 -0.398017 1.69157 37 39 35
0.13177 -0.394628 1.67717 37 38 34
0.141633 -0.397654 1.69003 37 38 35
0.150485 -0.397654 1.69003 37 38 34
0.159482 -0.398017 1.69157 37 38 34
0.168189 -0.397654 1.69003 37 38 35
0.174051 -0.39094 1.66149 37 39 35
0.184478 -0.394628 1.67717 38 40 36
0.198197 -0.404703 1.71999 39 40 37
0.194747 -0.38037 1.61657 37 39 36
0.209416 -0.391978 1.6659 37 38 35
0.215324 -0.386914 1.64438 37 38 35
0.234013 -0.404324 1.71838 38 39 36
0.246962 -0.410892 1.74629 38 39 35
0.254812 -0.408812 1.73745 39 39 35
0.256709 -0.397654 1.69003 39 39 35
0.261077 -0.39094 1.66149 39 39 35
0.287658 -0.416847 1.7716 37 38 34
0.288286 -0.404703 1.71999 37 37 33
0.292117 -0.397654 1.69003 38 39 35
0.310989 -0.410892 1.74629 39 40 37
0.312535 -0.401137 1.70483 38 40 36
0.316248 -0.394628 1.67717 37 39 35
0.330394 -0.401137 1.70483 37 38 34
0.333818 -0.394628 1.67717 37 37 34
0.356722 -0.410892 1.74629 38 38 34
0.366925 -0.412078 1.75133 38 39 35
0.369367 -0.404703 1.71999 38 38 34
0.375042 -0.401137 1.70483 37 38 34
0.390484 -0.407941 1.73375 37 38 34
0.399565 -0.407941 1.73375 38 39 35
0.409519 -0.408812 1.73745 38 39 35
0.414411 -0.404703 1.71999 38 39 35
0.426808 -0.407941 1.73375 37 38 34
0.451331 -0.422392 1.79517 37 37 33
0.444214 -0.407248 1.7308 36 37 33
0.446478 -0.401137 1.70483 36 37 33
0.459456 -0.404703 1.71999 36 38 34
0.460306 -0.397654 1.69003 36 38 34
0.484776 -0.410892 1.74629 37 38 35
0.498898 -0.415031 1.76388 37 38 35
0.499457 -0.407941 1.73375 37 38 34
0.508538 -0.407941 1.73375 37 38 34
0.51351 -0.404703 1.71999 39 39 36
0.53051 -0.410892 1.74629 40 40 36
0.53487 -0.407248 1.7308 38 39 35
0.554332 -0.415031 1.76388 37 37 33
0.573566 -0.422392 1.79517 37 37 33
0.57651 -0.417713 1.77528 38 38 34
0.574906 -0.409938 1.74224 37 37 34
0.571492 -0.401137 1.70483 36 37 33
0.607942 -0.420157 1.78567 38 39 35
0.613704 -0.417713 1.77528 38 40 36
0.626648 -0.420157 1.78567 37 38 35
0.621977 -0.410892 1.74629 37 38 34
0.626591 -0.407941 1.73375 35 36 33
0.644476 -0.413591 1.75776 36 37 33
0.655959 -0.415031 1.76388 37 39 35
0.680806 -0.42477 1.80527 38 39 35
0.669638 -0.412078 1.75133 37 38 34
0.699718 -0.42477 1.80527 36 37 32
0.700817 -0.419765 1.784 36 37 33
0.68468 -0.404703 1.71999 37 37 33
0.70633 -0.412078 1.75133 37 38 34
0.72885 -0.419765 1.784 37 39 34
0.742815 -0.422392 1.79517 36 38 34
0.728033 -0.408812 1.73745 36 38 34
0.737134 -0.408812 1.73745 35 38 33
0.771023 -0.422392 1.79517 35 37 32
0.785647 -0.425218 1.80718 35 38 33
0.795113 -0.425218 1.80718 36 38 34
0.811546 -0.428901 1.82283 37 39 35
0.826169 -0.431552 1.8341 38 40 36
0.82351 -0.425218 1.80718 38 39 35
0.803043 -0.409938 1.74224 37 38 34
0.812168 -0.409938 1.74224 37 38 34
0.853223 -0.425875 1.80997 37 38 34
0.868832 -0.428901 1.82283 38 39 35
0.883809 -0.431552 1.8341 38 39 35
0.887927 -0.428901 1.82283 38 39 36
0.903022 -0.431552 1.8341 38 40 36
0.893258 -0.422392 1.79517 38 39 36
0.895851 -0.419206 1.78162 37 39 35
0.936895 -0.433892 1.84404 37 39 35
0.939602 -0.430706 1.8305 37 38 35
0.962214 -0.436615 1.85562 37 39 35
0.931262 -0.418345 1.77797 37 38 34
1.03218 -0.459088 1.95113 36 37 34
0.969381 -0.42693 1.81445 36 37 34
1.04785 -0.457008 1.94228 35 36 33
1.08946 -0.470588 2 36 37 34
1.03697 -0.443647 1.8855 37 38 35
0.996688 -0.422392 1.79517 37 38 35
1.02159 -0.428901 1.82283 37 38 35
1.06028 -0.44102 1.87433 37 38 35
1.06236 -0.437833 1.86079 36 38 34
1.02072 -0.416847 1.7716 36 38 34
1.05978 -0.428901 1.82283 36 37 34
1.13194 -0.454013 1.92955 36 37 34
1.13689 -0.451961 1.92083 36 38 35
1.14028 -0.449333 1.90967 37 38 35
1.11075 -0.433892 1.84404 38 39 36
1.16028 -0.449333 1.90967 37 40 37
1.30266 -0.500157 2.12567 37 39 36
1.17114 -0.44585 1.89486 37 39 37
1.2466 -0.470588 2 35 37 35
-0.504612 -0.184705 0.802837 38 37 32
-0.526089 -0.194185 0.844042 37 37 33
-0.537243 -0.199982 0.869241 36 37 33
-0.517247 -0.194185 0.844042 36 38 33
-0.543705 -0.205877 0.894863 37 39 34
-0.504493 -0.19269 0.837546 37 39 34
-0.480008 -0.184947 0.803887 37 39 34
-0.517493 -0.201154 0.874334 37 38 33
-0.527381 -0.206828 0.898997 37 38 33
-0.550622 -0.217888 0.947071 37 38 33
-0.512999 -0.204846 0.89038 37 38 33
-0.485309 -0.195566 0.850047 38 39 34
-0.508546 -0.206828 0.898997 38 38 34
-0.484069 -0.198713 0.863725 37 37 34
-0.496834 -0.205877 0.894863 37 37 33
-0.506429 -0.211852 0.920833 38 38 34
-0.476277 -0.201154 0.874334 36 37 33
-0.539493 -0.230065 1 37 37 33
-0.49196 -0.211852 0.920833 37 38 34
-0.49175 -0.213858 0.929553 38 38 35
-0.510449 -0.22421 0.974549 38 38 35
-0.492189 -0.218373 0.949179 38 39 35
-0.475765 -0.21324 0.926867 38 38 35
-0.446615 -0.202239 0.87905 37 37 34
-0.477274 -0.218373 0.949179 36 37 33
-0.484926 -0.22421 0.974549 36 37 33
-0.492353 -0.230065 1 37 38 34
-0.461332 -0.217888 0.947071 38 38 35
-0.469613 -0.22421 0.974549 38 38 35
-0.463455 -0.223701 0.972338 37 37 34
-0.471402 -0.230065 1 37 37 34
-0.501607 -0.247557 1.07603 38 38 35
-0.460926 -0.230065 1 38 38 35
-0.495005 -0.249915 1.08628 38 39 35
-0.476449 -0.243344 1.05772 37 38 34
-0.473462 -0.244663 1.06345 37 37 34
-0.477936 -0.249915 1.08628 37 38 34
-0.447906 -0.237035 1.03029 37 38 34
-0.443877 -0.237767 1.03348 37 38 35
-0.466559 -0.253002 1.0997 37 38 35
-0.471681 -0.258977 1.12567 37 37 34
-0.468445 -0.260456 1.1321 36 37 34
-0.472265 -0.265946 1.15596 36 37 34
-0.445713 -0.254254 1.10514 36 36 33
-0.456636 -0.263912 1.14712 36 37 34
-0.450627 -0.263912 1.14712 36 36 34
-0.448046 -0.265946 1.15596 36 37 34
-0.464949 -0.27976 1.216 36 37 34
-0.419057 -0.255649 1.1112 36 37 34
-0.433581 -0.268234 1.1659 37 38 35
-0.441747 -0.27719 1.20483 37 38 35
-0.425439 -0.270826 1.17717 37 38 35
-0.439425 -0.283843 1.23375 37 38 36
-0.461284 -0.30241 1.31445 37 38 36
-0.461911 -0.307409 1.33618 37 38 36
-0.41605 -0.281148 1.22203 38 39 36
-0.409649 -0.281148 1.22203 37 39 35
-0.419604 -0.292551 1.2716 37 38 34
-0.427977 -0.303202 1.31789 37 38 35
-0.429429 -0.309217 1.34404 36 37 34
-0.446522 -0.326884 1.42083 36 37 34
-0.43908 -0.326884 1.42083 37 38 35
-0.431638 -0.326884 1.42083 38 38 35
-0.40127 -0.309217 1.34404 37 37 35
-0.416754 -0.326884 1.42083 37 37 35
-0.432118 -0.345098 1.5 37 37 34
-0.410438 -0.333854 1.45113 37 37 34
-0.416405 -0.345098 1.5 36 37 34
-0.395236 -0.333854 1.45113 37 38 35
-0.416109 -0.358376 1.55772 37 38 35
-0.420369 -0.369286 1.60514 37 37 34
-0.437549 -0.392223 1.70483 37 38 35
-0.377121 -0.345098 1.5 37 38 35
-0.395147 -0.369286 1.60514 37 37 35
-0.426847 -0.407584 1.7716 36 37 34
-0.393503 -0.384094 1.6695 35 36 33
-0.356958 -0.356342 1.54887 37 38 35
-0.361517 -0.369286 1.60514 38 39 35
-0.38973 -0.407584 1.7716 37 38 35
-0.372322 -0.398876 1.73375 36 37 33
-0.324508 -0.356342 1.54887 36 36 33
-0.366706 -0.413006 1.79517 35 36 32
-0.335485 -0.387786 1.68555 36 36 33
-0.333331 -0.39571 1.71999 35 36 32
-0.321464 -0.392223 1.70483 36 36 33
-0.305398 -0.383267 1.6659 36 37 34
-0.29398 -0.379788 1.65078 37 38 35
-0.294676 -0.392223 1.70483 38 39 35
-0.283523 -0.389172 1.69157 37 39 35
-0.276817 -0.392223 1.70483 37 38 34
-0.259394 -0.379788 1.65078 37 38 35
-0.256943 -0.389172 1.69157 37 38 35
-0.250028 -0.392223 1.70483 37 38 35
-0.241098 -0.392223 1.70483 37 39 35
-0.230153 -0.388817 1.69003 37 38 35
-0.214931 -0.377625 1.64138 37 38 34
-0.210832 -0.385859 1.67717 37 38 35
-0.207206 -0.39571 1.71999 37 38 34
-0.198011 -0.395339 1.71838 37 38 34
-0.187521 -0.392223 1.70483 37 39 35
-0.174051 -0.382252 1.66149 38 40 36
-0.165349 -0.382252 1.66149 38 40 36
-0.155636 -0.379788 1.65078 37 38 35
-0.14934 -0.385859 1.67717 37 38 35
-0.141633 -0.388817 1.69003 38 39 35
-0.13177 -0.385859 1.67717 38 39 35
-0.12105 -0.379788 1.65078 37 39 35
-0.117007 -0.395339 1.71838 37 38 34
-0.107155 -0.392223 1.70483 37 38 34
-0.0951111 -0.379788 1.65078 37 38 34
-0.0892957 -0.392223 1.70483 37 38 35
-0.0778182 -0.379788 1.65078 37 38 34
-0.0703909 -0.386482 1.67988 38 38 34
-0.0614928 -0.385859 1.67717 38 39 35
-0.0522154 -0.382252 1.66149 38 39 35
-0.0446478 -0.392223 1.70483 38 39 35
-0.0357183 -0.392223 1.70483 37 38 35
-0.0261077 -0.382252 1.66149 37 38 35
-0.0175694 -0.385859 1.67717 38 39 35
-0.00846727 -0.371917 1.61657 38 39 35
0 -0.392223 1.70483 38 39 35
0.00876704 -0.385084 1.6738 38 39 35
0.0183462 -0.402921 1.75133 37 38 34
0.027059 -0.39618 1.72203 37 38 34
0.0354404 -0.389172 1.69157 37 38 34
0.0438352 -0.385084 1.6738 38 39 35
0.0526022 -0.385084 1.6738 38 40 35
0.0619642 -0.388817 1.69003 38 39 35
0.0702774 -0.385859 1.67717 37 38 34
0.078531 -0.383267 1.6659 37 38 34
0.0885203 -0.388817 1.69003 37 38 34
0.0966315 -0.385859 1.67717 36 38 34
0.104083 -0.380979 1.65596 36 38 34
0.114201 -0.385859 1.67717 36 37 33
0.119848 -0.376016 1.63439 36 38 33
0.133943 -0.392223 1.70483 36 37 33
0.142873 -0.392223 1.70483 37 38 34
0.151803 -0.392223 1.70483 38 39 35
0.160732 -0.392223 1.70483 38 39 35
0.166909 -0.385859 1.67717 38 40 36
0.174051 -0.382252 1.66149 37 40 35
0.184478 -0.385859 1.67717 38 40 36
0.195066 -0.38946 1.69282 38 40 36
0.197736 -0.377625 1.64138 38 39 36
0.212449 -0.388817 1.69003 37 39 35
0.221301 -0.388817 1.69003 36 38 34
0.230363 -0.389172 1.69157 37 39 35
0.243241 -0.39571 1.71999 38 39 35
0.247857 -0.388817 1.69003 39 39 35
0.26602 -0.402921 1.75133 38 39 34
0.267887 -0.392223 1.70483 38 38 34
0.279277 -0.39571 1.71999 37 37 33
0.283265 -0.388817 1.69003 37 38 34
0.299674 -0.398876 1.73375 39 39 35
0.300969 -0.388817 1.69003 38 40 36
0.315313 -0.39571 1.71999 38 39 36
0.324322 -0.39571 1.71999 37 39 35
0.327525 -0.388817 1.69003 37 38 34
0.336684 -0.389172 1.69157 36 38 34
0.345229 -0.388817 1.69003 37 38 34
0.354404 -0.389172 1.69157 37 38 34
0.369021 -0.395339 1.71838 37 38 34
0.390539 -0.40843 1.77528 37 38 34
0.38982 -0.398198 1.7308 37 37 33
0.396022 -0.395339 1.71838 38 39 34
0.40183 -0.392223 1.70483 39 40 35
0.41076 -0.392223 1.70483 38 39 35
0.41969 -0.392223 1.70483 37 38 34
0.425285 -0.389172 1.69157 36 37 33
0.441025 -0.395339 1.71838 36 37 33
0.438352 -0.385084 1.6738 37 38 34
0.455408 -0.392223 1.70483 38 39 35
0.47563 -0.401761 1.74629 37 38 34
0.473267 -0.392223 1.70483 37 38 34
0.469939 -0.382252 1.66149 37 38 34
0.495492 -0.39571 1.71999 37 38 34
0.500056 -0.392223 1.70483 37 38 34
0.508985 -0.392223 1.70483 38 39 35
0.525804 -0.398198 1.7308 38 38 35
0.545093 -0.405808 1.76388 38 38 34
0.544862 -0.398876 1.73375 37 38 34
0.549031 -0.395339 1.71838 38 38 35
0.567097 -0.401761 1.74629 38 38 35
0.572105 -0.398876 1.73375 38 38 35
0.58539 -0.401761 1.74629 37 38 34
0.602024 -0.406821 1.76828 38 39 35
0.584234 -0.388817 1.69003 38 39 36
0.608429 -0.398876 1.73375 36 37 34
0.632301 -0.40843 1.77528 36 37 33
0.6416 -0.40843 1.77528 35 36 32
0.665261 -0.417443 1.81445 36 37 34
0.649417 -0.401761 1.74629 39 40 36
0.669496 -0.40843 1.77528 39 40 36
0.674437 -0.405808 1.76388 38 39 35
0.688093 -0.40843 1.77528 37 38 34
0.692915 -0.405808 1.76388 37 38 34
0.702153 -0.405808 1.76388 38 38 34
0.719505 -0.410436 1.784 38 39 34
0.70832 -0.398876 1.73375 37 38 34
0.738194 -0.410436 1.784 36 37 32
0.728033 -0.399727 1.73745 36 38 33
0.708305 -0.384094 1.6695 37 38 34
0.771023 -0.413006 1.79517 36 38 33
0.755334 -0.399727 1.73745 36 38 33
0.806956 -0.421962 1.8341 37 38 34
0.773535 -0.399727 1.73745 37 39 35
0.814044 -0.415769 1.80718 38 39 35
0.830642 -0.41937 1.82283 37 38 34
0.845382 -0.421962 1.8341 36 37 33
0.836842 -0.413006 1.79517 36 37 33
0.828612 -0.4044 1.75776 37 38 35
0.830419 -0.400829 1.74224 38 39 36
0.872183 -0.416411 1.80997 38 39 36
0.867856 -0.40989 1.78162 36 38 35
0.91854 -0.429213 1.86561 36 38 35
0.946826 -0.437773 1.90282 36 38 35
0.933056 -0.426913 1.85562 36 38 35
0.966759 -0.437773 1.90282 37 39 35
0.952495 -0.426913 1.85562 37 38 35
0.94919 -0.421134 1.8305 38 39 35
0.992491 -0.435942 1.89486 37 38 35
0.929887 -0.4044 1.75776 37 38 34
0.959077 -0.413006 1.79517 36 37 34
0.994848 -0.42425 1.84404 35 36 33
1.02709 -0.433789 1.8855 36 37 34
1.03082 -0.431219 1.87433 37 38 35
1.0713 -0.443923 1.92955 36 37 34
1.05672 -0.433789 1.8855 36 37 34
1.13136 -0.460131 2 37 38 35
1.06236 -0.428104 1.86079 37 38 35
1.06246 -0.42425 1.84404 37 38 35
1.16279 -0.460131 2 36 38 34
1.08178 -0.42425 1.84404 36 37 34
1.07888 -0.41937 1.82283 35 36 33
1.13144 -0.435942 1.89486 36 37 34
1.15701 -0.441917 1.92083 37 39 35
1.03583 -0.392223 1.70483 37 39 36
1.11707 -0.41937 1.82283 37 39 36
1.0864 -0.4044 1.75776 37 39 36
1.2466 -0.460131 2 35 38 35
-0.542882 -0.194197 0.863725 38 37 33
-0.526089 -0.189771 0.844042 37 37 32
-0.510639 -0.185759 0.826197 35 37 32
-0.506312 -0.185759 0.826197 36 38 33
-0.531232 -0.196582 0.874334 37 38 34
-0.536317 -0.20019 0.89038 38 39 34
-0.549838 -0.207037 0.920833 38 39 34
-0.503118 -0.191122 0.850047 36 38 32
-0.512913 -0.196582 0.874334 36 37 31
-0.494214 -0.191122 0.850047 37 38 33
-0.520167 -0.202987 0.90282 37 38 33
-0.499175 -0.196582 0.874334 38 38 33
-0.484006 -0.192374 0.855615 38 38 34
-0.519457 -0.208394 0.926867 37 37 33
-0.511252 -0.207037 0.920833 37 36 32
-0.536509 -0.219334 0.975527 37 37 33
-0.501606 -0.207037 0.920833 36 37 33
-0.525191 -0.218876 0.973489 38 39 35
-0.520092 -0.218876 0.973489 39 39 35
-0.515553 -0.219114 0.974549 36 37 33
-0.49818 -0.213848 0.951125 36 36 32
-0.480619 -0.208394 0.926867 37 37 33
-0.490002 -0.21463 0.954604 36 37 33
-0.495135 -0.219114 0.974549 37 37 34
-0.478253 -0.213848 0.951125 36 37 34
-0.472302 -0.21341 0.949179 38 38 35
-0.479822 -0.219114 0.974549 38 38 35
-0.487115 -0.224837 1 38 39 35
-0.44524 -0.207742 0.923969 38 38 35
-0.489824 -0.231056 1.02766 37 37 34
-0.471402 -0.224837 1 37 37 34
-0.478028 -0.230559 1.02545 38 38 35
-0.448707 -0.218876 0.973489 37 38 34
-0.468866 -0.231338 1.02892 37 37 34
-0.45045 -0.224837 1 37 37 34
-0.483625 -0.244235 1.08628 37 38 34
-0.481678 -0.246148 1.09479 38 38 35
-0.472246 -0.244235 1.08628 37 38 34
-0.47021 -0.246148 1.09479 37 37 34
-0.466559 -0.247252 1.0997 36 37 34
-0.456876 -0.245147 1.09033 37 38 34
-0.471389 -0.256136 1.13921 36 38 34
-0.453979 -0.249838 1.1112 36 37 34
-0.456586 -0.254537 1.1321 37 38 35
-0.439925 -0.248475 1.10514 38 38 36
-0.439188 -0.251366 1.118 37 38 35
-0.448046 -0.259902 1.15596 37 38 35
-0.410865 -0.241599 1.07455 36 37 34
-0.449839 -0.26819 1.19282 36 36 34
-0.433581 -0.262138 1.1659 37 37 34
-0.474867 -0.291201 1.29517 37 37 35
-0.406825 -0.253091 1.12567 36 37 35
-0.439425 -0.277392 1.23375 36 38 35
-0.41762 -0.267562 1.19003 36 38 35
-0.439585 -0.285902 1.2716 36 38 35
-0.434177 -0.286729 1.27528 37 39 36
-0.434165 -0.291201 1.29517 38 39 36
-0.427381 -0.291201 1.29517 38 39 36
-0.441908 -0.305956 1.36079 38 39 36
-0.443729 -0.312253 1.3888 37 38 35
-0.407029 -0.291201 1.29517 36 37 34
-0.435629 -0.316944 1.40967 37 37 34
-0.440841 -0.326266 1.45113 38 38 35
-0.43324 -0.326266 1.45113 37 38 35
-0.416754 -0.319455 1.42083 37 37 35
-0.432118 -0.337255 1.5 36 37 34
-0.424261 -0.337255 1.5 37 37 34
-0.416405 -0.337255 1.5 37 38 35
-0.418736 -0.345665 1.53741 37 38 35
-0.424822 -0.357565 1.59033 37 38 35
-0.40795 -0.350232 1.55772 37 38 35
-0.411962 -0.360894 1.60514 37 38 35
-0.428619 -0.383309 1.70483 37 38 35
-0.404809 -0.369718 1.64438 37 38 35
-0.373184 -0.348244 1.54887 37 38 35
-0.370156 -0.353094 1.57045 36 37 35
-0.399565 -0.38981 1.73375 37 38 35
-0.370357 -0.369718 1.64438 37 38 34
-0.357626 -0.365509 1.62567 36 37 34
-0.366112 -0.383309 1.70483 37 38 34
-0.368272 -0.395209 1.75776 38 38 35
-0.343611 -0.378199 1.68211 37 37 34
-0.332291 -0.375365 1.6695 37 37 34
-0.327525 -0.379981 1.69003 36 36 33
-0.324018 -0.386354 1.71838 36 36 33
-0.302626 -0.371156 1.65078 37 38 34
-0.301244 -0.380327 1.69157 37 38 35
-0.297017 -0.386354 1.71838 38 39 36
-0.278482 -0.373565 1.66149 38 39 36
-0.279016 -0.386354 1.71838 37 38 35
-0.265803 -0.380327 1.69157 37 38 35
-0.254756 -0.377089 1.67717 36 38 34
-0.244319 -0.374556 1.6659 37 38 35
-0.249449 -0.396585 1.76388 37 38 35
-0.234233 -0.386716 1.71999 37 38 35
-0.22664 -0.389148 1.7308 38 38 35
-0.210832 -0.377089 1.67717 38 39 35
-0.202048 -0.377089 1.67717 37 38 35
-0.19645 -0.383309 1.70483 37 38 34
-0.189011 -0.386354 1.71838 37 38 34
-0.171212 -0.36747 1.63439 38 38 35
-0.168342 -0.380327 1.69157 37 38 35
-0.162009 -0.386354 1.71838 37 38 34
-0.14699 -0.371156 1.65078 37 38 35
-0.140555 -0.377089 1.67717 38 40 36
-0.130538 -0.373565 1.66149 38 39 36
-0.122986 -0.377089 1.67717 38 39 35
-0.117007 -0.386354 1.71838 37 38 35
-0.109761 -0.392631 1.74629 37 38 34
-0.0967876 -0.377698 1.67988 38 39 35
-0.090005 -0.386354 1.71838 38 39 35
-0.0790621 -0.377089 1.67717 38 39 35
-0.0702774 -0.377089 1.67717 38 38 35
-0.0602907 -0.369718 1.64438 38 39 35
-0.0531606 -0.380327 1.69157 38 38 35
-0.0428029 -0.36747 1.63439 38 39 35
-0.0351955 -0.377698 1.67988 37 39 35
-0.0265561 -0.379981 1.69003 37 39 35
-0.0171212 -0.36747 1.63439 37 39 35
-0.00885203 -0.379981 1.69003 37 39 35
0 -0.379981 1.69003 37 38 34
0.00914672 -0.392631 1.74629 37 39 35
0.0178591 -0.383309 1.70483 37 38 34
0.026354 -0.377089 1.67717 37 39 34
0.036002 -0.386354 1.71838 38 39 35
0.0454051 -0.38981 1.73375 37 39 35
0.0544862 -0.38981 1.73375 37 39 34
0.0642118 -0.393763 1.75133 37 39 34
0.0702774 -0.377089 1.67717 37 38 34
0.0796683 -0.379981 1.69003 36 38 34
0.0878468 -0.377089 1.67717 36 38 34
0.100614 -0.392631 1.74629 36 38 34
0.107155 -0.383309 1.70483 37 39 34
0.116084 -0.383309 1.70483 36 38 34
0.119848 -0.36747 1.63439 36 38 34
0.130538 -0.373565 1.66149 36 38 34
0.139241 -0.373565 1.66149 37 38 34
0.150485 -0.379981 1.69003 38 39 35
0.158124 -0.377089 1.67717 38 39 35
0.166909 -0.377089 1.67717 38 39 35
0.174513 -0.374556 1.6659 38 39 35
0.184108 -0.376332 1.6738 37 39 34
0.19645 -0.383309 1.70483 37 39 35
0.208864 -0.38981 1.73375 37 38 35
0.21431 -0.383309 1.70483 38 39 35
0.225224 -0.386716 1.71999 38 39 35
0.226267 -0.373565 1.66149 39 39 35
0.233454 -0.371156 1.65078 40 40 36
0.247857 -0.379981 1.69003 40 40 36
0.274503 -0.40632 1.80718 38 39 34
0.270268 -0.386716 1.71999 37 38 33
0.276817 -0.383309 1.70483 37 37 33
0.285746 -0.383309 1.70483 38 38 34
0.294676 -0.383309 1.70483 38 39 35
0.306304 -0.386716 1.71999 37 38 35
0.317836 -0.38981 1.73375 38 39 35
0.324018 -0.386354 1.71838 38 39 36
0.330394 -0.383309 1.70483 38 39 35
0.330698 -0.373565 1.66149 38 39 35
0.351349 -0.386716 1.71999 38 39 35
0.351387 -0.377089 1.67717 38 39 34
0.385511 -0.403619 1.79517 38 39 35
0.381403 -0.38981 1.73375 38 39 35
0.383971 -0.383309 1.70483 38 39 34
0.399565 -0.38981 1.73375 38 39 34
0.408646 -0.38981 1.73375 39 40 35
0.414023 -0.386354 1.71838 39 40 35
0.41288 -0.377089 1.67717 37 38 34
0.441926 -0.395209 1.75776 37 38 33
0.455629 -0.399148 1.77528 37 38 33
0.45328 -0.389148 1.7308 37 38 34
0.459456 -0.386716 1.71999 37 39 34
0.459775 -0.379543 1.68808 37 38 35
0.486175 -0.393763 1.75133 37 38 34
0.486483 -0.386716 1.71999 37 38 34
0.499457 -0.38981 1.73375 37 38 34
0.490954 -0.376332 1.6738 38 39 35
0.516739 -0.389148 1.7308 38 39 35
0.533994 -0.395209 1.75776 38 38 34
0.545093 -0.396585 1.76388 38 38 34
0.531122 -0.379981 1.69003 37 38 34
0.553943 -0.38981 1.73375 38 38 34
0.57651 -0.399148 1.77528 38 38 35
0.562563 -0.383309 1.70483 37 38 34
0.592762 -0.397575 1.76828 37 37 34
0.607942 -0.401483 1.78567 38 39 35
0.602282 -0.391719 1.74224 38 40 36
0.629982 -0.403619 1.79517 38 39 35
0.623772 -0.393763 1.75133 37 38 35
0.645354 -0.401483 1.78567 36 38 34
0.64672 -0.396585 1.76388 36 37 33
0.660197 -0.399148 1.77528 37 38 34
0.669496 -0.399148 1.77528 37 38 34
0.672096 -0.395209 1.75776 38 38 34
0.683676 -0.396585 1.76388 38 38 34
0.692915 -0.396585 1.76388 38 39 34
0.730934 -0.412841 1.83618 38 39 34
0.719505 -0.401108 1.784 38 39 34
0.709832 -0.390643 1.73745 38 39 34
0.733063 -0.39832 1.7716 37 39 34
0.752218 -0.403619 1.79517 37 39 34
0.756882 -0.401108 1.784 37 39 34
0.757587 -0.396585 1.76388 37 38 34
0.801673 -0.414608 1.84404 37 38 34
0.750084 -0.383309 1.70483 37 38 34
0.759013 -0.383309 1.70483 37 39 35
0.808634 -0.403619 1.79517 38 39 35
0.818037 -0.403619 1.79517 37 38 34
0.810198 -0.395209 1.75776 36 37 33
0.854989 -0.412372 1.8341 37 38 34
0.846245 -0.403619 1.79517 38 39 35
0.841864 -0.397118 1.76625 38 39 36
0.872183 -0.406947 1.80997 38 39 36
0.887927 -0.409839 1.82283 37 38 35
0.891144 -0.406947 1.80997 36 38 35
0.912629 -0.412372 1.8341 37 38 35
0.922235 -0.412372 1.8341 37 38 35
0.962716 -0.426035 1.89486 36 37 34
0.972641 -0.426035 1.89486 36 37 34
0.94919 -0.411563 1.8305 37 38 34
0.965871 -0.414608 1.84404 37 38 34
0.984391 -0.418374 1.86079 37 38 34
1.03461 -0.435407 1.93655 37 38 34
0.987541 -0.411563 1.8305 36 37 34
1.0549 -0.435407 1.93655 36 37 33
0.987286 -0.403619 1.79517 36 37 33
1.03312 -0.418374 1.86079 35 36 33
1.08533 -0.435407 1.93655 36 37 33
1.09151 -0.433834 1.92955 37 38 35
1.07009 -0.421419 1.87433 37 38 35
1.11173 -0.433834 1.92955 36 37 34
1.0437 -0.403619 1.79517 37 38 35
1.12682 -0.431874 1.92083 38 39 36
1.14205 -0.433834 1.92955 37 38 35
1.15215 -0.433834 1.92955 35 37 34
1.129 -0.421419 1.87433 35 37 34
1.03583 -0.383309 1.70483 35 37 34
1.22564 -0.449673 2 35 37 34
