ply
format ascii 1.0
element vertex 1364
property float x
property float y
property float z
property uchar red
property uchar green
property uchar blue
end_header
-0.683047 0.299357 1.59033 37 37 33
-0.689707 0.306008 1.62567 36 37 31
-0.742342 0.333478 1.7716 36 36 31
-0.680423 0.309531 1.64438 36 36 31
-0.696506 0.32091 1.70483 36 36 32
-0.655648 0.306008 1.62567 36 36 33
-0.693537 0.327951 1.74224 36 37 33
-0.630553 0.302143 1.60514 36 37 33
-0.622146 0.302143 1.60514 37 37 34
-0.651858 0.32091 1.70483 37 37 34
-0.653834 0.326353 1.73375 37 37 33
-0.644753 0.326353 1.73375 36 36 32
-0.65819 0.337914 1.79517 36 37 33
-0.653128 0.340175 1.80718 37 37 34
-0.628243 0.332025 1.76388 36 36 33
-0.63675 0.341544 1.81445 35 35 32
-0.607649 0.330873 1.75776 35 36 33
-0.617743 0.341544 1.81445 36 37 34
-0.598589 0.336125 1.78567 36 37 34
-0.566602 0.323214 1.71707 37 37 34
-0.562067 0.325798 1.7308 37 38 35
-0.556655 0.327951 1.74224 37 38 35
-0.557913 0.33417 1.77528 37 37 34
-0.561784 0.342192 1.81789 36 37 33
-0.53051 0.328714 1.74629 37 37 33
-0.527929 0.332853 1.76828 38 39 35
-0.520719 0.33417 1.77528 38 39 35
-0.475555 0.310736 1.65078 38 39 36
-0.478446 0.318413 1.69157 37 37 34
-0.484776 0.328714 1.74629 35 36 33
-0.468026 0.323459 1.71838 35 36 33
-0.466483 0.328714 1.74629 36 37 34
-0.470136 0.337914 1.79517 36 37 34
-0.444214 0.325798 1.7308 36 37 34
-0.425285 0.318413 1.69157 35 36 33
-0.410106 0.313582 1.6659 36 36 33
-0.414023 0.323459 1.71838 36 37 34
-0.416786 0.332853 1.76828 37 37 35
-0.402456 0.328714 1.74629 37 38 35
-0.383971 0.32091 1.70483 38 39 36
-0.363151 0.310736 1.65078 37 38 35
-0.376411 0.329937 1.75279 37 38 35
-0.357183 0.32091 1.70483 37 37 35
-0.355894 0.327951 1.74224 37 37 35
-0.342019 0.323459 1.71838 37 37 35
-0.333019 0.323459 1.71838 37 38 35
-0.313292 0.312752 1.66149 37 38 35
-0.310333 0.318649 1.69282 36 37 34
-0.29398 0.310736 1.65078 35 36 34
-0.292117 0.318123 1.69003 35 36 34
-0.290099 0.325798 1.7308 36 37 34
-0.274663 0.318413 1.69157 37 38 35
-0.271968 0.325798 1.7308 37 38 35
-0.254756 0.315703 1.67717 36 38 34
-0.253837 0.325798 1.7308 36 37 34
-0.237186 0.315703 1.67717 36 37 34
-0.232169 0.32091 1.70483 36 37 34
-0.219176 0.315069 1.6738 36 37 34
-0.21431 0.32091 1.70483 36 36 34
-0.20538 0.32091 1.70483 34 35 32
-0.193263 0.315703 1.67717 35 35 32
-0.184478 0.315703 1.67717 36 36 33
-0.174513 0.313582 1.6659 36 37 34
-0.166909 0.315703 1.67717 37 38 35
-0.155636 0.310736 1.65078 36 37 34
-0.151803 0.32091 1.70483 35 36 34
-0.140555 0.315703 1.67717 35 36 34
-0.136882 0.327951 1.74224 35 36 34
-0.118646 0.304564 1.618 36 37 35
-0.116084 0.32091 1.70483 36 37 35
-0.106321 0.318413 1.69157 36 36 34
-0.0973724 0.318123 1.69003 35 36 34
-0.0892957 0.32091 1.70483 35 35 33
-0.079741 0.318413 1.69157 35 35 34
-0.0684294 0.307401 1.63307 35 36 34
-0.0605252 0.310736 1.65078 35 36 34
-0.0522154 0.312752 1.66149 36 36 34
-0.0435128 0.312752 1.66149 36 36 34
-0.0342423 0.307649 1.63439 36 36 34
-0.0265803 0.318413 1.69157 36 36 34
-0.0177202 0.318413 1.69157 36 36 34
-0.00851491 0.306008 1.62567 35 36 33
0 0.318413 1.69157 36 36 34
0.00892957 0.32091 1.70483 36 37 34
0.0177202 0.318413 1.69157 36 37 34
0.026354 0.315703 1.67717 36 37 34
0.0348103 0.312752 1.66149 36 37 33
0.0450447 0.323762 1.71999 36 37 34
0.0531606 0.318413 1.69157 35 36 33
0.0635672 0.326353 1.73375 35 36 33
0.0684294 0.307401 1.63307 35 36 32
0.0791898 0.316213 1.67988 34 35 32
0.0879887 0.316213 1.67988 35 36 33
0.0945694 0.308966 1.64138 36 37 34
0.103355 0.309531 1.64438 36 37 34
0.112404 0.310736 1.65078 35 36 33
0.119848 0.307649 1.63439 35 36 33
0.130885 0.313582 1.6659 35 36 34
0.141762 0.318413 1.69157 36 37 34
0.14934 0.315703 1.67717 35 36 33
0.1596 0.318649 1.69282 35 36 33
0.165788 0.313582 1.6659 35 37 34
0.177202 0.318413 1.69157 36 37 35
0.187521 0.32091 1.70483 35 37 34
0.203762 0.332853 1.76828 35 36 34
0.20069 0.313582 1.6659 35 36 33
0.209416 0.313582 1.6659 36 37 34
0.218142 0.313582 1.6659 36 37 34
0.228771 0.316213 1.67988 36 37 34
0.241098 0.32091 1.70483 36 36 33
0.252014 0.323459 1.71838 36 36 32
0.258957 0.32091 1.70483 36 36 32
0.270268 0.323762 1.71999 36 36 32
0.26978 0.312752 1.66149 36 36 33
0.290593 0.326353 1.73375 37 37 33
0.297017 0.323459 1.71838 36 36 33
0.303605 0.32091 1.70483 36 36 31
0.317836 0.326353 1.73375 36 36 31
0.316248 0.315703 1.67717 36 36 32
0.330394 0.32091 1.70483 37 37 33
0.344492 0.325798 1.7308 36 36 33
0.348253 0.32091 1.70483 37 37 34
0.348103 0.312752 1.66149 36 36 33
0.369021 0.323459 1.71838 36 36 33
0.380755 0.325798 1.7308 35 35 32
0.393309 0.328714 1.74629 34 35 30
0.383929 0.313582 1.6659 34 35 30
0.415749 0.332025 1.76388 35 35 31
0.420749 0.328714 1.74629 35 36 32
0.412051 0.315069 1.6738 36 37 33
0.421665 0.315703 1.67717 35 36 33
0.441025 0.323459 1.71838 35 36 32
0.443005 0.318413 1.69157 35 36 32
0.455408 0.32091 1.70483 35 36 32
0.47563 0.328714 1.74629 35 36 32
0.464653 0.315069 1.6738 35 36 33
0.495348 0.329662 1.75133 34 35 32
0.486862 0.318123 1.69003 32 35 31
0.504501 0.323762 1.71999 34 36 33
0.517619 0.326353 1.73375 34 36 34
0.5267 0.326353 1.73375 35 36 34
0.541214 0.329662 1.75133 33 35 33
0.544862 0.326353 1.73375 32 35 32
0.544704 0.32091 1.70483 32 35 33
0.563024 0.326353 1.73375 32 35 34
0.571132 0.325798 1.7308 32 35 33
0.558443 0.313582 1.6659 32 35 33
0.594537 0.328714 1.74629 34 36 34
0.594033 0.323459 1.71838 34 36 34
0.607395 0.325798 1.7308 33 35 33
0.621977 0.328714 1.74629 31 33 31
0.648788 0.337914 1.79517 30 32 31
0.650899 0.33417 1.77528 30 33 32
0.66344 0.335812 1.784 30 33 32
0.660465 0.329662 1.75133 30 33 32
0.669638 0.329662 1.75133 30 34 33
0.683676 0.332025 1.76388 32 35 34
0.681077 0.326353 1.73375 34 37 35
0.695151 0.328714 1.74629 35 37 36
0.700732 0.32705 1.73745 34 37 35
0.702698 0.323762 1.71999 34 37 35
0.711706 0.323762 1.71999 35 37 36
0.761741 0.342192 1.81789 35 37 36
0.753183 0.33417 1.77528 36 38 36
0.760901 0.333478 1.7716 35 37 36
0.775571 0.335812 1.784 34 36 36
0.789828 0.337914 1.79517 34 36 36
0.794259 0.335812 1.784 33 36 36
0.808634 0.337914 1.79517 33 37 35
0.818037 0.337914 1.79517 36 39 37
0.803043 0.327951 1.74224 37 40 38
0.823362 0.332471 1.76625 37 39 37
0.864596 0.345241 1.8341 35 37 36
0.841864 0.332471 1.76625 35 36 36
0.872183 0.3407 1.80997 34 36 36
0.874453 0.337914 1.79517 34 37 36
0.897475 0.343121 1.82283 34 38 37
0.870121 0.329161 1.74867 36 39 39
0.902661 0.337914 1.79517 37 40 39
0.905183 0.335365 1.78162 38 41 40
0.976725 0.358178 1.90282 37 40 39
0.921949 0.334676 1.77797 35 38 37
0.948025 0.3407 1.80997 35 38 37
1.00242 0.35668 1.89486 35 38 37
1.00137 0.352816 1.87433 36 38 38
0.994848 0.347114 1.84404 37 40 39
1.06063 0.366507 1.94707 36 39 39
1.00672 0.344564 1.8305 35 39 38
0.987138 0.334676 1.77797 34 37 38
1.05672 0.354918 1.8855 33 37 37
1.09547 0.364527 1.93655 33 37 37
1.07009 0.352816 1.87433 34 37 37
1.1067 0.361569 1.92083 34 37 38
1.12183 0.36321 1.92955 36 39 40
1.0916 0.350267 1.86079 37 40 41
1.09143 0.347114 1.84404 37 40 41
1.11918 0.352816 1.87433 36 40 40
1.09797 0.343121 1.82283 35 38 39
1.15129 0.35668 1.89486 35 39 39
1.16121 0.35668 1.89486 35 39 39
1.18029 0.359466 1.90967 35 39 39
1.2466 0.376471 2 35 39 39
-0.726561 0.223636 1.15596 36 38 35
-0.653761 0.20292 1.04887 36 37 34
-0.673892 0.210941 1.09033 36 37 33
-0.642774 0.20292 1.04887 36 37 32
-0.69531 0.221397 1.14438 36 37 32
-0.602347 0.193464 1 36 37 33
-0.597109 0.193464 1 37 38 34
-0.67141 0.219463 1.13439 37 37 34
-0.671334 0.221397 1.14438 36 37 33
-0.642521 0.213804 1.10514 36 37 33
-0.632148 0.212265 1.09718 36 37 33
-0.667691 0.226256 1.1695 36 37 33
-0.653905 0.223636 1.15596 35 37 32
-0.701302 0.242088 1.25133 36 37 32
-0.587251 0.20463 1.05772 35 37 32
-0.654479 0.230228 1.19003 36 37 33
-0.629686 0.223636 1.15596 37 38 34
-0.630938 0.226256 1.1695 35 36 32
-0.643688 0.233092 1.20483 34 35 30
-0.629547 0.230228 1.19003 34 35 30
-0.583751 0.215615 1.1145 35 36 31
-0.648868 0.242088 1.25133 35 36 31
-0.649971 0.244974 1.26625 35 36 31
-0.658031 0.250568 1.29517 36 36 31
-0.675822 0.260024 1.34404 36 36 32
-0.668783 0.260024 1.34404 36 36 33
-0.651299 0.25592 1.32283 36 35 33
-0.64437 0.25592 1.32283 37 37 34
-0.641137 0.257404 1.3305 38 39 36
-0.677225 0.27488 1.42083 37 38 34
-0.657541 0.269856 1.39486 37 37 33
-0.699246 0.290196 1.5 37 37 33
-0.668862 0.280741 1.45113 36 37 33
-0.635623 0.269856 1.39486 37 37 33
-0.723035 0.310536 1.60514 37 37 33
-0.686686 0.298395 1.54238 37 38 34
-0.659962 0.290196 1.5 38 38 34
-0.670529 0.298395 1.54238 37 38 33
-0.698222 0.314508 1.62567 36 37 32
-0.674718 0.307673 1.59033 36 36 31
-0.702774 0.324472 1.67717 36 36 31
-0.705436 0.329824 1.70483 36 36 32
-0.649728 0.307673 1.59033 36 36 32
-0.647368 0.310536 1.60514 36 36 33
-0.664583 0.322988 1.6695 36 37 33
-0.655838 0.322988 1.6695 36 37 34
-0.650066 0.324472 1.67717 36 37 34
-0.608079 0.307673 1.59033 36 37 33
-0.668108 0.342741 1.7716 36 36 32
-0.64791 0.33706 1.74224 36 36 33
-0.647588 0.341706 1.76625 36 37 33
-0.621617 0.332756 1.71999 36 36 33
-0.632301 0.343453 1.77528 36 36 33
-0.612831 0.337845 1.74629 35 36 32
-0.589351 0.329824 1.70483 35 36 33
-0.589263 0.334848 1.7308 36 37 34
-0.605161 0.349255 1.80527 37 37 35
-0.578387 0.339102 1.75279 37 38 35
-0.574238 0.342099 1.76828 37 38 35
-0.561615 0.340064 1.75776 37 38 35
-0.535774 0.329824 1.70483 37 37 34
-0.538404 0.33706 1.74224 36 37 33
-0.533994 0.340064 1.75776 36 36 33
-0.521363 0.337845 1.74629 36 37 33
-0.523765 0.345462 1.78567 36 36 32
-0.499457 0.335418 1.73375 37 37 33
-0.486027 0.332444 1.71838 37 37 33
-0.48796 0.340064 1.75776 36 36 33
-0.471411 0.334848 1.7308 36 36 33
-0.466483 0.337845 1.74629 36 37 34
-0.467648 0.345462 1.78567 36 37 34
-0.441438 0.332756 1.71999 36 36 33
-0.44633 0.343453 1.77528 35 36 33
-0.41288 0.324472 1.67717 36 37 34
-0.41076 0.329824 1.70483 37 38 35
-0.40183 0.329824 1.70483 37 37 35
-0.398886 0.334848 1.7308 36 37 34
-0.397271 0.341248 1.76388 36 37 34
-0.368957 0.324472 1.67717 35 36 33
-0.377479 0.340064 1.75776 36 36 34
-0.376109 0.3473 1.79517 36 37 34
-0.343156 0.324996 1.67988 36 37 34
-0.339324 0.329824 1.70483 36 36 34
-0.327824 0.327258 1.69157 37 37 35
-0.314124 0.322293 1.6659 37 37 35
-0.30796 0.324996 1.67988 36 37 35
-0.301244 0.327258 1.69157 35 36 34
-0.290363 0.324996 1.67988 35 36 34
-0.279221 0.322293 1.6659 35 36 33
-0.281033 0.334848 1.7308 36 37 34
-0.278957 0.343453 1.77528 37 38 35
-0.250747 0.319367 1.65078 37 38 35
-0.246368 0.324996 1.67988 36 37 34
-0.244771 0.334848 1.7308 36 37 34
-0.226867 0.322293 1.6659 35 36 32
-0.219617 0.324472 1.67717 35 36 33
-0.21431 0.329824 1.70483 36 36 34
-0.202374 0.324996 1.67988 35 36 33
-0.193263 0.324472 1.67717 35 36 32
-0.180542 0.317548 1.64138 36 36 33
-0.174513 0.322293 1.6659 36 37 34
-0.165788 0.322293 1.6659 36 36 33
-0.15838 0.324996 1.67988 35 36 33
-0.150733 0.3275 1.69282 35 36 34
-0.137807 0.318129 1.64438 35 37 34
-0.133943 0.329824 1.70483 35 37 34
-0.125014 0.329824 1.70483 36 37 35
-0.114385 0.324996 1.67988 36 37 35
-0.106321 0.327258 1.69157 35 36 34
-0.0959824 0.322293 1.6659 35 35 34
-0.0886011 0.327258 1.69157 35 36 34
-0.0775166 0.318129 1.64438 35 36 34
-0.0708809 0.327258 1.69157 35 35 34
-0.0620207 0.327258 1.69157 35 35 33
-0.0508036 0.312749 1.61657 34 35 33
-0.0461943 0.341248 1.76388 35 35 33
-0.0354666 0.3275 1.69282 35 36 34
-0.0267887 0.329824 1.70483 36 36 34
-0.0177202 0.327258 1.69157 35 36 34
-0.00870257 0.321439 1.66149 36 36 34
0 0.329824 1.70483 36 36 34
0.0090005 0.332444 1.71838 35 36 33
0.0177041 0.32696 1.69003 35 36 33
0.0263011 0.323821 1.6738 35 36 33
0.0345858 0.319367 1.65078 35 36 33
0.0457336 0.337845 1.74629 35 36 33
0.0516777 0.318129 1.64438 35 36 33
0.060918 0.321439 1.66149 34 36 32
0.0701363 0.323821 1.6738 34 35 32
0.0810045 0.332444 1.71838 35 36 33
0.0892957 0.329824 1.70483 35 36 33
0.0959824 0.322293 1.6659 36 37 34
0.107155 0.329824 1.70483 36 37 34
0.118631 0.33706 1.74224 35 36 33
0.124041 0.327258 1.69157 34 35 31
0.137201 0.337845 1.74629 34 35 32
0.138343 0.319367 1.65078 35 36 32
0.151803 0.329824 1.70483 35 36 33
0.160732 0.329824 1.70483 35 36 33
0.169662 0.329824 1.70483 36 37 34
0.174051 0.321439 1.66149 36 37 35
0.190702 0.335418 1.73375 35 36 34
0.198011 0.332444 1.71838 34 35 33
0.211756 0.340064 1.75776 36 37 35
0.21431 0.329824 1.70483 38 39 36
0.221301 0.32696 1.69003 37 38 35
0.236107 0.335418 1.73375 36 37 34
0.241098 0.329824 1.70483 36 36 33
0.250028 0.329824 1.70483 36 36 33
0.256943 0.327258 1.69157 36 36 32
0.270268 0.332756 1.71999 35 35 31
0.26804 0.319367 1.65078 36 36 33
0.288016 0.332444 1.71838 36 37 34
0.287185 0.321439 1.66149 36 37 33
0.29398 0.319367 1.65078 35 36 31
0.315018 0.332444 1.71838 35 36 31
0.318964 0.327258 1.69157 35 36 31
0.327824 0.327258 1.69157 36 36 32
0.334357 0.324996 1.67988 36 36 32
0.350754 0.332192 1.71707 35 35 32
0.351387 0.324472 1.67717 35 35 31
0.371689 0.334848 1.7308 35 36 32
0.375042 0.329824 1.70483 35 36 32
0.399838 0.343453 1.77528 35 36 32
0.396393 0.332756 1.71999 35 35 31
0.394517 0.323821 1.6738 35 36 31
0.414023 0.332444 1.71838 35 36 31
0.41288 0.324472 1.67717 35 36 32
0.432429 0.332756 1.71999 34 36 31
0.429585 0.323821 1.6738 34 35 30
0.446478 0.329824 1.70483 33 34 30
0.459456 0.332756 1.71999 33 34 31
0.447873 0.318129 1.64438 34 35 32
0.492823 0.343453 1.77528 33 35 32
0.490376 0.335418 1.73375 33 35 31
0.495492 0.332756 1.71999 33 35 32
0.517376 0.341248 1.76388 33 35 32
0.517619 0.335418 1.73375 34 36 34
0.5267 0.335418 1.73375 35 37 35
0.545093 0.341248 1.76388 33 35 33
0.548803 0.337845 1.74629 31 34 31
0.532266 0.322293 1.6659 32 35 33
0.56578 0.33706 1.74224 33 35 34
0.567563 0.332756 1.71999 34 35 34
0.56653 0.32696 1.69003 34 36 34
0.602024 0.342099 1.76828 35 36 35
0.603684 0.337845 1.74629 35 37 35
0.623003 0.343453 1.77528 32 34 31
0.607211 0.329824 1.70483 30 32 31
0.637481 0.341248 1.76388 30 32 32
0.630626 0.332756 1.71999 31 34 34
0.66344 0.34514 1.784 32 35 34
0.653834 0.335418 1.73375 33 35 35
0.669638 0.33882 1.75133 34 36 36
0.683676 0.341248 1.76388 35 37 36
0.675671 0.332756 1.71999 35 38 36
0.714607 0.3473 1.79517 36 38 36
0.704298 0.337845 1.74629 34 37 35
0.715503 0.33882 1.75133 34 36 34
0.71104 0.332444 1.71838 34 36 34
0.728033 0.336134 1.73745 34 36 35
0.743023 0.33882 1.75133 35 37 35
0.775363 0.349255 1.80527 34 37 36
0.764164 0.340064 1.75776 35 37 36
0.734539 0.322988 1.6695 34 37 36
0.824927 0.358466 1.85288 34 36 36
0.826169 0.354832 1.8341 33 36 35
0.830642 0.352652 1.82283 36 39 37
0.827439 0.3473 1.79517 37 40 39
0.847436 0.351697 1.81789 36 39 37
0.821294 0.33706 1.74224 34 37 36
0.868832 0.352652 1.82283 34 37 36
0.903199 0.362616 1.87433 34 37 36
0.881663 0.350164 1.80997 34 37 36
0.913617 0.358995 1.85562 33 37 36
0.928312 0.360929 1.86561 35 38 38
0.910104 0.350164 1.80997 35 38 38
0.919584 0.350164 1.80997 37 40 39
0.952495 0.358995 1.85562 37 40 39
0.94919 0.354136 1.8305 36 38 38
0.996658 0.368127 1.90282 35 37 37
0.957505 0.350164 1.80997 35 38 37
1.00137 0.362616 1.87433 36 38 38
0.987541 0.354136 1.8305 36 39 38
0.988388 0.351031 1.81445 35 39 38
0.987286 0.3473 1.79517 35 38 39
0.996688 0.3473 1.79517 34 38 38
1.08854 0.375762 1.94228 33 36 37
1.05262 0.359996 1.86079 32 36 37
1.06236 0.359996 1.86079 33 37 37
1.11576 0.374653 1.93655 34 37 38
1.05978 0.352652 1.82283 36 39 40
1.03928 0.342741 1.7716 37 40 41
1.18374 0.386928 2 36 40 40
1.08843 0.352652 1.82283 36 39 39
1.15028 0.369452 1.90967 35 39 39
1.13882 0.362616 1.87433 36 40 40
1.11707 0.352652 1.82283 35 39 39
1.18029 0.369452 1.90967 35 39 39
1.16827 0.362616 1.87433 35 39 39
-0.685314 0.216642 1.09033 36 37 34
-0.659272 0.210161 1.05772 36 37 34
-0.688827 0.221443 1.1145 36 37 33
-0.672376 0.218002 1.09718 36 37 33
-0.69531 0.227381 1.14438 36 37 32
-0.660882 0.218002 1.09718 36 37 32
-0.659887 0.219583 1.10514 36 37 33
-0.659639 0.221443 1.1145 36 37 33
-0.615305 0.208404 1.04887 36 36 33
-0.647964 0.221443 1.1145 36 36 32
-0.636733 0.219583 1.10514 37 37 33
-0.653352 0.227381 1.14438 36 37 33
-0.707856 0.248631 1.25133 36 37 33
-0.684882 0.242809 1.22203 35 37 32
-0.668931 0.239392 1.20483 35 37 32
-0.66262 0.239392 1.20483 35 37 32
-0.607102 0.221443 1.1145 36 37 33
-0.639594 0.23556 1.18555 35 36 32
-0.624812 0.232371 1.1695 35 36 31
-0.672698 0.252658 1.2716 35 36 31
-0.655422 0.248631 1.25133 36 36 32
-0.671598 0.25734 1.29517 36 37 32
-0.67648 0.261856 1.31789 35 36 31
-0.658031 0.25734 1.29517 36 36 32
-0.651247 0.25734 1.29517 37 36 32
-0.658227 0.262837 1.32283 37 36 33
-0.717664 0.289619 1.45762 36 36 33
-0.669459 0.27307 1.37433 37 37 34
-0.641137 0.264361 1.3305 39 39 36
-0.714959 0.298039 1.5 37 37 34
-0.627199 0.264361 1.3305 36 36 33
-0.631939 0.269351 1.35562 36 36 33
-0.713917 0.30775 1.54887 36 36 32
-0.705804 0.30775 1.54887 36 36 32
-0.716367 0.315988 1.59033 36 37 33
-0.693515 0.309507 1.55772 37 37 33
-0.681466 0.30775 1.54887 37 38 34
-0.677197 0.309507 1.55772 38 38 34
-0.689405 0.318929 1.60514 37 37 32
-0.697649 0.326727 1.64438 36 37 32
-0.699561 0.331718 1.6695 37 37 33
-0.664183 0.318929 1.60514 37 37 33
-0.711788 0.34617 1.74224 37 37 33
-0.647368 0.318929 1.60514 36 37 33
-0.667636 0.333242 1.67717 36 37 33
-0.645971 0.326727 1.64438 36 37 33
-0.671996 0.344484 1.73375 36 37 33
-0.672096 0.349255 1.75776 36 36 33
-0.632497 0.333242 1.67717 36 36 32
-0.633999 0.338738 1.70483 35 36 32
-0.672463 0.364422 1.8341 36 36 32
-0.621035 0.341429 1.71838 35 36 32
-0.626062 0.349255 1.75776 35 36 32
-0.611408 0.34617 1.74224 35 36 32
-0.623594 0.358419 1.80389 35 36 32
-0.593157 0.34617 1.74224 36 36 33
-0.589235 0.349255 1.75776 37 37 34
-0.576244 0.346976 1.74629 37 38 35
-0.567097 0.346976 1.74629 37 37 34
-0.556655 0.34617 1.74224 37 38 35
-0.544862 0.344484 1.73375 37 37 34
-0.548615 0.352735 1.77528 36 36 32
-0.525804 0.343898 1.7308 36 36 32
-0.508985 0.338738 1.70483 35 35 31
-0.515581 0.349255 1.75776 35 35 31
-0.498608 0.343898 1.7308 35 36 31
-0.486027 0.341429 1.71838 36 36 32
-0.481295 0.344484 1.73375 36 36 32
-0.468026 0.341429 1.71838 36 36 33
-0.459026 0.341429 1.71838 36 36 34
-0.45328 0.343898 1.7308 36 36 34
-0.441438 0.341749 1.71999 35 36 33
-0.435148 0.343898 1.7308 35 36 33
-0.416425 0.336103 1.69157 36 37 34
-0.417727 0.344484 1.73375 36 37 34
-0.390311 0.329027 1.65596 36 36 34
-0.396022 0.341429 1.71838 35 36 33
-0.380985 0.336103 1.69157 35 35 32
-0.392824 0.354799 1.78567 35 35 32
-0.366112 0.338738 1.70483 36 36 33
-0.359747 0.34117 1.71707 36 37 34
-0.348253 0.338738 1.70483 36 37 34
-0.344492 0.343898 1.7308 36 36 34
-0.316742 0.324741 1.63439 36 37 34
-0.318673 0.335797 1.69003 36 37 34
-0.312535 0.338738 1.70483 36 36 34
-0.295887 0.330127 1.66149 36 36 34
-0.292384 0.336103 1.69157 36 37 34
-0.275111 0.326131 1.64138 36 37 34
-0.274663 0.336103 1.69157 36 37 33
-0.265803 0.336103 1.69157 36 37 34
-0.256943 0.336103 1.69157 37 38 34
-0.250028 0.338738 1.70483 36 37 34
-0.231136 0.324741 1.63439 36 37 34
-0.234013 0.341429 1.71838 35 36 33
-0.216162 0.327999 1.65078 35 35 32
-0.216012 0.341429 1.71838 35 35 32
-0.20538 0.338738 1.70483 36 36 33
-0.19645 0.338738 1.70483 35 36 33
-0.189011 0.341429 1.71838 36 37 33
-0.171944 0.326131 1.64138 36 36 33
-0.17101 0.341429 1.71838 35 36 32
-0.152411 0.321201 1.61657 35 36 33
-0.150622 0.336103 1.69157 35 37 34
-0.139241 0.330127 1.66149 35 36 34
-0.133943 0.338738 1.70483 34 36 33
-0.124133 0.336352 1.69282 35 37 34
-0.112756 0.329027 1.65596 37 38 36
-0.106321 0.336103 1.69157 36 37 35
-0.0990055 0.341429 1.71838 34 36 34
-0.0885203 0.335797 1.69003 35 36 34
-0.0790621 0.333242 1.67717 35 36 35
-0.0708809 0.336103 1.69157 35 36 34
-0.0610797 0.331003 1.6659 35 36 33
-0.0535774 0.338738 1.70483 34 35 33
-0.0436283 0.331003 1.6659 34 35 33
-0.0351387 0.333242 1.67717 35 35 33
-0.0263011 0.332573 1.6738 35 36 34
-0.0181621 0.344484 1.73375 35 36 34
-0.00872567 0.331003 1.6659 36 37 35
0 0.338738 1.70483 35 36 34
0.00878468 0.333242 1.67717 34 35 33
0.0171944 0.326131 1.64138 33 35 32
0.0256817 0.324741 1.63439 33 35 32
0.0351387 0.333242 1.67717 34 36 33
0.0432323 0.327999 1.65078 34 35 32
0.0535774 0.338738 1.70483 34 36 32
0.0599241 0.324741 1.63439 34 35 32
0.0703909 0.33378 1.67988 34 36 33
0.0791898 0.33378 1.67988 35 36 34
0.0878468 0.333242 1.67717 35 36 34
0.0989305 0.34117 1.71707 35 37 34
0.110482 0.349255 1.75776 36 37 34
0.117853 0.343898 1.7308 36 37 34
0.122986 0.333242 1.67717 35 36 33
0.128409 0.324741 1.63439 34 35 32
0.144848 0.343421 1.7284 34 36 32
0.149581 0.33378 1.67988 34 36 32
0.15475 0.326131 1.64138 35 36 32
0.166909 0.333242 1.67717 36 37 34
0.175977 0.33378 1.67988 36 37 34
0.189011 0.341429 1.71838 34 36 34
0.194922 0.336103 1.69157 35 35 33
0.197736 0.326131 1.64138 35 37 35
0.212449 0.335797 1.69003 38 39 36
0.219617 0.333242 1.67717 37 38 35
0.226267 0.330127 1.66149 36 37 34
0.244771 0.343898 1.7308 35 36 32
0.245971 0.333242 1.67717 36 36 33
0.262902 0.343898 1.7308 36 36 33
0.267887 0.338738 1.70483 35 35 32
0.268881 0.329027 1.65596 35 35 32
0.283265 0.335797 1.69003 35 36 33
0.290363 0.33378 1.67988 36 36 33
0.308755 0.344484 1.73375 35 36 32
0.30459 0.330127 1.66149 35 36 31
0.314124 0.331003 1.6659 35 36 32
0.337643 0.34617 1.74224 36 37 32
0.336684 0.336103 1.69157 35 36 32
0.35102 0.341429 1.71838 33 34 30
0.36002 0.341429 1.71838 34 35 31
0.369021 0.341429 1.71838 35 35 32
0.375042 0.338738 1.70483 35 36 33
0.383971 0.338738 1.70483 36 37 33
0.396393 0.341749 1.71999 35 36 32
0.394517 0.332573 1.6738 35 36 31
0.417727 0.344484 1.73375 34 35 31
0.429896 0.346976 1.74629 34 35 30
0.425285 0.336103 1.69157 33 35 30
0.43375 0.335797 1.69003 33 34 29
0.435128 0.330127 1.66149 32 34 29
0.451454 0.335797 1.69003 33 34 30
0.468465 0.341749 1.71999 33 35 32
0.477474 0.341749 1.71999 33 35 32
0.482197 0.338738 1.70483 33 35 32
0.482187 0.332573 1.6738 34 36 33
0.500056 0.338738 1.70483 34 36 33
0.526615 0.350471 1.76388 33 35 33
0.513886 0.336103 1.69157 34 35 33
0.545093 0.350471 1.76388 34 36 34
0.544862 0.344484 1.73375 34 36 34
0.544704 0.338738 1.70483 34 36 35
0.567097 0.346976 1.74629 34 36 35
0.571132 0.343898 1.7308 34 36 35
0.604697 0.358419 1.80389 34 36 34
0.600526 0.350471 1.76388 35 37 35
0.589351 0.338738 1.70483 35 36 35
0.619004 0.350471 1.76388 31 33 31
0.607211 0.338738 1.70483 30 33 31
0.626591 0.344484 1.73375 31 34 33
0.62507 0.338738 1.70483 32 35 34
0.649417 0.346976 1.74629 33 35 35
0.676996 0.356687 1.79517 34 36 36
0.657653 0.341749 1.71999 35 37 36
0.708337 0.363113 1.82751 36 38 37
0.692915 0.350471 1.76388 36 39 37
0.702153 0.350471 1.76388 36 38 37
0.699239 0.344484 1.73375 35 37 36
0.733412 0.356687 1.79517 34 36 34
0.734586 0.352735 1.77528 33 35 34
0.752218 0.356687 1.79517 34 36 34
0.730593 0.342156 1.72203 34 36 35
0.780784 0.361203 1.81789 34 36 35
0.794486 0.363113 1.82751 35 37 36
0.804058 0.363113 1.82751 34 37 36
0.788738 0.352004 1.7716 34 37 36
0.826169 0.364422 1.8341 33 37 36
0.835776 0.364422 1.8341 35 38 36
0.803043 0.34617 1.74224 35 38 37
0.854989 0.364422 1.8341 35 38 37
0.883564 0.372417 1.87433 34 37 36
0.893382 0.372417 1.87433 34 37 36
0.86505 0.356687 1.79517 34 37 37
0.84867 0.34617 1.74224 34 37 37
0.877188 0.353996 1.78162 34 38 37
0.910839 0.363707 1.8305 35 38 38
0.910104 0.359628 1.80997 35 38 38
0.930015 0.363707 1.8305 36 39 39
0.946554 0.366398 1.84404 36 39 39
0.938545 0.359628 1.80997 37 39 39
0.981738 0.372417 1.87433 36 38 38
0.901886 0.338738 1.70483 35 38 37
0.969381 0.360519 1.81445 36 38 38
0.9592 0.353269 1.77797 36 39 39
0.997129 0.363707 1.8305 36 39 39
1.01416 0.366398 1.84404 35 38 38
1.03312 0.369726 1.86079 34 37 38
1.08533 0.384778 1.93655 33 36 37
1.09151 0.383388 1.92955 33 36 37
1.09664 0.381656 1.92083 34 37 37
1.02072 0.352004 1.7716 34 37 38
1.11027 0.379437 1.90967 36 39 40
1.17327 0.397386 2 36 39 40
1.13689 0.381656 1.92083 35 39 39
1.08843 0.362183 1.82283 35 39 39
1.06712 0.352004 1.7716 35 39 39
1.12041 0.366398 1.84404 35 39 39
1.22564 0.397386 2 35 39 39
1.18029 0.379437 1.90967 35 39 39
1.2466 0.397386 2 35 39 39
-0.562453 0.182482 0.894863 35 37 34
-0.683869 0.223739 1.09718 35 36 33
-0.683041 0.225361 1.10514 35 36 32
-0.682989 0.22727 1.1145 36 37 32
-0.710571 0.238487 1.1695 35 36 32
-0.671314 0.22727 1.1145 36 37 32
-0.626292 0.213888 1.04887 36 37 32
-0.684178 0.235725 1.15596 36 37 33
-0.665469 0.231326 1.13439 36 36 33
-0.727518 0.255174 1.25133 36 37 33
-0.636733 0.225361 1.10514 36 37 33
-0.659959 0.235725 1.15596 36 37 33
-0.625156 0.225361 1.10514 36 38 34
-0.675241 0.245691 1.20483 36 38 34
-0.649315 0.238487 1.1695 36 38 34
-0.66262 0.245691 1.20483 36 38 34
-0.613185 0.229548 1.12567 37 38 35
-0.725101 0.274079 1.34404 35 36 32
-0.643688 0.245691 1.20483 35 36 31
-0.685166 0.264113 1.29517 36 37 32
-0.640077 0.249199 1.22203 36 37 32
-0.614756 0.241759 1.18555 36 36 32
-0.679013 0.269753 1.32283 36 36 32
-0.721877 0.289739 1.42083 36 36 32
-0.665156 0.269753 1.32283 37 36 32
-0.599513 0.245691 1.20483 36 36 32
-0.667441 0.276439 1.35562 37 36 32
-0.676506 0.283206 1.3888 39 39 36
-0.702395 0.29724 1.45762 42 42 39
-0.691664 0.295916 1.45113 39 39 35
-0.664519 0.287461 1.40967 36 36 32
-0.676462 0.295916 1.45113 36 36 33
-0.713917 0.315849 1.54887 36 36 32
-0.705804 0.315849 1.54887 36 36 32
-0.656586 0.29724 1.45762 36 36 32
-0.732101 0.335325 1.64438 36 37 33
-0.685356 0.317652 1.55772 36 37 32
-0.652106 0.305882 1.5 37 37 33
-0.71705 0.340447 1.6695 37 37 33
-0.636392 0.305882 1.5 37 38 33
-0.681192 0.331508 1.62567 38 38 34
-0.742815 0.366073 1.79517 37 37 34
-0.630136 0.314524 1.54238 37 37 34
-0.714504 0.361267 1.7716 37 37 34
-0.667636 0.342011 1.67717 36 37 34
-0.705204 0.366073 1.79517 36 37 33
-0.714745 0.37604 1.84404 36 37 33
-0.651858 0.347652 1.70483 36 37 33
-0.651817 0.352458 1.7284 36 36 32
-0.661196 0.362566 1.77797 35 35 31
-0.62507 0.347652 1.70483 35 36 31
-0.621617 0.350743 1.71999 35 36 32
-0.62981 0.360591 1.76828 35 36 32
-0.61511 0.357431 1.75279 35 36 32
-0.630142 0.371714 1.82283 35 36 32
-0.598442 0.358446 1.75776 36 37 34
-0.587568 0.357431 1.75279 37 37 34
-0.582048 0.359694 1.76388 36 37 34
-0.558031 0.350414 1.71838 36 36 33
-0.548615 0.350148 1.71707 36 36 33
-0.54003 0.350414 1.71838 36 37 33
-0.557883 0.368134 1.80527 36 37 33
-0.539316 0.362018 1.77528 36 37 33
-0.517619 0.353549 1.73375 35 35 31
-0.512217 0.356107 1.74629 35 35 31
-0.487306 0.344948 1.69157 35 36 32
-0.490376 0.353549 1.73375 36 36 33
-0.483651 0.35528 1.74224 36 36 33
-0.478754 0.358446 1.75776 36 36 33
-0.469547 0.358446 1.75776 36 36 34
-0.446478 0.347652 1.70483 36 37 34
-0.441025 0.350414 1.71838 36 36 33
-0.438023 0.35528 1.74224 35 36 33
-0.423024 0.350414 1.71838 36 36 34
-0.426048 0.360591 1.76828 36 37 34
-0.398342 0.344634 1.69003 35 36 33
-0.396022 0.350414 1.71838 35 36 33
-0.380985 0.344948 1.69157 35 36 32
-0.368957 0.342011 1.67717 35 36 32
-0.350984 0.333287 1.63439 36 36 34
-0.362624 0.352948 1.7308 37 37 34
-0.345544 0.344948 1.69157 36 37 34
-0.325302 0.333287 1.63439 36 36 34
-0.327824 0.344948 1.69157 35 36 33
-0.326361 0.352948 1.7308 36 36 34
-0.319392 0.35528 1.74224 36 36 34
-0.313031 0.358446 1.75776 35 36 34
-0.297017 0.350414 1.71838 36 37 35
-0.292695 0.356107 1.74629 37 38 35
-0.285411 0.358446 1.75776 35 36 33
-0.265561 0.344634 1.69003 34 35 31
-0.258957 0.347652 1.70483 35 36 33
-0.250028 0.347652 1.70483 36 37 34
-0.237569 0.342564 1.67988 36 36 33
-0.230363 0.344948 1.69157 36 36 33
-0.219617 0.342011 1.67717 35 36 32
-0.210832 0.342011 1.67717 34 35 31
-0.203782 0.344948 1.69157 34 35 31
-0.198011 0.350414 1.71838 34 35 31
-0.1862 0.345203 1.69282 35 36 33
-0.177202 0.344948 1.69157 36 36 33
-0.167178 0.342564 1.67988 35 36 33
-0.162954 0.352458 1.7284 34 36 32
-0.147451 0.337686 1.65596 36 37 34
-0.139611 0.339714 1.6659 36 37 35
-0.136215 0.353549 1.73375 35 37 34
-0.123184 0.342564 1.67988 35 36 34
-0.113434 0.339714 1.6659 36 37 34
-0.107155 0.347652 1.70483 35 37 35
-0.0966315 0.342011 1.67717 36 37 35
-0.0878468 0.342011 1.67717 36 37 36
-0.0809431 0.350148 1.71707 35 36 35
-0.0687778 0.334713 1.64138 35 36 34
-0.0602907 0.335325 1.64438 34 35 33
-0.0531606 0.344948 1.69157 34 34 32
-0.0425745 0.331508 1.62567 34 35 32
-0.0344518 0.335325 1.64438 35 35 33
-0.026177 0.339714 1.6659 35 36 34
-0.0178591 0.347652 1.70483 34 35 33
-0.00879887 0.342564 1.67988 35 36 34
0 0.339714 1.6659 35 36 34
0.00879887 0.342564 1.67988 34 35 33
0.0181621 0.353549 1.73375 34 35 33
0.0263966 0.342564 1.67988 34 36 33
0.0345858 0.33663 1.65078 35 36 34
0.0439234 0.342011 1.67717 35 36 34
0.0531606 0.344948 1.69157 35 37 34
0.062507 0.347652 1.70483 35 36 34
0.0691717 0.33663 1.65078 34 36 33
0.078531 0.339714 1.6659 35 36 34
0.0886011 0.344948 1.69157 36 37 34
0.0972602 0.344237 1.68808 35 37 34
0.102727 0.333287 1.63439 36 37 34
0.116084 0.347652 1.70483 35 37 34
0.12143 0.337686 1.65596 36 37 34
0.130538 0.338814 1.66149 35 36 33
0.139611 0.339714 1.6659 35 36 32
0.14934 0.342011 1.67717 35 36 33
0.15838 0.342564 1.67988 34 36 32
0.17101 0.350414 1.71838 35 36 34
0.172929 0.33663 1.65078 36 37 35
0.186062 0.344948 1.69157 36 37 35
0.19645 0.347652 1.70483 36 37 35
0.197736 0.334713 1.64138 38 39 37
0.210832 0.342011 1.67717 40 41 38
0.218142 0.339714 1.6659 38 39 37
0.223937 0.335325 1.64438 37 38 35
0.239223 0.344948 1.69157 35 35 32
0.245971 0.342011 1.67717 35 36 33
0.256943 0.344948 1.69157 35 36 33
0.267887 0.347652 1.70483 35 35 32
0.286405 0.359694 1.76388 35 35 32
0.276687 0.33663 1.65078 35 35 32
0.287947 0.339714 1.6659 35 36 33
0.316629 0.362566 1.77797 35 36 32
0.310104 0.344948 1.69157 36 37 32
0.324018 0.350414 1.71838 36 37 34
0.333019 0.350414 1.71838 36 37 33
0.325302 0.333287 1.63439 36 36 33
0.345544 0.344948 1.69157 34 35 32
0.365869 0.356107 1.74629 34 35 32
0.381241 0.362018 1.77528 34 35 32
0.371785 0.344634 1.69003 34 35 31
0.387022 0.350414 1.71838 34 35 31
0.405099 0.358446 1.75776 34 35 31
0.398342 0.344634 1.69003 35 35 31
0.403284 0.341324 1.6738 34 35 31
0.426083 0.352948 1.7308 34 35 30
0.417723 0.338814 1.66149 33 34 29
0.465683 0.370006 1.81445 33 34 29
0.467648 0.364136 1.78567 33 34 29
0.469547 0.358446 1.75776 34 35 32
0.449616 0.33663 1.65078 35 36 34
0.469158 0.344634 1.69003 34 36 34
0.486027 0.350414 1.71838 34 36 34
0.486301 0.344237 1.68808 34 36 34
0.513695 0.357134 1.75133 34 36 34
0.505026 0.344948 1.69157 33 35 33
0.535854 0.359694 1.76388 32 34 32
0.539657 0.356107 1.74629 33 35 34
0.544862 0.353549 1.73375 35 36 35
0.55795 0.356107 1.74629 34 36 35
0.567097 0.356107 1.74629 34 36 35
0.576244 0.356107 1.74629 34 35 34
0.584031 0.35528 1.74224 33 35 33
0.593157 0.35528 1.74224 36 37 35
0.605426 0.357134 1.75133 36 38 36
0.623003 0.362018 1.77528 34 35 33
0.601938 0.344634 1.69003 32 34 33
0.61614 0.347652 1.70483 33 34 34
0.630035 0.350414 1.71838 34 36 36
0.633999 0.347652 1.70483 34 36 36
0.672784 0.363796 1.784 35 37 36
0.657037 0.350414 1.71838 36 38 38
0.676858 0.356107 1.74629 37 40 38
0.700817 0.363796 1.784 38 40 38
0.702153 0.359694 1.76388 37 39 38
0.724009 0.366073 1.79517 35 38 36
0.70832 0.353549 1.73375 34 36 35
0.72987 0.359694 1.76388 34 36 35
0.733849 0.357134 1.75133 35 37 35
0.786107 0.377843 1.85288 34 36 35
0.746234 0.354304 1.73745 33 35 34
0.785647 0.368522 1.80718 33 36 35
0.779459 0.361267 1.7716 34 37 36
0.788738 0.361267 1.7716 34 37 36
0.782636 0.354304 1.73745 33 37 36
0.847941 0.379455 1.86079 34 37 36
0.814111 0.360176 1.76625 34 37 36
0.842441 0.368522 1.80718 34 37 36
0.859285 0.371714 1.82283 34 37 36
0.830419 0.35528 1.74224 34 37 36
0.87838 0.371714 1.82283 34 37 37
0.913016 0.382217 1.87433 34 37 37
0.940229 0.389422 1.90967 35 38 38
0.870121 0.356591 1.74867 35 38 38
0.956792 0.388026 1.90282 35 38 38
0.936895 0.37604 1.84404 35 38 38
0.939602 0.373278 1.8305 35 38 38
0.956213 0.37604 1.84404 36 38 38
0.940272 0.366073 1.79517 36 39 38
0.968366 0.373278 1.8305 37 39 39
0.949887 0.362566 1.77797 37 39 39
1.01721 0.384494 1.8855 36 39 38
0.988388 0.370006 1.81445 35 38 38
1.06119 0.393478 1.92955 35 38 38
1.11041 0.407843 2 35 38 39
1.08141 0.393478 1.92955 34 38 38
1.08658 0.391699 1.92083 34 37 38
0.973323 0.347652 1.70483 34 37 38
1.05024 0.371714 1.82283 34 37 38
1.11676 0.391699 1.92083 35 38 39
1.17327 0.407843 2 36 39 39
1.18374 0.407843 2 36 39 39
1.19422 0.407843 2 36 39 39
1.11075 0.37604 1.84404 35 38 39
1.21517 0.407843 2 34 38 38
1.22564 0.407843 2 35 38 38
1.23612 0.407843 2 35 38 39
1.16827 0.382217 1.87433 35 38 39
-0.664812 0.221222 1.05772 35 36 34
-0.694664 0.233098 1.1145 34 36 33
-0.61806 0.20915 1 35 36 32
-0.642774 0.219372 1.04887 35 36 31
-0.677152 0.233098 1.1145 35 36 32
-0.665675 0.23114 1.10514 36 37 32
-0.631571 0.221222 1.05772 36 37 32
-0.666249 0.235433 1.12567 36 37 33
-0.716886 0.255589 1.22203 36 37 33
-0.612168 0.220221 1.05293 36 37 34
-0.636733 0.23114 1.10514 37 37 34
-0.653352 0.239348 1.14438 36 37 34
-0.636769 0.235433 1.12567 36 38 34
-0.684882 0.255589 1.22203 37 39 35
-0.678481 0.255589 1.22203 37 39 35
-0.612939 0.233098 1.1145 36 38 34
-0.705517 0.270885 1.29517 36 37 34
-0.698734 0.270885 1.29517 35 36 31
-0.676501 0.264837 1.26625 35 36 32
-0.669868 0.264837 1.26625 37 37 33
-0.640077 0.255589 1.22203 36 37 32
-0.614756 0.247958 1.18555 36 36 31
-0.689902 0.281107 1.34404 36 37 32
-0.675981 0.278274 1.3305 36 37 32
-0.70882 0.294832 1.40967 36 36 31
-0.658227 0.27667 1.32283 36 36 31
-0.694053 0.294832 1.40967 37 36 32
-0.706865 0.303503 1.45113 38 38 34
-0.699264 0.303503 1.45113 39 39 35
-0.714959 0.313726 1.5 38 38 34
-0.684063 0.303503 1.45113 37 37 33
-0.676462 0.303503 1.45113 36 36 33
-0.668862 0.303503 1.45113 36 36 32
-0.683532 0.313726 1.5 35 35 31
-0.675676 0.313726 1.5 36 36 32
-0.732101 0.343924 1.64438 36 37 32
-0.762806 0.362614 1.73375 36 37 32
-0.780426 0.37546 1.79517 36 37 32
-0.732224 0.356566 1.70483 37 37 32
-0.708305 0.349177 1.6695 37 37 33
-0.67259 0.335715 1.60514 37 37 34
-0.664183 0.335715 1.60514 37 37 34
-0.664163 0.340009 1.62567 37 37 34
-0.699239 0.362614 1.73375 37 38 35
-0.654584 0.343924 1.64438 36 37 34
-0.695946 0.370531 1.7716 36 37 34
-0.703276 0.379493 1.81445 36 37 34
-0.693772 0.379493 1.81445 37 38 34
-0.684269 0.379493 1.81445 36 37 33
-0.625547 0.351813 1.68211 35 35 31
-0.62507 0.356566 1.70483 35 36 31
-0.637481 0.368917 1.76388 35 36 32
-0.639385 0.37546 1.79517 35 36 32
-0.606552 0.361496 1.7284 35 36 32
-0.627246 0.379493 1.81445 36 36 32
-0.600526 0.368917 1.76388 36 37 34
-0.576032 0.359399 1.71838 36 37 33
-0.576244 0.365238 1.74629 36 36 33
-0.570822 0.367637 1.75776 35 36 32
-0.544704 0.356566 1.70483 35 35 32
-0.554332 0.368917 1.76388 35 36 32
-0.535781 0.362614 1.73375 36 36 33
-0.517915 0.356566 1.70483 36 37 33
-0.524787 0.367637 1.75776 36 36 33
-0.526552 0.37546 1.79517 36 36 33
-0.494653 0.359127 1.71707 36 37 34
-0.493923 0.365238 1.74629 36 37 34
-0.501149 0.377573 1.80527 37 37 34
-0.494194 0.379493 1.81445 36 37 34
-0.469547 0.367637 1.75776 36 36 34
-0.446478 0.356566 1.70483 36 37 34
-0.441025 0.359399 1.71838 36 36 34
-0.431697 0.359127 1.71707 35 36 33
-0.426083 0.361998 1.7308 35 36 33
-0.41076 0.356566 1.70483 36 36 34
-0.405023 0.359399 1.71838 35 36 33
-0.402456 0.365238 1.74629 35 36 33
-0.380985 0.353793 1.69157 35 36 33
-0.390539 0.3713 1.77528 36 36 33
-0.362933 0.35347 1.69003 36 36 34
-0.363241 0.362614 1.73375 36 37 34
-0.356722 0.365238 1.74629 36 37 34
-0.344492 0.361998 1.7308 36 36 33
-0.335427 0.361998 1.7308 35 35 32
-0.326361 0.361998 1.7308 35 35 33
-0.30796 0.351347 1.67988 36 37 35
-0.289507 0.340009 1.62567 36 37 35
-0.296792 0.359127 1.71707 36 37 35
-0.281564 0.351347 1.67988 36 37 34
-0.276817 0.356566 1.70483 35 36 33
-0.255447 0.340009 1.62567 35 36 32
-0.26335 0.362614 1.73375 35 36 34
-0.252014 0.359399 1.71838 36 36 34
-0.233454 0.345262 1.65078 35 36 33
-0.232169 0.356566 1.70483 35 36 33
-0.22664 0.361998 1.7308 36 37 34
-0.21431 0.356566 1.70483 35 36 32
-0.203782 0.353793 1.69157 34 35 31
-0.19645 0.356566 1.70483 34 35 32
-0.190377 0.361998 1.7308 35 36 32
-0.178591 0.356566 1.70483 35 36 33
-0.17101 0.359399 1.71838 36 37 34
-0.165253 0.366596 1.75279 36 37 35
-0.145413 0.341557 1.63307 37 38 35
-0.141762 0.353793 1.69157 36 38 35
-0.13177 0.350781 1.67717 36 38 35
-0.126918 0.361998 1.7308 35 37 34
-0.116084 0.356566 1.70483 35 36 33
-0.104708 0.348424 1.6659 35 36 34
-0.0974612 0.353793 1.69157 35 36 34
-0.0872567 0.348424 1.6659 35 36 34
-0.0797999 0.354054 1.69282 35 36 34
-0.0725247 0.361998 1.7308 35 36 34
-0.0620207 0.353793 1.69157 34 35 33
-0.0531122 0.35347 1.69003 34 35 32
-0.0432323 0.345262 1.65078 34 35 32
-0.0343889 0.343296 1.64138 35 35 33
-0.026177 0.348424 1.6659 35 36 34
-0.0175977 0.351347 1.67988 34 35 33
-0.00859722 0.343296 1.64138 34 35 33
0 0.348424 1.6659 34 35 33
0.00929855 0.3713 1.77528 34 35 33
0.0174513 0.348424 1.6659 34 36 33
0.0267887 0.356566 1.70483 35 37 35
0.0357183 0.356566 1.70483 36 38 35
0.0439234 0.350781 1.67717 36 38 35
0.0535774 0.356566 1.70483 36 38 35
0.0620207 0.353793 1.69157 36 38 35
0.0709333 0.354054 1.69282 35 37 34
0.0803661 0.356566 1.70483 35 37 34
0.0851491 0.340009 1.62567 36 37 35
0.0957282 0.347502 1.66149 35 37 34
0.108972 0.362614 1.73375 35 36 34
0.114201 0.350781 1.67717 34 36 33
0.126918 0.361998 1.7308 35 37 34
0.132902 0.353793 1.69157 35 37 34
0.138777 0.346344 1.65596 35 36 33
0.152893 0.359127 1.71707 36 37 34
0.162009 0.359399 1.71838 35 37 34
0.168342 0.353793 1.69157 36 37 34
0.184136 0.367637 1.75776 36 37 34
0.187521 0.356566 1.70483 36 37 35
0.19645 0.356566 1.70483 36 37 35
0.20538 0.356566 1.70483 38 39 37
0.212449 0.35347 1.69003 38 39 36
0.221301 0.35347 1.69003 38 39 36
0.234013 0.359399 1.71838 37 37 35
0.243014 0.359399 1.71838 35 35 32
0.256108 0.365238 1.74629 35 35 32
0.256943 0.353793 1.69157 35 36 33
0.267887 0.356566 1.70483 35 36 33
0.279016 0.359399 1.71838 35 35 32
0.28111 0.350781 1.67717 35 35 33
0.282499 0.341832 1.63439 35 35 33
0.305785 0.359127 1.71707 36 36 33
0.301453 0.343924 1.64438 37 37 35
0.318964 0.353793 1.69157 36 37 34
0.325033 0.350781 1.67717 36 36 33
0.333818 0.350781 1.67717 35 36 33
0.35102 0.359399 1.71838 35 35 33
0.368272 0.367637 1.75776 34 35 33
0.375016 0.365238 1.74629 34 35 33
0.365508 0.347502 1.66149 34 35 32
0.393309 0.365238 1.74629 33 34 30
0.405099 0.367637 1.75776 34 35 31
0.405402 0.359736 1.71999 34 35 31
0.417727 0.362614 1.73375 34 36 31
0.41969 0.356566 1.70483 35 36 31
0.431697 0.359127 1.71707 34 35 30
0.44497 0.362614 1.73375 34 35 30
0.446478 0.356566 1.70483 34 34 30
0.443831 0.347502 1.66149 35 36 33
0.460726 0.353793 1.69157 35 37 34
0.473267 0.356566 1.70483 35 37 34
0.486027 0.359399 1.71838 34 36 34
0.499457 0.362614 1.73375 34 36 33
0.508538 0.362614 1.73375 34 36 33
0.538972 0.377573 1.80527 33 35 33
0.527824 0.363389 1.73745 33 35 33
0.539657 0.365238 1.74629 33 35 34
0.520414 0.346344 1.65596 35 36 35
0.553943 0.362614 1.73375 34 36 35
0.558031 0.359399 1.71838 34 36 34
0.572105 0.362614 1.73375 34 36 35
0.56653 0.35347 1.69003 34 35 34
0.594537 0.365238 1.74629 36 37 36
0.598329 0.361998 1.7308 36 38 36
0.619004 0.368917 1.76388 35 37 35
0.607211 0.356566 1.70483 34 36 35
0.64027 0.370531 1.7716 34 36 35
0.650899 0.3713 1.77528 34 37 36
0.639635 0.359736 1.71999 35 37 36
0.673413 0.373473 1.78567 35 37 37
0.678794 0.3713 1.77528 36 39 38
0.660788 0.356566 1.70483 37 40 38
0.700817 0.373124 1.784 38 40 38
0.68468 0.359736 1.71999 37 39 37
0.733175 0.380213 1.81789 35 38 36
0.73754 0.377573 1.80527 35 37 35
0.752219 0.380213 1.81789 35 37 36
0.747538 0.373124 1.784 35 37 36
0.723295 0.356566 1.70483 34 36 35
0.754957 0.367637 1.75776 33 35 34
0.77178 0.3713 1.77528 33 36 35
0.801999 0.381245 1.82283 35 37 37
0.794259 0.373124 1.784 35 38 37
0.784792 0.36439 1.74224 34 37 36
0.804859 0.369412 1.76625 34 37 36
0.827439 0.37546 1.79517 34 37 36
0.843742 0.378556 1.80997 34 37 36
0.903024 0.400651 1.91561 35 38 37
0.862703 0.378556 1.80997 35 38 37
0.882076 0.382849 1.8305 35 38 37
0.908768 0.390194 1.86561 34 37 37
0.891144 0.378556 1.80997 35 38 38
0.923337 0.388103 1.85562 34 37 37
0.982831 0.408806 1.9546 35 38 38
0.966759 0.397976 1.90282 35 38 38
0.902266 0.367637 1.75776 35 38 38
1.01174 0.408078 1.95113 35 38 38
0.931262 0.371862 1.77797 36 39 38
0.957505 0.378556 1.80997 37 40 40
0.949887 0.371862 1.77797 37 39 39
0.978885 0.379493 1.81445 35 38 38
1.02709 0.394353 1.8855 35 38 38
0.974324 0.370531 1.7716 34 37 37
0.983603 0.370531 1.7716 35 38 38
1.03348 0.385682 1.84404 35 38 39
1.09547 0.40503 1.93655 35 38 39
1.09664 0.401743 1.92083 35 38 39
1.06246 0.385682 1.84404 35 38 38
1.05978 0.381245 1.82283 35 38 38
1.13194 0.403567 1.92955 35 38 39
0.988129 0.349177 1.6695 36 38 39
1.08843 0.381245 1.82283 36 38 39
1.08131 0.37546 1.79517 36 38 39
1.21517 0.418301 2 35 38 38
1.16121 0.396311 1.89486 35 38 38
1.23612 0.418301 2 35 38 38
1.11892 0.37546 1.79517 35 38 39
-0.700502 0.238925 1.1145 36 38 35
-0.688829 0.236918 1.10514 36 37 34
-0.683041 0.236918 1.10514 35 36 32
-0.668181 0.233745 1.09033 35 36 31
-0.702342 0.247813 1.15596 35 36 31
-0.665675 0.236918 1.10514 35 37 32
-0.672145 0.241319 1.12567 36 37 33
-0.684178 0.247813 1.15596 36 37 33
-0.643642 0.235212 1.09718 37 37 33
-0.66534 0.245332 1.14438 36 37 34
-0.666014 0.247813 1.15596 37 37 34
-0.607145 0.227982 1.06345 37 38 35
-0.681552 0.258291 1.20483 37 39 35
-0.696205 0.26631 1.24224 37 39 35
-0.694747 0.268259 1.25133 38 39 36
-0.66262 0.258291 1.20483 37 38 35
-0.645804 0.254157 1.18555 37 38 34
-0.649999 0.258291 1.20483 36 37 33
-0.643688 0.258291 1.20483 36 37 33
-0.699799 0.283587 1.32283 36 37 33
-0.655422 0.268259 1.25133 36 37 32
-0.71265 0.294628 1.37433 36 37 32
-0.649971 0.271457 1.26625 37 37 33
-0.672085 0.283587 1.32283 37 37 32
-0.681642 0.290616 1.35562 36 36 31
-0.644463 0.277657 1.29517 37 36 32
-0.667441 0.290616 1.35562 37 37 33
-0.730673 0.321569 1.5 37 37 33
-0.699264 0.311091 1.45113 36 36 31
-0.64614 0.290616 1.35562 36 36 31
-0.647863 0.294628 1.37433 36 36 32
-0.699246 0.321569 1.5 36 36 32
-0.691389 0.321569 1.5 35 35 32
-0.740797 0.348509 1.62567 35 35 32
-0.656586 0.312484 1.45762 36 36 33
-0.714627 0.344108 1.60514 36 37 33
-0.723488 0.352522 1.64438 36 37 33
-0.652106 0.321569 1.5 36 37 32
-0.732224 0.365481 1.70483 36 37 32
-0.654372 0.330654 1.54238 37 37 33
-0.714365 0.365481 1.70483 37 37 34
-0.705436 0.365481 1.70483 37 37 34
-0.682072 0.357906 1.6695 37 37 34
-0.699239 0.37168 1.73375 37 38 34
-0.690158 0.37168 1.73375 37 38 35
-0.684411 0.373499 1.74224 37 38 35
-0.686666 0.379794 1.7716 37 38 35
-0.651858 0.365481 1.70483 37 38 34
-0.670509 0.381159 1.77797 36 37 33
-0.641395 0.369744 1.72472 35 36 32
-0.673228 0.393639 1.83618 35 36 31
-0.621617 0.368729 1.71999 35 36 32
-0.62981 0.379083 1.76828 35 36 32
-0.619004 0.37814 1.76388 35 36 32
-0.627246 0.388981 1.81445 35 36 31
-0.589263 0.371048 1.7308 35 35 31
-0.581186 0.37168 1.73375 35 35 31
-0.5835 0.379083 1.76828 35 36 32
-0.553633 0.365481 1.70483 36 36 33
-0.549031 0.368384 1.71838 35 36 32
-0.548803 0.374369 1.74629 35 36 32
-0.539657 0.374369 1.74629 36 36 34
-0.539316 0.380583 1.77528 37 37 34
-0.517619 0.37168 1.73375 37 37 34
-0.507673 0.371048 1.7308 36 37 34
-0.495028 0.368384 1.71838 36 37 33
-0.493923 0.374369 1.74629 36 36 33
-0.48796 0.376827 1.75776 36 36 33
-0.468026 0.368384 1.71838 36 36 34
-0.474226 0.380583 1.77528 37 37 35
-0.454051 0.37168 1.73375 37 37 35
-0.441025 0.368384 1.71838 36 36 34
-0.432024 0.368384 1.71838 36 36 33
-0.423024 0.368384 1.71838 36 36 34
-0.420749 0.374369 1.74629 36 37 34
-0.411603 0.374369 1.74629 36 36 34
-0.402456 0.374369 1.74629 36 36 34
-0.380985 0.362638 1.69157 36 37 34
-0.381403 0.37168 1.73375 36 37 34
-0.369367 0.368729 1.71999 37 37 35
-0.371942 0.380583 1.77528 37 37 34
-0.35102 0.368384 1.71838 37 37 35
-0.345079 0.37168 1.73375 36 37 34
-0.346059 0.382809 1.78567 35 35 33
-0.326361 0.371048 1.7308 35 35 32
-0.302626 0.353893 1.65078 36 37 34
-0.310989 0.374369 1.74629 36 37 35
-0.299674 0.37168 1.73375 36 37 35
-0.277554 0.355003 1.65596 36 37 34
-0.283548 0.374369 1.74629 35 36 33
-0.265803 0.362638 1.69157 35 36 33
-0.258957 0.365481 1.70483 35 36 34
-0.25225 0.368729 1.71999 35 37 34
-0.248584 0.376827 1.75776 35 36 33
-0.227357 0.357906 1.6695 35 36 33
-0.225013 0.368384 1.71838 35 36 33
-0.217945 0.37168 1.73375 34 35 32
-0.203933 0.362906 1.69282 35 36 33
-0.19645 0.365481 1.70483 36 37 34
-0.191635 0.373499 1.74224 35 36 34
-0.174513 0.357135 1.6659 34 35 32
-0.168467 0.362906 1.69282 35 36 34
-0.163181 0.371048 1.7308 36 37 35
-0.148336 0.357135 1.6659 36 37 35
-0.145296 0.37168 1.73375 36 37 34
-0.132902 0.362638 1.69157 35 37 34
-0.126918 0.371048 1.7308 35 36 34
-0.117853 0.371048 1.7308 34 36 32
-0.107155 0.365481 1.70483 35 36 33
-0.093664 0.348509 1.62567 35 36 33
-0.0864646 0.353893 1.65078 34 36 33
-0.0809431 0.368105 1.71707 35 36 34
-0.0703909 0.360131 1.67988 35 36 34
-0.0610797 0.357135 1.6659 35 36 33
-0.0522154 0.35619 1.66149 35 35 33
-0.0435128 0.35619 1.66149 35 35 33
-0.036002 0.368384 1.71838 35 36 33
-0.0267887 0.365481 1.70483 35 36 34
-0.0175977 0.360131 1.67988 36 36 34
-0.0090005 0.368384 1.71838 35 36 34
0 0.362307 1.69003 34 35 33
0.00876704 0.358828 1.6738 34 35 33
0.0175694 0.35955 1.67717 34 36 34
0.0277857 0.379083 1.76828 36 37 35
0.0344518 0.352522 1.64438 36 38 35
0.0443005 0.362638 1.69157 36 38 35
0.052354 0.357135 1.6659 37 38 36
0.062507 0.365481 1.70483 36 37 35
0.0720715 0.368729 1.71999 35 36 33
0.0803661 0.365481 1.70483 35 37 34
0.0879887 0.360131 1.67988 37 38 35
0.0982252 0.365481 1.70483 35 37 34
0.1064 0.362906 1.69282 35 36 33
0.114385 0.360131 1.67988 35 36 33
0.122159 0.357135 1.6659 35 37 34
0.135008 0.368384 1.71838 35 36 33
0.143899 0.368105 1.71707 34 35 31
0.147451 0.355003 1.65596 34 36 32
0.15409 0.350378 1.63439 35 36 33
0.165788 0.357135 1.6659 35 36 33
0.177202 0.362638 1.69157 35 36 33
0.184478 0.35955 1.67717 34 35 33
0.191965 0.357135 1.6659 35 35 33
0.196893 0.350378 1.63439 36 37 35
0.209416 0.357135 1.6659 35 36 34
0.214931 0.351878 1.64138 36 37 34
0.239377 0.376827 1.75776 36 37 34
0.229902 0.348509 1.62567 35 35 32
0.242101 0.353893 1.65078 35 35 32
0.249319 0.351878 1.64138 36 36 34
0.277166 0.37814 1.76388 36 37 34
0.274413 0.362307 1.69003 36 36 34
0.288016 0.368384 1.71838 35 36 34
0.294676 0.365481 1.70483 35 36 33
0.305785 0.368105 1.71707 35 35 33
0.320135 0.374369 1.74629 35 36 34
0.316248 0.35955 1.67717 35 36 34
0.332766 0.368105 1.71707 35 36 34
0.333818 0.35955 1.67717 35 36 34
0.356722 0.374369 1.74629 35 35 34
0.365869 0.374369 1.74629 35 35 33
0.372322 0.37168 1.73375 35 35 33
0.368957 0.35955 1.67717 35 36 34
0.370357 0.352522 1.64438 34 35 33
0.376666 0.350378 1.63439 34 35 32
0.398342 0.362307 1.69003 34 35 32
0.401381 0.357135 1.6659 35 36 32
0.42772 0.372473 1.73745 35 35 31
0.435148 0.371048 1.7308 34 35 31
0.444214 0.371048 1.7308 35 36 31
0.461943 0.37814 1.76388 34 35 31
0.471182 0.37814 1.76388 35 36 33
0.47563 0.374369 1.74629 35 37 34
0.477474 0.368729 1.71999 34 36 33
0.497167 0.376827 1.75776 33 35 33
0.491126 0.365481 1.70483 33 35 33
0.512217 0.374369 1.74629 33 35 33
0.521363 0.374369 1.74629 33 35 33
0.539316 0.380583 1.77528 33 35 33
0.543201 0.376827 1.75776 34 36 34
0.527081 0.35955 1.67717 35 37 35
0.553943 0.37168 1.73375 34 36 34
0.568733 0.375449 1.75133 33 35 34
0.592371 0.384846 1.79517 33 35 34
0.595107 0.380583 1.77528 33 35 34
0.585581 0.368729 1.71999 35 37 36
0.603684 0.374369 1.74629 37 38 37
0.612831 0.374369 1.74629 37 38 37
0.623772 0.375449 1.75133 35 37 36
0.655758 0.388981 1.81445 36 38 37
0.642118 0.375449 1.75133 37 39 38
0.651291 0.375449 1.75133 36 38 37
0.637346 0.362307 1.69003 36 37 36
0.678794 0.380583 1.77528 36 38 37
0.688093 0.380583 1.77528 37 39 37
0.681077 0.37168 1.73375 37 39 37
0.702153 0.37814 1.76388 36 38 37
0.70633 0.375449 1.75133 36 38 36
0.720631 0.37814 1.76388 35 37 35
0.742815 0.384846 1.79517 35 37 36
0.733849 0.375449 1.75133 36 38 37
0.76162 0.384846 1.79517 34 36 35
