ply
format ascii 1.0
element vertex 1364
property float x
property float y
property float z
property uchar red
property uchar green
property uchar blue
end_header
-0.676996 0.366073 1.79517 36 37 33
-0.615824 0.337686 1.65596 35 36 33
-0.612116 0.340447 1.6695 35 37 34
-0.625526 0.352948 1.7308 35 37 34
-0.621977 0.356107 1.74629 36 37 34
-0.612831 0.356107 1.74629 37 38 36
-0.617295 0.364136 1.78567 38 39 36
-0.580422 0.347652 1.70483 37 38 36
-0.584031 0.35528 1.74224 37 38 36
-0.562563 0.347652 1.70483 37 38 35
-0.558031 0.350414 1.71838 36 37 34
-0.55795 0.356107 1.74629 37 37 34
-0.547529 0.35528 1.74224 38 37 34
-0.541214 0.357134 1.75133 37 37 34
-0.525804 0.352948 1.7308 36 36 33
-0.492848 0.33663 1.65078 37 37 34
-0.491942 0.342011 1.67717 37 37 34
-0.491126 0.347652 1.70483 35 36 33
-0.489542 0.352948 1.7308 36 37 33
-0.480476 0.352948 1.7308 36 37 33
-0.480421 0.359694 1.76388 36 38 34
-0.451865 0.344948 1.69157 36 37 33
-0.443005 0.344948 1.69157 35 37 33
-0.448189 0.356107 1.74629 36 37 34
-0.432024 0.350414 1.71838 37 38 35
-0.410106 0.339714 1.6659 36 38 34
-0.404748 0.342564 1.67988 36 37 34
-0.395949 0.342564 1.67988 35 37 33
-0.383929 0.339714 1.6659 35 37 33
-0.380985 0.344948 1.69157 36 37 33
-0.380755 0.352948 1.7308 36 37 34
-0.372322 0.353549 1.73375 35 37 34
-0.36002 0.350414 1.71838 36 37 34
-0.343156 0.342564 1.67988 36 37 35
-0.339324 0.347652 1.70483 36 38 34
-0.327824 0.344948 1.69157 36 37 34
-0.321464 0.347652 1.70483 36 37 34
-0.305398 0.339714 1.6659 37 38 35
-0.306017 0.350414 1.71838 37 38 35
-0.287185 0.338814 1.66149 36 37 34
-0.285746 0.347652 1.70483 35 36 34
-0.266514 0.334713 1.64138 35 36 34
-0.267887 0.347652 1.70483 36 37 34
-0.256943 0.344948 1.69157 36 37 34
-0.242101 0.33663 1.65078 37 37 35
-0.228818 0.329944 1.618 36 36 34
-0.227357 0.340447 1.6695 35 36 33
-0.223239 0.347652 1.70483 36 36 34
-0.21431 0.347652 1.70483 37 37 34
-0.20069 0.339714 1.6659 37 38 34
-0.190222 0.33663 1.65078 37 37 34
-0.186062 0.344948 1.69157 36 37 34
-0.172929 0.33663 1.65078 36 37 34
-0.168467 0.345203 1.69282 37 37 34
-0.159482 0.344948 1.69157 37 37 35
-0.149581 0.342564 1.67988 37 37 35
-0.140782 0.342564 1.67988 37 36 34
-0.131983 0.342564 1.67988 36 36 34
-0.117964 0.328047 1.60869 36 36 33
-0.115181 0.344948 1.69157 35 36 32
-0.108107 0.350743 1.71999 35 36 32
-0.0941664 0.333287 1.63439 36 37 34
-0.0870257 0.338814 1.66149 37 38 34
-0.0778182 0.33663 1.65078 36 37 34
-0.0687778 0.334713 1.64138 36 37 34
-0.0592709 0.329654 1.61657 36 37 34
-0.0518788 0.33663 1.65078 35 36 33
-0.0435128 0.338814 1.66149 34 35 32
-0.0348103 0.338814 1.66149 34 35 32
-0.0262335 0.340447 1.6695 35 37 34
-0.0173471 0.337686 1.65596 36 38 35
-0.00872567 0.339714 1.6659 36 37 34
0 0.333287 1.63439 36 37 34
0.00867357 0.337686 1.65596 36 37 34
0.0169495 0.329944 1.618 36 37 34
0.026177 0.339714 1.6659 34 35 31
0.0357183 0.347652 1.70483 33 34 30
0.0428029 0.333287 1.63439 34 35 32
0.0513635 0.333287 1.63439 35 36 33
0.0583089 0.324303 1.59033 35 36 34
0.0687778 0.334713 1.64138 35 37 35
0.0810045 0.350414 1.71838 36 37 36
0.0859722 0.334713 1.64138 37 38 36
0.0951111 0.33663 1.65078 35 36 34
0.107924 0.350148 1.71707 34 36 33
0.112404 0.33663 1.65078 35 37 34
0.122159 0.339714 1.6659 37 38 35
0.130885 0.339714 1.6659 36 37 34
0.136239 0.331508 1.62567 35 36 33
0.14699 0.33663 1.65078 35 36 33
0.153268 0.331508 1.62567 35 36 33
0.164283 0.33663 1.65078 36 36 34
0.169495 0.329944 1.618 36 36 34
0.178813 0.331508 1.62567 36 36 34
0.194922 0.344948 1.69157 36 37 35
0.202048 0.342011 1.67717 36 36 34
0.205454 0.333287 1.63439 36 37 34
0.225013 0.350414 1.71838 36 36 33
0.236107 0.353549 1.73375 35 35 32
0.233454 0.33663 1.65078 35 35 32
0.252014 0.350414 1.71838 35 34 31
0.258957 0.347652 1.70483 35 36 33
0.263966 0.342564 1.67988 35 36 34
0.26804 0.33663 1.65078 35 36 34
0.273939 0.333287 1.63439 34 36 34
0.287185 0.338814 1.66149 34 35 33
0.299162 0.342564 1.67988 33 35 32
0.312535 0.347652 1.70483 34 36 33
0.318964 0.344948 1.69157 35 37 35
0.32285 0.339714 1.6659 34 36 34
0.339324 0.347652 1.70483 33 36 33
0.345544 0.344948 1.69157 35 37 35
0.352421 0.343018 1.68211 36 38 36
0.371689 0.352948 1.7308 35 37 35
0.371785 0.344634 1.69003 35 36 35
0.377741 0.342011 1.67717 35 36 34
0.389489 0.344634 1.69003 35 36 34
0.40183 0.347652 1.70483 34 36 34
0.417017 0.352948 1.7308 34 35 34
0.426808 0.353549 1.73375 34 35 34
0.435889 0.353549 1.73375 34 35 34
0.441025 0.350414 1.71838 32 34 34
0.450025 0.350414 1.71838 32 34 33
0.451454 0.344634 1.69003 32 34 33
0.464337 0.347652 1.70483 33 35 34
0.486175 0.357134 1.75133 34 36 34
0.490376 0.353549 1.73375 34 36 35
0.499457 0.353549 1.73375 34 36 35
0.500056 0.347652 1.70483 34 36 35
0.513029 0.350414 1.71838 33 35 34
0.5267 0.353549 1.73375 33 35 34
0.543201 0.358446 1.75776 34 36 36
0.531122 0.344634 1.69003 34 36 36
0.544704 0.347652 1.70483 33 36 35
0.553633 0.347652 1.70483 33 36 36
0.567032 0.350414 1.71838 32 35 36
0.571492 0.347652 1.70483 33 35 36
0.590267 0.353549 1.73375 33 36 36
0.602282 0.35528 1.74224 34 36 36
0.619004 0.359694 1.76388 32 35 36
0.61751 0.353549 1.73375 31 35 36
0.632945 0.357134 1.75133 30 35 36
0.635672 0.353549 1.73375 31 36 36
0.628494 0.344634 1.69003 32 37 37
0.669496 0.362018 1.77528 34 38 38
0.674437 0.359694 1.76388 35 39 39
0.666662 0.350743 1.71999 35 39 40
0.705204 0.366073 1.79517 35 38 39
0.719388 0.368522 1.80718 34 38 39
0.699239 0.353549 1.73375 32 36 37
0.720631 0.359694 1.76388 32 35 37
0.705436 0.347652 1.70483 31 35 37
0.742342 0.361267 1.7716 32 36 37
0.743023 0.357134 1.75133 34 37 38
0.760901 0.361267 1.7716 34 37 38
0.77018 0.361267 1.7716 34 37 38
0.770542 0.357134 1.75133 34 37 38
0.766672 0.35116 1.72203 33 37 37
0.784792 0.35528 1.74224 32 36 37
0.793917 0.35528 1.74224 31 35 37
0.814111 0.360176 1.76625 32 36 37
0.854989 0.374012 1.8341 34 37 39
0.864596 0.374012 1.8341 35 38 40
0.868832 0.371714 1.82283 35 39 40
0.842643 0.356591 1.74867 35 39 40
0.867856 0.363312 1.78162 35 38 39
0.940229 0.389422 1.90967 34 38 39
0.878869 0.360176 1.76625 34 38 39
0.927237 0.37604 1.84404 34 38 39
0.942775 0.3784 1.85562 35 39 40
0.887195 0.352458 1.7284 36 39 41
0.945213 0.371714 1.82283 34 38 40
0.948025 0.369092 1.80997 34 38 39
0.929887 0.358446 1.75776 34 38 39
1.00734 0.384494 1.8855 34 38 39
0.978885 0.370006 1.81445 35 39 40
0.902051 0.337686 1.65596 35 39 40
0.987286 0.366073 1.79517 35 39 40
1.0074 0.370006 1.81445 35 39 40
1.07026 0.389422 1.90967 34 39 40
1.05262 0.379455 1.86079 34 39 40
1.0528 0.37604 1.84404 34 38 39
1.07211 0.379455 1.86079 34 38 39
1.07212 0.37604 1.84404 35 40 40
1.12682 0.391699 1.92083 34 39 40
0.980114 0.337686 1.65596 35 39 40
1.14695 0.391699 1.92083 35 39 40
1.08131 0.366073 1.79517 35 40 40
1.03583 0.347652 1.70483 34 39 40
1.30266 0.433469 2.12567 34 39 39
1.05369 0.347652 1.70483 34 38 39
1.2466 0.407843 2 34 38 39
-0.694618 0.23114 1.10514 36 36 32
-0.653761 0.219372 1.04887 36 35 32
-0.683041 0.23114 1.10514 36 36 33
-0.642774 0.219372 1.04887 37 38 34
-0.702342 0.241769 1.15596 37 37 34
-0.665675 0.23114 1.10514 36 37 34
-0.702899 0.246206 1.17717 36 36 33
-0.654098 0.23114 1.10514 36 36 33
-0.678123 0.241769 1.15596 36 37 34
-0.642521 0.23114 1.10514 36 36 34
-0.734762 0.266725 1.27528 36 37 33
-0.676852 0.247958 1.18555 36 37 32
-0.691283 0.255589 1.22203 36 37 32
-0.64785 0.241769 1.15596 36 37 32
-0.668931 0.251991 1.20483 36 37 33
-0.643189 0.244602 1.1695 36 37 33
-0.692679 0.265955 1.2716 36 37 32
-0.57063 0.221222 1.05772 36 37 32
-0.624812 0.244602 1.1695 36 37 32
-0.672698 0.265955 1.2716 36 37 33
-0.655422 0.261716 1.25133 36 36 32
-0.659377 0.265955 1.2716 36 36 33
-0.664814 0.270885 1.29517 36 36 32
-0.612135 0.251991 1.20483 36 37 32
-0.714435 0.297168 1.42083 36 37 32
-0.611241 0.25692 1.2284 36 37 32
-0.651299 0.27667 1.32283 36 37 32
-0.730673 0.313726 1.5 38 38 34
-0.722816 0.313726 1.5 39 39 36
-0.714959 0.313726 1.5 38 39 36
-0.657541 0.291736 1.39486 36 37 33
-0.676462 0.303503 1.45113 36 37 33
-0.642929 0.291736 1.39486 36 37 33
-0.709833 0.325797 1.55772 36 37 32
-0.716367 0.332619 1.59033 36 37 32
-0.646059 0.303503 1.45113 37 37 33
-0.715252 0.340009 1.62567 36 37 33
-0.741154 0.356566 1.70483 35 36 32
-0.698222 0.340009 1.62567 36 37 33
-0.708305 0.349177 1.6695 37 38 35
-0.730039 0.36439 1.74224 37 38 34
-0.664183 0.335715 1.60514 37 38 35
-0.711788 0.36439 1.74224 36 37 34
-0.663197 0.343924 1.64438 36 37 34
-0.678647 0.356566 1.70483 36 38 34
-0.71278 0.379493 1.81445 37 38 34
-0.695801 0.37546 1.79517 37 38 34
-0.641282 0.350781 1.67717 36 37 33
-0.676996 0.37546 1.79517 35 37 33
-0.626827 0.352533 1.68555 34 36 33
-0.62507 0.356566 1.70483 34 36 33
-0.639072 0.369837 1.76828 35 36 33
-0.612034 0.359399 1.71838 35 37 34
-0.588574 0.350781 1.67717 36 38 35
-0.598329 0.361998 1.7308 37 38 35
-0.575382 0.35347 1.69003 37 38 35
-0.576032 0.359399 1.71838 37 38 35
-0.571132 0.361998 1.7308 36 37 34
-0.577382 0.371862 1.77797 36 37 34
-0.522195 0.341832 1.63439 37 37 34
-0.531606 0.353793 1.69157 37 37 34
-0.543201 0.367637 1.75776 37 38 35
-0.533994 0.367637 1.75776 37 37 34
-0.508985 0.356566 1.70483 37 37 34
-0.520719 0.3713 1.77528 36 36 34
-0.495028 0.359399 1.71838 35 36 32
-0.493923 0.365238 1.74629 36 37 33
-0.480476 0.361998 1.7308 37 38 34
-0.464337 0.356566 1.70483 36 37 34
-0.459026 0.359399 1.71838 36 38 34
-0.446478 0.356566 1.70483 36 37 34
-0.448189 0.365238 1.74629 36 38 34
-0.421665 0.350781 1.67717 37 38 35
-0.41969 0.356566 1.70483 37 38 35
-0.407565 0.353793 1.69157 36 38 34
-0.40183 0.356566 1.70483 35 37 33
-0.399565 0.362614 1.73375 35 37 33
-0.380637 0.35347 1.69003 35 37 33
-0.380755 0.361998 1.7308 35 37 33
-0.369021 0.359399 1.71838 35 36 33
-0.349027 0.348424 1.6659 35 36 33
-0.342602 0.350781 1.67717 36 37 34
-0.328566 0.345262 1.65078 36 37 34
-0.327824 0.353793 1.69157 36 37 34
-0.306537 0.340009 1.62567 36 37 34
-0.305398 0.348424 1.6659 36 37 34
-0.29398 0.345262 1.65078 36 37 35
-0.285333 0.345262 1.65078 35 36 34
-0.279221 0.348424 1.6659 35 36 34
-0.266514 0.343296 1.64138 35 36 33
-0.26354 0.350781 1.67717 35 37 34
-0.258957 0.356566 1.70483 36 37 34
-0.242101 0.345262 1.65078 36 37 35
-0.233454 0.345262 1.65078 36 37 35
-0.230363 0.353793 1.69157 36 37 34
-0.216839 0.346344 1.65596 36 36 33
-0.204358 0.340009 1.62567 36 37 34
-0.20069 0.348424 1.6659 37 38 35
-0.189139 0.343296 1.64138 37 37 34
-0.186062 0.353793 1.69157 37 37 34
-0.177333 0.354054 1.69282 37 37 34
-0.163646 0.343924 1.64438 37 37 34
-0.15838 0.351347 1.67988 37 37 35
-0.146153 0.343296 1.64138 37 37 35
-0.136239 0.340009 1.62567 36 37 34
-0.133943 0.356566 1.70483 36 36 34
-0.123184 0.351347 1.67988 36 36 33
-0.114385 0.351347 1.67988 36 36 33
-0.105416 0.350781 1.67717 35 36 33
-0.0951111 0.345262 1.65078 36 37 34
-0.0872567 0.348424 1.6659 36 37 34
-0.0778182 0.345262 1.65078 36 37 34
-0.0703909 0.351347 1.67988 36 37 34
-0.0620207 0.353793 1.69157 36 37 34
-0.054003 0.359399 1.71838 36 37 34
-0.0432323 0.345262 1.65078 36 37 34
-0.0354404 0.353793 1.69157 36 37 34
-0.026177 0.348424 1.6659 36 37 34
-0.0173471 0.346344 1.65596 37 38 35
-0.00838992 0.335018 1.6018 37 38 35
0 0.359399 1.71838 36 37 34
0.00859722 0.343296 1.64138 36 37 34
0.0171944 0.343296 1.64138 35 36 33
0.0265803 0.353793 1.69157 33 34 31
0.0349027 0.348424 1.6659 34 34 31
0.0439234 0.350781 1.67717 35 36 33
0.0531606 0.353793 1.69157 36 36 34
0.0620207 0.353793 1.69157 36 37 35
0.0702774 0.350781 1.67717 36 37 35
0.0778182 0.345262 1.65078 37 38 37
0.0872567 0.348424 1.6659 37 39 37
0.0974612 0.353793 1.69157 35 36 34
0.104431 0.347502 1.66149 34 36 33
0.116084 0.356566 1.70483 35 37 34
0.12105 0.345262 1.65078 36 38 35
0.12639 0.336459 1.60869 37 38 35
0.139611 0.348424 1.6659 36 37 34
0.14699 0.345262 1.65078 36 37 34
0.162009 0.359399 1.71838 36 36 34
0.167178 0.351347 1.67988 36 36 34
0.179874 0.359127 1.71707 35 36 34
0.178813 0.340009 1.62567 35 36 34
0.193263 0.350781 1.67717 36 36 34
0.202048 0.350781 1.67717 36 36 34
0.203215 0.338107 1.61657 35 36 34
0.219617 0.350781 1.67717 36 36 34
0.222575 0.341832 1.63439 36 36 33
0.232125 0.343296 1.64138 36 36 33
0.243672 0.347502 1.66149 35 35 32
0.261015 0.359399 1.71838 35 35 32
0.265803 0.353793 1.69157 34 36 33
0.272325 0.350781 1.67717 34 36 33
0.28111 0.350781 1.67717 34 36 33
0.297017 0.359399 1.71838 33 35 31
0.301244 0.353793 1.69157 33 35 32
0.307464 0.350781 1.67717 33 35 32
0.303336 0.336459 1.60869 34 37 34
0.319919 0.345262 1.65078 35 37 34
0.336684 0.353793 1.69157 35 37 34
0.348253 0.356566 1.70483 35 38 35
0.36002 0.359399 1.71838 35 37 35
0.360172 0.350781 1.67717 34 36 34
0.371785 0.35347 1.69003 35 36 34
0.383971 0.356566 1.70483 35 36 34
0.380444 0.345262 1.65078 35 36 34
0.392655 0.348424 1.6659 35 36 35
0.423513 0.367637 1.75776 34 36 34
0.409021 0.347502 1.66149 35 36 35
0.428619 0.356566 1.70483 34 36 35
0.43375 0.35347 1.69003 34 36 35
0.450447 0.359736 1.71999 34 35 34
0.455408 0.356566 1.70483 34 36 35
0.452533 0.347502 1.66149 34 36 35
0.456486 0.343924 1.64438 35 37 35
0.486483 0.359736 1.71999 34 36 35
0.499457 0.362614 1.73375 34 36 35
0.495714 0.35347 1.69003 35 36 35
0.508985 0.356566 1.70483 34 35 35
0.513418 0.35347 1.69003 33 35 35
0.548615 0.3713 1.77528 34 36 36
0.544862 0.362614 1.73375 34 36 36
0.56357 0.368917 1.76388 32 35 35
0.553633 0.356566 1.70483 33 35 36
0.567563 0.359736 1.71999 32 35 35
0.576032 0.359399 1.71838 33 35 36
0.607942 0.373473 1.78567 34 36 37
0.599348 0.362614 1.73375 36 37 38
0.629982 0.37546 1.79517 35 38 38
0.612608 0.359736 1.71999 34 38 38
0.648788 0.37546 1.79517 34 38 38
0.62507 0.356566 1.70483 34 38 38
0.667593 0.37546 1.79517 34 38 38
0.660465 0.366292 1.75133 35 39 39
0.662915 0.362614 1.73375 35 40 40
0.671996 0.362614 1.73375 36 40 40
0.675671 0.359736 1.71999 35 39 40
0.70669 0.3713 1.77528 34 38 39
0.714504 0.370531 1.7716 33 37 38
0.709832 0.363389 1.73745 33 37 38
0.698505 0.353063 1.68808 33 36 38
0.714365 0.356566 1.70483 33 36 38
0.737134 0.363389 1.73745 34 37 38
0.752196 0.366292 1.75133 33 37 38
0.761369 0.366292 1.75133 34 37 38
0.795113 0.377972 1.80718 34 37 38
0.766672 0.360164 1.72203 33 37 38
0.795608 0.369412 1.76625 31 36 37
0.807297 0.370531 1.7716 30 35 37
0.840189 0.381245 1.82283 31 36 37
0.836842 0.37546 1.79517 33 37 39
0.846245 0.37546 1.79517 35 39 40
0.837819 0.367637 1.75776 36 40 41
0.872183 0.378556 1.80997 36 39 40
0.930227 0.399407 1.90967 35 38 39
0.875386 0.371862 1.77797 35 38 39
0.893258 0.37546 1.79517 35 38 39
0.894011 0.371862 1.77797 35 38 39
0.952286 0.392018 1.87433 35 39 40
0.952495 0.388103 1.85562 35 39 40
0.94919 0.382849 1.8305 34 38 39
0.965871 0.385682 1.84404 34 37 39
0.997463 0.394353 1.8855 33 37 38
0.977953 0.382849 1.8305 34 38 39
0.9483 0.367637 1.75776 35 39 40
1.00451 0.385682 1.84404 34 39 40
0.997892 0.379493 1.81445 34 39 39
0.996688 0.37546 1.79517 35 39 40
1.05046 0.392018 1.87433 35 40 41
1.04314 0.385682 1.84404 35 40 41
1.06236 0.389185 1.86079 35 39 40
1.0038 0.36439 1.74224 35 39 40
1.08973 0.392018 1.87433 36 40 41
1.0531 0.37546 1.79517 35 40 41
1.18374 0.418301 2 35 40 40
1.14028 0.399407 1.90967 34 39 40
1.15701 0.401743 1.92083 34 39 39
1.21517 0.418301 2 34 38 39
1.11707 0.381245 1.82283 33 38 39
1.0864 0.367637 1.75776 34 38 39
1.16827 0.392018 1.87433 34 38 40
-0.735073 0.250717 1.1695 36 36 33
-0.656288 0.225726 1.05293 36 35 32
-0.683041 0.236918 1.10514 35 35 31
-0.738348 0.258291 1.20483 37 37 34
-0.639743 0.225726 1.05293 37 37 34
-0.696288 0.247813 1.15596 36 37 34
-0.626292 0.224857 1.04887 36 36 33
-0.701691 0.254157 1.18555 36 36 33
-0.686068 0.250717 1.1695 37 37 34
-0.691878 0.255118 1.19003 36 36 34
-0.720964 0.268259 1.25133 36 37 33
-0.679412 0.255118 1.19003 36 37 33
-0.681552 0.258291 1.20483 36 37 33
-0.664433 0.254157 1.18555 36 37 32
-0.694747 0.268259 1.25133 37 38 33
-0.683192 0.26631 1.24224 36 37 33
-0.689765 0.271457 1.26625 36 37 32
-0.649999 0.258291 1.20483 36 37 32
-0.704092 0.282529 1.31789 36 36 32
-0.627175 0.254157 1.18555 36 36 31
-0.712755 0.291725 1.36079 35 35 31
-0.633676 0.261979 1.22203 36 36 30
-0.652717 0.272604 1.2716 35 35 30
-0.658031 0.277657 1.29517 36 36 31
-0.665156 0.283587 1.32283 36 36 32
-0.658227 0.283587 1.32283 36 37 32
-0.667441 0.290616 1.35562 36 37 32
-0.630895 0.277657 1.29517 35 36 31
-0.637441 0.283587 1.32283 35 35 31
-0.691664 0.311091 1.45113 35 36 32
-0.639039 0.290616 1.35562 36 37 33
-0.699246 0.321569 1.5 37 37 33
-0.691389 0.321569 1.5 37 37 34
-0.683532 0.321569 1.5 36 36 32
-0.694765 0.330654 1.54238 35 36 31
-0.667819 0.321569 1.5 36 37 33
-0.70622 0.344108 1.60514 37 38 34
-0.677197 0.333942 1.55772 37 38 34
-0.689405 0.344108 1.60514 37 39 35
-0.76162 0.384846 1.79517 37 38 34
-0.689036 0.352522 1.64438 36 37 34
-0.664183 0.344108 1.60514 36 37 33
-0.649728 0.340934 1.59033 36 37 34
-0.673327 0.357906 1.6695 36 37 33
-0.654584 0.352522 1.64438 36 37 33
-0.684411 0.373499 1.74224 37 38 33
-0.650066 0.35955 1.67717 37 38 34
-0.686399 0.384846 1.79517 37 38 34
-0.634358 0.360608 1.68211 37 38 34
-0.641395 0.369744 1.72472 37 37 35
-0.62507 0.365481 1.70483 36 37 34
-0.6416 0.380583 1.77528 36 37 34
-0.598323 0.360131 1.67988 37 38 35
-0.593627 0.362638 1.69157 36 38 34
-0.620579 0.384846 1.79517 36 37 34
-0.580422 0.365481 1.70483 37 38 34
-0.584031 0.373499 1.74224 37 38 35
-0.585809 0.380583 1.77528 36 37 34
-0.553633 0.365481 1.70483 36 37 34
-0.540467 0.362638 1.69157 36 37 34
-0.547529 0.373499 1.74224 37 37 34
-0.53487 0.371048 1.7308 36 36 33
-0.5267 0.37168 1.73375 36 36 33
-0.500727 0.35955 1.67717 37 37 34
-0.504028 0.368384 1.71838 36 36 33
-0.495028 0.368384 1.71838 36 37 33
-0.478446 0.362638 1.69157 36 37 34
-0.469586 0.362638 1.69157 36 37 33
-0.486354 0.382809 1.78567 35 37 33
-0.469547 0.376827 1.75776 36 37 33
-0.439234 0.35955 1.67717 36 37 34
-0.421264 0.351878 1.64138 36 38 34
-0.428619 0.365481 1.70483 36 37 34
-0.416425 0.362638 1.69157 36 37 34
-0.41076 0.365481 1.70483 36 38 34
-0.415749 0.37814 1.76388 36 38 34
-0.398886 0.371048 1.7308 36 37 34
-0.38982 0.371048 1.7308 36 38 34
-0.368957 0.35955 1.67717 36 37 34
-0.375016 0.374369 1.74629 35 37 34
-0.338691 0.346559 1.61657 35 36 33
-0.35416 0.37168 1.73375 36 37 34
-0.334357 0.360131 1.67988 36 37 34
-0.330394 0.365481 1.70483 36 37 34
-0.321464 0.365481 1.70483 36 37 34
-0.305398 0.357135 1.6659 36 37 34
-0.296673 0.357135 1.6659 36 37 35
-0.292117 0.362307 1.69003 36 37 35
-0.283523 0.362638 1.69157 36 37 35
-0.270496 0.357135 1.6659 36 37 35
-0.259394 0.353893 1.65078 36 37 35
-0.254756 0.35955 1.67717 36 37 34
-0.250028 0.365481 1.70483 36 37 35
-0.239223 0.362638 1.69157 36 37 35
-0.230363 0.362638 1.69157 37 38 35
-0.221503 0.362638 1.69157 36 37 34
-0.208862 0.35619 1.66149 36 36 34
-0.198869 0.353893 1.65078 36 37 34
-0.19645 0.365481 1.70483 36 36 33
-0.182145 0.355003 1.65596 36 36 33
-0.172545 0.353107 1.64712 37 37 34
-0.168342 0.362638 1.69157 37 37 34
-0.15838 0.360131 1.67988 37 37 34
-0.146153 0.351878 1.64138 37 36 34
-0.142873 0.365481 1.70483 36 36 34
-0.127009 0.346559 1.61657 36 36 34
-0.122986 0.35955 1.67717 36 36 33
-0.111288 0.350378 1.63439 35 35 32
-0.106321 0.362638 1.69157 35 35 32
-0.0959824 0.357135 1.6659 35 36 33
-0.0874451 0.357906 1.6695 35 36 33
-0.0780621 0.355003 1.65596 36 37 34
-0.0714365 0.365481 1.70483 36 38 34
-0.060715 0.355003 1.65596 37 38 35
-0.0510894 0.348509 1.62567 37 38 35
-0.0419496 0.343393 1.6018 36 37 34
-0.0344518 0.352522 1.64438 36 37 34
-0.026354 0.35955 1.67717 36 37 34
-0.018001 0.368384 1.71838 36 37 34
-0.00892957 0.365481 1.70483 36 37 34
0 0.357135 1.6659 35 37 33
0.00879887 0.360131 1.67988 35 36 33
0.0171944 0.351878 1.64138 35 36 32
0.0254242 0.346865 1.618 35 36 33
0.0340596 0.348509 1.62567 36 37 34
0.0443005 0.362638 1.69157 36 37 34
0.0535774 0.365481 1.70483 36 37 35
0.0605252 0.353893 1.65078 36 37 35
0.0696205 0.35619 1.66149 35 37 35
0.0778182 0.353893 1.65078 36 38 36
0.0872567 0.357135 1.6659 37 39 37
0.0951111 0.353893 1.65078 35 36 34
0.104708 0.357135 1.6659 34 35 33
0.112756 0.355003 1.65596 34 36 33
0.12105 0.353893 1.65078 36 37 35
0.132902 0.362638 1.69157 36 37 34
0.141867 0.362906 1.69282 36 36 34
0.147451 0.355003 1.65596 36 37 34
0.159482 0.362638 1.69157 36 37 34
0.165788 0.357135 1.6659 35 36 34
0.172929 0.353893 1.65078 34 35 33
0.185893 0.362307 1.69003 35 36 33
0.190222 0.353893 1.65078 35 36 34
0.20069 0.357135 1.6659 35 36 34
0.210832 0.35955 1.67717 35 35 33
0.219972 0.360131 1.67988 35 35 33
0.222575 0.350378 1.63439 35 35 32
0.232125 0.351878 1.64138 35 35 32
0.240722 0.351878 1.64138 35 36 33
0.248057 0.350096 1.63307 35 36 33
0.265561 0.362307 1.69003 35 36 33
0.272325 0.35955 1.67717 35 37 34
0.270953 0.346559 1.61657 35 37 34
0.294676 0.365481 1.70483 34 36 33
0.298679 0.35955 1.67717 34 36 32
0.307464 0.35955 1.67717 34 36 33
0.318964 0.362638 1.69157 35 37 34
0.319919 0.353893 1.65078 34 37 34
0.336684 0.362638 1.69157 34 36 34
0.3394 0.35619 1.66149 34 36 34
0.342423 0.350378 1.63439 34 36 34
0.356805 0.35619 1.66149 34 36 34
0.365508 0.35619 1.66149 34 35 34
0.370357 0.352522 1.64438 34 35 34
0.389489 0.362307 1.69003 34 36 34
0.389091 0.353893 1.65078 34 36 34
0.420749 0.374369 1.74629 34 36 34
0.423024 0.368384 1.71838 35 36 35
0.425285 0.362638 1.69157 35 37 35
0.452704 0.37814 1.76388 34 36 35
0.432323 0.353893 1.65078 34 36 34
0.459026 0.368384 1.71838 34 36 35
0.464337 0.365481 1.70483 35 37 35
0.469158 0.362307 1.69003 35 37 35
0.477459 0.36189 1.68808 34 36 35
0.500523 0.372473 1.73745 34 36 35
0.495714 0.362307 1.69003 35 37 36
0.517619 0.37168 1.73375 33 35 35
0.5267 0.37168 1.73375 31 34 34
0.539657 0.374369 1.74629 32 35 35
0.527081 0.35955 1.67717 33 36 36
0.561615 0.376827 1.75776 33 36 36
0.534003 0.352522 1.64438 33 36 36
0.572105 0.37168 1.73375 30 34 35
0.58708 0.375449 1.75133 30 34 34
0.596253 0.375449 1.75133 34 36 36
0.599348 0.37168 1.73375 36 38 38
0.593086 0.362307 1.69003 35 38 38
0.632301 0.380583 1.77528 34 37 37
0.621617 0.368729 1.71999 35 39 39
0.635672 0.37168 1.73375 37 41 41
0.676045 0.389719 1.81789 36 40 41
0.672784 0.382452 1.784 35 39 40
0.646198 0.362307 1.69003 36 40 40
0.678811 0.375449 1.75133 36 40 41
0.705204 0.384846 1.79517 35 39 40
0.697157 0.375449 1.75133 34 37 39
0.724009 0.384846 1.79517 34 37 38
0.70832 0.37168 1.73375 34 37 38
0.733063 0.379794 1.7716 33 36 38
0.743884 0.380583 1.77528 32 36 37
0.76162 0.384846 1.79517 32 36 37
0.780784 0.389719 1.81789 32 36 37
0.77018 0.379794 1.7716 34 37 39
0.773371 0.376827 1.75776 35 39 40
0.811546 0.390776 1.82283 34 37 38
0.795608 0.378647 1.76625 32 36 38
0.811865 0.381943 1.78162 31 36 38
0.810198 0.376827 1.75776 32 36 38
0.786923 0.36189 1.68808 34 38 40
0.869284 0.395324 1.84404 36 40 41
0.868832 0.390776 1.82283 36 40 40
0.842643 0.374878 1.74867 35 39 39
0.881663 0.38802 1.80997 35 38 39
0.869618 0.378647 1.76625 35 38 39
0.870121 0.374878 1.74867 35 38 39
0.920427 0.392421 1.8305 34 38 39
0.930015 0.392421 1.8305 35 39 40
0.921467 0.384846 1.79517 35 39 40
0.971921 0.401818 1.87433 35 39 40
1.01984 0.417411 1.94707 35 39 40
0.949675 0.384846 1.79517 34 38 39
1.00137 0.401818 1.87433 34 38 39
0.935346 0.37168 1.73375 34 39 40
1.05109 0.413656 1.92955 35 39 40
1.02338 0.398915 1.86079 37 42 42
0.962589 0.37168 1.73375 39 43 44
1.00609 0.384846 1.79517 38 42 43
0.994334 0.376827 1.75776 36 40 42
1.06236 0.398915 1.86079 34 39 40
0.982252 0.365481 1.70483 34 38 39
0.991182 0.365481 1.70483 36 40 41
1.13194 0.413656 1.92955 36 40 42
1.06251 0.384846 1.79517 35 40 41
1.11918 0.401818 1.87433 34 39 40
1.15028 0.409392 1.90967 35 40 40
1.13882 0.401818 1.87433 35 40 40
1.16121 0.406219 1.89486 34 39 40
1.23612 0.428758 2 34 39 40
1.2466 0.428758 2 34 38 39
-0.694618 0.242697 1.10514 36 36 33
-0.656288 0.231232 1.05293 36 36 32
-0.714451 0.253857 1.15596 36 35 32
-0.612822 0.219608 1 37 37 33
-0.671464 0.242697 1.10514 36 37 34
-0.634228 0.231232 1.05293 36 36 33
-0.729687 0.268368 1.22203 35 35 32
-0.623198 0.231232 1.05293 35 36 32
-0.617683 0.231232 1.05293 36 37 34
-0.66534 0.251316 1.14438 36 37 34
-0.636733 0.242697 1.10514 36 37 34
-0.679412 0.26134 1.19003 37 37 33
-0.69791 0.270941 1.23375 36 37 33
-0.638463 0.250179 1.13921 36 37 32
-0.63537 0.251316 1.14438 36 37 33
-0.688193 0.274802 1.25133 37 37 33
-0.648246 0.26134 1.19003 36 37 32
-0.675085 0.274802 1.25133 36 36 32
-0.643688 0.264591 1.20483 36 35 31
-0.652675 0.270941 1.23375 36 36 31
-0.650659 0.272805 1.24224 36 35 31
-0.644152 0.272805 1.24224 36 36 31
-0.637646 0.272805 1.24224 36 36 31
-0.698253 0.301815 1.37433 36 36 32
-0.701377 0.306323 1.39486 36 36 32
-0.706993 0.312026 1.42083 36 37 32
-0.667441 0.297704 1.35562 36 36 31
-0.702558 0.316737 1.44228 36 36 31
-0.684667 0.312026 1.42083 35 36 31
-0.691664 0.318678 1.45113 35 36 32
-0.679895 0.316737 1.44228 36 36 33
-0.699246 0.329412 1.5 37 37 33
-0.713917 0.340145 1.54887 37 37 33
-0.705804 0.340145 1.54887 36 36 32
-0.628317 0.306323 1.39486 35 36 31
-0.732101 0.36112 1.64438 36 37 33
-0.70622 0.352501 1.60514 37 38 34
-0.630858 0.318678 1.45113 38 39 35
-0.698222 0.357009 1.62567 37 38 34
-0.735563 0.380745 1.73375 36 37 33
-0.714365 0.374395 1.70483 36 37 33
-0.717401 0.380745 1.73375 35 36 33
-0.733412 0.394233 1.79517 36 36 33
-0.724009 0.394233 1.79517 36 37 34
-0.734062 0.404966 1.84404 36 37 33
-0.658851 0.36832 1.67717 37 38 34
-0.671996 0.380745 1.73375 37 38 34
-0.740457 0.425281 1.93655 38 39 35
-0.624497 0.363661 1.65596 38 39 35
-0.658829 0.389057 1.7716 38 39 36
-0.635672 0.380745 1.73375 38 38 35
-0.6416 0.389865 1.77528 37 38 35
-0.621977 0.3835 1.74629 37 38 35
-0.603034 0.377369 1.71838 37 37 34
-0.617295 0.392146 1.78567 37 38 35
-0.589263 0.380098 1.7308 37 38 35
-0.58539 0.3835 1.74629 37 38 35
-0.553435 0.36832 1.67717 37 37 34
-0.570822 0.386018 1.75776 36 37 34
-0.553001 0.380098 1.7308 36 37 34
-0.543936 0.380098 1.7308 36 36 34
-0.539657 0.3835 1.74629 36 36 33
-0.548427 0.396452 1.80527 36 36 33
-0.508985 0.374395 1.70483 37 37 34
-0.508538 0.380745 1.73375 37 37 34
-0.495028 0.377369 1.71838 36 37 34
-0.493923 0.3835 1.74629 36 37 33
-0.481295 0.380745 1.73375 35 36 32
-0.47563 0.3835 1.74629 35 37 33
-0.466483 0.3835 1.74629 36 37 34
-0.446478 0.374395 1.70483 37 38 34
-0.453834 0.388329 1.76828 37 38 35
-0.431697 0.377083 1.71707 36 37 34
-0.410106 0.365846 1.6659 35 36 33
-0.41076 0.374395 1.70483 36 37 34
-0.411603 0.3835 1.74629 37 38 35
-0.386526 0.36832 1.67717 37 38 34
-0.383971 0.374395 1.70483 37 38 35
-0.369552 0.368915 1.67988 37 38 35
-0.371689 0.380098 1.7308 37 38 35
-0.371942 0.389865 1.77528 36 37 34
-0.35102 0.377369 1.71838 36 37 35
-0.347576 0.3835 1.74629 36 37 34
-0.327824 0.371482 1.69157 35 36 33
-0.311273 0.362525 1.65078 36 37 34
-0.305398 0.365846 1.6659 37 38 35
-0.299162 0.368915 1.67988 37 37 35
-0.285333 0.362525 1.65078 36 37 35
-0.276687 0.362525 1.65078 36 37 35
-0.26804 0.362525 1.65078 37 37 35
-0.263966 0.368915 1.67988 36 37 35
-0.250747 0.362525 1.65078 36 37 35
-0.250028 0.374395 1.70483 36 37 34
-0.234186 0.363661 1.65596 36 36 34
-0.226867 0.365846 1.6659 36 37 34
-0.219972 0.368915 1.67988 36 37 35
-0.202224 0.353282 1.60869 36 37 35
-0.202048 0.36832 1.67717 36 36 34
-0.190222 0.362525 1.65078 36 36 34
-0.187521 0.374395 1.70483 36 36 33
-0.177202 0.371482 1.69157 36 36 34
-0.165788 0.365846 1.6659 36 37 34
-0.155636 0.362525 1.65078 36 36 34
-0.151803 0.374395 1.70483 36 36 34
-0.141762 0.371482 1.69157 36 36 34
-0.129194 0.36112 1.64438 35 35 33
-0.122159 0.365846 1.6659 35 35 33
-0.114385 0.368915 1.67988 35 35 31
-0.104083 0.363661 1.65596 35 35 32
-0.0967876 0.368915 1.67988 35 36 33
-0.0867357 0.363661 1.65596 36 37 34
-0.078531 0.365846 1.6659 36 37 34
-0.0693886 0.363661 1.65596 36 38 34
-0.0610797 0.365846 1.6659 37 38 35
-0.0517636 0.36172 1.64712 37 38 35
-0.0436283 0.365846 1.6659 36 37 34
-0.0351387 0.36832 1.67717 36 37 34
-0.0263966 0.368915 1.67988 36 37 34
-0.0174051 0.364877 1.66149 36 37 34
-0.00867357 0.363661 1.65596 35 36 33
0 0.377369 1.71838 35 36 33
0.00859722 0.36046 1.64138 35 36 33
0.0177202 0.371482 1.69157 35 36 33
0.0265803 0.371482 1.69157 35 37 34
0.0340596 0.357009 1.62567 36 37 34
0.0425745 0.357009 1.62567 36 37 34
0.0531606 0.371482 1.69157 36 37 35
0.0610797 0.365846 1.6659 35 36 34
0.0671194 0.351769 1.6018 34 36 34
0.077375 0.36046 1.64138 35 36 34
0.0859722 0.36046 1.64138 35 37 35
0.0974612 0.371482 1.69157 34 36 33
0.105586 0.368915 1.67988 34 35 32
0.113434 0.365846 1.6659 34 35 32
0.125014 0.374395 1.70483 35 36 33
0.133943 0.374395 1.70483 35 36 33
0.139912 0.366636 1.6695 36 36 33
0.14699 0.362525 1.65078 36 36 34
0.159482 0.371482 1.69157 36 36 34
0.165788 0.365846 1.6659 35 35 33
0.170298 0.357009 1.62567 34 35 33
0.176946 0.353282 1.60869 34 35 33
0.18628 0.355012 1.61657 35 36 34
0.20538 0.374395 1.70483 35 35 33
0.216012 0.377369 1.71838 35 35 32
0.223239 0.374395 1.70483 35 35 33
0.224808 0.362525 1.65078 35 35 32
0.237186 0.36832 1.67717 34 35 32
0.248083 0.371482 1.69157 35 35 33
0.258957 0.374395 1.70483 35 36 33
0.26177 0.365846 1.6659 35 36 33
0.26804 0.362525 1.65078 35 37 34
0.299295 0.392146 1.78567 35 37 34
0.304882 0.387363 1.76388 36 38 35
0.306017 0.377369 1.71838 35 37 34
0.310104 0.371482 1.69157 35 37 34
0.3095 0.36046 1.64138 35 37 34
0.327824 0.371482 1.69157 34 36 33
0.334357 0.368915 1.67988 34 36 33
0.345544 0.371482 1.69157 34 36 33
0.365869 0.3835 1.74629 34 36 34
0.355616 0.363661 1.65596 34 35 33
0.375042 0.374395 1.70483 33 34 33
0.368105 0.358924 1.63439 34 35 34
0.380444 0.362525 1.65078 34 36 34
0.40183 0.374395 1.70483 34 36 34
0.41076 0.374395 1.70483 34 36 35
0.404069 0.36046 1.64138 34 36 35
0.425285 0.371482 1.69157 34 36 34
0.426426 0.364877 1.66149 34 35 34
0.454051 0.380745 1.73375 34 36 35
0.477001 0.392146 1.78567 35 37 36
0.453735 0.365846 1.6659 35 36 35
0.477027 0.377369 1.71838 34 36 35
0.493923 0.3835 1.74629 34 36 34
0.483157 0.36832 1.67717 34 36 35
0.487344 0.364877 1.66149 35 36 36
0.508985 0.374395 1.70483 34 35 36
0.517915 0.374395 1.70483 31 33 34
0.53103 0.377369 1.71838 30 34 34
0.548803 0.3835 1.74629 33 36 36
0.549031 0.377369 1.71838 34 37 37
0.567097 0.3835 1.74629 32 36 36
0.572105 0.380745 1.73375 30 34 34
0.581186 0.380745 1.73375 31 35 35
0.600526 0.387363 1.76388 33 36 36
0.599348 0.380745 1.73375 35 37 37
0.598281 0.374395 1.70483 35 38 38
0.596159 0.36758 1.6738 35 38 38
0.6416 0.389865 1.77528 36 40 39
0.65819 0.394233 1.79517 38 41 41
0.644753 0.380745 1.73375 38 42 42
0.642929 0.374395 1.70483 38 41 41
0.657037 0.377369 1.71838 36 39 39
0.676858 0.3835 1.74629 36 39 40
0.695946 0.389057 1.7716 35 39 40
0.68468 0.377723 1.71999 35 38 39
0.704298 0.3835 1.74629 34 37 38
0.733412 0.394233 1.79517 33 37 38
0.724676 0.384606 1.75133 32 36 37
0.707347 0.370716 1.68808 32 36 37
0.716189 0.370716 1.68808 32 36 37
0.776181 0.39687 1.80718 32 36 37
0.785647 0.39687 1.80718 34 38 39
0.811332 0.404966 1.84404 35 38 39
0.782578 0.386018 1.75776 34 38 39
0.830649 0.404966 1.84404 32 37 38
0.804859 0.387882 1.76625 32 36 38
0.867465 0.413303 1.882 33 37 39
0.823362 0.387882 1.76625 34 38 40
0.821294 0.382609 1.74224 35 39 40
0.862703 0.397484 1.80997 35 39 40
0.858524 0.391259 1.78162 35 38 39
0.887927 0.400307 1.82283 35 38 39
0.875386 0.390455 1.77797 35 39 40
0.870121 0.384021 1.74867 36 40 41
0.883853 0.386018 1.75776 35 39 40
0.893059 0.386018 1.75776 35 38 40
0.897598 0.384021 1.74867 35 39 40
0.930869 0.394233 1.79517 35 39 40
0.931262 0.390455 1.77797 35 39 40
0.949675 0.394233 1.79517 35 39 40
1.00137 0.411618 1.87433 34 39 40
1.01119 0.411618 1.87433 34 39 40
1.05109 0.423745 1.92955 35 40 41
1.03082 0.411618 1.87433 38 43 43
1.04064 0.411618 1.87433 40 44 45
0.935662 0.366636 1.6695 41 44 45
1.08658 0.42183 1.92083 37 41 42
1.07009 0.411618 1.87433 34 38 39
1.05024 0.400307 1.82283 35 39 40
1.01293 0.382609 1.74224 36 40 41
1.08178 0.404966 1.84404 35 39 41
1.06251 0.394233 1.79517 34 39 40
1.08843 0.400307 1.82283 35 40 40
1.06712 0.389057 1.7716 36 41 41
1.09072 0.394233 1.79517 36 40 41
1.14863 0.411618 1.87433 34 39 40
1.29195 0.459054 2.09033 34 38 39
1.11892 0.394233 1.79517 32 37 39
-0.659255 0.235825 1.04887 37 36 33
-0.688829 0.248475 1.10514 37 36 32
-0.61806 0.224837 1 36 35 31
-0.645258 0.236737 1.05293 36 36 32
-0.732037 0.27089 1.20483 35 36 32
-0.640566 0.239103 1.06345 35 35 31
-0.690233 0.259902 1.15596 34 35 31
-0.659639 0.25058 1.1145 36 36 33
-0.678123 0.259902 1.15596 37 37 34
-0.581395 0.224837 1 36 37 34
-0.606653 0.236737 1.05293 37 38 34
-0.697684 0.274758 1.22203 37 38 34
-0.653905 0.259902 1.15596 37 38 34
-0.675241 0.27089 1.20483 37 38 33
-0.668931 0.27089 1.20483 37 37 33
-0.696398 0.284699 1.26625 36 37 32
-0.629686 0.259902 1.15596 35 36 31
-0.686019 0.285902 1.2716 35 35 30
-0.663672 0.279301 1.24224 35 34 30
-0.669868 0.284699 1.26625 36 35 31
-0.663236 0.284699 1.26625 36 36 31
-0.671598 0.291201 1.29517 36 36 32
-0.664814 0.291201 1.29517 36 36 32
-0.658031 0.291201 1.29517 36 36 32
-0.681642 0.304792 1.35562 36 36 31
-0.683856 0.309001 1.37433 36 36 31
-0.667441 0.304792 1.35562 35 35 30
-0.660341 0.304792 1.35562 36 37 32
-0.641137 0.299145 1.3305 37 38 34
-0.691664 0.326266 1.45113 37 37 34
-0.707102 0.337255 1.5 37 37 33
-0.676462 0.326266 1.45113 37 37 33
-0.671856 0.327727 1.45762 36 36 32
-0.661261 0.326266 1.45113 35 36 31
-0.723035 0.360894 1.60514 35 35 30
-0.686686 0.346783 1.54238 36 37 32
-0.70622 0.360894 1.60514 37 38 34
-0.714875 0.369718 1.64438 37 39 34
-0.71705 0.375365 1.6695 36 37 33
-0.660879 0.350232 1.55772 36 37 34
-0.666388 0.357565 1.59033 36 37 34
-0.705436 0.383309 1.70483 36 37 34
-0.649728 0.357565 1.59033 36 37 34
-0.647368 0.360894 1.60514 36 37 34
-0.690158 0.38981 1.73375 36 37 33
-0.681077 0.38981 1.73375 37 38 33
-0.681303 0.395209 1.75776 37 38 34
-0.672096 0.395209 1.75776 37 38 33
-0.682578 0.406947 1.80997 36 37 34
-0.651291 0.393763 1.75133 37 37 35
-0.644476 0.395209 1.75776 37 37 34
-0.635269 0.395209 1.75776 37 37 34
-0.607211 0.383309 1.70483 36 37 34
-0.626648 0.401483 1.78567 37 37 34
-0.620579 0.403619 1.79517 37 37 34
-0.604406 0.399148 1.77528 36 37 33
-0.567047 0.380327 1.69157 35 36 33
-0.576244 0.392631 1.74629 35 36 33
-0.567097 0.392631 1.74629 36 36 33
-0.535865 0.377089 1.67717 36 36 34
-0.561177 0.401483 1.78567 36 36 34
-0.53487 0.389148 1.7308 36 36 33
-0.5267 0.38981 1.73375 37 37 34
-0.521363 0.392631 1.74629 37 37 34
-0.504028 0.386354 1.71838 37 37 34
-0.495028 0.386354 1.71838 36 37 34
-0.493923 0.392631 1.74629 36 37 34
-0.46634 0.377698 1.67988 36 37 34
-0.449616 0.371156 1.65078 35 37 34
-0.451865 0.380327 1.69157 36 37 34
-0.45328 0.389148 1.7308 36 37 34
-0.448189 0.392631 1.74629 36 37 34
-0.428619 0.383309 1.70483 36 37 33
-0.441928 0.403619 1.79517 36 37 34
-0.414023 0.386354 1.71838 36 37 34
-0.408646 0.38981 1.73375 36 37 34
-0.398886 0.389148 1.7308 36 37 33
-0.387022 0.386354 1.71838 36 37 34
-0.363151 0.371156 1.65078 36 37 34
-0.375016 0.392631 1.74629 35 37 34
-0.357183 0.383309 1.70483 35 36 33
-0.345544 0.380327 1.69157 35 36 34
-0.331575 0.374556 1.6659 35 36 33
-0.330394 0.383309 1.70483 35 37 34
-0.321464 0.383309 1.70483 36 37 34
-0.310104 0.380327 1.69157 36 37 34
-0.306017 0.386354 1.71838 36 37 34
-0.287947 0.374556 1.6659 36 37 35
-0.285746 0.383309 1.70483 36 37 35
-0.26804 0.371156 1.65078 36 37 35
-0.259394 0.371156 1.65078 35 36 34
-0.248057 0.367173 1.63307 36 37 34
-0.240722 0.369043 1.64138 35 36 34
-0.234186 0.37232 1.65596 36 36 34
-0.230533 0.380608 1.69282 36 36 34
-0.219617 0.377089 1.67717 36 37 35
-0.21431 0.383309 1.70483 37 37 35
-0.20538 0.383309 1.70483 36 37 35
-0.19645 0.383309 1.70483 37 37 35
-0.181576 0.371156 1.65078 36 37 34
-0.175694 0.377089 1.67717 36 37 34
-0.165788 0.374556 1.6659 36 36 34
-0.158124 0.377089 1.67717 36 36 34
-0.14699 0.371156 1.65078 36 36 34
-0.145049 0.389148 1.7308 36 36 34
-0.13177 0.377089 1.67717 36 36 34
-0.122159 0.374556 1.6659 36 36 33
-0.110172 0.363785 1.618 35 35 32
-0.102644 0.367173 1.63307 35 36 33
-0.0951111 0.371156 1.65078 35 36 33
-0.0872567 0.374556 1.6659 36 37 34
-0.079741 0.380327 1.69157 36 37 34
-0.0677979 0.363785 1.618 36 37 34
-0.0614928 0.377089 1.67717 36 37 34
-0.0527081 0.377089 1.67717 36 37 34
-0.0443005 0.380327 1.69157 36 37 34
-0.0340596 0.365509 1.62567 36 38 34
-0.026177 0.374556 1.6659 36 38 34
-0.0172929 0.371156 1.65078 36 37 34
-0.00878468 0.377089 1.67717 36 37 34
0 0.378199 1.68211 36 37 34
0.00847473 0.363785 1.618 35 36 33
0.0172929 0.371156 1.65078 34 36 33
0.0263966 0.377698 1.67988 35 37 34
0.0351955 0.377698 1.67988 36 37 34
0.0450025 0.386354 1.71838 36 37 34
0.0527932 0.377698 1.67988 35 37 34
0.0599241 0.36747 1.63439 34 36 33
0.0708809 0.380327 1.69157 34 35 33
0.078531 0.374556 1.6659 35 36 34
0.0879887 0.377698 1.67988 36 38 35
0.0975332 0.380608 1.69282 36 37 34
0.102727 0.36747 1.63439 35 37 34
0.113679 0.375365 1.6695 35 36 34
0.120361 0.369043 1.64138 35 37 34
0.131168 0.375365 1.6695 35 36 33
0.135596 0.363785 1.618 35 36 33
0.143465 0.362257 1.6112 35 36 34
0.157062 0.374556 1.6659 35 36 34
0.164283 0.371156 1.65078 35 36 34
0.178591 0.383309 1.70483 35 36 34
0.183239 0.374556 1.6659 36 37 34
0.193575 0.377698 1.67988 36 37 35
0.203782 0.380327 1.69157 35 35 33
0.209416 0.374556 1.6659 34 34 31
0.214015 0.36747 1.63439 35 35 32
0.220343 0.363785 1.618 35 35 33
0.234969 0.373565 1.66149 35 35 33
0.240722 0.369043 1.64138 35 35 33
0.254756 0.377089 1.67717 35 36 33
0.265803 0.380327 1.69157 35 36 33
0.274663 0.380327 1.69157 35 36 33
0.272477 0.365509 1.62567 35 36 33
0.294676 0.383309 1.70483 35 37 34
0.303605 0.383309 1.70483 35 37 34
0.310104 0.380327 1.69157 35 37 34
0.318964 0.380327 1.69157 35 38 34
0.319209 0.370332 1.64712 35 38 34
0.325302 0.36747 1.63439 35 37 34
0.353558 0.389148 1.7308 35 37 34
0.354404 0.380327 1.69157 34 36 34
0.357752 0.374556 1.6659 33 35 33
0.380755 0.389148 1.7308 32 34 32
0.376983 0.376332 1.6738 35 36 35
0.383929 0.374556 1.6659 36 37 36
0.395949 0.377698 1.67988 36 37 36
0.41076 0.383309 1.70483 35 37 35
0.41969 0.383309 1.70483 34 35 34
0.421665 0.377089 1.67717 33 35 34
0.430449 0.377089 1.67717 33 35 34
0.450025 0.386354 1.71838 33 35 34
0.44097 0.371156 1.65078 33 35 34
0.464337 0.383309 1.70483 34 36 34
0.465588 0.377089 1.67717 33 35 34
0.489542 0.389148 1.7308 33 35 34
0.483157 0.377089 1.67717 34 36 35
0.508538 0.38981 1.73375 34 36 35
0.500727 0.377089 1.67717 31 34 34
0.509511 0.377089 1.67717 29 32 32
0.545093 0.396585 1.76388 31 34 35
0.522154 0.373565 1.66149 34 37 37
0.535865 0.377089 1.67717 34 37 37
0.563024 0.38981 1.73375 34 37 38
0.562563 0.383309 1.70483 33 36 37
0.581186 0.38981 1.73375 32 36 36
0.596253 0.393763 1.75133 33 36 36
0.613704 0.399148 1.77528 35 36 37
0.603599 0.386716 1.71999 35 38 38
0.61751 0.38981 1.73375 35 38 38
0.631124 0.392631 1.74629 37 40 40
0.650899 0.399148 1.77528 38 41 41
0.639635 0.386716 1.71999 38 42 42
0.648036 0.386354 1.71838 38 41 41
0.657037 0.386354 1.71838 36 39 40
0.678811 0.393763 1.75133 36 39 39
0.687984 0.393763 1.75133 35 39 40
0.68468 0.386716 1.71999 35 39 40
0.714504 0.39832 1.7716 34 38 39
0.733412 0.403619 1.79517 34 38 39
0.705436 0.383309 1.70483 33 37 38
0.761741 0.408729 1.81789 33 37 38
0.751621 0.39832 1.7716 32 36 37
0.776181 0.40632 1.80718 32 36 37
0.785647 0.40632 1.80718 34 38 39
0.811332 0.414608 1.84404 36 39 40
0.837892 0.423143 1.882 35 39 40
0.791785 0.395209 1.75776 33 37 39
0.793917 0.391719 1.74224 34 37 39
0.834262 0.406947 1.80997 34 38 40
0.812168 0.391719 1.74224 35 38 40
0.853223 0.406947 1.80997 34 38 40
0.855647 0.403619 1.79517 35 39 40
0.847025 0.395209 1.75776 35 39 40
0.860367 0.397118 1.76625 35 39 40
0.907919 0.414608 1.84404 35 39 40
0.942866 0.426035 1.89486 35 39 40
0.920427 0.411563 1.8305 34 38 39
0.930015 0.411563 1.8305 34 38 39
0.912637 0.399752 1.77797 34 38 39
0.94087 0.407955 1.81445 34 39 40
0.971933 0.41721 1.85562 34 39 40
0.984391 0.418374 1.86079 35 39 40
0.923407 0.388608 1.7284 35 39 40
1.01119 0.421419 1.87433 35 39 40
1.00451 0.414608 1.84404 35 39 40
0.966714 0.395209 1.75776 37 41 42
1.03312 0.418374 1.86079 37 41 42
1.07652 0.431874 1.92083 37 41 42
1.09151 0.433834 1.92955 35 40 41
1.10162 0.433834 1.92955 35 39 40
1.05024 0.409839 1.82283 36 40 41
1.05978 0.409839 1.82283 35 39 40
1.12027 0.429363 1.90967 34 38 40
1.09143 0.414608 1.84404 34 39 40
1.14028 0.429363 1.90967 35 40 40
1.09797 0.409839 1.82283 36 40 41
1.15129 0.426035 1.89486 36 40 41
1.14863 0.421419 1.87433 35 39 40
1.23612 0.449673 2 34 39 40
1.2466 0.449673 2 35 39 40
-0.700502 0.256407 1.1145 37 35 32
-0.656288 0.242243 1.05293 37 36 33
-0.732739 0.272753 1.18555 36 36 32
-0.708397 0.265946 1.15596 36 36 33
-0.671464 0.254254 1.10514 35 36 32
-0.696288 0.265946 1.15596 35 35 31
-0.707901 0.272753 1.18555 35 36 32
-0.684178 0.265946 1.15596 37 37 34
-0.620491 0.243344 1.05772 36 37 34
-0.684402 0.270826 1.17717 36 37 33
-0.648561 0.258977 1.12567 36 37 33
-0.697684 0.281148 1.22203 37 37 33
-0.630452 0.256407 1.1145 37 38 34
-0.696205 0.285796 1.24224 38 39 35
-0.678481 0.281148 1.22203 37 38 34
-0.643189 0.269062 1.1695 36 36 32
-0.656309 0.27719 1.20483 35 35 31
-0.698734 0.297973 1.29517 35 35 30
-0.643688 0.27719 1.20483 35 35 31
-0.672698 0.292551 1.2716 37 37 33
-0.650659 0.285796 1.24224 37 37 34
-0.702943 0.31188 1.35562 37 37 33
-0.664814 0.297973 1.29517 37 37 33
-0.658031 0.297973 1.29517 36 36 32
-0.70882 0.324315 1.40967 36 36 31
-0.674541 0.31188 1.35562 36 36 31
-0.717664 0.335348 1.45762 36 36 31
-0.679459 0.32091 1.39486 36 37 32
-0.65324 0.31188 1.35562 37 37 33
-0.687449 0.33182 1.44228 37 37 33
-0.684063 0.333854 1.45113 37 37 33
-0.699246 0.345098 1.5 37 37 33
-0.691389 0.345098 1.5 36 37 33
-0.709833 0.358376 1.55772 36 36 31
-0.675676 0.345098 1.5 35 35 30
-0.667819 0.345098 1.5 36 36 31
-0.715252 0.374009 1.62567 37 38 34
-0.697812 0.369286 1.60514 38 39 34
-0.760901 0.407584 1.7716 37 37 34
-0.680998 0.369286 1.60514 36 37 34
-0.772697 0.42425 1.84404 36 37 34
-0.664183 0.369286 1.60514 37 37 34
-0.67181 0.378316 1.64438 36 37 34
-0.702662 0.400829 1.74224 36 36 33
-0.690158 0.398876 1.73375 36 37 33
-0.695946 0.407584 1.7716 37 38 33
-0.671996 0.398876 1.73375 37 37 34
-0.66087 0.397645 1.7284 36 37 33
-0.629605 0.384094 1.6695 36 37 33
-0.639635 0.39571 1.71999 36 36 34
-0.629558 0.395039 1.71707 36 36 33
-0.645354 0.41082 1.78567 36 37 34
-0.62981 0.406821 1.76828 36 37 34
-0.612831 0.401761 1.74629 37 37 35
-0.613704 0.40843 1.77528 36 37 34
-0.590267 0.398876 1.73375 36 36 34
-0.592762 0.406821 1.76828 35 35 33
-0.572105 0.398876 1.73375 35 35 33
-0.570822 0.4044 1.75776 36 36 33
-0.556655 0.400829 1.74224 36 36 33
-0.54003 0.395339 1.71838 36 36 33
-0.548615 0.40843 1.77528 36 36 33
-0.5267 0.398876 1.73375 37 37 34
-0.516739 0.398198 1.7308 37 37 34
-0.500056 0.392223 1.70483 36 37 34
-0.479912 0.383267 1.6659 36 37 34
-0.502122 0.40843 1.77528 36 37 34
-0.498344 0.413006 1.79517 36 37 34
-0.460726 0.389172 1.69157 35 36 34
-0.4654 0.400829 1.74224 35 36 33
-0.45328 0.398198 1.7308 35 36 33
-0.444214 0.398198 1.7308 35 36 33
-0.431697 0.395039 1.71707 36 37 34
-0.426808 0.398876 1.73375 37 38 35
-0.423513 0.4044 1.75776 36 37 34
-0.398705 0.389172 1.69157 35 35 32
-0.389845 0.389172 1.69157 34 35 32
-0.397271 0.405808 1.76388 35 36 32
-0.380755 0.398198 1.7308 35 36 33
-0.360172 0.385859 1.67717 35 36 33
-0.360358 0.39571 1.71999 34 36 33
-0.342602 0.385859 1.67717 35 36 33
-0.342019 0.395339 1.71838 35 37 34
-0.320922 0.380979 1.65596 36 37 34
-0.324018 0.395339 1.71838 36 37 34
-0.305398 0.383267 1.6659 36 37 35
-0.29398 0.379788 1.65078 36 37 34
-0.287947 0.383267 1.6659 36 36 34
-0.279221 0.383267 1.6659 36 37 35
-0.279016 0.395339 1.71838 36 37 35
-0.267887 0.392223 1.70483 35 36 34
-0.256709 0.388817 1.69003 35 36 34
-0.248083 0.389172 1.69157 36 36 34
-0.237186 0.385859 1.67717 36 37 34
-0.226867 0.383267 1.6659 36 37 35
-0.219617 0.385859 1.67717 36 37 35
-0.211173 0.386482 1.67988 36 37 35
-0.20069 0.383267 1.6659 36 37 35
-0.194745 0.388817 1.69003 37 37 35
-0.184478 0.385859 1.67717 37 37 35
-0.178591 0.392223 1.70483 36 37 34
-0.164283 0.379788 1.65078 36 36 34
-0.151668 0.370105 1.60869 36 36 34
-0.151803 0.392223 1.70483 36 36 34
-0.138343 0.379788 1.65078 36 36 34
-0.132902 0.389172 1.69157 36 36 34
-0.121836 0.382252 1.66149 36 36 34
-0.113679 0.384094 1.6695 35 36 33
-0.101112 0.370105 1.60869 35 36 33
-0.0967876 0.386482 1.67988 36 37 34
-0.0885203 0.388817 1.69003 36 37 34
-0.0766342 0.374009 1.62567 36 37 34
-0.0691717 0.379788 1.65078 36 37 34
-0.0610797 0.383267 1.6659 36 37 34
-0.0520414 0.380979 1.65596 36 37 34
-0.0423364 0.371917 1.61657 37 38 34
-0.0346943 0.380979 1.65596 36 37 34
-0.0260207 0.380979 1.65596 36 38 34
-0.018001 0.395339 1.71838 36 37 34
-0.00867357 0.380979 1.65596 36 37 34
0 0.379788 1.65078 36 37 34
0.00851491 0.374009 1.62567 35 36 33
0.0175977 0.386482 1.67988 35 36 33
0.0267887 0.392223 1.70483 36 37 34
0.0342147 0.375712 1.63307 36 37 34
0.0446478 0.392223 1.70483 35 37 34
0.0535774 0.392223 1.70483 35 36 34
0.0615921 0.386482 1.67988 34 35 33
0.0708809 0.389172 1.69157 34 35 33
0.078531 0.383267 1.6659 36 37 35
0.0879887 0.386482 1.67988 37 38 35
0.0966315 0.385859 1.67717 37 38 35
0.104708 0.383267 1.6659 37 38 35
0.113434 0.383267 1.6659 36 37 34
0.126918 0.398198 1.7308 35 36 34
0.132902 0.389172 1.69157 35 36 33
0.139611 0.383267 1.6659 36 37 34
0.147831 0.381962 1.66023 36 37 35
0.157062 0.383267 1.6659 36 37 35
0.162651 0.376016 1.63439 36 37 35
0.171074 0.375712 1.63307 36 37 35
0.186062 0.389172 1.69157 36 37 35
0.198011 0.395339 1.71838 36 37 35
0.198869 0.379788 1.65078 35 35 33
0.212643 0.389172 1.69157 35 34 32
0.214015 0.376016 1.63439 35 35 33
0.232169 0.392223 1.70483 35 35 33
0.231136 0.376016 1.63439 36 36 34
0.255514 0.400829 1.74224 36 36 34
0.258957 0.392223 1.70483 35 36 34
0.26354 0.385859 1.67717 35 36 34
0.272325 0.385859 1.67717 35 37 34
0.288016 0.395339 1.71838 35 36 33
0.280992 0.374009 1.62567 34 36 32
0.298679 0.385859 1.67717 34 37 33
0.305398 0.383267 1.6659 35 37 34
0.315613 0.385084 1.6738 35 38 35
0.325558 0.386482 1.67988 36 38 35
0.333818 0.385859 1.67717 35 37 34
0.342602 0.385859 1.67717 35 37 34
0.348103 0.382252 1.66149 34 36 34
0.366112 0.392223 1.70483 34 35 34
0.372125 0.389172 1.69157 34 35 33
0.393309 0.401761 1.74629 36 37 35
0.396022 0.395339 1.71838 36 37 36
0.408646 0.398876 1.73375 36 37 36
0.393787 0.376016 1.63439 35 36 35
0.409021 0.382252 1.66149 33 35 34
0.432024 0.395339 1.71838 33 35 34
0.419468 0.376016 1.63439 33 35 34
0.439234 0.385859 1.67717 33 35 34
0.466483 0.401761 1.74629 32 34 33
0.44515 0.376016 1.63439 32 34 33
0.465588 0.385859 1.67717 33 35 34
0.490376 0.398876 1.73375 33 35 34
0.495028 0.395339 1.71838 34 36 35
0.487344 0.382252 1.66149 33 35 35
0.504566 0.388817 1.69003 32 34 34
0.539316 0.40843 1.77528 31 34 34
0.535781 0.398876 1.73375 32 35 35
0.527081 0.385859 1.67717 32 36 36
0.549031 0.395339 1.71838 34 37 37
0.558554 0.39571 1.71999 35 38 38
0.572105 0.398876 1.73375 35 39 39
0.580198 0.398198 1.7308 34 37 37
0.589263 0.398198 1.7308 34 37 37
0.59459 0.39571 1.71999 34 36 36
0.612831 0.401761 1.74629 35 38 38
0.628243 0.405808 1.76388 37 40 39
0.602071 0.383267 1.6659 38 41 41
0.635672 0.398876 1.73375 39 42 41
0.658829 0.407584 1.7716 39 42 42
0.665198 0.405808 1.76388 38 41 41
0.662915 0.398876 1.73375 36 39 40
0.678811 0.402921 1.75133 36 39 40
0.675671 0.39571 1.71999 36 39 40
0.714607 0.413006 1.79517 35 39 40
0.693689 0.39571 1.71999 34 38 39
0.668497 0.37645 1.63628 33 37 38
0.72987 0.405808 1.76388 33 37 38
0.742342 0.407584 1.7716 32 36 38
0.76162 0.413006 1.79517 31 36 37
0.739613 0.39618 1.72203 31 36 37
0.77018 0.407584 1.7716 34 38 39
0.764435 0.399727 1.73745 36 39 41
0.766672 0.39618 1.72203 36 40 41
0.802533 0.40989 1.78162 34 38 40
0.793917 0.400829 1.74224 35 39 41
0.794969 0.396798 1.72472 36 39 41
0.830529 0.40989 1.78162 36 39 41
0.83986 0.40989 1.78162 36 39 40
0.855647 0.413006 1.79517 35 39 40
