ply
format ascii 1.0
element vertex 1325
property float x
property float y
property float z
property uchar red
property uchar green
property uchar blue
end_header
-0.227026 -0.444203 1.73375 37 37 35
-0.216215 -0.440677 1.71999 37 37 34
-0.203782 -0.433396 1.69157 38 38 35
-0.201228 -0.447416 1.74629 37 37 34
-0.184478 -0.429707 1.67717 38 38 34
-0.175694 -0.429707 1.67717 39 39 35
-0.172246 -0.443448 1.7308 38 38 34
-0.164641 -0.447416 1.74629 37 37 33
-0.154377 -0.444203 1.73375 37 37 33
-0.147822 -0.451923 1.76388 37 37 33
-0.129697 -0.422946 1.65078 37 37 33
-0.127134 -0.444203 1.73375 37 37 33
-0.117007 -0.440264 1.71838 37 37 34
-0.105416 -0.429707 1.67717 37 38 35
-0.0982252 -0.436794 1.70483 38 38 36
-0.090005 -0.440264 1.71838 38 38 36
-0.0815903 -0.443448 1.7308 37 38 35
-0.0698053 -0.42682 1.6659 36 36 33
-0.0634591 -0.443448 1.7308 37 37 33
-0.0535774 -0.436794 1.70483 37 37 34
-0.0443005 -0.433396 1.69157 37 37 34
-0.0357183 -0.436794 1.70483 37 38 34
-0.0270268 -0.440677 1.71999 37 37 34
-0.0175341 -0.428844 1.6738 36 37 34
-0.00900894 -0.440677 1.71999 37 37 34
0 -0.42569 1.66149 37 37 35
0.0090005 -0.440264 1.71838 37 37 35
0.0177041 -0.433001 1.69003 37 37 35
0.0270268 -0.440677 1.71999 37 38 36
0.0354404 -0.433396 1.69157 38 39 36
0.0450025 -0.440264 1.71838 38 39 37
0.0522154 -0.42569 1.66149 39 39 37
0.0614928 -0.429707 1.67717 38 39 37
0.0726482 -0.444203 1.73375 38 38 36
0.0823205 -0.447416 1.74629 37 37 35
0.0914672 -0.447416 1.74629 37 37 34
0.0982252 -0.436794 1.70483 36 36 34
0.109761 -0.447416 1.74629 37 37 34
0.120405 -0.45305 1.76828 38 38 36
0.127134 -0.444203 1.73375 38 38 36
0.132902 -0.433396 1.69157 38 38 36
0.142873 -0.436794 1.70483 37 37 35
0.155494 -0.447416 1.74629 37 37 36
0.162161 -0.440677 1.71999 38 38 37
0.169662 -0.436794 1.70483 38 38 37
0.174051 -0.42569 1.66149 37 37 37
0.192081 -0.447416 1.74629 37 37 36
0.194922 -0.433396 1.69157 36 36 35
0.203597 -0.433001 1.69003 36 36 35
0.216215 -0.440677 1.71999 36 36 34
0.230972 -0.451923 1.76388 36 37 34
0.237815 -0.447416 1.74629 37 38 36
0.243014 -0.440264 1.71838 37 38 36
0.256108 -0.447416 1.74629 37 38 36
0.261259 -0.440677 1.71999 37 38 36
0.275194 -0.448707 1.75133 37 38 36
0.279277 -0.440677 1.71999 37 38 36
0.283265 -0.433001 1.69003 37 38 36
0.301842 -0.447416 1.74629 37 37 35
0.303605 -0.436794 1.70483 36 37 35
0.309821 -0.433001 1.69003 37 37 35
0.329282 -0.447416 1.74629 37 38 36
0.327824 -0.433396 1.69157 37 38 36
0.351077 -0.451923 1.76388 37 37 35
0.366706 -0.459938 1.79517 37 37 35
0.365869 -0.447416 1.74629 37 38 36
0.366112 -0.436794 1.70483 37 38 35
0.388032 -0.451923 1.76388 37 38 35
0.383971 -0.436794 1.70483 37 38 35
0.41372 -0.459938 1.79517 37 38 35
0.411603 -0.447416 1.74629 36 38 35
0.417727 -0.444203 1.73375 37 38 35
0.41969 -0.436794 1.70483 36 38 35
0.44633 -0.454843 1.77528 36 37 35
0.437549 -0.436794 1.70483 37 38 35
0.45328 -0.443448 1.7308 37 38 36
0.463133 -0.444203 1.73375 38 39 36
0.460306 -0.433001 1.69003 37 38 36
0.501149 -0.462527 1.80527 36 37 36
0.495348 -0.448707 1.75133 36 37 36
0.499457 -0.444203 1.73375 37 38 37
0.508538 -0.444203 1.73375 38 40 37
0.530017 -0.454843 1.77528 38 40 36
0.539316 -0.454843 1.77528 38 39 36
0.545093 -0.451923 1.76388 36 38 34
0.544862 -0.444203 1.73375 35 36 33
0.544704 -0.436794 1.70483 36 37 35
0.579883 -0.457504 1.78567 37 38 36
0.572105 -0.444203 1.73375 36 37 35
0.598589 -0.457504 1.78567 36 37 34
0.614617 -0.462527 1.80527 37 38 35
0.609765 -0.451923 1.76388 37 39 35
0.644376 -0.470447 1.83618 37 38 35
0.646254 -0.464879 1.81445 36 37 34
0.639072 -0.45305 1.76828 36 38 34
0.64672 -0.451923 1.76388 37 38 34
0.660197 -0.454843 1.77528 36 38 35
0.685567 -0.465761 1.81789 37 39 35
0.674437 -0.451923 1.76388 37 39 35
0.683676 -0.451923 1.76388 37 39 35
0.686004 -0.447416 1.74629 36 38 35
0.722284 -0.464879 1.81445 36 38 34
0.70633 -0.448707 1.75133 36 38 35
0.763128 -0.478574 1.8679 37 38 34
0.766697 -0.474726 1.85288 37 39 34
0.772697 -0.47246 1.84404 36 38 34
0.730593 -0.441201 1.72203 36 38 34
0.792015 -0.47246 1.84404 36 38 34
0.801673 -0.47246 1.84404 36 37 35
0.806956 -0.469912 1.8341 36 37 34
0.799231 -0.459938 1.79517 36 38 35
0.808634 -0.459938 1.79517 37 38 36
0.811865 -0.456468 1.78162 36 38 35
0.827439 -0.459938 1.79517 36 37 34
0.854989 -0.469912 1.8341 36 37 34
0.896993 -0.48752 1.90282 35 36 33
0.884459 -0.475426 1.85562 36 37 34
0.898997 -0.477987 1.86561 37 38 35
0.887927 -0.467025 1.82283 38 40 37
0.932941 -0.485481 1.89486 38 41 37
0.928312 -0.477987 1.86561 38 40 36
0.933056 -0.475426 1.85562 37 39 36
0.912064 -0.459938 1.79517 37 39 36
0.921467 -0.459938 1.79517 37 39 36
0.938545 -0.463731 1.80997 37 39 36
0.940272 -0.459938 1.79517 37 39 36
0.968366 -0.468991 1.8305 37 38 35
0.991372 -0.475426 1.85562 36 38 35
1.01721 -0.483083 1.8855 37 38 35
1.08946 -0.512418 2 37 38 35
0.987286 -0.459938 1.79517 36 37 35
0.996688 -0.459938 1.79517 35 37 34
0.976427 -0.446377 1.74224 35 37 35
1.09151 -0.494369 1.92955 36 38 35
1.07009 -0.480222 1.87433 35 37 35
1.0343 -0.459938 1.79517 36 38 36
1.05978 -0.467025 1.82283 35 37 34
1.12682 -0.492135 1.92083 34 36 34
1.07888 -0.467025 1.82283 35 37 35
1.14028 -0.489274 1.90967 35 37 35
1.14136 -0.485481 1.89486 35 37 35
1.21517 -0.512418 2 35 38 35
1.10012 -0.459938 1.79517 34 37 34
1.17114 -0.485481 1.89486 34 36 34
1.14939 -0.47246 1.84404 35 38 36
-0.521998 -0.208439 0.830499 35 40 36
-0.541796 -0.218162 0.869241 36 39 35
-0.553079 -0.224593 0.894863 37 39 35
-0.53269 -0.218162 0.869241 37 38 34
-0.497813 -0.205636 0.819331 37 36 32
-0.520262 -0.216778 0.863725 36 35 31
-0.515738 -0.216778 0.863725 37 36 32
-0.53209 -0.225631 0.898997 36 36 31
-0.509926 -0.218162 0.869241 35 35 29
-0.494214 -0.213345 0.850047 36 36 31
-0.510188 -0.222244 0.885502 37 38 34
-0.499175 -0.219441 0.874334 38 39 34
-0.510709 -0.22659 0.90282 36 38 33
-0.517833 -0.231898 0.923969 35 36 32
-0.511252 -0.231111 0.920833 36 37 33
-0.478055 -0.218162 0.869241 37 38 34
-0.503314 -0.231898 0.923969 37 37 34
-0.514098 -0.239166 0.952929 36 37 34
-0.480294 -0.225631 0.898997 36 37 33
-0.487137 -0.231111 0.920833 37 37 34
-0.483956 -0.231898 0.923969 37 37 35
-0.46815 -0.22659 0.90282 37 38 36
-0.500742 -0.244838 0.975527 37 37 35
-0.482246 -0.238225 0.949179 37 38 35
-0.478253 -0.238714 0.951125 38 38 35
-0.497591 -0.25098 1 38 38 35
-0.504884 -0.257368 1.02545 37 38 35
-0.461332 -0.237696 0.947071 37 37 34
-0.481877 -0.25098 1 37 37 34
-0.464003 -0.244327 0.973489 38 37 34
-0.471402 -0.25098 1 38 37 34
-0.479059 -0.257923 1.02766 37 37 34
-0.460926 -0.25098 1 38 37 34
-0.443083 -0.244038 0.972338 38 37 34
-0.489315 -0.272635 1.08628 38 37 34
-0.458699 -0.258583 1.03029 38 37 34
-0.488205 -0.278493 1.10962 38 37 34
-0.474009 -0.273653 1.09033 39 38 34
-0.468298 -0.273653 1.09033 38 38 35
-0.437113 -0.258583 1.03029 37 37 35
-0.450263 -0.269692 1.07455 37 37 35
-0.440041 -0.266905 1.06345 37 36 34
-0.440892 -0.27085 1.07917 37 37 35
-0.459455 -0.285919 1.13921 38 38 36
-0.466736 -0.294272 1.17249 38 38 36
-0.434136 -0.277368 1.10514 38 37 35
-0.441554 -0.285919 1.13921 37 37 35
-0.451989 -0.296685 1.18211 36 35 33
-0.435937 -0.290123 1.15596 36 35 33
-0.443591 -0.299375 1.19282 35 35 33
-0.441747 -0.302389 1.20483 36 36 33
-0.414577 -0.287904 1.14712 38 37 35
-0.419273 -0.295447 1.17717 39 38 36
-0.432963 -0.309647 1.23375 39 38 36
-0.426501 -0.309647 1.23375 38 37 35
-0.432925 -0.319147 1.2716 38 37 34
-0.460703 -0.344931 1.37433 37 36 34
-0.449035 -0.341532 1.36079 37 36 34
-0.427977 -0.330766 1.31789 37 36 34
-0.439107 -0.344931 1.37433 38 37 35
-0.422389 -0.337328 1.34404 37 37 34
-0.441775 -0.35879 1.42955 37 36 33
-0.393462 -0.325062 1.29517 36 36 33
-0.394936 -0.332004 1.32283 37 36 34
-0.409136 -0.350083 1.39486 37 37 34
-0.409312 -0.356601 1.42083 37 36 34
-0.398711 -0.353798 1.40967 37 37 34
-0.402837 -0.364204 1.45113 38 38 35
-0.447873 -0.412708 1.64438 37 37 35
-0.43926 -0.412708 1.64438 36 36 34
-0.392835 -0.376471 1.5 36 36 34
-0.408163 -0.399143 1.59033 36 35 33
-0.413422 -0.412708 1.64438 36 36 33
-0.404809 -0.412708 1.64438 37 36 34
-0.417727 -0.435137 1.73375 37 36 34
-0.387583 -0.412708 1.64438 37 36 34
-0.384758 -0.419012 1.6695 38 37 34
-0.358183 -0.399143 1.59033 38 37 34
-0.357626 -0.40801 1.62567 37 36 34
-0.389653 -0.455392 1.81445 37 36 35
-0.363241 -0.435137 1.73375 36 37 35
-0.342602 -0.420937 1.67717 36 36 34
-0.344014 -0.433795 1.7284 37 37 35
-0.353261 -0.457494 1.82283 38 38 35
-0.332599 -0.4427 1.76388 37 37 34
-0.320135 -0.438285 1.74629 36 35 32
-0.308755 -0.435137 1.73375 36 36 33
-0.299165 -0.434398 1.7308 37 36 34
-0.294618 -0.441164 1.75776 38 37 35
-0.272325 -0.420937 1.67717 38 38 35
-0.26177 -0.418109 1.6659 39 38 36
-0.256943 -0.424551 1.69157 39 38 36
-0.245971 -0.420937 1.67717 38 38 35
-0.246388 -0.437268 1.74224 37 37 34
-0.237815 -0.438285 1.74629 37 37 34
-0.22664 -0.434398 1.7308 37 37 34
-0.21431 -0.42788 1.70483 37 37 34
-0.20538 -0.42788 1.70483 38 37 35
-0.198011 -0.431279 1.71838 37 37 34
-0.181576 -0.414314 1.65078 37 37 34
-0.181621 -0.435137 1.73375 38 38 34
-0.166909 -0.420937 1.67717 37 38 34
-0.162009 -0.431279 1.71838 37 37 33
-0.14934 -0.420937 1.67717 36 37 32
-0.146348 -0.438285 1.74629 37 37 33
-0.133943 -0.42788 1.70483 38 38 34
-0.119848 -0.410199 1.63439 37 37 34
-0.117853 -0.434398 1.7308 37 37 34
-0.109506 -0.437268 1.74224 37 37 35
-0.093664 -0.40801 1.62567 38 38 35
-0.0892957 -0.42788 1.70483 38 38 35
-0.0796683 -0.424164 1.69003 38 38 35
-0.0736544 -0.441164 1.75776 37 37 34
-0.0635672 -0.435137 1.73375 37 37 34
-0.0535774 -0.42788 1.70483 37 37 34
-0.0439234 -0.420937 1.67717 37 37 34
-0.0342423 -0.410199 1.63439 36 37 33
-0.0261077 -0.417002 1.66149 36 37 33
-0.0183462 -0.43955 1.75133 36 36 33
-0.00934422 -0.447749 1.784 37 37 34
0 -0.4427 1.76388 37 37 34
0.00900894 -0.431683 1.71999 37 37 35
0.0177041 -0.424164 1.69003 37 37 35
0.0261077 -0.417002 1.66149 37 37 35
0.0357183 -0.42788 1.70483 37 37 35
0.0446478 -0.42788 1.70483 37 37 35
0.054003 -0.431279 1.71838 37 38 35
0.0630626 -0.431683 1.71999 37 38 36
0.0733849 -0.43955 1.75133 38 37 35
0.0803661 -0.42788 1.70483 37 37 35
0.0892957 -0.42788 1.70483 36 36 34
0.0997215 -0.434398 1.7308 36 36 34
0.106224 -0.424164 1.69003 37 37 35
0.115076 -0.424164 1.69003 38 38 36
0.125912 -0.430952 1.71707 38 38 36
0.138583 -0.4427 1.76388 37 37 35
0.144008 -0.431279 1.71838 37 37 35
0.153009 -0.431279 1.71838 38 38 36
0.155033 -0.412708 1.64438 37 37 36
0.17101 -0.431279 1.71838 36 37 36
0.171212 -0.410199 1.63439 37 37 36
0.185893 -0.424164 1.69003 37 37 36
0.198197 -0.431683 1.71999 37 37 36
0.203597 -0.424164 1.69003 37 37 36
0.221733 -0.4427 1.76388 36 36 35
0.23017 -0.441164 1.75776 35 36 34
0.227943 -0.420092 1.6738 35 37 34
0.241098 -0.42788 1.70483 36 37 34
0.239696 -0.410199 1.63439 36 37 35
0.267927 -0.4427 1.76388 37 38 36
0.256817 -0.410199 1.63439 37 38 36
0.282113 -0.436066 1.73745 37 37 36
0.288286 -0.431683 1.71999 37 38 36
0.299674 -0.435137 1.73375 38 38 36
0.306304 -0.431683 1.71999 37 38 36
0.310104 -0.424551 1.69157 38 39 36
0.326361 -0.434398 1.7308 38 39 36
0.333019 -0.431279 1.71838 38 39 36
0.34234 -0.431683 1.71999 37 38 36
0.345544 -0.424551 1.69157 37 37 35
0.365869 -0.438285 1.74629 37 38 35
0.377479 -0.441164 1.75776 37 38 35
0.388032 -0.4427 1.76388 36 38 35
0.393309 -0.438285 1.74629 36 37 34
0.409136 -0.44556 1.77528 36 37 35
0.405023 -0.431279 1.71838 36 37 35
0.419772 -0.437268 1.74224 36 38 35
0.43272 -0.441164 1.75776 36 37 34
0.439043 -0.438285 1.74629 36 37 35
0.444214 -0.434398 1.7308 38 38 36
0.446478 -0.42788 1.70483 38 38 36
0.471182 -0.4427 1.76388 38 39 36
0.47563 -0.438285 1.74629 37 38 36
0.498344 -0.450552 1.79517 36 37 36
0.498898 -0.4427 1.76388 36 37 36
0.51715 -0.450552 1.79517 37 38 37
0.508538 -0.435137 1.73375 38 40 37
0.530017 -0.44556 1.77528 38 40 37
0.535854 -0.4427 1.76388 37 39 36
0.563309 -0.457494 1.82283 37 38 35
0.543936 -0.434398 1.7308 36 37 34
0.567212 -0.44556 1.77528 37 38 35
0.57651 -0.44556 1.77528 37 38 35
0.562563 -0.42788 1.70483 36 37 34
0.601774 -0.450552 1.79517 37 38 35
0.611177 -0.450552 1.79517 37 38 35
0.620579 -0.450552 1.79517 37 38 35
0.619004 -0.4427 1.76388 37 38 34
0.626062 -0.441164 1.75776 36 37 34
0.631124 -0.438285 1.74629 36 38 34
0.650899 -0.44556 1.77528 37 38 35
0.660197 -0.44556 1.77528 36 38 35
0.680806 -0.453088 1.80527 37 39 35
0.693772 -0.455392 1.81445 37 39 35
0.699718 -0.453088 1.80527 37 39 35
0.687984 -0.43955 1.75133 37 39 35
0.714607 -0.450552 1.79517 37 39 35
0.711392 -0.4427 1.76388 37 39 36
0.725287 -0.44556 1.77528 37 39 35
0.742815 -0.450552 1.79517 37 39 35
0.747538 -0.447749 1.784 37 39 35
0.773356 -0.457494 1.82283 38 39 35
0.808319 -0.472346 1.882 37 38 35
0.764164 -0.441164 1.75776 36 37 35
0.789828 -0.450552 1.79517 36 37 35
0.820991 -0.462818 1.84404 37 38 35
0.808634 -0.450552 1.79517 37 38 35
0.830642 -0.457494 1.82283 37 38 35
0.845382 -0.460322 1.8341 37 38 35
0.836842 -0.450552 1.79517 37 38 35
0.832613 -0.443294 1.76625 36 37 34
0.874202 -0.460322 1.8341 35 36 33
0.872183 -0.454267 1.80997 35 37 34
0.881663 -0.454267 1.80997 37 38 35
0.936859 -0.477571 1.90282 36 38 35
0.942866 -0.475573 1.89486 35 37 34
0.922235 -0.460322 1.8341 36 38 35
0.878142 -0.433795 1.7284 36 38 35
0.952495 -0.465723 1.85562 36 38 35
0.938545 -0.454267 1.80997 37 39 36
1.01984 -0.488677 1.94707 37 39 36
0.997463 -0.473224 1.8855 37 38 35
0.959077 -0.450552 1.79517 37 38 35
1.05262 -0.489694 1.95113 37 39 35
0.977883 -0.450552 1.79517 37 38 35
1.02338 -0.467022 1.86079 36 38 35
1.04064 -0.470421 1.87433 35 37 34
1.08141 -0.48428 1.92955 35 37 35
1.0264 -0.455392 1.81445 35 37 35
1.06236 -0.467022 1.86079 35 37 34
1.06246 -0.462818 1.84404 35 37 35
1.05978 -0.457494 1.82283 34 36 34
1.12027 -0.479289 1.90967 35 36 34
1.03118 -0.437268 1.74224 35 37 35
1.08843 -0.457494 1.82283 35 37 35
1.08131 -0.450552 1.79517 34 36 35
1.21517 -0.501961 2 34 36 34
1.281 -0.524633 2.09033 33 36 34
1.15845 -0.470421 1.87433 34 37 35
1.16827 -0.470421 1.87433 35 38 36
-0.539114 -0.210789 0.85773 36 41 37
-0.551931 -0.217613 0.885502 36 40 36
-0.540391 -0.214869 0.874334 37 39 35
-0.520928 -0.208901 0.850047 37 37 33
-0.516475 -0.208901 0.850047 37 36 32
-0.526652 -0.214869 0.874334 37 36 32
-0.519031 -0.213617 0.869241 38 36 32
-0.517493 -0.214869 0.874334 37 36 31
-0.527381 -0.22093 0.898997 36 36 30
-0.522673 -0.22093 0.898997 38 38 32
-0.534022 -0.227779 0.926867 38 38 33
-0.539394 -0.232181 0.944781 38 38 33
-0.503672 -0.218812 0.89038 36 37 32
-0.514168 -0.22546 0.917429 37 37 34
-0.52582 -0.232744 0.947071 38 38 35
-0.523089 -0.233741 0.951125 37 38 34
-0.493726 -0.222741 0.906367 37 37 34
-0.501487 -0.228439 0.929553 37 37 34
-0.508144 -0.233741 0.951125 36 37 33
-0.490329 -0.227779 0.926867 36 37 33
-0.52378 -0.245752 1 37 37 34
-0.466167 -0.22093 0.898997 36 37 34
-0.487217 -0.233262 0.949179 36 36 34
-0.484151 -0.234184 0.952929 37 38 35
-0.490523 -0.239737 0.975527 38 38 36
-0.473271 -0.233741 0.951125 37 37 35
-0.480303 -0.239737 0.975527 37 37 34
-0.487115 -0.245752 1 37 37 34
-0.481877 -0.245752 1 37 37 34
-0.488304 -0.251766 1.02447 38 38 34
-0.471402 -0.245752 1 38 38 35
-0.478522 -0.252267 1.02651 38 38 35
-0.460926 -0.245752 1 38 37 34
-0.468866 -0.252858 1.02892 38 37 34
-0.462911 -0.25255 1.02766 37 37 34
-0.458087 -0.252858 1.02892 37 37 34
-0.452145 -0.25255 1.02766 38 37 34
-0.462322 -0.261345 1.06345 37 37 34
-0.480964 -0.275199 1.11983 38 37 34
-0.437113 -0.253196 1.03029 37 37 34
-0.445611 -0.261345 1.06345 37 37 34
-0.455039 -0.270252 1.0997 37 37 34
-0.437329 -0.263064 1.07045 37 37 35
-0.448158 -0.273079 1.1112 37 37 35
-0.42775 -0.264073 1.07455 38 37 36
-0.454101 -0.284079 1.15596 38 37 36
-0.430698 -0.273079 1.1112 38 38 36
-0.424877 -0.273079 1.1112 37 36 35
-0.435937 -0.284079 1.15596 37 37 35
-0.418617 -0.276634 1.12567 36 36 34
-0.441747 -0.29609 1.20483 37 36 34
-0.417773 -0.284079 1.15596 38 37 35
-0.433949 -0.299418 1.21838 38 38 35
-0.454516 -0.318289 1.29517 38 37 35
-0.406942 -0.289292 1.17717 37 36 34
-0.410193 -0.29609 1.20483 37 37 34
-0.469408 -0.344127 1.4003 37 36 34
-0.458278 -0.3413 1.3888 37 36 34
-0.412943 -0.312498 1.2716 37 36 34
-0.443729 -0.3413 1.3888 38 37 35
-0.422389 -0.3303 1.34404 38 37 35
-0.407269 -0.323875 1.31789 37 36 34
-0.444325 -0.359435 1.46259 37 36 34
-0.447832 -0.368627 1.5 38 37 35
-0.425639 -0.356616 1.45113 38 37 35
-0.390524 -0.333145 1.35562 37 37 34
-0.436248 -0.379042 1.54238 36 36 34
-0.432427 -0.382811 1.55772 37 37 35
-0.437184 -0.394465 1.60514 38 37 35
-0.387636 -0.356616 1.45113 37 36 34
-0.430648 -0.40411 1.64438 37 37 34
-0.411962 -0.394465 1.60514 37 36 34
-0.413422 -0.40411 1.64438 37 36 34
-0.381296 -0.380638 1.54887 37 37 34
-0.391686 -0.39951 1.62567 38 37 34
-0.365071 -0.380638 1.54887 38 37 34
-0.366513 -0.390827 1.59033 38 37 34
-0.390484 -0.426072 1.73375 38 37 34
-0.357626 -0.39951 1.62567 37 36 34
-0.360172 -0.412167 1.67717 37 37 35
-0.344518 -0.40411 1.64438 38 38 36
-0.343611 -0.41338 1.68211 37 37 36
-0.339324 -0.418965 1.70483 37 37 35
-0.336715 -0.426981 1.73745 37 37 35
-0.311273 -0.405683 1.65078 38 37 35
-0.324167 -0.434559 1.76828 38 37 35
-0.30823 -0.425348 1.7308 38 37 35
-0.299165 -0.425348 1.7308 38 38 35
-0.28111 -0.412167 1.67717 38 37 35
-0.276817 -0.418965 1.70483 38 38 35
-0.271968 -0.425348 1.7308 39 38 36
-0.261015 -0.422294 1.71838 39 38 36
-0.250028 -0.418965 1.70483 39 38 36
-0.239005 -0.415328 1.69003 38 38 35
-0.24021 -0.433477 1.76388 37 37 34
-0.219617 -0.412167 1.67717 37 37 34
-0.220963 -0.431973 1.75776 37 37 34
-0.207206 -0.42269 1.71999 37 37 34
-0.198011 -0.422294 1.71838 37 37 34
-0.196229 -0.438421 1.784 38 38 34
-0.184136 -0.431973 1.75776 38 38 34
-0.17254 -0.426072 1.73375 37 37 34
-0.160732 -0.418965 1.70483 37 37 33
-0.148336 -0.409399 1.6659 37 37 33
-0.147309 -0.431973 1.75776 37 37 34
-0.131983 -0.412833 1.67988 37 37 34
-0.126007 -0.422294 1.71838 36 37 34
-0.116084 -0.418965 1.70483 37 37 34
-0.107155 -0.418965 1.70483 37 37 35
-0.0997215 -0.425348 1.7308 37 37 35
-0.0892957 -0.418965 1.70483 37 37 34
-0.0828612 -0.431973 1.75776 36 36 34
-0.0725247 -0.425348 1.7308 36 36 32
-0.0644476 -0.431973 1.75776 37 37 33
-0.0518788 -0.405683 1.65078 37 37 34
-0.0450025 -0.422294 1.71838 36 36 32
-0.0354404 -0.415706 1.69157 34 35 31
-0.0274402 -0.429154 1.74629 35 36 32
-0.0182934 -0.429154 1.74629 36 36 33
-0.00900894 -0.42269 1.71999 36 37 34
0 -0.408315 1.66149 36 37 34
0.00892957 -0.418965 1.70483 37 37 34
0.0177041 -0.415328 1.69003 37 37 34
0.0267887 -0.418965 1.70483 37 37 35
0.0348103 -0.408315 1.66149 36 37 35
0.0442602 -0.415328 1.69003 37 37 35
0.053051 -0.414849 1.68808 36 36 34
0.0614928 -0.412167 1.67717 37 37 35
0.0726482 -0.426072 1.73375 37 37 35
0.0789033 -0.41134 1.6738 36 37 35
0.0892957 -0.418965 1.70483 36 37 34
0.0974612 -0.415706 1.69157 37 37 35
0.107155 -0.418965 1.70483 37 38 35
0.113434 -0.409399 1.6659 38 38 36
0.124041 -0.415706 1.69157 37 38 36
0.135008 -0.422294 1.71838 37 37 35
0.142873 -0.418965 1.70483 37 37 35
0.147944 -0.408315 1.66149 37 37 35
0.163459 -0.426072 1.73375 37 37 35
0.178652 -0.441165 1.79517 37 37 36
0.177041 -0.415328 1.69003 37 37 36
0.182754 -0.408315 1.66149 37 38 36
0.198433 -0.423193 1.72203 38 38 37
0.200159 -0.408315 1.66149 37 37 36
0.210832 -0.412167 1.67717 36 37 35
0.223239 -0.418965 1.70483 36 37 34
0.241762 -0.436278 1.77528 35 37 35
0.23671 -0.41134 1.6738 36 37 35
0.247857 -0.415328 1.69003 36 37 35
0.261015 -0.422294 1.71838 37 38 36
0.270268 -0.42269 1.71999 37 38 36
0.27961 -0.423193 1.72203 37 37 36
0.285746 -0.418965 1.70483 37 37 35
0.297295 -0.42269 1.71999 37 38 36
0.295887 -0.408315 1.66149 37 38 36
0.325449 -0.436278 1.77528 38 38 36
0.326361 -0.425348 1.7308 38 39 36
0.346059 -0.43883 1.78567 38 38 36
0.351077 -0.433477 1.76388 38 38 36
0.345544 -0.415706 1.69157 37 38 35
0.357183 -0.418965 1.70483 37 38 35
0.366112 -0.418965 1.70483 37 38 35
0.390539 -0.436278 1.77528 36 37 35
0.390484 -0.426072 1.73375 36 37 35
0.396022 -0.422294 1.71838 36 38 35
0.411603 -0.429154 1.74629 37 39 36
0.420749 -0.429154 1.74629 38 39 36
0.426083 -0.425348 1.7308 37 38 35
0.428619 -0.418965 1.70483 36 37 34
0.444214 -0.425348 1.7308 36 37 34
0.461943 -0.433477 1.76388 37 38 35
0.474226 -0.436278 1.77528 37 38 35
0.464337 -0.418965 1.70483 36 36 34
0.503698 -0.445905 1.81445 36 37 36
0.489542 -0.425348 1.7308 37 37 36
0.498608 -0.425348 1.7308 37 38 37
0.509623 -0.426981 1.73745 37 39 36
0.51351 -0.42269 1.71999 37 39 36
0.535854 -0.433477 1.76388 37 39 36
0.52227 -0.415328 1.69003 37 38 35
0.543936 -0.425348 1.7308 36 38 35
0.55795 -0.429154 1.74629 37 38 35
0.563024 -0.426072 1.73375 38 39 36
0.60403 -0.449848 1.8305 37 38 35
0.592762 -0.434559 1.76828 37 38 34
0.593157 -0.428158 1.74224 37 38 34
0.599348 -0.426072 1.73375 37 38 35
0.647134 -0.453176 1.84404 37 38 34
0.607211 -0.418965 1.70483 35 36 32
0.6416 -0.436278 1.77528 36 37 34
0.654096 -0.438421 1.784 37 38 35
0.655959 -0.433477 1.76388 37 39 35
0.669496 -0.436278 1.77528 37 39 35
0.690262 -0.443648 1.80527 36 39 35
0.734443 -0.465666 1.89486 37 39 35
0.705204 -0.441165 1.79517 37 38 35
0.714607 -0.441165 1.79517 36 38 35
0.733175 -0.44675 1.81789 37 39 35
0.720631 -0.433477 1.76388 37 39 35
0.742815 -0.441165 1.79517 37 38 34
0.752218 -0.441165 1.79517 36 38 34
0.771262 -0.44675 1.81789 37 38 34
0.776181 -0.444117 1.80718 37 38 34
0.805517 -0.455349 1.85288 37 37 35
0.82466 -0.460621 1.87433 36 37 34
0.799231 -0.441165 1.79517 37 38 35
0.847749 -0.462506 1.882 38 38 36
0.835776 -0.450732 1.8341 37 38 35
0.845382 -0.450732 1.8341 37 38 35
0.819405 -0.431973 1.75776 37 38 35
0.853223 -0.444803 1.80997 38 39 36
0.889225 -0.458478 1.86561 35 37 33
0.894179 -0.456021 1.85562 33 35 31
0.881663 -0.444803 1.80997 34 36 32
0.91854 -0.458478 1.86561 35 37 34
0.928312 -0.458478 1.86561 36 38 35
0.956792 -0.467621 1.90282 37 39 36
0.926118 -0.447963 1.82283 36 38 35
0.921467 -0.441165 1.79517 35 37 33
0.977711 -0.463365 1.8855 37 38 35
0.940272 -0.441165 1.79517 37 39 35
0.929887 -0.431973 1.75776 37 39 35
1.01234 -0.465666 1.89486 37 38 35
1.01721 -0.463365 1.8855 36 37 34
1.02101 -0.460621 1.87433 36 37 34
1.02338 -0.457292 1.86079 36 38 35
1.0074 -0.445905 1.81445 36 37 34
1.04287 -0.457292 1.86079 36 38 36
0.994334 -0.431973 1.75776 36 39 36
0.989832 -0.426072 1.73375 36 38 36
1.1067 -0.472048 1.92083 36 38 36
1.07212 -0.453176 1.84404 35 38 35
1.17327 -0.491503 2 35 37 35
1.13689 -0.472048 1.92083 36 38 36
1.14028 -0.469303 1.90967 36 38 36
1.08131 -0.441165 1.79517 35 37 35
1.16707 -0.472048 1.92083 34 37 35
1.0772 -0.431973 1.75776 34 37 35
1.17114 -0.465666 1.89486 36 38 36
1.09561 -0.431973 1.75776 35 38 36
-0.542882 -0.207746 0.863725 35 40 36
-0.529833 -0.204456 0.850047 35 39 35
-0.540391 -0.210297 0.874334 36 38 34
-0.538701 -0.211432 0.87905 37 37 33
-0.50888 -0.201449 0.837546 38 37 32
-0.504493 -0.201449 0.837546 37 37 32
-0.500106 -0.201449 0.837546 38 37 32
-0.53209 -0.216229 0.898997 37 37 32
-0.506689 -0.207746 0.863725 37 37 32
-0.490722 -0.203011 0.844042 39 39 34
-0.532352 -0.222236 0.923969 38 38 34
-0.515438 -0.217149 0.90282 38 38 33
-0.522673 -0.222236 0.923969 38 38 34
-0.528098 -0.226641 0.942284 38 38 34
-0.511252 -0.221481 0.920833 37 38 34
-0.506429 -0.221481 0.920833 37 37 34
-0.48236 -0.212983 0.885502 37 37 34
-0.509703 -0.227241 0.944781 37 37 34
-0.534255 -0.240523 1 37 37 34
-0.481229 -0.218795 0.909666 36 37 33
-0.483956 -0.222236 0.923969 36 37 34
-0.505344 -0.234401 0.974549 36 36 34
-0.50024 -0.234401 0.974549 37 37 34
-0.481175 -0.227792 0.947071 38 38 35
-0.502828 -0.240523 1 37 37 35
-0.474168 -0.229201 0.952929 36 36 34
-0.480303 -0.234637 0.975527 37 37 34
-0.499036 -0.246409 1.02447 38 38 34
-0.469102 -0.234146 0.973489 38 38 35
-0.476639 -0.240523 1 38 38 35
-0.459865 -0.234637 0.975527 38 38 35
-0.452684 -0.233568 0.971083 38 38 35
-0.474255 -0.247478 1.02892 38 37 34
-0.468293 -0.247176 1.02766 37 37 34
-0.489315 -0.261275 1.08628 37 37 34
-0.445213 -0.240523 1 37 36 34
-0.46657 -0.255062 1.06045 37 36 34
-0.475944 -0.263321 1.09479 36 36 33
-0.477259 -0.267269 1.1112 37 37 34
-0.454149 -0.257467 1.07045 37 37 34
-0.447 -0.256582 1.06677 38 37 35
-0.444635 -0.258455 1.07455 38 37 35
-0.445454 -0.26225 1.09033 38 37 35
-0.445713 -0.265811 1.10514 37 37 35
-0.456636 -0.275908 1.14712 37 37 35
-0.434136 -0.265811 1.10514 37 37 35
-0.444619 -0.275908 1.14712 37 38 36
-0.460679 -0.28979 1.20483 37 37 35
-0.432602 -0.275908 1.14712 37 37 35
-0.453094 -0.293047 1.21838 37 37 35
-0.441747 -0.28979 1.20483 37 37 35
-0.445887 -0.296745 1.23375 38 38 36
-0.439425 -0.296745 1.23375 38 37 35
-0.41762 -0.286229 1.19003 37 36 34
-0.432579 -0.300974 1.25133 37 37 34
-0.41605 -0.293927 1.22203 38 37 35
-0.383619 -0.275251 1.14438 38 37 35
-0.407114 -0.296745 1.23375 38 37 35
-0.451004 -0.334038 1.3888 38 37 34
-0.413813 -0.311517 1.29517 38 38 35
-0.397941 -0.304562 1.26625 38 38 35
-0.420525 -0.327301 1.36079 37 37 34
-0.428245 -0.339057 1.40967 37 37 34
-0.414632 -0.334038 1.3888 38 37 35
-0.427544 -0.350591 1.45762 38 37 35
-0.458142 -0.382512 1.59033 38 37 35
-0.410438 -0.349029 1.45113 37 37 34
-0.416405 -0.360784 1.5 37 37 35
-0.408548 -0.360784 1.5 37 36 34
-0.387636 -0.349029 1.45113 36 36 33
-0.403933 -0.370977 1.54238 37 37 34
-0.408163 -0.382512 1.59033 38 37 35
-0.364834 -0.349029 1.45113 38 37 35
-0.369265 -0.360784 1.5 38 37 35
-0.41076 -0.410051 1.70483 38 37 35
-0.353551 -0.360784 1.5 38 37 35
-0.366513 -0.382512 1.59033 38 37 35
-0.370357 -0.395512 1.64438 38 37 35
-0.375042 -0.410051 1.70483 37 37 35
-0.360172 -0.403398 1.67717 38 37 36
-0.357183 -0.410051 1.70483 38 38 36
-0.348253 -0.410051 1.70483 38 38 36
-0.351548 -0.424823 1.76625 37 38 36
-0.321995 -0.399627 1.66149 38 38 35
-0.3095 -0.39479 1.64138 38 38 36
-0.312535 -0.410051 1.70483 39 39 37
-0.308755 -0.417007 1.73375 40 39 37
-0.292384 -0.406862 1.69157 39 39 37
-0.290099 -0.416298 1.7308 39 38 36
-0.283548 -0.420023 1.74629 38 38 35
-0.274402 -0.420023 1.74629 38 37 34
-0.261259 -0.413696 1.71999 37 37 34
-0.25779 -0.422782 1.75776 38 38 35
-0.245188 -0.417007 1.73375 39 38 36
-0.228402 -0.403398 1.67717 38 37 35
-0.225224 -0.413696 1.71999 37 37 34
-0.210832 -0.403398 1.67717 37 37 34
-0.210375 -0.420023 1.74629 38 38 35
-0.191965 -0.400688 1.6659 38 38 35
-0.192081 -0.420023 1.74629 39 38 35
-0.182934 -0.420023 1.74629 38 38 34
-0.166909 -0.403398 1.67717 37 37 34
-0.160732 -0.410051 1.70483 38 37 34
-0.14699 -0.397051 1.65078 38 38 34
-0.144008 -0.413309 1.71838 38 38 35
-0.132902 -0.406862 1.69157 37 37 34
-0.125014 -0.410051 1.70483 37 37 34
-0.118907 -0.420023 1.74629 37 37 34
-0.108972 -0.417007 1.73375 37 38 35
-0.0966315 -0.403398 1.67717 37 38 35
-0.0931262 -0.427641 1.77797 37 37 34
-0.0790621 -0.403398 1.67717 37 37 34
-0.0708809 -0.406862 1.69157 37 37 33
-0.0635672 -0.417007 1.73375 37 37 33
-0.0540537 -0.413696 1.71999 37 37 33
-0.0454051 -0.417007 1.73375 36 36 32
-0.0363241 -0.417007 1.73375 35 36 32
-0.0272431 -0.417007 1.73375 36 37 34
-0.0175694 -0.403398 1.67717 37 37 34
-0.00900894 -0.413696 1.71999 38 38 35
0 -0.388822 1.61657 37 37 35
0.00892957 -0.410051 1.70483 38 38 35
0.0178591 -0.410051 1.70483 38 37 35
0.0265561 -0.406491 1.69003 37 36 34
0.0351387 -0.403398 1.67717 37 36 34
0.0425745 -0.39101 1.62567 38 38 36
0.0531122 -0.406491 1.69003 37 37 35
0.0630626 -0.413696 1.71999 37 37 35
0.0702774 -0.403398 1.67717 37 37 35
0.0803661 -0.410051 1.70483 36 37 34
0.090005 -0.413309 1.71838 36 37 34
0.0982252 -0.410051 1.70483 37 37 35
0.108972 -0.417007 1.73375 37 38 35
0.114201 -0.403398 1.67717 38 38 36
0.124041 -0.406862 1.69157 37 38 35
0.133943 -0.410051 1.70483 37 37 35
0.142873 -0.410051 1.70483 37 37 35
0.147944 -0.399627 1.66149 37 37 36
0.155636 -0.397051 1.65078 37 37 35
0.169662 -0.410051 1.70483 37 37 36
0.178591 -0.410051 1.70483 37 37 36
0.185893 -0.406491 1.69003 37 37 36
0.199443 -0.416298 1.7308 37 38 36
0.210375 -0.420023 1.74629 37 37 36
0.21431 -0.410051 1.70483 36 37 35
0.223239 -0.410051 1.70483 36 37 35
0.224808 -0.397051 1.65078 36 38 36
0.243241 -0.413696 1.71999 37 38 36
0.247857 -0.406491 1.69003 37 38 36
0.261259 -0.413696 1.71999 37 38 36
0.255447 -0.39101 1.62567 37 38 36
0.282113 -0.417897 1.73745 37 38 36
0.29354 -0.421235 1.75133 36 37 35
0.304882 -0.424254 1.76388 36 37 35
0.298679 -0.403398 1.67717 37 38 35
0.321059 -0.421235 1.75133 37 38 36
0.321464 -0.410051 1.70483 38 38 36
0.335998 -0.417007 1.73375 37 38 36
0.344492 -0.416298 1.7308 37 38 35
0.35416 -0.417007 1.73375 37 38 35
0.374118 -0.429494 1.78567 37 38 35
0.385511 -0.431779 1.79517 37 38 35
0.365508 -0.399627 1.66149 36 38 35
0.390484 -0.417007 1.73375 36 37 35
0.400418 -0.417897 1.73745 36 38 35
0.408646 -0.417007 1.73375 37 38 36
0.423513 -0.422782 1.75776 38 39 36
0.434226 -0.424254 1.76388 37 38 36
0.441926 -0.422782 1.75776 36 37 35
0.451133 -0.422782 1.75776 36 37 34
0.461943 -0.424254 1.76388 37 38 35
0.469547 -0.422782 1.75776 37 38 36
0.478754 -0.422782 1.75776 37 38 36
0.477474 -0.413696 1.71999 37 38 36
0.485659 -0.412996 1.71707 37 37 36
0.504522 -0.421235 1.75133 37 38 36
0.517376 -0.424254 1.76388 37 38 36
0.517619 -0.417007 1.73375 37 38 35
0.517915 -0.410051 1.70483 37 38 35
0.551824 -0.429494 1.78567 37 38 35
0.555715 -0.425313 1.76828 37 38 35
0.576794 -0.434209 1.80527 37 39 35
0.57651 -0.426995 1.77528 37 39 35
0.562563 -0.410051 1.70483 37 39 35
0.611047 -0.438432 1.82283 37 38 34
0.594537 -0.420023 1.74629 36 38 34
0.611286 -0.425313 1.76828 37 38 34
0.629982 -0.431779 1.79517 37 38 35
0.623772 -0.421235 1.75133 35 37 33
0.6416 -0.426995 1.77528 35 37 33
0.644476 -0.422782 1.75776 36 38 34
0.649417 -0.420023 1.74629 36 38 34
0.673413 -0.429494 1.78567 37 38 35
0.698765 -0.439558 1.82751 36 38 34
0.695801 -0.431779 1.79517 36 38 34
0.687984 -0.421235 1.75133 36 38 35
0.70669 -0.426995 1.77528 35 37 34
0.737053 -0.439558 1.82751 35 37 33
0.72885 -0.429093 1.784 35 37 33
0.747784 -0.434668 1.80718 36 37 33
0.707347 -0.406023 1.68808 36 37 33
0.745751 -0.422782 1.75776 36 38 33
0.771023 -0.431779 1.79517 37 38 34
0.780426 -0.431779 1.79517 37 38 35
0.804058 -0.439558 1.82751 36 37 34
0.788738 -0.42611 1.7716 36 37 35
0.826169 -0.441142 1.8341 37 38 35
0.82351 -0.434668 1.80718 37 38 35
0.840189 -0.438432 1.82283 37 38 35
0.859626 -0.443534 1.84404 37 38 34
0.83986 -0.428521 1.78162 37 38 35
0.841864 -0.424823 1.76625 37 38 35
0.872183 -0.435339 1.80997 35 37 34
0.887927 -0.438432 1.82283 35 37 34
0.913617 -0.446318 1.85562 36 38 34
0.900624 -0.435339 1.80997 37 39 35
0.960234 -0.459318 1.90967 37 39 35
0.966759 -0.457672 1.90282 36 38 35
0.921467 -0.431779 1.79517 36 38 34
0.971921 -0.45082 1.87433 37 39 35
0.915917 -0.420595 1.74867 37 39 36
0.997463 -0.453506 1.8855 37 39 35
0.977953 -0.440277 1.8305 36 37 34
0.987541 -0.440277 1.8305 34 36 32
1.02101 -0.45082 1.87433 36 37 34
1.01416 -0.443534 1.84404 37 39 36
1.02382 -0.443534 1.84404 37 38 35
1.05046 -0.45082 1.87433 37 38 36
0.980751 -0.417007 1.73375 36 39 36
1.01144 -0.42611 1.7716 36 39 36
1.06246 -0.443534 1.84404 36 39 37
1.01293 -0.419048 1.74224 36 38 36
1.17327 -0.481046 2 35 38 36
1.06251 -0.431779 1.79517 35 38 36
1.11109 -0.447563 1.86079 36 39 37
1.15028 -0.459318 1.90967 36 39 37
1.16028 -0.459318 1.90967 35 38 36
1.22564 -0.481046 2 35 38 35
1.23612 -0.481046 2 35 38 36
1.14939 -0.443534 1.84404 35 37 35
-0.526427 -0.19707 0.837546 36 41 37
-0.52204 -0.19707 0.837546 36 39 35
-0.521668 -0.198598 0.844042 36 38 34
-0.535811 -0.205726 0.874334 37 37 32
-0.559484 -0.216667 0.920833 37 36 31
-0.520262 -0.203229 0.863725 37 37 32
-0.539082 -0.212428 0.90282 38 37 32
-0.506414 -0.201321 0.855615 37 37 32
-0.51568 -0.206835 0.87905 37 37 32
-0.490722 -0.198598 0.844042 37 37 31
-0.515582 -0.210556 0.894863 36 37 31
-0.515438 -0.212428 0.90282 38 38 33
-0.522673 -0.217405 0.923969 39 39 35
-0.546728 -0.229536 0.975527 38 38 34
-0.512994 -0.217405 0.923969 36 37 33
-0.49442 -0.211529 0.898997 37 37 33
-0.530867 -0.229306 0.974549 37 37 34
-0.498475 -0.217405 0.923969 38 38 34
-0.495184 -0.218086 0.926867 38 38 35
-0.473398 -0.210556 0.894863 37 38 34
-0.483956 -0.217405 0.923969 37 37 34
-0.494133 -0.224219 0.952929 37 37 35
-0.486135 -0.22284 0.947071 37 37 35
-0.495135 -0.229306 0.974549 37 37 35
-0.502828 -0.235294 1 37 37 35
-0.510255 -0.241283 1.02545 37 37 34
-0.492353 -0.235294 1 37 37 34
-0.487115 -0.235294 1 37 37 34
-0.494142 -0.241283 1.02545 38 38 35
-0.489275 -0.241532 1.02651 38 38 35
-0.471402 -0.235294 1 37 37 34
-0.479059 -0.241803 1.02766 38 37 34
-0.486378 -0.248287 1.05522 38 37 34
-0.443083 -0.228785 0.972338 37 37 34
-0.487645 -0.254723 1.08257 37 37 34
-0.472125 -0.249517 1.06045 37 37 34
-0.477936 -0.255595 1.08628 38 37 34
-0.475944 -0.257597 1.09479 37 37 34
-0.443159 -0.242778 1.0318 37 37 34
-0.468867 -0.260032 1.10514 37 37 35
-0.458741 -0.257597 1.09479 38 37 35
-0.468445 -0.266376 1.1321 38 38 35
-0.449279 -0.258752 1.0997 38 38 36
-0.443519 -0.258752 1.0997 38 37 35
-0.460155 -0.27199 1.15596 37 37 35
-0.477687 -0.286118 1.216 38 38 35
-0.433332 -0.263058 1.118 38 38 36
-0.445794 -0.27433 1.1659 37 37 35
-0.435937 -0.27199 1.15596 37 36 34
-0.429882 -0.27199 1.15596 37 36 34
-0.427474 -0.27433 1.1659 37 37 35
-0.425439 -0.276981 1.17717 38 37 36
-0.439425 -0.290294 1.23375 38 37 35
-0.439133 -0.294431 1.25133 38 37 34
-0.461911 -0.314396 1.33618 38 37 34
-0.440948 -0.304745 1.29517 38 37 34
-0.447914 -0.314396 1.33618 38 37 34
-0.440915 -0.314396 1.33618 37 36 34
-0.436469 -0.316245 1.34404 37 36 34
-0.429429 -0.316245 1.34404 39 38 35
-0.443012 -0.331686 1.40967 39 38 36
-0.42471 -0.323373 1.37433 38 38 35
-0.428245 -0.331686 1.40967 38 38 35
-0.40127 -0.316245 1.34404 38 37 35
-0.427544 -0.34297 1.45762 37 37 34
-0.432118 -0.352941 1.5 37 36 34
-0.424261 -0.352941 1.5 37 37 34
-0.40464 -0.34297 1.45762 37 37 34
-0.408548 -0.352941 1.5 37 36 34
-0.455408 -0.401137 1.70483 37 36 34
-0.405634 -0.364441 1.54887 37 37 34
-0.411962 -0.377679 1.60514 38 37 35
-0.389409 -0.364441 1.54887 38 37 34
-0.381296 -0.364441 1.54887 37 37 34
-0.383173 -0.374196 1.59033 37 36 33
-0.378332 -0.377679 1.60514 37 36 33
-0.37897 -0.386914 1.64438 37 36 33
-0.361517 -0.377679 1.60514 37 36 34
-0.367269 -0.392824 1.6695 37 37 34
-0.385511 -0.422392 1.79517 37 37 35
-0.357183 -0.401137 1.70483 37 37 35
-0.343611 -0.39579 1.68211 38 38 36
-0.351548 -0.415588 1.76625 37 37 35
-0.333331 -0.404703 1.71999 37 37 35
-0.318673 -0.397654 1.69003 37 37 35
-0.312535 -0.401137 1.70483 38 38 35
-0.310989 -0.410892 1.74629 38 38 36
-0.301842 -0.410892 1.74629 38 38 36
-0.276687 -0.388419 1.65078 38 38 35
-0.279016 -0.404324 1.71838 38 37 35
-0.271968 -0.407248 1.7308 37 37 34
-0.256943 -0.398017 1.69157 38 37 35
-0.248083 -0.398017 1.69157 38 37 35
-0.23255 -0.386914 1.64438 38 37 35
-0.234013 -0.404324 1.71838 37 37 35
-0.223239 -0.401137 1.70483 37 37 35
-0.216012 -0.404324 1.71838 37 37 35
-0.203782 -0.398017 1.69157 38 38 35
-0.198011 -0.404324 1.71838 38 38 36
-0.190377 -0.407248 1.7308 38 38 35
-0.18001 -0.404324 1.71838 37 37 34
-0.169662 -0.401137 1.70483 38 38 35
-0.160732 -0.401137 1.70483 38 38 35
-0.14934 -0.394628 1.67717 38 39 36
-0.144008 -0.404324 1.71838 39 39 36
-0.133 -0.398311 1.69282 38 38 35
-0.123928 -0.397654 1.69003 37 38 35
-0.117853 -0.407248 1.7308 38 38 35
-0.107155 -0.401137 1.70483 38 39 36
-0.0998913 -0.407941 1.73375 39 38 36
-0.0892957 -0.401137 1.70483 38 38 35
-0.0790621 -0.394628 1.67717 38 38 35
-0.0708809 -0.398017 1.69157 38 38 35
-0.060918 -0.39094 1.66149 38 38 35
-0.0540537 -0.404703 1.71999 38 38 34
-0.0464928 -0.417713 1.77528 37 37 34
-0.0351387 -0.394628 1.67717 37 37 34
-0.0256817 -0.384561 1.63439 37 38 35
-0.0177041 -0.397654 1.69003 38 38 35
-0.0090005 -0.404324 1.71838 38 38 35
0 -0.388419 1.65078 37 37 35
0.00870257 -0.39094 1.66149 38 38 35
0.0178591 -0.401137 1.70483 38 38 36
0.0270268 -0.404703 1.71999 37 37 35
0.0364017 -0.408812 1.73745 36 36 34
0.0446478 -0.401137 1.70483 37 37 35
0.0554332 -0.415031 1.76388 37 37 35
0.062507 -0.401137 1.70483 37 38 36
0.0691717 -0.388419 1.65078 38 39 36
0.0789033 -0.393836 1.6738 38 38 35
0.0878468 -0.394628 1.67717 37 38 35
0.0982252 -0.401137 1.70483 37 37 34
0.109761 -0.410892 1.74629 36 36 34
0.118053 -0.407941 1.73375 36 37 35
0.127134 -0.407941 1.73375 36 37 35
0.138102 -0.413591 1.75776 36 36 34
0.142873 -0.401137 1.70483 36 36 34
0.151803 -0.401137 1.70483 36 36 34
0.163459 -0.407941 1.73375 36 36 35
0.165349 -0.39094 1.66149 37 37 36
0.178591 -0.401137 1.70483 37 38 36
0.190702 -0.407941 1.73375 37 38 36
0.201228 -0.410892 1.74629 38 38 37
0.207012 -0.404324 1.71838 37 38 36
0.208862 -0.39094 1.66149 36 37 35
0.223239 -0.401137 1.70483 36 37 35
0.230153 -0.397654 1.69003 36 38 36
0.239223 -0.398017 1.69157 37 38 36
0.250028 -0.401137 1.70483 37 38 36
0.252374 -0.39094 1.66149 37 38 36
0.267887 -0.401137 1.70483 37 38 36
0.274413 -0.397654 1.69003 36 36 35
0.290593 -0.407941 1.73375 36 36 34
0.291781 -0.397196 1.68808 36 37 35
0.295887 -0.39094 1.66149 37 38 36
0.327353 -0.420157 1.78567 38 39 36
0.318673 -0.397654 1.69003 38 39 37
0.341838 -0.415031 1.76388 38 38 36
0.336377 -0.397654 1.69003 37 37 35
0.351349 -0.404703 1.71999 37 38 35
0.363241 -0.407941 1.73375 38 38 35
0.369021 -0.404324 1.71838 37 38 35
0.361744 -0.386914 1.64438 37 38 35
0.383971 -0.401137 1.70483 36 37 35
0.389845 -0.398017 1.69157 36 37 35
0.405023 -0.404324 1.71838 37 38 36
0.414023 -0.404324 1.71838 38 38 36
0.444415 -0.42477 1.80527 37 38 35
0.435889 -0.407941 1.73375 37 38 35
0.441025 -0.404324 1.71838 38 39 36
0.450447 -0.404703 1.71999 38 40 37
0.443831 -0.39094 1.66149 39 40 37
0.468026 -0.404324 1.71838 38 39 37
0.469586 -0.398017 1.69157 37 37 36
0.498898 -0.415031 1.76388 36 36 35
0.508137 -0.415031 1.76388 36 36 35
0.520719 -0.417713 1.77528 36 37 35
0.521363 -0.410892 1.74629 36 37 35
0.53051 -0.410892 1.74629 36 38 35
0.53103 -0.404324 1.71838 37 38 35
0.544862 -0.407941 1.73375 36 38 35
0.553943 -0.407941 1.73375 36 38 34
0.56578 -0.409938 1.74224 36 37 34
0.589236 -0.420157 1.78567 36 37 34
0.580198 -0.407248 1.7308 36 37 34
0.589263 -0.407248 1.7308 36 38 34
0.620579 -0.422392 1.79517 37 38 34
0.629982 -0.422392 1.79517 36 38 34
0.646254 -0.42693 1.81445 35 37 32
0.635269 -0.413591 1.75776 36 38 34
0.630626 -0.404703 1.71999 37 39 35
0.682846 -0.432043 1.83618 37 39 35
0.665198 -0.415031 1.76388 37 39 35
0.667711 -0.410892 1.74629 36 38 34
0.695801 -0.422392 1.79517 36 37 34
0.692915 -0.415031 1.76388 35 37 33
0.70669 -0.417713 1.77528 35 37 33
0.70633 -0.412078 1.75133 35 37 33
0.742697 -0.42774 1.81789 35 37 32
0.766697 -0.435972 1.85288 37 38 34
0.76577 -0.430002 1.82751 37 38 35
0.771262 -0.42774 1.81789 37 38 34
0.766226 -0.419765 1.784 36 37 34
0.747742 -0.404703 1.71999 36 37 34
0.779459 -0.416847 1.7716 35 36 33
0.779715 -0.412078 1.75133 37 38 35
0.826169 -0.431552 1.8341 37 38 35
0.840308 -0.433892 1.84404 37 38 35
0.845382 -0.431552 1.8341 36 37 34
0.830529 -0.419206 1.78162 36 37 33
0.814771 -0.406682 1.7284 36 37 33
0.884459 -0.436615 1.85562 37 38 35
0.898997 -0.438968 1.86561 37 39 35
0.908768 -0.438968 1.86561 37 39 35
0.922834 -0.44102 1.87433 36 38 35
0.928312 -0.438968 1.86561 36 38 34
0.956792 -0.447722 1.90282 36 37 34
0.912064 -0.422392 1.79517 36 38 35
0.952495 -0.436615 1.85562 36 38 34
0.956213 -0.433892 1.84404 37 38 35
0.971933 -0.436615 1.85562 37 39 36
1.00663 -0.447722 1.90282 37 39 35
0.985189 -0.433892 1.84404 36 38 34
1.04785 -0.457008 1.94228 36 37 34
1.02101 -0.44102 1.87433 36 38 34
1.00672 -0.430706 1.8305 36 38 35
1.04684 -0.443647 1.8855 36 37 35
1.08141 -0.454013 1.92955 36 38 36
1.08026 -0.449333 1.90967 36 38 36
1.09664 -0.451961 1.92083 36 38 36
1.0343 -0.422392 1.79517 37 39 37
1.07212 -0.433892 1.84404 36 38 36
1.13194 -0.454013 1.92955 35 37 35
1.03118 -0.409938 1.74224 36 38 36
1.14028 -0.449333 1.90967 38 40 38
1.14136 -0.44585 1.89486 37 40 38
1.21517 -0.470588 2 37 40 37
1.22564 -0.470588 2 36 39 36
1.18029 -0.449333 1.90967 35 38 36
1.2466 -0.470588 2 35 38 36
-0.519294 -0.190079 0.826197 37 42 37
-0.526089 -0.194185 0.844042 37 40 36
-0.543305 -0.202239 0.87905 37 38 34
-0.535811 -0.201154 0.874334 36 36 32
-0.531232 -0.201154 0.874334 37 36 31
-0.541508 -0.206828 0.898997 37 37 32
-0.522073 -0.201154 0.874334 38 37 32
-0.511214 -0.198713 0.863725 37 37 32
-0.524956 -0.205877 0.894863 36 36 30
-0.526958 -0.208524 0.906367 36 36 30
-0.517964 -0.206828 0.898997 36 36 30
-0.521661 -0.210215 0.91372 38 38 33
-0.494595 -0.201154 0.874334 38 39 34
-0.517833 -0.212573 0.923969 38 38 34
-0.512994 -0.212573 0.923969 36 37 33
-0.5196 -0.217361 0.944781 37 37 33
-0.517047 -0.218373 0.949179 37 37 34
-0.539493 -0.230065 1 38 38 34
-0.49196 -0.211852 0.920833 38 38 35
-0.503162 -0.218821 0.951125 38 38 34
-0.49818 -0.218821 0.951125 37 37 34
-0.505851 -0.224435 0.975527 38 38 35
-0.501207 -0.224643 0.976432 37 37 35
-0.496092 -0.224643 0.976432 36 36 34
-0.490523 -0.224435 0.975527 37 37 34
-0.497591 -0.230065 1 37 37 34
-0.504402 -0.235696 1.02447 37 37 34
-0.499036 -0.235696 1.02447 37 37 34
-0.469102 -0.223966 0.973489 37 38 34
-0.464003 -0.223966 0.973489 38 38 35
-0.471402 -0.230065 1 37 37 34
-0.466164 -0.230065 1 38 38 35
-0.474889 -0.237035 1.03029 38 37 35
-0.480851 -0.242769 1.05522 37 37 34
-0.45045 -0.230065 1 37 37 34
-0.473462 -0.244663 1.06345 37 36 34
-0.47972 -0.250848 1.09033 37 37 34
-0.448564 -0.237382 1.0318 38 38 35
-0.458175 -0.245426 1.06677 38 38 35
-0.466559 -0.253002 1.0997 37 37 35
-0.456876 -0.250848 1.09033 38 38 35
-0.45729 -0.254254 1.10514 37 37 35
-0.459889 -0.258977 1.12567 38 38 35
-0.453993 -0.258977 1.12567 38 38 35
-0.456636 -0.263912 1.14712 38 38 35
-0.444727 -0.260456 1.1321 38 38 35
-0.462334 -0.274427 1.19282 38 37 35
-0.451989 -0.271962 1.18211 37 36 34
-0.454368 -0.27719 1.20483 37 36 34
-0.433581 -0.268234 1.1659 36 35 33
-0.461153 -0.289367 1.25776 38 36 34
-0.443954 -0.282612 1.2284 38 37 35
-0.433949 -0.280306 1.21838 38 37 35
-0.462492 -0.303202 1.31789 38 36 34
-0.432579 -0.287888 1.25133 38 37 34
-0.432925 -0.292551 1.2716 37 36 33
-0.403883 -0.27719 1.20483 37 36 33
-0.403248 -0.281148 1.22203 37 36 33
-0.42958 -0.304337 1.32283 38 37 34
-0.43478 -0.313071 1.36079 39 38 35
-0.407029 -0.297973 1.29517 39 38 35
-0.43908 -0.326884 1.42083 38 37 34
-0.455688 -0.345098 1.5 38 37 34
-0.436664 -0.336492 1.46259 38 37 35
-0.413478 -0.324315 1.40967 37 37 34
-0.432118 -0.345098 1.5 36 36 33
-0.410438 -0.333854 1.45113 37 36 34
-0.432427 -0.358376 1.55772 37 36 34
-0.408548 -0.345098 1.5 37 37 34
-0.428776 -0.369286 1.60514 37 37 34
-0.439234 -0.385859 1.67717 37 37 34
-0.397522 -0.356342 1.54887 38 37 35
-0.403554 -0.369286 1.60514 38 37 35
-0.400201 -0.374009 1.62567 38 37 34
-0.383173 -0.365881 1.59033 37 36 33
-0.378332 -0.369286 1.60514 37 36 33
-0.392901 -0.392223 1.70483 37 36 34
-0.370357 -0.378316 1.64438 37 37 34
-0.375042 -0.392223 1.70483 37 37 34
-0.377479 -0.4044 1.75776 36 36 34
-0.363241 -0.398876 1.73375 37 37 35
-0.348253 -0.392223 1.70483 38 38 36
-0.355081 -0.410436 1.784 36 37 35
-0.321995 -0.382252 1.66149 35 35 33
-0.326917 -0.398876 1.73375 36 36 34
-0.320135 -0.401761 1.74629 36 36 34
-0.303605 -0.392223 1.70483 36 37 34
-0.301842 -0.401761 1.74629 37 37 35
-0.283265 -0.388817 1.69003 38 37 35
-0.281033 -0.398198 1.7308 38 37 35
-0.267887 -0.392223 1.70483 38 38 35
-0.261015 -0.395339 1.71838 39 38 36
-0.250028 -0.392223 1.70483 38 37 35
-0.251061 -0.40843 1.77528 38 37 35
-0.239377 -0.4044 1.75776 38 37 35
-0.221503 -0.389172 1.69157 38 37 35
-0.21431 -0.392223 1.70483 37 37 35
-0.210982 -0.402921 1.75133 38 37 35
-0.199443 -0.398198 1.7308 38 38 36
-0.186062 -0.389172 1.69157 38 38 35
-0.178591 -0.392223 1.70483 38 38 35
-0.17254 -0.398876 1.73375 38 38 35
-0.160732 -0.392223 1.70483 38 39 36
-0.14699 -0.379788 1.65078 38 39 36
-0.145049 -0.398198 1.7308 38 38 35
-0.135984 -0.398198 1.7308 37 38 35
-0.126007 -0.395339 1.71838 37 38 35
-0.115181 -0.389172 1.69157 37 38 35
-0.106321 -0.389172 1.69157 38 38 35
-0.0989305 -0.395039 1.71707 38 38 35
-0.0878468 -0.385859 1.67717 39 38 35
-0.0810045 -0.395339 1.71838 39 38 35
-0.0714365 -0.392223 1.70483 39 38 35
-0.0630035 -0.395339 1.71838 39 39 35
-0.0522154 -0.382252 1.66149 38 38 34
-0.0438352 -0.385084 1.6738 38 38 34
-0.0369554 -0.405808 1.76388 37 38 34
-0.0258389 -0.378316 1.64438 37 38 35
-0.0178591 -0.392223 1.70483 38 38 35
-0.0090005 -0.395339 1.71838 38 38 35
0 -0.388817 1.69003 38 38 35
0.00892957 -0.392223 1.70483 38 38 35
0.0184777 -0.405808 1.76388 38 38 35
0.0274402 -0.401761 1.74629 38 37 35
0.0365869 -0.401761 1.74629 37 37 35
0.0442602 -0.388817 1.69003 37 38 35
0.0516777 -0.378316 1.64438 37 37 35
0.0619642 -0.388817 1.69003 37 38 35
0.0696205 -0.382252 1.66149 38 39 36
0.083687 -0.40843 1.77528 39 39 37
0.0886011 -0.389172 1.69157 38 38 36
0.0972602 -0.38837 1.68808 37 38 35
0.109761 -0.401761 1.74629 36 37 34
0.113133 -0.382252 1.66149 36 36 34
0.120581 -0.378316 1.64438 36 37 35
0.137201 -0.401761 1.74629 36 36 34
0.147309 -0.4044 1.75776 36 36 34
0.153009 -0.395339 1.71838 36 36 34
0.160732 -0.392223 1.70483 36 37 35
0.168189 -0.388817 1.69003 37 37 36
0.175694 -0.385859 1.67717 36 37 36
0.193343 -0.4044 1.75776 37 38 36
0.198011 -0.395339 1.71838 37 38 36
0.210375 -0.401761 1.74629 37 38 36
0.208166 -0.380979 1.65596 36 37 35
0.219617 -0.385859 1.67717 36 37 35
0.228402 -0.385859 1.67717 36 37 35
0.245188 -0.398876 1.73375 37 38 36
0.254269 -0.398876 1.73375 37 38 36
0.252374 -0.382252 1.66149 36 37 36
0.263011 -0.385084 1.6738 36 36 35
0.279277 -0.39571 1.71999 35 35 34
0.299015 -0.410436 1.784 36 36 35
0.294676 -0.392223 1.70483 37 38 36
0.308755 -0.398876 1.73375 37 38 36
0.312535 -0.392223 1.70483 37 38 36
0.324322 -0.39571 1.71999 38 39 36
0.327525 -0.388817 1.69003 38 39 36
0.336377 -0.388817 1.69003 39 39 36
0.35102 -0.395339 1.71838 39 39 37
0.36002 -0.395339 1.71838 38 38 35
0.366112 -0.392223 1.70483 36 37 34
0.368957 -0.385859 1.67717 36 38 35
0.390484 -0.398876 1.73375 36 37 34
0.41153 -0.41082 1.78567 37 38 35
0.418435 -0.40843 1.77528 38 39 36
0.41076 -0.392223 1.70483 38 38 36
0.426808 -0.398876 1.73375 37 38 36
0.439043 -0.401761 1.74629 37 38 36
0.441025 -0.395339 1.71838 38 39 36
0.45328 -0.398198 1.7308 38 40 37
0.463133 -0.398876 1.73375 38 40 37
0.472214 -0.398876 1.73375 38 40 37
0.473267 -0.392223 1.70483 36 37 36
0.495348 -0.402921 1.75133 35 36 34
0.499457 -0.398876 1.73375 35 36 34
0.508538 -0.398876 1.73375 36 37 35
0.526615 -0.405808 1.76388 36 37 35
0.522519 -0.39571 1.71999 36 37 35
0.546453 -0.406821 1.76828 36 37 34
0.535774 -0.392223 1.70483 35 37 34
0.57053 -0.41082 1.78567 35 37 34
0.579883 -0.41082 1.78567 36 37 34
0.577906 -0.402921 1.75133 36 37 34
0.58539 -0.401761 1.74629 36 37 34
0.589263 -0.398198 1.7308 36 37 34
0.599348 -0.398876 1.73375 36 38 34
0.612831 -0.401761 1.74629 36 38 34
0.621977 -0.401761 1.74629 35 37 33
0.635269 -0.4044 1.75776 36 38 34
0.644476 -0.4044 1.75776 37 39 35
0.653683 -0.4044 1.75776 37 39 35
0.676996 -0.413006 1.79517 37 39 35
0.669638 -0.402921 1.75133 36 38 34
0.667455 -0.39618 1.72203 35 37 33
0.705204 -0.413006 1.79517 35 36 33
0.718629 -0.41533 1.80527 36 37 34
0.719505 -0.410436 1.784 36 37 34
0.733412 -0.413006 1.79517 37 38 34
0.738194 -0.410436 1.784 38 39 35
0.752218 -0.413006 1.79517 37 39 35
0.751621 -0.407584 1.7716 37 39 35
0.795812 -0.426284 1.85288 36 38 34
0.805517 -0.426284 1.85288 35 37 33
0.789828 -0.413006 1.79517 36 37 34
0.775666 -0.400829 1.74224 37 38 35
0.798018 -0.407584 1.7716 37 38 35
0.830642 -0.41937 1.82283 36 37 34
0.810198 -0.4044 1.75776 36 37 33
0.854989 -0.421962 1.8341 35 36 33
0.859285 -0.41937 1.82283 36 37 33
0.868832 -0.41937 1.82283 37 38 35
0.86505 -0.413006 1.79517 38 39 35
0.840137 -0.396798 1.72472 37 39 35
0.907919 -0.42425 1.84404 36 38 34
0.870121 -0.402308 1.74867 35 37 33
0.933056 -0.426913 1.85562 36 38 34
0.919584 -0.416411 1.80997 36 38 35
0.935665 -0.41937 1.82283 36 38 34
0.956213 -0.42425 1.84404 35 37 34
