ply
format ascii 1.0
element vertex 1330
property float x
property float y
property float z
property uchar red
property uchar green
property uchar blue
end_header
1.00476 -0.705518 1.62567 35 39 34
1.06262 -0.739875 1.70483 35 38 34
-0.499791 -0.340934 0.795167 39 37 27
-0.51989 -0.357625 0.834095 38 38 28
-0.435629 -0.302203 0.704833 36 38 31
-0.517247 -0.36189 0.844042 36 37 34
-0.499938 -0.352795 0.822829 37 38 35
-0.531272 -0.378166 0.882004 37 37 36
-0.549838 -0.394815 0.920833 36 37 35
-0.499564 -0.36189 0.844042 37 37 35
-0.504969 -0.369071 0.860791 36 36 34
-0.478389 -0.352795 0.822829 36 35 34
-0.527539 -0.392577 0.915615 37 37 32
-0.499175 -0.374878 0.874334 37 38 28
-0.482461 -0.365681 0.852883 37 38 29
-0.473038 -0.36189 0.844042 40 40 32
-0.493468 -0.38108 0.8888 39 40 31
-0.488812 -0.38108 0.8888 38 38 29
-0.508361 -0.400131 0.933233 37 38 30
-0.446436 -0.354802 0.82751 37 37 31
-0.467118 -0.374878 0.874334 38 39 35
-0.43268 -0.350679 0.817894 37 38 36
-0.48473 -0.396793 0.925446 37 37 36
-0.518542 -0.428758 1 36 37 35
-0.472667 -0.394815 0.920833 36 38 35
-0.45465 -0.38368 0.894863 36 39 36
-0.43283 -0.369071 0.860791 36 39 35
-0.497591 -0.428758 1 37 40 35
-0.402692 -0.350679 0.817894 36 39 35
-0.452799 -0.398554 0.929553 35 38 34
-0.464852 -0.41361 0.964669 35 38 33
-0.446396 -0.401553 0.936549 34 37 32
-0.454746 -0.41361 0.964669 35 38 32
-0.450559 -0.414405 0.966525 37 40 35
-0.478167 -0.444796 1.03741 37 40 34
-0.419613 -0.394815 0.920833 35 38 31
-0.431361 -0.410588 0.957621 36 40 31
-0.428559 -0.41272 0.962595 39 40 31
-0.439975 -0.428758 1 39 38 29
-0.434737 -0.428758 1 39 38 28
-0.413434 -0.41272 0.962595 39 38 29
-0.424261 -0.428758 1 39 38 28
-0.435674 -0.445796 1.03974 38 37 27
-0.448703 -0.464939 1.08438 37 38 29
-0.38858 -0.407803 0.951125 37 39 34
-0.40331 -0.428758 1 37 38 36
-0.412962 -0.444796 1.03741 36 37 35
-0.409482 -0.446928 1.04238 37 37 35
-0.42261 -0.46749 1.09033 37 38 35
-0.433743 -0.486377 1.13439 37 38 35
-0.408945 -0.464939 1.08438 37 37 34
-0.418617 -0.482638 1.12567 37 38 34
-0.408626 -0.47785 1.1145 37 38 34
-0.396529 -0.470425 1.09718 37 38 33
-0.411718 -0.495627 1.15596 37 38 34
-0.401602 -0.490664 1.14438 37 38 34
-0.363992 -0.451452 1.05293 36 38 33
-0.398165 -0.501433 1.1695 36 37 33
-0.373601 -0.47785 1.1145 37 38 34
-0.375917 -0.488445 1.13921 39 40 35
-0.396848 -0.523957 1.22203 38 38 33
-0.390447 -0.523957 1.22203 39 39 34
-0.399623 -0.545209 1.2716 38 38 33
-0.372329 -0.516582 1.20483 37 37 31
-0.377382 -0.53262 1.24224 37 37 32
-0.359708 -0.516582 1.20483 37 37 31
-0.379894 -0.555313 1.29517 38 37 35
-0.36478 -0.542915 1.26625 37 36 36
-0.394524 -0.598059 1.39486 37 35 36
-0.416405 -0.643137 1.5 37 35 36
-0.362382 -0.570462 1.3305 37 36 37
-0.372606 -0.598059 1.39486 37 36 37
-0.359924 -0.589257 1.37433 37 37 36
-0.366898 -0.612933 1.42955 36 36 35
-0.377121 -0.643137 1.5 36 37 34
-0.338329 -0.589257 1.37433 36 38 33
-0.375314 -0.667883 1.55772 36 38 34
-0.336947 -0.612933 1.42955 35 37 32
-0.345695 -0.643137 1.5 35 37 34
-0.366141 -0.697018 1.62567 35 36 34
-0.345479 -0.673342 1.57045 36 36 34
-0.288632 -0.576269 1.34404 36 36 34
-0.357183 -0.730961 1.70483 37 37 35
-0.294621 -0.618391 1.44228 36 36 34
-0.323566 -0.697018 1.62567 36 37 33
-0.337643 -0.746999 1.74224 36 37 31
-0.321464 -0.730961 1.70483 37 38 32
-0.312535 -0.730961 1.70483 38 38 32
-0.313031 -0.753655 1.75776 37 38 32
-0.274885 -0.681869 1.59033 37 37 31
-0.277554 -0.710006 1.65596 37 38 31
-0.276817 -0.730961 1.70483 36 39 32
-0.273765 -0.746999 1.74224 35 40 34
-0.264639 -0.746999 1.74224 35 40 34
-0.263276 -0.769693 1.79517 36 40 35
-0.270066 -0.818785 1.90967 35 40 35
-0.227357 -0.715812 1.6695 35 39 35
-0.23869 -0.781553 1.82283 34 38 35
-0.210832 -0.719101 1.67717 35 39 36
-0.216263 -0.769693 1.79517 36 40 37
-0.20686 -0.769693 1.79517 35 39 36
-0.205206 -0.799897 1.86561 35 39 36
-0.189605 -0.776039 1.80997 35 39 36
-0.169662 -0.730961 1.70483 35 40 35
-0.162954 -0.741066 1.7284 35 39 35
-0.153901 -0.741066 1.7284 35 39 34
-0.151684 -0.776039 1.80997 35 38 34
-0.137387 -0.749756 1.74867 34 37 33
-0.125014 -0.730961 1.70483 34 37 33
-0.123243 -0.776039 1.80997 34 37 33
-0.108405 -0.739488 1.72472 35 37 34
-0.104283 -0.776039 1.80997 36 38 35
-0.0915917 -0.749756 1.74867 36 39 35
-0.0846245 -0.769693 1.79517 36 39 35
-0.0724241 -0.741066 1.7284 36 40 35
-0.065819 -0.769693 1.79517 37 41 36
-0.0572856 -0.781553 1.82283 37 42 36
-0.0496245 -0.812438 1.89486 35 39 34
-0.0357183 -0.730961 1.70483 34 39 34
-0.029158 -0.79561 1.85562 36 38 33
-0.0188054 -0.769693 1.79517 38 37 33
-0.00905301 -0.741066 1.7284 37 37 33
0 -0.790648 1.84404 38 38 34
0.00905301 -0.741066 1.7284 38 38 35
0.0186252 -0.762317 1.77797 38 39 35
0.0289761 -0.790648 1.84404 38 39 36
0.037005 -0.757294 1.76625 37 38 35
0.0485967 -0.79561 1.85562 38 39 36
0.0568815 -0.776039 1.80997 38 38 35
0.0633711 -0.741066 1.7284 38 37 36
0.0736544 -0.753655 1.75776 38 37 36
0.0813036 -0.739488 1.72472 38 38 36
0.0933178 -0.763886 1.78162 38 39 36
0.0993711 -0.739488 1.72472 38 39 36
0.10991 -0.749756 1.74867 37 39 35
0.113292 -0.713375 1.66382 36 38 34
0.132724 -0.776039 1.80997 36 38 34
0.135795 -0.741066 1.7284 36 40 35
0.149309 -0.763886 1.78162 35 40 34
0.157271 -0.757294 1.76625 34 39 32
0.173857 -0.790648 1.84404 34 39 33
0.185662 -0.799897 1.86561 36 39 33
0.188054 -0.769693 1.79517 37 38 33
0.195565 -0.762317 1.77797 37 39 33
0.217269 -0.808424 1.8855 36 38 32
0.223545 -0.79561 1.85562 35 37 31
0.230107 -0.784841 1.8305 37 38 33
0.242983 -0.79561 1.85562 37 39 33
0.249282 -0.784841 1.8305 37 39 33
0.249784 -0.757294 1.76625 38 40 35
0.256457 -0.749756 1.74867 38 39 35
0.270066 -0.762317 1.77797 39 38 35
0.289761 -0.790648 1.84404 39 38 35
0.291484 -0.769693 1.79517 38 37 35
0.298617 -0.763886 1.78162 38 37 35
0.302253 -0.749756 1.74867 38 37 36
0.319692 -0.769693 1.79517 38 37 36
0.358324 -0.838053 1.9546 38 38 36
0.341289 -0.776039 1.80997 38 38 36
0.357372 -0.790648 1.84404 39 39 37
0.348048 -0.749756 1.74867 38 39 37
0.36973 -0.776039 1.80997 38 39 37
0.36212 -0.741066 1.7284 38 40 37
0.389653 -0.777961 1.81445 38 40 37
0.370042 -0.721217 1.68211 37 39 37
0.407651 -0.776039 1.80997 39 38 36
0.427651 -0.79561 1.85562 41 38 36
0.419068 -0.762317 1.77797 38 37 35
0.428381 -0.762317 1.77797 39 36 34
0.478145 -0.83277 1.94228 36 36 33
0.476395 -0.812438 1.89486 36 38 34
0.473277 -0.790648 1.84404 38 40 35
0.482936 -0.790648 1.84404 38 41 36
0.492594 -0.790648 1.84404 38 40 35
0.492973 -0.776039 1.80997 37 40 33
0.508152 -0.784841 1.8305 37 39 30
0.518757 -0.786383 1.8341 37 39 32
0.521414 -0.776039 1.80997 37 39 30
0.526552 -0.769693 1.79517 36 38 32
0.568095 -0.81585 1.90282 36 37 33
0.525074 -0.741066 1.7284 39 38 35
0.549445 -0.762317 1.77797 40 39 36
0.595494 -0.812438 1.89486 40 39 36
0.589182 -0.790648 1.84404 39 38 35
0.615344 -0.812438 1.89486 39 38 35
0.60403 -0.784841 1.8305 37 39 35
0.652695 -0.834822 1.94707 36 40 35
0.641932 -0.808424 1.8855 35 39 34
0.655044 -0.812438 1.89486 36 40 35
0.642381 -0.784841 1.8305 36 40 35
0.639385 -0.769693 1.79517 36 40 35
0.655758 -0.777961 1.81445 36 40 36
0.651883 -0.762317 1.77797 37 40 36
0.674765 -0.777961 1.81445 37 40 36
0.695427 -0.790648 1.84404 37 39 35
0.672096 -0.753655 1.75776 37 39 35
0.703276 -0.777961 1.81445 37 39 35
0.760744 -0.830311 1.93655 37 39 35
0.77317 -0.83277 1.94228 36 38 35
0.738259 -0.784841 1.8305 36 38 36
0.774143 -0.812438 1.89486 36 38 36
0.733063 -0.759588 1.7716 36 38 36
0.808529 -0.827312 1.92955 36 39 36
0.814935 -0.823573 1.92083 37 39 36
0.792015 -0.790648 1.84404 36 39 36
0.869474 -0.857516 2 36 38 35
0.779459 -0.759588 1.7716 37 39 36
0.855179 -0.823573 1.92083 38 40 37
0.821094 -0.781553 1.82283 38 40 36
0.807297 -0.759588 1.7716 38 39 35
0.785802 -0.730961 1.70483 38 39 34
0.873747 -0.803636 1.87433 38 38 34
0.900219 -0.818785 1.90967 37 38 32
0.868832 -0.781553 1.82283 36 37 32
0.920224 -0.818785 1.90967 36 37 32
0.84867 -0.746999 1.74224 36 38 33
0.984706 -0.857516 2 36 39 33
0.942866 -0.812438 1.89486 36 39 31
0.965849 -0.823573 1.92083 36 39 31
0.926118 -0.781553 1.82283 36 40 31
0.962103 -0.803636 1.87433 37 40 32
0.996032 -0.823573 1.92083 37 40 32
0.992491 -0.812438 1.89486 36 39 30
1.05803 -0.857516 2 35 39 29
1.13565 -0.911397 2.12567 35 39 29
1.07899 -0.857516 2 35 39 30
1.02101 -0.803636 1.87433 35 38 31
1.09994 -0.857516 2 35 39 34
1.11041 -0.857516 2 36 38 34
1.20829 -0.924385 2.15596 36 39 35
1.13136 -0.857516 2 36 38 34
1.0528 -0.790648 1.84404 35 37 34
1.06246 -0.790648 1.84404 35 38 34
1.28188 -0.94534 2.20483 36 39 35
0.87995 -0.643137 1.5 37 40 36
1.18374 -0.857516 2 37 41 36
1.19422 -0.857516 2 35 40 34
1.32807 -0.94534 2.20483 35 39 33
1.21517 -0.857516 2 35 39 34
1.13007 -0.790648 1.84404 35 39 33
1.36272 -0.94534 2.20483 35 39 34
1.2466 -0.857516 2 34 38 34
-0.491279 -0.331041 0.781624 39 38 27
-0.472311 -0.320935 0.757762 38 38 28
-0.468342 -0.320935 0.757762 37 38 32
-0.511152 -0.353264 0.834095 37 37 35
-0.512827 -0.357476 0.844042 37 37 35
-0.478966 -0.336777 0.795167 36 37 35
-0.503985 -0.357476 0.844042 36 37 35
-0.484088 -0.346402 0.817894 37 37 35
-0.473517 -0.341863 0.807177 38 37 35
-0.50046 -0.36457 0.860791 37 37 35
-0.530545 -0.39 0.920833 37 37 32
-0.514001 -0.381305 0.900304 37 38 28
-0.486934 -0.36457 0.860791 37 38 29
-0.482425 -0.36457 0.860791 39 40 31
-0.473526 -0.361221 0.852883 39 40 31
-0.473408 -0.36457 0.860791 38 38 29
-0.487459 -0.379001 0.894863 37 38 30
-0.501487 -0.393693 0.929553 38 38 33
-0.459882 -0.36457 0.860791 38 39 35
-0.470191 -0.376433 0.8888 38 38 36
-0.471561 -0.381305 0.900304 37 37 36
-0.429098 -0.350475 0.82751 37 38 36
-0.46465 -0.383385 0.905214 37 39 36
-0.470188 -0.391954 0.925446 37 39 36
-0.455167 -0.383385 0.905214 36 39 35
-0.462537 -0.393693 0.929553 36 39 35
-0.45948 -0.395252 0.933233 36 39 35
-0.452799 -0.393693 0.929553 36 39 34
-0.447931 -0.393693 0.929553 35 38 33
-0.459799 -0.408565 0.964669 35 38 32
-0.453769 -0.407687 0.962595 34 37 32
-0.466164 -0.423529 1 36 40 34
-0.44261 -0.4067 0.960263 37 41 35
-0.438643 -0.407687 0.962595 36 40 33
-0.433601 -0.407687 0.962595 37 40 32
-0.428559 -0.407687 0.962595 38 40 31
-0.405143 -0.39 0.920833 39 38 29
-0.40032 -0.39 0.920833 39 38 29
-0.448997 -0.442756 1.0454 39 38 29
-0.44112 -0.440359 1.03974 38 37 27
-0.435674 -0.440359 1.03974 36 36 25
-0.444635 -0.455105 1.07455 36 37 27
-0.443023 -0.459269 1.08438 36 38 32
-0.439743 -0.461789 1.09033 37 37 35
-0.398072 -0.423529 1 37 37 35
-0.392835 -0.423529 1 38 38 35
-0.404023 -0.441478 1.04238 37 38 35
-0.412629 -0.457059 1.07917 37 38 34
-0.431572 -0.484681 1.14438 37 37 33
-0.387643 -0.441478 1.04238 37 37 33
-0.399766 -0.461789 1.09033 37 37 33
-0.441653 -0.517568 1.22203 37 38 33
-0.404034 -0.480446 1.13439 38 38 34
-0.41762 -0.504013 1.19003 38 39 35
-0.399608 -0.489582 1.15596 37 39 35
-0.393554 -0.489582 1.15596 36 38 34
-0.387499 -0.489582 1.15596 36 38 33
-0.349026 -0.447974 1.05772 37 38 32
-0.37539 -0.489582 1.15596 37 37 31
-0.390447 -0.517568 1.22203 38 38 33
-0.37864 -0.510282 1.20483 38 38 33
-0.383889 -0.526124 1.24224 37 38 32
-0.36016 -0.502114 1.18555 38 38 32
-0.370876 -0.526124 1.24224 38 38 33
-0.371412 -0.536294 1.26625 38 37 35
-0.406095 -0.597035 1.40967 37 36 37
-0.366326 -0.548541 1.29517 38 37 37
-0.369351 -0.563505 1.3305 37 37 37
-0.352759 -0.548541 1.29517 37 36 37
-0.345975 -0.548541 1.29517 37 37 37
-0.359924 -0.582071 1.37433 38 37 37
-0.352726 -0.582071 1.37433 37 37 36
-0.345527 -0.582071 1.37433 37 38 35
-0.347026 -0.597035 1.40967 36 38 34
-0.375314 -0.659738 1.55772 37 38 35
-0.323932 -0.582071 1.37433 36 38 34
-0.369925 -0.679823 1.60514 37 38 35
-0.324839 -0.61085 1.44228 37 37 35
-0.329981 -0.635294 1.5 36 37 35
-0.337253 -0.66513 1.57045 37 37 35
-0.346943 -0.701347 1.65596 37 37 35
-0.341036 -0.707083 1.6695 37 37 35
-0.312576 -0.66513 1.57045 37 37 34
-0.315052 -0.688517 1.62567 36 37 31
-0.343714 -0.772022 1.82283 36 37 31
-0.274984 -0.635294 1.5 37 38 31
-0.277406 -0.659738 1.55772 37 38 32
-0.323974 -0.793836 1.87433 37 38 31
-0.292016 -0.737889 1.74224 36 37 31
-0.295976 -0.772022 1.82283 36 38 33
-0.235701 -0.635294 1.5 35 40 34
-0.264639 -0.737889 1.74224 36 40 34
-0.263276 -0.760306 1.79517 36 41 35
-0.257785 -0.772022 1.82283 36 40 35
-0.227357 -0.707083 1.6695 36 40 36
-0.23017 -0.744464 1.75776 36 39 36
-0.219012 -0.737889 1.74224 35 38 35
-0.216263 -0.760306 1.79517 35 39 36
-0.200761 -0.737889 1.74224 35 39 36
-0.192343 -0.740612 1.74867 35 39 36
-0.185025 -0.748059 1.76625 36 40 36
-0.180125 -0.766575 1.80997 35 39 35
-0.169249 -0.760306 1.79517 35 39 35
-0.161164 -0.766575 1.80997 35 38 34
-0.14454 -0.73047 1.72472 36 38 34
-0.144881 -0.781006 1.84404 36 38 34
-0.134229 -0.77527 1.8305 36 38 35
-0.123243 -0.766575 1.80997 36 39 35
-0.113763 -0.766575 1.80997 37 39 36
-0.106913 -0.785908 1.85562 36 39 36
-0.0940272 -0.760306 1.79517 36 39 35
-0.0824325 -0.740612 1.74867 37 40 36
-0.0714365 -0.722047 1.70483 37 40 36
-0.062507 -0.722047 1.70483 37 41 36
-0.0579523 -0.781006 1.84404 37 41 36
-0.0482936 -0.781006 1.84404 35 39 34
-0.0376109 -0.760306 1.79517 35 39 34
-0.0279954 -0.75457 1.78162 37 39 34
-0.0178591 -0.722047 1.70483 38 38 34
-0.00892957 -0.722047 1.70483 38 38 35
0 -0.760306 1.79517 39 39 35
0.00925126 -0.748059 1.76625 38 38 34
0.0193174 -0.781006 1.84404 37 38 34
0.0282082 -0.760306 1.79517 36 38 34
0.0361349 -0.73047 1.72472 36 38 34
0.0466589 -0.75457 1.78162 38 38 34
0.0555075 -0.748059 1.76625 38 37 35
0.0647588 -0.748059 1.76625 37 37 35
0.0752218 -0.760306 1.79517 38 37 35
0.0814771 -0.732028 1.7284 37 37 36
0.0948025 -0.766575 1.80997 37 38 36
0.10343 -0.760306 1.79517 37 39 35
0.111981 -0.75457 1.78162 36 38 34
0.120266 -0.748059 1.76625 35 38 34
0.123347 -0.712421 1.68211 35 38 34
0.141041 -0.760306 1.79517 36 40 36
0.150444 -0.760306 1.79517 37 42 36
0.158315 -0.753021 1.77797 36 40 34
0.170645 -0.766575 1.80997 35 40 34
0.169662 -0.722047 1.70483 36 39 33
0.185025 -0.748059 1.76625 37 39 33
0.199085 -0.766575 1.80997 37 39 33
0.208566 -0.766575 1.80997 36 38 32
0.228273 -0.80253 1.89486 37 38 33
0.22203 -0.748059 1.76625 38 39 34
0.231281 -0.748059 1.76625 37 38 34
0.248238 -0.772022 1.82283 37 38 33
0.255967 -0.766575 1.80997 38 39 35
0.259035 -0.748059 1.76625 39 39 35
0.274927 -0.766575 1.80997 39 38 35
0.274775 -0.740612 1.74867 39 38 35
0.310076 -0.808799 1.90967 38 37 35
0.293093 -0.740612 1.74867 38 36 35
0.298113 -0.73047 1.72472 38 37 35
0.317281 -0.75457 1.78162 38 37 35
0.325942 -0.753021 1.77797 38 38 36
0.343714 -0.772022 1.82283 38 37 36
0.350769 -0.766575 1.80997 38 39 36
0.374587 -0.797084 1.882 39 40 37
0.36973 -0.766575 1.80997 39 40 37
0.373271 -0.75457 1.78162 39 40 37
0.38869 -0.766575 1.80997 39 40 37
0.416846 -0.80253 1.89486 38 39 37
0.417931 -0.785908 1.85562 40 39 37
0.407055 -0.748059 1.76625 41 38 36
0.429642 -0.772022 1.82283 38 37 35
0.43919 -0.772022 1.82283 38 35 33
0.441928 -0.760306 1.79517 37 37 35
0.451331 -0.760306 1.79517 37 40 36
0.48632 -0.80253 1.89486 38 40 36
0.485967 -0.785908 1.85562 37 39 35
0.492594 -0.781006 1.84404 36 39 34
0.469754 -0.73047 1.72472 37 39 32
0.52602 -0.80253 1.89486 37 39 31
0.51774 -0.77527 1.8305 37 39 32
0.531229 -0.781006 1.84404 36 39 29
0.536916 -0.77527 1.8305 36 37 31
0.544213 -0.772022 1.82283 37 37 34
0.575645 -0.80253 1.89486 38 37 35
0.585569 -0.80253 1.89486 40 38 36
0.592552 -0.798565 1.8855 40 39 37
0.573566 -0.760306 1.79517 40 39 36
0.612304 -0.798565 1.8855 40 38 36
0.597256 -0.766575 1.80997 39 40 37
0.596008 -0.753021 1.77797 38 42 37
0.623206 -0.77527 1.8305 36 40 35
0.625697 -0.766575 1.80997 36 39 35
0.651195 -0.785908 1.85562 35 39 34
0.633258 -0.753021 1.77797 35 39 35
0.648788 -0.760306 1.79517 37 40 36
0.691311 -0.798565 1.8855 38 40 37
0.674765 -0.768474 1.81445 37 39 36
0.684269 -0.768474 1.81445 37 38 35
0.720939 -0.798565 1.8855 37 38 35
0.703276 -0.768474 1.81445 37 39 35
0.736303 -0.793836 1.87433 37 38 35
0.750566 -0.798565 1.8855 35 37 35
0.724009 -0.760306 1.79517 35 37 36
0.741291 -0.768474 1.81445 35 37 36
0.750795 -0.768474 1.81445 36 38 36
0.78539 -0.793836 1.87433 37 39 37
0.782356 -0.781006 1.84404 38 40 37
0.805025 -0.793836 1.87433 38 39 36
0.792451 -0.772022 1.82283 36 38 35
0.848955 -0.817223 1.92955 36 38 35
0.850207 -0.808799 1.90967 38 39 36
0.86524 -0.813529 1.92083 38 39 36
0.875301 -0.813529 1.92083 38 39 35
0.873392 -0.80253 1.89486 38 39 35
0.974438 -0.885318 2.09033 38 39 35
0.869284 -0.781006 1.84404 37 39 34
0.910222 -0.808799 1.90967 37 38 33
0.963754 -0.847059 2 37 38 33
0.930227 -0.808799 1.90967 36 38 33
0.865439 -0.744464 1.75776 36 39 33
0.995181 -0.847059 2 36 39 32
1.00566 -0.847059 2 36 40 32
0.970236 -0.808799 1.90967 36 40 33
0.921467 -0.760306 1.79517 37 40 33
0.990241 -0.808799 1.90967 36 39 32
0.940272 -0.760306 1.79517 35 39 30
1.01025 -0.808799 1.90967 35 38 30
1.06851 -0.847059 2 35 39 30
1.07899 -0.847059 2 35 39 31
0.977883 -0.760306 1.79517 35 38 32
1.03082 -0.793836 1.87433 35 38 34
1.11041 -0.847059 2 36 38 34
1.06196 -0.80253 1.89486 36 38 35
1.04314 -0.781006 1.84404 35 37 34
1.14184 -0.847059 2 35 37 34
1.01275 -0.744464 1.75776 34 37 33
1.08973 -0.793836 1.87433 35 38 34
1.17327 -0.847059 2 36 39 35
1.09143 -0.781006 1.84404 35 39 35
1.07191 -0.760306 1.79517 35 39 34
1.0269 -0.722047 1.70483 35 39 34
1.21517 -0.847059 2 35 39 34
1.10012 -0.760306 1.79517 35 39 34
1.10952 -0.760306 1.79517 36 39 35
1.06262 -0.722047 1.70483 35 38 35
-0.491279 -0.326954 0.781624 39 38 27
-0.533303 -0.357904 0.855615 38 38 28
-0.476895 -0.322761 0.771599 37 38 32
-0.501224 -0.342126 0.817894 37 37 35
-0.502782 -0.346148 0.82751 36 37 35
-0.531272 -0.368943 0.882004 36 36 35
-0.53071 -0.371786 0.8888 36 37 35
-0.522032 -0.368943 0.882004 37 37 35
-0.466471 -0.332619 0.795167 38 37 35
-0.495862 -0.356762 0.852883 39 38 36
-0.491395 -0.356762 0.852883 38 38 33
-0.466952 -0.342126 0.817894 37 38 29
-0.462668 -0.342126 0.817894 37 38 30
-0.452378 -0.337643 0.807177 39 39 32
-0.496834 -0.374322 0.894863 38 39 31
-0.531558 -0.404298 0.966525 38 38 30
-0.472774 -0.363045 0.867904 38 39 32
-0.468228 -0.363045 0.867904 39 39 34
-0.480992 -0.376598 0.900304 38 39 35
-0.478874 -0.378651 0.905214 38 38 36
-0.471561 -0.376598 0.900304 38 37 36
-0.501183 -0.404298 0.966525 37 38 36
-0.477143 -0.388833 0.929553 37 39 37
-0.474144 -0.390372 0.933233 37 40 37
-0.485996 -0.404298 0.966525 36 39 35
-0.428322 -0.360069 0.860791 36 39 35
-0.45948 -0.390372 0.933233 36 39 34
-0.432948 -0.371786 0.8888 36 39 34
-0.431214 -0.374322 0.894863 36 39 34
-0.444816 -0.390372 0.933233 36 39 34
-0.439928 -0.390372 0.933233 35 38 33
-0.466164 -0.418301 1 35 38 33
-0.460926 -0.418301 1 37 40 34
-0.439588 -0.403521 0.964669 37 40 34
-0.46835 -0.434923 1.03974 36 40 32
-0.461866 -0.433947 1.03741 38 39 31
-0.457458 -0.434923 1.03974 39 38 30
-0.418476 -0.402654 0.962595 39 38 30
-0.413434 -0.402654 0.962595 39 38 29
-0.424261 -0.418301 1 38 36 27
-0.433828 -0.43308 1.03533 37 36 27
-0.413786 -0.418301 1 37 37 28
-0.408548 -0.418301 1 36 38 32
-0.419337 -0.434923 1.03974 36 37 34
-0.431664 -0.453599 1.08438 36 37 35
-0.423934 -0.451416 1.07917 39 39 36
-0.42261 -0.456088 1.09033 38 38 36
-0.398563 -0.436028 1.04238 38 38 35
-0.408945 -0.453599 1.08438 37 37 34
-0.408023 -0.458951 1.09718 36 37 32
-0.38329 -0.43729 1.0454 36 37 33
-0.396529 -0.458951 1.09718 37 38 34
-0.373578 -0.438745 1.04887 38 39 35
-0.447537 -0.53345 1.27528 38 39 35
-0.399608 -0.483538 1.15596 37 38 34
-0.393554 -0.483538 1.15596 37 38 34
-0.392039 -0.489203 1.1695 36 38 33
-0.397572 -0.503982 1.20483 37 37 32
-0.411206 -0.529673 1.26625 37 38 32
-0.422651 -0.55334 1.32283 39 39 34
-0.407029 -0.541769 1.29517 38 39 34
-0.36637 -0.495915 1.18555 38 38 33
-0.377382 -0.519629 1.24224 39 39 34
-0.345116 -0.483538 1.15596 39 39 35
-0.397624 -0.567055 1.35562 38 38 35
-0.357862 -0.519629 1.24224 37 36 36
-0.355747 -0.526123 1.25776 37 37 37
-0.359542 -0.541769 1.29517 37 37 37
-0.392828 -0.603308 1.44228 37 37 37
-0.355413 -0.556548 1.3305 37 37 37
-0.339191 -0.541769 1.29517 38 38 37
-0.341475 -0.556548 1.3305 38 38 37
-0.408716 -0.680017 1.62567 38 38 36
-0.357233 -0.607007 1.45113 36 38 34
-0.373184 -0.647895 1.54887 37 38 35
-0.336947 -0.597983 1.42955 36 38 34
-0.345695 -0.627451 1.5 37 38 35
-0.350837 -0.651594 1.55772 38 38 36
-0.345479 -0.656919 1.57045 37 38 36
-0.355616 -0.692688 1.65596 37 38 35
-0.340596 -0.680017 1.62567 37 37 35
-0.306411 -0.627451 1.5 37 37 35
-0.316534 -0.665238 1.59033 36 37 33
-0.337643 -0.728779 1.74224 36 37 31
-0.321464 -0.713133 1.70483 36 37 31
-0.303575 -0.692688 1.65596 37 38 31
-0.310267 -0.728779 1.74224 37 38 32
-0.33008 -0.798814 1.90967 38 39 33
-0.272477 -0.680017 1.62567 37 38 33
-0.291484 -0.75092 1.79517 36 38 33
-0.300073 -0.798814 1.90967 35 39 34
-0.287822 -0.792622 1.89486 35 39 34
-0.263276 -0.75092 1.79517 36 40 35
-0.270066 -0.798814 1.90967 36 39 35
-0.251127 -0.771364 1.84404 36 39 36
-0.237593 -0.758987 1.81445 37 40 37
-0.22203 -0.738823 1.76625 36 39 37
-0.216263 -0.75092 1.79517 35 39 36
-0.200761 -0.728779 1.74224 35 39 36
-0.194276 -0.738823 1.76625 34 38 35
-0.185025 -0.738823 1.76625 35 39 36
-0.175774 -0.738823 1.76625 35 39 35
-0.171857 -0.76249 1.82283 35 39 35
-0.151803 -0.713133 1.70483 35 38 34
-0.146008 -0.728779 1.74224 36 38 34
-0.141041 -0.75092 1.79517 36 39 35
-0.125014 -0.713133 1.70483 37 39 35
-0.122235 -0.75092 1.79517 37 39 35
-0.108405 -0.721452 1.72472 37 40 36
-0.100751 -0.731469 1.74867 37 39 36
-0.0950373 -0.758987 1.81445 37 39 36
-0.0853223 -0.757111 1.80997 36 39 35
-0.0736544 -0.735273 1.75776 36 39 35
-0.0680353 -0.776205 1.85562 37 40 36
-0.054955 -0.731469 1.74867 37 41 36
-0.0474013 -0.757111 1.80997 36 40 35
-0.037005 -0.738823 1.76625 35 39 35
-0.0274775 -0.731469 1.74867 37 39 35
-0.0191756 -0.765699 1.8305 38 38 34
-0.00954761 -0.76249 1.82283 38 39 35
0 -0.731469 1.74867 38 38 34
0.00996658 -0.795951 1.90282 37 38 34
0.0193174 -0.771364 1.84404 36 38 34
0.027159 -0.722991 1.7284 36 37 33
0.037921 -0.757111 1.80997 36 37 33
0.0496245 -0.792622 1.89486 37 38 34
0.0535774 -0.713133 1.70483 38 37 35
0.0653225 -0.745255 1.78162 37 36 35
0.075842 -0.757111 1.80997 37 36 34
0.0839861 -0.745255 1.78162 37 36 35
0.0940272 -0.75092 1.79517 37 38 35
0.101764 -0.738823 1.76625 36 38 34
0.10991 -0.731469 1.74867 35 38 34
0.123243 -0.757111 1.80997 35 38 34
0.133666 -0.76249 1.82283 36 39 35
0.144881 -0.771364 1.84404 36 40 35
0.153404 -0.765699 1.8305 36 40 35
0.148151 -0.695976 1.66382 35 39 34
0.166523 -0.738823 1.76625 35 39 33
0.177304 -0.745255 1.78162 36 38 33
0.180675 -0.721452 1.72472 37 39 33
0.197457 -0.75092 1.79517 38 39 34
0.199166 -0.722991 1.7284 37 38 34
0.21419 -0.743724 1.77797 36 37 32
0.21431 -0.713133 1.70483 36 37 32
0.242983 -0.776205 1.85562 36 38 32
0.234877 -0.721452 1.72472 37 39 34
0.249784 -0.738823 1.76625 38 39 35
0.263276 -0.75092 1.79517 39 39 35
0.264639 -0.728779 1.74224 39 38 35
0.29158 -0.776205 1.85562 39 38 35
0.297805 -0.767203 1.8341 38 37 35
0.303368 -0.757111 1.80997 38 36 35
0.320738 -0.776205 1.85562 38 37 35
0.330457 -0.776205 1.85562 38 37 36
0.326612 -0.745255 1.78162 38 38 36
0.325214 -0.721452 1.72472 39 38 36
0.330394 -0.713133 1.70483 38 38 36
0.343282 -0.721452 1.72472 39 39 37
0.360799 -0.738823 1.76625 39 40 37
0.37921 -0.757111 1.80997 38 39 36
0.38869 -0.757111 1.80997 38 38 36
0.39113 -0.743724 1.77797 38 39 36
0.415325 -0.771364 1.84404 40 39 37
0.429955 -0.780387 1.86561 41 38 36
0.434642 -0.771364 1.84404 38 36 34
0.436092 -0.757111 1.80997 39 36 34
0.448737 -0.76249 1.82283 38 37 35
0.455052 -0.757111 1.80997 37 40 36
0.460733 -0.75092 1.79517 38 40 36
0.470136 -0.75092 1.79517 36 39 35
0.498357 -0.780387 1.86561 35 37 33
0.488941 -0.75092 1.79517 36 39 32
0.490317 -0.738823 1.76625 37 39 32
0.499568 -0.738823 1.76625 37 39 33
0.534563 -0.776205 1.85562 37 40 32
0.560136 -0.798814 1.90967 37 39 34
0.550547 -0.771364 1.84404 37 37 35
0.536573 -0.738823 1.76625 38 37 35
0.55476 -0.75092 1.79517 39 38 36
0.579523 -0.771364 1.84404 40 39 36
0.589182 -0.771364 1.84404 40 39 36
0.59884 -0.771364 1.84404 40 39 36
0.580028 -0.735273 1.75776 39 40 37
0.618158 -0.771364 1.84404 38 41 38
0.580422 -0.713133 1.70483 38 41 37
0.651808 -0.788707 1.8855 37 41 37
0.635177 -0.757111 1.80997 36 39 35
0.660915 -0.776205 1.85562 36 39 35
0.661557 -0.765699 1.8305 37 40 36
0.671144 -0.765699 1.8305 38 40 37
0.661196 -0.743724 1.77797 38 39 36
0.69032 -0.765699 1.8305 37 38 35
0.737782 -0.807133 1.92955 37 38 35
0.689134 -0.743724 1.77797 38 39 36
0.730983 -0.77837 1.86079 38 39 36
0.728671 -0.765699 1.8305 37 38 36
0.731787 -0.758987 1.81445 36 37 36
0.770318 -0.788707 1.8855 36 38 36
0.80369 -0.812459 1.94228 36 38 36
0.742342 -0.741061 1.7716 37 39 37
0.773356 -0.76249 1.82283 38 40 37
0.828742 -0.807133 1.92955 38 39 36
0.780426 -0.75092 1.79517 37 38 35
0.818701 -0.77837 1.86079 37 38 35
0.828448 -0.77837 1.86079 37 38 35
0.869168 -0.807133 1.92955 37 38 35
0.870212 -0.798814 1.90967 37 38 35
0.816576 -0.741061 1.7716 38 39 35
0.932328 -0.836601 2 39 41 36
0.87718 -0.77837 1.86079 39 40 35
0.915545 -0.803486 1.92083 38 39 34
0.963754 -0.836601 2 36 38 33
1.01279 -0.869717 2.07917 35 38 32
0.907919 -0.771364 1.84404 36 39 33
0.907022 -0.76249 1.82283 36 40 32
0.902661 -0.75092 1.79517 36 40 33
1.01613 -0.836601 2 36 40 33
1.02661 -0.836601 2 36 40 33
1.03708 -0.836601 2 36 40 33
1.04756 -0.836601 2 35 39 31
1.05803 -0.836601 2 35 38 30
1.01234 -0.792622 1.89486 36 39 31
1.07899 -0.836601 2 36 39 33
1.08946 -0.836601 2 36 38 33
0.937604 -0.713133 1.70483 35 38 33
1.05204 -0.792622 1.89486 36 38 34
1.00609 -0.75092 1.79517 35 38 35
1.13136 -0.836601 2 36 38 35
1.21358 -0.889167 2.12567 35 38 35
1.15232 -0.836601 2 35 38 34
1.16279 -0.836601 2 36 38 35
1.29343 -0.922283 2.20483 36 39 35
1.18374 -0.836601 2 35 38 34
0.895663 -0.627451 1.5 35 39 34
1.20469 -0.836601 2 35 39 33
1.03583 -0.713133 1.70483 35 39 34
1.13007 -0.771364 1.84404 36 39 34
1.23612 -0.836601 2 35 39 34
1.2466 -0.836601 2 35 38 35
-0.524259 -0.344541 0.834095 39 37 26
-0.526089 -0.34865 0.844042 38 38 28
-0.484559 -0.323848 0.784 37 38 32
-0.494656 -0.333422 0.807177 37 37 35
-0.525933 -0.357561 0.865614 37 37 36
-0.502414 -0.344541 0.834095 37 37 36
-0.526652 -0.364331 0.882004 37 37 36
-0.484088 -0.337849 0.817894 38 37 35
-0.479804 -0.337849 0.817894 38 37 35
-0.520269 -0.369643 0.894863 38 37 35
-0.495951 -0.355569 0.860791 37 38 33
-0.48188 -0.34865 0.844042 38 38 31
-0.498934 -0.364331 0.882004 38 39 32
-0.493289 -0.363575 0.880174 38 38 31
-0.477917 -0.355569 0.860791 38 38 31
-0.480856 -0.361163 0.874334 38 38 32
-0.472774 -0.358507 0.867904 39 39 33
-0.474848 -0.363575 0.880174 39 39 33
-0.480992 -0.37189 0.900304 38 38 35
-0.481229 -0.375757 0.909666 38 38 36
-0.488809 -0.385492 0.933233 37 37 36
-0.48564 -0.386862 0.936549 38 39 37
-0.459337 -0.369643 0.894863 38 40 37
-0.508066 -0.413072 1 37 39 36
-0.485063 -0.398477 0.964669 36 39 35
-0.464368 -0.385492 0.933233 36 39 35
-0.476694 -0.399934 0.968195 37 39 35
-0.456207 -0.386862 0.936549 37 39 35
-0.447931 -0.383972 0.929553 37 39 35
-0.426527 -0.369643 0.894863 36 38 33
-0.439928 -0.385492 0.933233 36 37 33
-0.466164 -0.413072 1 37 39 35
-0.412466 -0.369643 0.894863 38 40 34
-0.455688 -0.413072 1 36 39 32
-0.45045 -0.413072 1 36 38 30
-0.445213 -0.413072 1 38 38 30
-0.423518 -0.397621 0.962595 39 38 31
-0.434737 -0.413072 1 40 39 31
-0.429499 -0.413072 1 39 38 30
-0.44112 -0.429486 1.03974 38 37 29
-0.434697 -0.428523 1.03741 38 36 28
-0.446544 -0.445773 1.07917 38 38 31
-0.425862 -0.430577 1.04238 38 39 35
-0.419337 -0.429486 1.03974 38 38 36
-0.413891 -0.429486 1.03974 37 37 35
-0.425984 -0.447929 1.08438 38 38 36
-0.420304 -0.447929 1.08438 37 38 35
-0.416899 -0.450387 1.09033 38 39 35
-0.427801 -0.468583 1.13439 38 39 35
-0.386661 -0.429486 1.03974 37 38 33
-0.412721 -0.464981 1.12567 37 37 33
-0.425439 -0.486256 1.17717 37 38 34
-0.375022 -0.434935 1.05293 38 39 35
-0.368084 -0.433261 1.04887 38 39 34
-0.432579 -0.51689 1.25133 37 38 34
-0.398165 -0.483088 1.1695 37 38 34
-0.416422 -0.513134 1.24224 37 38 33
-0.385913 -0.483088 1.1695 37 38 33
-0.420597 -0.534997 1.29517 38 38 33
-0.406283 -0.525262 1.2716 39 39 34
-0.358017 -0.470575 1.13921 39 39 34
-0.379613 -0.507418 1.2284 39 39 34
-0.377382 -0.513134 1.24224 39 39 34
-0.386678 -0.534997 1.29517 38 38 34
-0.353397 -0.497683 1.20483 38 37 35
-0.390524 -0.559967 1.35562 37 37 36
-0.37632 -0.549592 1.3305 37 37 37
-0.400383 -0.595767 1.44228 37 36 36
-0.379912 -0.576179 1.39486 36 36 36
-0.355413 -0.549592 1.3305 37 37 37
-0.315533 -0.497683 1.20483 38 38 37
-0.341475 -0.549592 1.3305 38 39 37
-0.394833 -0.648707 1.57045 39 39 37
-0.410992 -0.689624 1.6695 36 38 35
-0.373184 -0.639796 1.54887 37 39 35
-0.370156 -0.648707 1.57045 36 38 35
-0.345695 -0.619608 1.5 37 38 35
-0.353704 -0.648707 1.57045 38 38 35
-0.357626 -0.671517 1.62567 37 38 35
-0.322124 -0.619608 1.5 37 37 35
-0.340596 -0.671517 1.62567 37 37 35
-0.348253 -0.704219 1.70483 37 37 35
-0.339324 -0.704219 1.70483 37 37 34
-0.301883 -0.643449 1.55772 37 38 33
-0.314802 -0.689624 1.6695 37 38 33
-0.298022 -0.671517 1.62567 37 38 32
-0.303605 -0.704219 1.70483 37 38 32
-0.315071 -0.752959 1.82283 38 39 33
-0.263222 -0.648707 1.57045 38 39 34
-0.27108 -0.689624 1.6695 36 38 33
-0.255447 -0.671517 1.62567 35 38 33
-0.264639 -0.719669 1.74224 35 39 34
-0.281706 -0.793442 1.92083 36 40 35
-0.236102 -0.689624 1.6695 36 39 35
-0.228402 -0.692792 1.67717 36 39 35
-0.232816 -0.734428 1.77797 36 39 37
-0.229143 -0.752959 1.82283 36 39 37
-0.22215 -0.761722 1.84404 36 39 36
-0.203528 -0.729588 1.76625 36 39 37
-0.195967 -0.735939 1.78162 36 39 36
-0.186636 -0.735939 1.78162 36 40 37
-0.181405 -0.752959 1.82283 37 41 36
-0.170645 -0.747648 1.80997 37 40 36
-0.155706 -0.722326 1.74867 36 39 35
-0.159465 -0.786002 1.90282 37 39 35
-0.144881 -0.761722 1.84404 37 39 35
-0.123347 -0.694831 1.68211 37 39 35
-0.122235 -0.741533 1.79517 37 39 36
-0.111015 -0.729588 1.76625 38 40 37
-0.0993711 -0.712434 1.72472 38 40 37
-0.0958778 -0.756128 1.8305 38 40 36
-0.0846245 -0.741533 1.79517 37 39 36
-0.07401 -0.729588 1.76625 36 38 35
-0.0663618 -0.747648 1.80997 37 40 35
-0.0568815 -0.747648 1.80997 37 40 36
-0.0462563 -0.729588 1.76625 36 39 35
-0.0376109 -0.741533 1.79517 35 38 34
-0.0293151 -0.770633 1.86561 37 38 34
-0.0195434 -0.770633 1.86561 38 38 34
-0.00915917 -0.722326 1.74867 37 38 33
0 -0.752959 1.82283 37 37 32
0.00915917 -0.722326 1.74867 38 38 34
0.0186636 -0.735939 1.78162 38 39 35
0.029158 -0.766503 1.85562 37 38 34
0.037921 -0.747648 1.80997 36 37 34
0.0474013 -0.747648 1.80997 37 38 34
0.054118 -0.711324 1.72203 38 37 35
0.0687217 -0.774235 1.87433 37 36 35
0.0746543 -0.735939 1.78162 37 36 34
0.0832613 -0.729588 1.76625 36 36 34
0.0940272 -0.741533 1.79517 37 38 35
0.10265 -0.735939 1.78162 36 38 34
0.113763 -0.747648 1.80997 35 38 34
0.119069 -0.722326 1.74867 36 38 34
0.129518 -0.729588 1.76625 37 40 36
0.135795 -0.713954 1.7284 36 39 36
0.146547 -0.722326 1.74867 36 39 34
0.161164 -0.747648 1.80997 35 39 33
0.175891 -0.770633 1.86561 35 39 33
0.178652 -0.741533 1.79517 36 38 33
0.18106 -0.713954 1.7284 37 38 32
0.194276 -0.729588 1.76625 37 38 34
0.210047 -0.752959 1.82283 37 38 33
0.218046 -0.747648 1.80997 37 38 33
0.21681 -0.712434 1.72472 36 37 32
0.231281 -0.729588 1.76625 37 38 34
0.254064 -0.770633 1.86561 38 39 35
0.257785 -0.752959 1.82283 38 39 34
0.263276 -0.741533 1.79517 38 37 34
0.265616 -0.722326 1.74867 38 37 34
0.286428 -0.752959 1.82283 38 37 35
0.293888 -0.747648 1.80997 37 36 34
0.314156 -0.774235 1.87433 36 35 33
0.307949 -0.735939 1.78162 37 36 34
0.316629 -0.734428 1.77797 38 37 36
0.326612 -0.735939 1.78162 39 39 37
0.333045 -0.729588 1.76625 40 39 38
0.340652 -0.726082 1.75776 39 39 37
0.351548 -0.729588 1.76625 38 39 37
0.357208 -0.722326 1.74867 37 38 36
0.37921 -0.747648 1.80997 37 37 35
0.375526 -0.722326 1.74867 37 38 35
0.388553 -0.729588 1.76625 38 38 36
0.413085 -0.757613 1.8341 39 38 36
0.429955 -0.770633 1.86561 40 37 35
0.429642 -0.752959 1.82283 38 37 35
0.432525 -0.741533 1.79517 39 36 34
0.45927 -0.770633 1.86561 38 37 35
0.461118 -0.757613 1.8341 37 39 36
0.457257 -0.735939 1.78162 37 39 35
0.482936 -0.761722 1.84404 36 39 35
0.492594 -0.761722 1.84404 36 38 34
0.469754 -0.712434 1.72472 37 39 34
0.511912 -0.761722 1.84404 37 39 33
0.538196 -0.786002 1.90282 37 39 33
0.534563 -0.766503 1.85562 37 39 32
0.530894 -0.747648 1.80997 37 39 34
0.508985 -0.704219 1.70483 37 37 34
0.531232 -0.722326 1.74867 37 37 34
0.569864 -0.761722 1.84404 39 38 36
0.58316 -0.766503 1.85562 40 39 36
0.579728 -0.749499 1.81445 39 39 36
0.560092 -0.712434 1.72472 39 38 35
0.62218 -0.778848 1.8855 38 40 37
0.635194 -0.782715 1.89486 38 41 38
0.631757 -0.766503 1.85562 38 41 38
0.641476 -0.766503 1.85562 37 41 37
0.664969 -0.782715 1.89486 36 39 36
0.644657 -0.747648 1.80997 36 40 36
0.670634 -0.766503 1.85562 37 40 37
0.694743 -0.782715 1.89486 37 40 37
0.704668 -0.782715 1.89486 37 39 36
0.684269 -0.749499 1.81445 37 38 35
0.699908 -0.756128 1.8305 37 38 36
0.754679 -0.80428 1.94707 38 39 36
0.71278 -0.749499 1.81445 37 39 36
0.770887 -0.799934 1.93655 37 39 36
0.738259 -0.756128 1.8305 36 38 37
0.793516 -0.802303 1.94228 36 38 36
0.780194 -0.778848 1.8855 36 38 36
0.79007 -0.778848 1.8855 37 39 37
0.769802 -0.749499 1.81445 38 39 36
0.805025 -0.774235 1.87433 38 39 36
0.78881 -0.749499 1.81445 37 39 36
0.829573 -0.778848 1.8855 37 38 35
0.788738 -0.731798 1.7716 36 38 35
0.869168 -0.797044 1.92955 35 37 34
0.840308 -0.761722 1.84404 36 38 34
0.885362 -0.793442 1.92083 37 39 35
0.849737 -0.752959 1.82283 38 40 35
0.905484 -0.793442 1.92083 39 40 35
0.915545 -0.793442 1.92083 38 39 35
0.888602 -0.761722 1.84404 37 39 34
0.97423 -0.826144 2 36 38 33
0.984706 -0.826144 2 36 39 33
0.955788 -0.793442 1.92083 37 40 34
0.960234 -0.788829 1.90967 37 40 34
0.970236 -0.788829 1.90967 36 40 33
1.02661 -0.826144 2 36 40 32
0.982566 -0.782715 1.89486 36 39 32
1.04756 -0.826144 2 36 39 32
1.12451 -0.878053 2.12567 36 39 32
1.06851 -0.826144 2 36 39 33
1.07899 -0.826144 2 36 39 33
1.03219 -0.782715 1.89486 36 38 33
1.09994 -0.826144 2 36 39 34
1.04064 -0.774235 1.87433 36 38 34
1.19132 -0.878053 2.12567 36 39 35
1.01549 -0.741533 1.79517 37 39 36
1.14184 -0.826144 2 36 39 35
1.24217 -0.890566 2.15596 35 38 34
1.28188 -0.910755 2.20483 36 39 35
1.17327 -0.826144 2 37 40 36
1.09143 -0.761722 1.84404 36 39 36
1.19422 -0.826144 2 35 39 34
1.20469 -0.826144 2 35 39 34
1.03583 -0.704219 1.70483 35 39 34
1.10012 -0.741533 1.79517 35 39 34
1.05369 -0.704219 1.70483 35 38 34
1.2466 -0.826144 2 35 38 34
-0.544069 -0.353035 0.865614 38 36 28
-0.5316 -0.347843 0.852883 38 37 29
-0.545131 -0.359719 0.882004 38 38 34
-0.480452 -0.319749 0.784 37 37 35
-0.518198 -0.347843 0.852883 37 37 36
-0.518494 -0.351068 0.860791 37 37 36
-0.494113 -0.337494 0.82751 37 37 36
-0.493677 -0.34018 0.834095 37 37 35
-0.495143 -0.344237 0.844042 37 37 35
-0.50046 -0.351068 0.860791 37 37 35
-0.486301 -0.344237 0.844042 38 38 34
-0.495503 -0.353969 0.867904 39 39 32
-0.486934 -0.351068 0.860791 38 38 31
-0.509817 -0.371001 0.909666 38 38 31
-0.481866 -0.353969 0.867904 38 38 31
-0.455104 -0.337494 0.82751 39 39 32
-0.476277 -0.356591 0.874334 39 39 33
-0.485708 -0.367183 0.900304 39 39 33
-0.483615 -0.369185 0.905214 38 38 35
-0.459136 -0.353969 0.867904 37 37 35
-0.488809 -0.380613 0.933233 38 38 36
-0.469391 -0.369185 0.905214 39 40 38
-0.43325 -0.344237 0.844042 38 40 37
-0.475829 -0.381965 0.936549 37 39 36
-0.485996 -0.39419 0.966525 36 39 35
-0.447983 -0.367183 0.900304 36 39 35
-0.477438 -0.395489 0.969708 37 39 35
-0.454592 -0.380613 0.933233 37 39 35
-0.464852 -0.393433 0.964669 36 38 34
-0.476639 -0.407843 1 36 37 33
-0.438193 -0.379112 0.929553 37 38 34
-0.450559 -0.39419 0.966525 39 40 36
-0.414974 -0.367183 0.900304 38 39 34
-0.489662 -0.438249 1.07455 38 39 33
-0.434535 -0.393433 0.964669 37 38 30
-0.429483 -0.393433 0.964669 37 37 30
-0.454703 -0.421496 1.03348 39 38 32
-0.450998 -0.423099 1.03741 40 39 33
-0.429499 -0.407843 1 39 38 31
-0.408392 -0.392588 0.962595 38 37 30
-0.434697 -0.423099 1.03741 39 38 30
-0.428405 -0.422253 1.03533 39 39 33
-0.439007 -0.438249 1.07455 38 39 35
-0.40331 -0.407843 1 38 38 36
-0.429587 -0.440131 1.07917 37 37 35
-0.410668 -0.426358 1.0454 38 38 35
-0.420304 -0.442259 1.08438 37 38 35
-0.412629 -0.440131 1.07917 38 38 35
-0.431572 -0.466729 1.14438 38 38 35
-0.387643 -0.425127 1.04238 37 38 34
-0.415918 -0.462652 1.13439 37 38 34
-0.382267 -0.431382 1.05772 37 37 33
-0.393617 -0.450722 1.10514 37 38 34
-0.398093 -0.462652 1.13439 38 38 34
-0.416504 -0.491383 1.20483 37 38 34
-0.405154 -0.485346 1.19003 37 38 34
-0.392039 -0.476973 1.1695 37 38 34
-0.392688 -0.485346 1.19003 37 38 33
-0.420597 -0.528225 1.29517 38 38 33
-0.413813 -0.528225 1.29517 39 39 34
-0.37864 -0.491383 1.20483 39 39 34
-0.377645 -0.498398 1.22203 39 39 33
-0.393462 -0.528225 1.29517 38 38 32
-0.394936 -0.539507 1.32283 37 37 32
-0.347741 -0.483517 1.18555 38 37 35
-0.381079 -0.539507 1.32283 38 38 36
-0.340776 -0.491383 1.20483 37 37 36
-0.349159 -0.51297 1.25776 36 36 35
-0.362382 -0.542635 1.3305 36 36 36
-0.345975 -0.528225 1.29517 37 37 37
-0.3653 -0.568885 1.39486 38 38 36
-0.352726 -0.560513 1.37433 38 38 36
-0.362611 -0.588226 1.44228 37 38 35
-0.386607 -0.640496 1.57045 35 37 34
-0.344435 -0.583034 1.42955 36 37 34
-0.353551 -0.611765 1.5 36 37 34
-0.356958 -0.631698 1.54887 37 38 34
-0.309535 -0.560513 1.37433 38 38 35
-0.342678 -0.635304 1.55772 37 38 35
-0.302725 -0.574922 1.40967 37 37 35
-0.333194 -0.648607 1.59033 37 37 34
-0.318201 -0.635304 1.55772 37 37 34
-0.312576 -0.640496 1.57045 37 38 34
-0.290698 -0.611765 1.5 38 39 34
-0.321464 -0.695304 1.70483 38 39 34
-0.287899 -0.640496 1.57045 37 38 32
-0.310267 -0.71056 1.74224 37 38 33
-0.301141 -0.71056 1.74224 38 39 33
-0.277554 -0.675371 1.65596 37 38 33
-0.263962 -0.663017 1.62567 36 38 32
-0.255447 -0.663017 1.62567 35 38 32
-0.264639 -0.71056 1.74224 36 39 33
-0.25982 -0.722535 1.7716 36 39 35
-0.253873 -0.732147 1.79517 36 39 36
-0.247097 -0.740012 1.81445 36 39 36
-0.23869 -0.743428 1.82283 36 39 36
-0.223963 -0.726623 1.78162 36 39 36
-0.20931 -0.708608 1.73745 35 38 35
-0.205299 -0.726623 1.78162 35 38 35
-0.197457 -0.732147 1.79517 35 39 36
-0.188054 -0.732147 1.79517 36 40 36
-0.179847 -0.737045 1.80718 37 41 36
-0.166523 -0.720353 1.76625 37 40 36
-0.157271 -0.720353 1.76625 37 40 35
-0.149309 -0.726623 1.78162 38 39 35
-0.139977 -0.726623 1.78162 37 39 35
-0.133666 -0.743428 1.82283 37 39 35
-0.123243 -0.738184 1.80997 36 38 35
-0.113588 -0.737045 1.80718 37 39 35
-0.10265 -0.726623 1.78162 38 40 37
-0.0925126 -0.720353 1.76625 38 40 36
-0.0813036 -0.703416 1.72472 39 40 37
-0.0714365 -0.695304 1.70483 38 39 36
-0.0663618 -0.738184 1.80997 37 39 35
-0.054955 -0.713182 1.74867 37 39 35
-0.0451687 -0.703416 1.72472 37 39 35
-0.0366367 -0.713182 1.74867 37 39 35
-0.0267887 -0.695304 1.70483 37 38 34
-0.0189605 -0.738184 1.80997 37 37 33
-0.00925126 -0.720353 1.76625 37 38 34
0 -0.738184 1.80997 38 38 34
0.00912549 -0.71056 1.74224 38 38 34
0.0190952 -0.743428 1.82283 38 39 35
0.0279954 -0.726623 1.78162 38 39 36
0.0366367 -0.713182 1.74867 37 38 35
0.0466589 -0.726623 1.78162 38 38 34
0.0564163 -0.732147 1.79517 38 38 35
0.065819 -0.732147 1.79517 38 38 36
0.07401 -0.720353 1.76625 37 36 35
0.0832613 -0.720353 1.76625 36 35 34
0.0915917 -0.713182 1.74867 36 37 34
0.100751 -0.713182 1.74867 37 38 35
0.10991 -0.713182 1.74867 36 38 35
0.116084 -0.695304 1.70483 36 39 35
0.132724 -0.738184 1.80997 37 39 36
0.132428 -0.687439 1.68555 36 39 35
0.149309 -0.726623 1.78162 36 39 34
0.157271 -0.720353 1.76625 36 39 34
0.160732 -0.695304 1.70483 36 39 33
0.175774 -0.720353 1.76625 37 39 33
0.185025 -0.720353 1.76625 37 38 33
0.192343 -0.713182 1.74867 38 38 34
0.201502 -0.713182 1.74867 38 38 34
0.21419 -0.725131 1.77797 38 39 34
0.227526 -0.738184 1.80997 37 38 34
0.231281 -0.720353 1.76625 37 39 34
0.246106 -0.737045 1.80718 37 39 34
0.251958 -0.726623 1.78162 38 38 34
0.25779 -0.716891 1.75776 38 37 34
0.270622 -0.726623 1.78162 37 37 34
0.284408 -0.738184 1.80997 37 37 34
0.305584 -0.767562 1.882 36 36 34
0.300887 -0.732147 1.79517 37 36 34
0.305291 -0.720353 1.76625 37 36 34
0.303605 -0.695304 1.70483 38 37 36
0.345014 -0.767562 1.882 39 39 37
0.335944 -0.726623 1.78162 39 39 37
0.353261 -0.743428 1.82283 39 39 38
0.371325 -0.760878 1.86561 39 39 37
0.374658 -0.748023 1.8341 37 38 35
0.36212 -0.704916 1.7284 37 38 35
0.393871 -0.748023 1.8341 38 38 36
0.410412 -0.760878 1.86561 38 38 36
0.397804 -0.720353 1.76625 39 37 35
0.427651 -0.7568 1.85562 40 37 36
0.439727 -0.760878 1.86561 39 38 36
0.421322 -0.713182 1.74867 39 37 35
0.45927 -0.760878 1.86561 37 37 35
0.447926 -0.726623 1.78162 36 38 35
0.476247 -0.7568 1.85562 35 37 34
0.498329 -0.776052 1.90282 35 37 34
0.486928 -0.743428 1.82283 37 39 35
0.492973 -0.738184 1.80997 37 39 34
0.494585 -0.726623 1.78162 37 40 34
0.511934 -0.738184 1.80997 37 39 34
0.491126 -0.695304 1.70483 36 38 31
0.52258 -0.726623 1.78162 36 38 33
0.547577 -0.748023 1.8341 36 36 33
0.560205 -0.75208 1.84404 37 37 34
0.585569 -0.772807 1.89486 39 38 36
0.586302 -0.760878 1.86561 39 39 36
0.602428 -0.768989 1.8855 39 39 36
0.587776 -0.738184 1.80997 39 38 36
0.597256 -0.738184 1.80997 37 38 35
0.611047 -0.743428 1.82283 36 39 36
0.645119 -0.772807 1.89486 37 40 37
0.614633 -0.725131 1.77797 36 39 36
0.647134 -0.75208 1.84404 35 38 35
0.651969 -0.746556 1.8305 36 39 36
0.670634 -0.7568 1.85562 37 40 37
0.644476 -0.716891 1.75776 37 39 37
0.701187 -0.768989 1.8855 37 38 35
0.711063 -0.768989 1.8855 37 38 35
0.74265 -0.792147 1.94228 38 39 36
0.726486 -0.764434 1.87433 38 39 36
0.736303 -0.764434 1.87433 37 39 36
0.750566 -0.768989 1.8855 37 38 36
0.724009 -0.732147 1.79517 37 38 36
0.75338 -0.75208 1.84404 37 38 36
0.80369 -0.792147 1.94228 36 38 36
0.78539 -0.764434 1.87433 37 38 36
0.789462 -0.758911 1.86079 37 39 36
0.809822 -0.768989 1.8855 37 39 36
0.780426 -0.732147 1.79517 37 39 36
0.811332 -0.75208 1.84404 37 38 35
0.890425 -0.815686 2 36 38 35
0.817321 -0.740012 1.81445 36 38 35
0.943478 -0.844417 2.07045 37 38 35
0.885362 -0.783399 1.92083 37 38 34
0.899488 -0.786955 1.92955 37 39 34
0.835135 -0.722535 1.7716 38 40 35
0.868832 -0.743428 1.82283 37 39 34
0.920224 -0.778844 1.90967 36 38 33
0.887927 -0.743428 1.82283 35 38 32
0.950021 -0.786955 1.92955 36 39 33
0.960128 -0.786955 1.92955 37 41 35
0.91657 -0.743428 1.82283 37 40 34
1.05635 -0.847974 2.07917 36 39 33
1.02661 -0.815686 2 35 39 32
0.982566 -0.772807 1.89486 36 39 32
0.992491 -0.772807 1.89486 36 39 33
0.991555 -0.764434 1.87433 36 39 33
0.959077 -0.732147 1.79517 36 39 33
1.07899 -0.815686 2 35 38 33
1.08946 -0.815686 2 36 39 34
0.987286 -0.732147 1.79517 36 39 34
1.06026 -0.778844 1.90967 36 39 34
1.06196 -0.772807 1.89486 36 39 35
1.13136 -0.815686 2 37 39 36
1.21358 -0.866938 2.12567 37 39 36
1.15232 -0.815686 2 36 39 36
1.23585 -0.866938 2.12567 36 39 36
1.08178 -0.75208 1.84404 37 40 36
1.09143 -0.75208 1.84404 37 40 36
1.28734 -0.879293 2.15596 36 39 35
1.11075 -0.75208 1.84404 36 39 34
1.03583 -0.695304 1.70483 36 39 35
1.13007 -0.75208 1.84404 36 40 35
1.23612 -0.815686 2 36 39 35
1.37427 -0.899226 2.20483 35 38 34
-0.499791 -0.320146 0.795167 35 33 26
-0.503112 -0.324981 0.807177 36 36 29
-0.498884 -0.324981 0.807177 38 39 35
-0.487296 -0.320146 0.795167 37 37 35
-0.468812 -0.310657 0.771599 36 36 35
-0.478966 -0.320146 0.795167 36 36 35
-0.509264 -0.343383 0.852883 36 36 34
-0.513687 -0.349431 0.867904 36 36 34
-0.485445 -0.333167 0.82751 37 36 34
-0.50046 -0.346567 0.860791 38 37 35
-0.495951 -0.346567 0.860791 38 38 34
-0.48188 -0.339823 0.844042 39 39 32
-0.468107 -0.333167 0.82751 38 39 32
-0.490015 -0.352019 0.874334 38 38 31
-0.4541 -0.329296 0.817894 38 38 31
-0.47732 -0.349431 0.867904 38 38 31
-0.45077 -0.333167 0.82751 39 39 33
-0.482772 -0.360285 0.894863 39 39 33
-0.459882 -0.346567 0.860791 38 38 34
-0.453754 -0.345335 0.85773 37 37 35
-0.474132 -0.364452 0.905214 38 37 36
-0.4717 -0.366244 0.909666 38 38 36
-0.46213 -0.362475 0.900304 38 39 36
-0.45465 -0.360285 0.894863 37 39 36
-0.487597 -0.390418 0.969708 37 39 35
-0.447983 -0.362475 0.900304 37 39 36
-0.445685 -0.364452 0.905214 37 39 36
-0.452799 -0.374252 0.929553 36 38 34
-0.452749 -0.378277 0.939552 35 37 32
-0.462201 -0.390418 0.969708 36 38 34
-0.455621 -0.389137 0.966525 38 39 35
-0.43504 -0.375733 0.933233 38 39 35
-0.460926 -0.402614 1 37 38 33
-0.471788 -0.416839 1.03533 37 38 32
-0.433601 -0.387555 0.962595 37 38 31
-0.461866 -0.417674 1.03741 38 38 31
-0.439975 -0.402614 1 39 38 32
-0.450998 -0.417674 1.03741 38 38 31
-0.429499 -0.402614 1 38 37 30
-0.439251 -0.416839 1.03533 38 38 31
-0.452196 -0.434488 1.07917 38 38 31
-0.446544 -0.434488 1.07917 38 38 31
-0.434471 -0.428161 1.06345 37 38 33
-0.416811 -0.416092 1.03348 37 37 35
-0.413891 -0.418613 1.03974 37 37 35
-0.423934 -0.434488 1.07917 37 38 35
-0.416494 -0.432631 1.07455 37 38 35
-0.414624 -0.436589 1.08438 37 38 35
-0.377121 -0.402614 1 37 38 34
-0.403265 -0.436589 1.08438 37 38 34
-0.415918 -0.45672 1.13439 38 38 35
-0.377814 -0.420891 1.0454 38 38 34
-0.388345 -0.438984 1.09033 37 38 33
-0.368084 -0.422292 1.04887 37 38 34
-0.365647 -0.425852 1.05772 37 37 33
-0.426024 -0.503804 1.25133 37 38 34
-0.392039 -0.470858 1.1695 38 38 34
-0.412916 -0.503804 1.25133 38 39 34
-0.396848 -0.492009 1.22203 38 38 33
-0.406283 -0.511964 1.2716 38 39 33
-0.384046 -0.492009 1.22203 38 38 33
-0.383889 -0.500143 1.24224 38 38 32
-0.377382 -0.500143 1.24224 38 38 32
-0.378044 -0.50981 1.26625 37 37 32
-0.388008 -0.53259 1.32283 37 37 34
-0.37311 -0.521453 1.29517 37 37 36
-0.358147 -0.50981 1.26625 37 37 36
-0.381519 -0.553327 1.37433 36 36 35
-0.379912 -0.561592 1.39486 36 36 35
-0.372606 -0.561592 1.39486 37 37 36
-0.348444 -0.535678 1.3305 38 38 36
-0.36466 -0.572048 1.42083 38 39 36
-0.394833 -0.632284 1.57045 38 39 36
-0.369265 -0.603922 1.5 35 37 34
-0.349632 -0.584244 1.45113 35 36 33
-0.353551 -0.603922 1.5 35 36 33
-0.369925 -0.646251 1.60514 36 37 34
-0.350837 -0.627159 1.55772 37 38 35
-0.342678 -0.627159 1.55772 37 37 34
-0.322124 -0.603922 1.5 37 37 34
-0.357183 -0.68639 1.70483 36 37 34
-0.341036 -0.672165 1.6695 38 38 35
-0.339324 -0.68639 1.70483 38 38 35
-0.315052 -0.654516 1.62567 38 39 34
-0.321464 -0.68639 1.70483 38 39 34
-0.298022 -0.654516 1.62567 38 39 34
-0.303605 -0.68639 1.70483 38 39 34
-0.288569 -0.672165 1.6695 38 39 33
-0.296937 -0.713271 1.7716 37 38 33
-0.28289 -0.70145 1.74224 36 37 31
-0.255447 -0.654516 1.62567 35 37 31
-0.264639 -0.70145 1.74224 35 38 32
-0.241163 -0.662053 1.64438 35 39 34
-0.248584 -0.7077 1.75776 35 38 34
-0.229074 -0.67724 1.68211 35 39 35
-0.231281 -0.711118 1.76625 36 39 36
-0.219012 -0.70145 1.74224 36 39 36
-0.209886 -0.70145 1.74224 35 38 35
-0.20686 -0.72276 1.79517 35 38 35
-0.197457 -0.72276 1.79517 36 38 35
-0.196348 -0.754634 1.87433 36 39 35
-0.178652 -0.72276 1.79517 37 39 35
-0.167972 -0.717308 1.78162 37 40 36
-0.155133 -0.70145 1.74224 38 40 36
-0.156347 -0.751123 1.86561 38 40 36
-0.138769 -0.711118 1.76625 37 39 35
-0.129518 -0.711118 1.76625 37 39 35
-0.121313 -0.717308 1.78162 35 37 33
-0.107155 -0.68639 1.70483 35 37 33
-0.10343 -0.72276 1.79517 37 38 35
-0.0933178 -0.717308 1.78162 38 39 36
-0.087474 -0.747097 1.85562 38 40 36
-0.0730039 -0.70145 1.74224 37 39 35
-0.0663618 -0.72872 1.80997 36 38 34
-0.0572856 -0.733897 1.82283 36 38 34
-0.0466589 -0.717308 1.78162 37 39 35
-0.037005 -0.711118 1.76625 38 41 36
-0.0276204 -0.7077 1.75776 38 39 35
-0.018251 -0.70145 1.74224 37 37 32
-0.00933178 -0.717308 1.78162 37 37 33
0 -0.717308 1.78162 38 38 34
0.00912549 -0.70145 1.74224 37 38 34
0.0190952 -0.733897 1.82283 36 38 34
0.0286428 -0.733897 1.82283 37 38 35
0.0373271 -0.717308 1.78162 38 39 36
0.0462563 -0.711118 1.76625 38 39 36
0.0555075 -0.711118 1.76625 39 38 36
0.0632361 -0.694397 1.72472 38 38 36
