ply
format ascii 1.0
element vertex 1367
property float x
property float y
property float z
property uchar red
property uchar green
property uchar blue
end_header
-0.703982 0.491937 1.34404 36 37 33
-0.730971 0.515956 1.40967 37 37 34
-0.769956 0.54902 1.5 36 36 32
-0.841336 0.606102 1.65596 35 35 31
-0.832663 0.606102 1.65596 35 35 31
-0.791335 0.582083 1.59033 36 35 31
-0.738529 0.54902 1.5 36 35 31
-0.806642 0.606102 1.65596 36 35 31
-0.913091 0.693545 1.89486 35 35 30
-0.837819 0.643364 1.75776 35 35 30
-0.828612 0.643364 1.75776 35 35 31
-0.836842 0.657055 1.79517 35 35 31
-0.769517 0.611059 1.6695 35 36 33
-0.854112 0.686031 1.87433 37 37 34
-0.732282 0.595015 1.62567 36 36 34
-0.788738 0.648428 1.7716 36 36 34
-0.766541 0.637682 1.74224 37 37 34
-0.808955 0.681074 1.86079 37 37 35
-0.831746 0.708802 1.93655 36 37 34
-0.782356 0.674943 1.84404 35 36 34
-0.752218 0.657055 1.79517 36 36 34
-0.737211 0.652098 1.78162 36 37 35
-0.749316 0.671303 1.8341 36 37 34
-0.735166 0.667179 1.82283 36 36 34
-0.699717 0.643364 1.75776 36 37 34
-0.705204 0.657055 1.79517 35 36 34
-0.706523 0.667179 1.82283 35 36 33
-0.677387 0.648428 1.7716 35 36 33
-0.724387 0.70305 1.92083 35 36 33
-0.653683 0.643364 1.75776 36 36 33
-0.617999 0.616932 1.68555 36 36 33
-0.648788 0.657055 1.79517 36 36 32
-0.620533 0.637682 1.74224 36 36 32
-0.634197 0.661451 1.80718 36 37 33
-0.630142 0.667179 1.82283 36 36 32
-0.595346 0.640035 1.74867 35 35 31
-0.59208 0.64647 1.76625 35 35 31
-0.587902 0.652098 1.78162 35 35 31
-0.560092 0.63127 1.72472 35 35 31
-0.580827 0.665373 1.81789 35 34 30
-0.564163 0.657055 1.79517 35 35 32
-0.569864 0.674943 1.84404 36 36 33
-0.549006 0.661451 1.80718 35 35 32
-0.522868 0.64101 1.75133 34 34 30
-0.537971 0.671303 1.8341 33 33 30
-0.528364 0.671303 1.8341 32 31 29
-0.497167 0.643364 1.75776 32 32 30
-0.491802 0.648428 1.7716 33 33 30
-0.469023 0.630287 1.72203 34 34 32
-0.464121 0.63593 1.73745 34 34 32
-0.470136 0.657055 1.79517 35 35 33
-0.467833 0.667179 1.82283 35 36 34
-0.458285 0.667179 1.82283 35 36 34
-0.430481 0.640035 1.74867 34 35 33
-0.425558 0.64647 1.76625 35 35 33
-0.40183 0.623991 1.70483 35 35 33
-0.397484 0.63127 1.72472 35 36 33
-0.389279 0.632617 1.7284 35 36 33
-0.394914 0.657055 1.79517 35 36 33
-0.379302 0.64647 1.76625 36 36 33
-0.376109 0.657055 1.79517 35 36 32
-0.360799 0.64647 1.76625 35 35 31
-0.339324 0.623991 1.70483 35 35 31
-0.326656 0.616932 1.68555 35 35 31
-0.324708 0.630287 1.72203 36 36 32
-0.322238 0.643364 1.75776 37 38 34
-0.310267 0.637682 1.74224 37 37 33
-0.306216 0.648428 1.7716 36 36 32
-0.29604 0.64647 1.76625 36 36 32
-0.270157 0.608979 1.66382 36 35 31
-0.27059 0.630287 1.72203 36 36 32
-0.276881 0.667179 1.82283 36 36 32
-0.254812 0.63593 1.73745 36 36 32
-0.238371 0.616932 1.68555 36 36 32
-0.242626 0.652098 1.78162 35 35 31
-0.228137 0.637682 1.74224 35 35 32
-0.21431 0.623991 1.70483 36 36 32
-0.203057 0.616932 1.68555 36 36 32
-0.203528 0.64647 1.76625 35 35 32
-0.191635 0.637682 1.74224 35 35 32
-0.186636 0.652098 1.78162 36 36 33
-0.169662 0.623991 1.70483 35 36 33
-0.163807 0.63593 1.73745 35 36 34
-0.153334 0.630287 1.72203 36 36 34
-0.147309 0.643364 1.75776 35 36 34
-0.133943 0.623991 1.70483 35 36 33
-0.128228 0.640035 1.74867 35 35 33
-0.119688 0.643364 1.75776 35 35 33
-0.115279 0.671303 1.8341 35 35 33
-0.101275 0.643364 1.75776 36 36 34
-0.0903373 0.63127 1.72472 36 37 34
-0.0803661 0.623991 1.70483 35 36 34
-0.0707347 0.617861 1.68808 35 36 33
-0.0604527 0.603484 1.64881 35 36 33
-0.0547529 0.637682 1.74224 35 36 33
-0.0450983 0.630287 1.72203 35 36 33
-0.0353142 0.616932 1.68555 35 36 33
-0.0264857 0.616932 1.68555 36 36 33
-0.0188054 0.657055 1.79517 36 36 33
-0.00927928 0.648428 1.7716 35 36 33
0 0.617861 1.68808 35 36 33
0.00882855 0.616932 1.68555 34 35 32
0.0180393 0.630287 1.72203 34 35 31
0.0276204 0.643364 1.75776 33 35 31
0.0365019 0.637682 1.74224 34 35 31
0.0446478 0.623991 1.70483 34 35 30
0.0547529 0.637682 1.74224 34 36 31
0.0610031 0.608979 1.66382 35 36 32
0.0714365 0.623991 1.70483 35 36 32
0.0819037 0.63593 1.73745 36 36 33
0.0901967 0.630287 1.72203 35 36 32
0.0982252 0.623991 1.70483 34 35 31
0.110482 0.643364 1.75776 33 34 31
0.116084 0.623991 1.70483 31 33 29
0.127757 0.637682 1.74224 33 34 30
0.135295 0.630287 1.72203 34 35 31
0.148468 0.648428 1.7716 34 35 32
0.148151 0.608979 1.66382 34 35 33
0.160732 0.623991 1.70483 34 35 33
0.169662 0.623991 1.70483 32 34 31
0.18251 0.637682 1.74224 33 34 31
0.191109 0.63593 1.73745 32 34 31
0.198742 0.63127 1.72472 33 35 32
0.211756 0.643364 1.75776 33 35 32
0.21841 0.63593 1.73745 33 34 33
0.22751 0.63593 1.73745 32 33 32
0.239377 0.643364 1.75776 32 34 32
0.248584 0.643364 1.75776 32 34 32
0.26129 0.652098 1.78162 32 34 33
0.264639 0.637682 1.74224 32 34 33
0.271012 0.63127 1.72472 33 35 33
0.28289 0.637682 1.74224 33 34 33
0.298617 0.652098 1.78162 33 34 33
0.294676 0.623991 1.70483 34 35 34
0.306669 0.630287 1.72203 35 35 34
0.326612 0.652098 1.78162 35 36 35
0.335944 0.652098 1.78162 34 35 34
0.343333 0.648428 1.7716 31 32 32
0.346768 0.637682 1.74224 30 31 31
0.352316 0.63127 1.72472 29 30 31
0.369554 0.645604 1.76388 28 30 30
0.362515 0.617861 1.68808 30 32 33
0.379417 0.63127 1.72472 35 36 36
0.383971 0.623991 1.70483 38 39 38
0.397484 0.63127 1.72472 38 40 38
0.414306 0.643364 1.75776 38 39 38
0.41076 0.623991 1.70483 35 37 36
0.447523 0.665373 1.81789 32 34 33
0.447926 0.652098 1.78162 33 34 33
0.453312 0.64647 1.76625 33 34 34
0.470136 0.657055 1.79517 32 35 34
0.471814 0.64647 1.76625 34 37 36
0.508129 0.682839 1.86561 35 39 38
0.490317 0.64647 1.76625 35 38 38
0.487822 0.63127 1.72472 35 38 37
0.528364 0.671303 1.8341 34 37 36
0.505889 0.63127 1.72472 35 37 37
0.514923 0.63127 1.72472 34 36 36
0.536573 0.64647 1.76625 34 36 36
0.543201 0.643364 1.75776 34 36 36
0.522884 0.608979 1.66382 33 35 35
0.564327 0.64647 1.76625 32 35 35
0.605846 0.682839 1.86561 31 36 35
0.601499 0.667179 1.82283 32 36 36
0.586187 0.640035 1.74867 34 37 37
0.611177 0.657055 1.79517 34 38 38
0.620579 0.657055 1.79517 34 38 38
0.625229 0.652098 1.78162 34 37 38
0.660915 0.679179 1.85562 34 37 38
0.658785 0.667179 1.82283 34 38 39
0.647588 0.64647 1.76625 35 38 39
0.662557 0.652098 1.78162 34 38 39
0.695427 0.674943 1.84404 34 37 38
0.696975 0.667179 1.82283 35 38 39
0.695801 0.657055 1.79517 38 40 41
0.724404 0.674943 1.84404 37 39 39
0.734062 0.674943 1.84404 36 38 38
0.738259 0.669986 1.8305 37 39 39
0.770318 0.690118 1.8855 36 38 38
0.757434 0.669986 1.8305 36 38 38
0.772697 0.674943 1.84404 35 38 39
0.745751 0.643364 1.75776 35 38 38
0.765206 0.652098 1.78162 35 39 39
0.819697 0.690118 1.8855 36 39 40
0.798314 0.664113 1.81445 35 39 39
0.807817 0.664113 1.81445 35 38 39
0.791785 0.643364 1.75776 35 38 39
0.879275 0.706242 1.92955 35 38 39
0.857687 0.681074 1.86079 35 38 39
0.819405 0.643364 1.75776 34 38 38
0.883564 0.686031 1.87433 34 37 38
0.855647 0.657055 1.79517 33 37 38
0.929808 0.706242 1.92955 34 38 38
0.883847 0.664113 1.81445 34 38 38
0.916166 0.681074 1.86079 34 38 38
0.950232 0.698963 1.90967 34 38 39
0.91657 0.667179 1.82283 35 39 39
0.936895 0.674943 1.84404 35 40 40
0.955151 0.681074 1.86079 35 40 40
0.945213 0.667179 1.82283 34 39 39
1.00024 0.698963 1.90967 33 39 39
0.901886 0.623991 1.70483 34 39 40
0.9308 0.637682 1.74224 35 41 41
1.07899 0.732026 2 37 41 42
1.00451 0.674943 1.84404 36 40 40
1.03082 0.686031 1.87433 35 39 39
0.975921 0.643364 1.75776 35 38 39
1.12089 0.732026 2 34 38 39
1.07189 0.693545 1.89486 34 38 38
1.08181 0.693545 1.89486 34 38 38
1.15232 0.732026 2 34 38 38
1.07212 0.674943 1.84404 33 37 38
1.11159 0.693545 1.89486 33 37 38
1.10936 0.686031 1.87433 33 37 37
1.10109 0.674943 1.84404 33 37 38
1.11075 0.674943 1.84404 34 38 38
1.21517 0.732026 2 34 39 39
1.10012 0.657055 1.79517 36 40 40
1.10952 0.657055 1.79517 36 40 40
1.14939 0.674943 1.84404 35 40 40
-0.739894 0.437015 1.17717 35 36 33
-0.750969 0.447284 1.20483 36 36 33
-0.683041 0.410273 1.10514 36 36 33
-0.863874 0.523327 1.40967 36 36 33
-0.911376 0.556863 1.5 36 36 32
-0.809579 0.498965 1.34404 36 35 32
-0.719416 0.447284 1.20483 35 35 31
-1.00904 0.632905 1.70483 34 34 30
-0.826957 0.523327 1.40967 34 34 31
-0.872093 0.556863 1.5 35 36 33
-0.81219 0.523327 1.40967 36 36 33
-0.784634 0.51021 1.37433 36 36 33
-0.848523 0.556863 1.5 36 36 33
-0.955464 0.632905 1.70483 35 35 32
-0.793697 0.53071 1.42955 34 34 31
-0.824953 0.556863 1.5 35 36 33
-0.866304 0.590399 1.59033 36 36 33
-0.857974 0.590399 1.59033 36 36 33
-0.849644 0.590399 1.59033 35 36 33
-0.745738 0.523327 1.40967 35 36 32
-0.785669 0.556863 1.5 36 36 32
-0.741283 0.53071 1.42955 36 36 32
-0.85001 0.614761 1.65596 35 36 31
-0.807995 0.590399 1.59033 36 36 32
-0.754243 0.556863 1.5 36 36 32
-0.874646 0.652555 1.75776 36 35 31
-0.815316 0.614761 1.65596 36 35 31
-0.730673 0.556863 1.5 35 35 30
-0.86505 0.666441 1.79517 35 34 29
-0.910222 0.708948 1.90967 35 34 30
-0.828612 0.652555 1.75776 34 35 31
-0.849737 0.67671 1.82283 35 35 32
-0.733027 0.590399 1.59033 35 36 33
-0.840308 0.684585 1.84404 36 37 34
-0.900901 0.742484 2 36 36 34
-0.759013 0.632905 1.70483 36 36 34
-0.789828 0.666441 1.79517 36 36 34
-0.780426 0.666441 1.79517 35 36 34
-0.813842 0.703452 1.89486 35 35 33
-0.77661 0.679558 1.8305 35 36 34
-0.752218 0.666441 1.79517 36 36 34
-0.737211 0.661413 1.78162 36 36 34
-0.733412 0.666441 1.79517 35 35 32
-0.739709 0.680893 1.8341 34 35 32
-0.707759 0.660055 1.77797 34 35 32
-0.669717 0.632905 1.70483 35 35 34
-0.690552 0.661413 1.78162 35 36 33
-0.675342 0.655706 1.76625 35 36 33
-0.668108 0.657692 1.7716 36 36 33
-0.697034 0.695831 1.87433 36 37 34
-0.647588 0.655706 1.76625 37 37 35
-0.638337 0.655706 1.76625 36 37 33
-0.656793 0.684585 1.84404 35 36 32
-0.654704 0.692594 1.86561 36 36 32
-0.615898 0.661413 1.78162 36 36 32
-0.627816 0.684585 1.84404 36 36 32
-0.628312 0.695831 1.87433 35 35 31
-0.601499 0.67671 1.82283 35 35 31
-0.56578 0.646792 1.74224 35 35 31
-0.589182 0.684585 1.84404 35 35 31
-0.564163 0.666441 1.79517 35 35 32
-0.543201 0.652555 1.75776 35 35 32
-0.523141 0.639291 1.72203 35 35 31
-0.547577 0.680893 1.8341 35 35 32
-0.509623 0.645015 1.73745 35 35 33
-0.531229 0.684585 1.84404 34 34 32
-0.497167 0.652555 1.75776 34 34 31
-0.483651 0.646792 1.74224 34 34 32
-0.469023 0.639291 1.72203 35 36 34
-0.479539 0.666441 1.79517 34 35 33
-0.470136 0.666441 1.79517 34 35 33
-0.464532 0.671936 1.80997 35 36 34
-0.469042 0.692594 1.86561 36 37 35
-0.41969 0.632905 1.70483 35 36 34
-0.423513 0.652555 1.75776 34 35 33
-0.41993 0.661413 1.78162 35 36 34
-0.417131 0.671936 1.80997 35 36 34
-0.392396 0.646792 1.74224 35 36 34
-0.391935 0.661413 1.78162 35 36 33
-0.366112 0.632905 1.70483 36 37 33
-0.361349 0.640288 1.72472 36 36 33
-0.355894 0.646792 1.74224 35 36 32
-0.354608 0.661413 1.78162 35 35 31
-0.345276 0.661413 1.78162 35 35 31
-0.335944 0.661413 1.78162 35 35 31
-0.322238 0.652555 1.75776 36 36 32
-0.297313 0.619789 1.6695 35 35 31
-0.298113 0.640288 1.72472 35 36 32
-0.28908 0.640288 1.72472 35 36 32
-0.28289 0.646792 1.74224 35 35 31
-0.271012 0.640288 1.72472 36 35 31
-0.276881 0.67671 1.82283 36 36 32
-0.25779 0.652555 1.75776 36 36 32
-0.241098 0.632905 1.70483 35 34 30
-0.234511 0.639291 1.72203 33 33 28
-0.233295 0.661413 1.78162 34 34 30
-0.223963 0.661413 1.78162 35 35 31
-0.20538 0.632905 1.70483 35 35 32
-0.194228 0.625746 1.68555 35 35 31
-0.1854 0.625746 1.68555 35 36 32
-0.178591 0.632905 1.70483 36 37 34
-0.171641 0.640288 1.72472 36 36 34
-0.164865 0.649179 1.74867 35 36 34
-0.155133 0.646792 1.74224 35 35 33
-0.152762 0.67671 1.82283 34 35 32
-0.130721 0.617679 1.66382 34 34 32
-0.125014 0.632905 1.70483 34 34 31
-0.122235 0.666441 1.79517 34 35 32
-0.111015 0.655706 1.76625 35 35 33
-0.10038 0.646792 1.74224 35 35 33
-0.0892957 0.632905 1.70483 35 35 33
-0.0828612 0.652555 1.75776 35 36 34
-0.0763808 0.67671 1.82283 36 37 34
-0.0604527 0.612106 1.64881 35 36 34
-0.0559907 0.661413 1.78162 35 36 33
-0.0451687 0.640288 1.72472 35 35 32
-0.0365019 0.646792 1.74224 35 35 32
-0.0279954 0.661413 1.78162 35 35 32
-0.0188054 0.666441 1.79517 35 35 32
-0.00954761 0.67671 1.82283 34 35 32
0 0.661413 1.78162 34 35 32
0.00927928 0.657692 1.7716 34 35 32
0.0184136 0.652555 1.75776 34 35 32
0.0279954 0.661413 1.78162 34 35 31
0.037005 0.655706 1.76625 34 35 32
0.0450983 0.639291 1.72203 34 35 31
0.054118 0.639291 1.72203 34 35 31
0.0617999 0.625746 1.68555 34 35 30
0.0714365 0.632905 1.70483 34 34 30
0.0832613 0.655706 1.76625 34 35 31
0.0851491 0.603515 1.62567 34 35 31
0.0971141 0.625746 1.68555 34 35 31
0.111981 0.661413 1.78162 35 35 32
0.118631 0.646792 1.74224 34 35 31
0.127757 0.646792 1.74224 34 35 31
0.132628 0.626687 1.68808 34 35 32
0.146008 0.646792 1.74224 34 35 32
0.157271 0.655706 1.76625 34 36 33
0.164259 0.646792 1.74224 35 36 34
0.178652 0.666441 1.79517 33 35 32
0.186636 0.661413 1.78162 33 35 32
0.187521 0.632905 1.70483 33 35 32
0.200761 0.646792 1.74224 33 35 32
0.214631 0.661413 1.78162 33 35 32
0.21431 0.632905 1.70483 33 35 33
0.228137 0.646792 1.74224 32 34 33
0.239377 0.652555 1.75776 32 33 32
0.243531 0.639291 1.72203 32 34 33
0.25225 0.638531 1.71999 33 34 34
0.270622 0.661413 1.78162 33 35 34
0.264857 0.625746 1.68555 33 35 34
0.267719 0.612106 1.64881 32 34 32
0.292016 0.646792 1.74224 32 33 32
0.291342 0.625746 1.68555 33 35 33
0.300622 0.626687 1.68808 34 35 34
0.322238 0.652555 1.75776 34 35 34
0.328517 0.646792 1.74224 33 34 33
0.340652 0.652555 1.75776 29 30 31
0.339324 0.632905 1.70483 27 28 29
0.359065 0.652555 1.75776 26 28 28
0.373769 0.662295 1.784 26 29 29
0.388091 0.6709 1.80718 32 34 34
0.379417 0.640288 1.72472 36 38 37
0.397804 0.655706 1.76625 36 38 37
0.405099 0.652555 1.75776 36 38 37
0.41993 0.661413 1.78162 36 38 36
0.402247 0.619789 1.6695 35 37 36
0.438594 0.661413 1.78162 32 34 34
0.44406 0.655706 1.76625 32 33 33
0.453312 0.655706 1.76625 32 34 34
0.456274 0.646792 1.74224 32 35 34
0.469547 0.652555 1.75776 35 37 37
0.496475 0.67671 1.82283 36 39 38
0.494585 0.661413 1.78162 36 39 38
0.476742 0.625746 1.68555 35 38 38
0.513248 0.661413 1.78162 35 38 37
0.495143 0.626687 1.68808 35 38 37
0.547577 0.680893 1.8341 36 38 38
0.536573 0.655706 1.76625 36 37 37
0.563309 0.67671 1.82283 34 36 36
0.535774 0.632905 1.70483 33 35 35
0.569239 0.661413 1.78162 32 35 35
0.59561 0.680893 1.8341 33 37 36
0.574906 0.646792 1.74224 34 38 38
0.625389 0.692594 1.86561 35 39 38
0.601332 0.655706 1.76625 35 38 38
0.620579 0.666441 1.79517 33 37 38
0.63969 0.67671 1.82283 32 36 37
0.660915 0.688882 1.85562 32 37 38
0.648788 0.666441 1.79517 34 38 39
0.641142 0.649179 1.74867 35 38 39
0.633999 0.632905 1.70483 34 38 39
0.695427 0.684585 1.84404 34 37 38
0.74265 0.721057 1.94228 36 39 40
0.730815 0.699977 1.8855 39 41 42
0.711019 0.671936 1.80997 37 39 40
0.728671 0.679558 1.8305 35 37 37
0.724009 0.666441 1.79517 36 37 37
0.770318 0.699977 1.8855 35 37 37
0.775573 0.695831 1.87433 37 39 39
0.81146 0.718928 1.93655 37 40 40
0.769802 0.673601 1.81445 37 40 40
0.779306 0.673601 1.81445 36 40 40
0.814843 0.695831 1.87433 37 40 41
0.762806 0.643641 1.73375 36 40 40
0.807817 0.673601 1.81445 35 38 39
0.830649 0.684585 1.84404 34 38 38
0.810198 0.660055 1.77797 34 38 38
0.863929 0.695831 1.87433 34 38 38
0.873747 0.695831 1.87433 34 37 38
0.8629 0.679558 1.8305 34 37 38
0.86484 0.673601 1.81445 35 38 39
0.903199 0.695831 1.87433 36 40 40
0.906419 0.690803 1.86079 35 39 40
0.916166 0.690803 1.86079 35 39 39
0.925912 0.690803 1.86079 35 39 39
0.91657 0.67671 1.82283 35 39 40
0.97591 0.713094 1.92083 35 39 39
0.935665 0.67671 1.82283 34 39 39
0.956213 0.684585 1.84404 32 38 38
1.00609 0.713094 1.92083 31 37 38
1.09992 0.771874 2.07917 34 39 40
1.06851 0.742484 2 35 41 41
1.02227 0.703452 1.89486 36 41 41
1.02101 0.695831 1.87433 36 39 40
1.04212 0.703452 1.89486 35 39 39
1.05204 0.703452 1.89486 35 38 39
1.05046 0.695831 1.87433 34 38 38
1.06028 0.695831 1.87433 34 38 38
1.0528 0.684585 1.84404 34 38 38
0.93664 0.603515 1.62567 34 38 39
1.02195 0.652555 1.75776 34 38 39
1.09955 0.695831 1.87433 35 39 39
1.18374 0.742484 2 34 38 38
1.28734 0.800382 2.15596 33 37 38
1.20469 0.742484 2 34 38 38
0.987729 0.603515 1.62567 35 40 39
1.32122 0.800382 2.15596 37 41 41
1.13973 0.684585 1.84404 36 41 41
1.37427 0.818526 2.20483 35 40 40
-0.75728 0.453584 1.20483 36 36 34
-0.878641 0.530698 1.40967 36 37 34
-0.830698 0.505992 1.34404 37 36 34
-0.876062 0.538185 1.42955 37 36 34
-0.816619 0.505992 1.34404 36 36 33
-0.957932 0.598714 1.59033 36 36 33
-0.895663 0.564706 1.5 34 35 31
-0.887806 0.564706 1.5 32 33 28
-0.788459 0.505992 1.34404 34 34 31
-0.78142 0.505992 1.34404 37 37 35
-0.77438 0.505992 1.34404 36 36 34
-0.81616 0.538185 1.42955 36 36 33
-0.808673 0.538185 1.42955 36 36 33
-0.840666 0.564706 1.5 35 35 32
-0.83281 0.564706 1.5 35 35 31
-0.937604 0.641819 1.70483 35 36 33
-0.88555 0.612015 1.62567 36 36 33
-0.847245 0.591227 1.57045 36 36 34
-0.959077 0.675828 1.79517 35 36 33
-0.793526 0.564706 1.5 35 35 31
-0.965871 0.694227 1.84404 35 35 31
-0.884027 0.641819 1.70483 35 36 31
-0.85001 0.62342 1.65596 35 36 32
-0.841336 0.62342 1.65596 36 36 32
-0.942468 0.705632 1.87433 35 35 31
-0.823989 0.62342 1.65596 35 35 30
-0.932941 0.71336 1.89486 36 35 31
-0.89826 0.694227 1.84404 35 35 30
-0.804495 0.628518 1.6695 35 34 30
-0.812591 0.641819 1.70483 35 35 31
-0.749686 0.598714 1.59033 34 35 31
-0.859626 0.694227 1.84404 35 35 32
-0.840189 0.686241 1.82283 35 36 33
-0.776872 0.641819 1.70483 36 37 34
-0.853542 0.71336 1.89486 36 36 33
-0.799231 0.675828 1.79517 36 37 34
-0.801999 0.686241 1.82283 36 36 33
-0.830202 0.718933 1.90967 35 35 33
-0.81726 0.716356 1.90282 35 36 33
-0.795208 0.705632 1.87433 36 36 34
-0.75842 0.6814 1.80997 36 36 34
-0.713665 0.649307 1.72472 36 37 35
-0.744713 0.686241 1.82283 35 35 33
-0.739709 0.690483 1.8341 33 34 31
-0.725618 0.686241 1.82283 34 35 32
-0.720496 0.690483 1.8341 35 36 34
-0.701539 0.6814 1.80997 35 36 34
-0.690991 0.680349 1.80718 36 37 34
-0.687428 0.686241 1.82283 36 37 34
-0.633999 0.641819 1.70483 36 37 34
-0.672463 0.690483 1.8341 37 37 34
-0.643893 0.670729 1.78162 36 37 33
-0.634561 0.670729 1.78162 35 36 32
-0.643643 0.690483 1.8341 36 36 33
-0.596226 0.649307 1.72472 37 37 34
-0.601332 0.664941 1.76625 37 37 34
-0.559648 0.628518 1.6695 36 36 33
-0.580028 0.661746 1.75776 35 35 31
-0.578571 0.670729 1.78162 35 35 31
-0.551058 0.649307 1.72472 35 34 31
-0.555075 0.664941 1.76625 36 35 32
-0.538404 0.655901 1.74224 35 35 32
-0.553761 0.686241 1.82283 35 35 32
-0.535955 0.675828 1.79517 36 36 33
-0.511027 0.655901 1.74224 36 36 34
-0.51715 0.675828 1.79517 36 36 34
-0.515571 0.686241 1.82283 35 35 33
-0.494585 0.670729 1.78162 35 36 33
-0.474525 0.655901 1.74224 35 36 34
-0.469547 0.661746 1.75776 35 36 34
-0.46034 0.661746 1.75776 35 35 33
-0.460733 0.675828 1.79517 35 36 34
-0.447926 0.670729 1.78162 35 36 34
-0.441928 0.675828 1.79517 34 35 33
-0.432525 0.675828 1.79517 35 36 34
-0.416307 0.664941 1.76625 35 36 34
-0.407055 0.664941 1.76625 34 35 33
-0.404317 0.675828 1.79517 34 35 33
-0.394914 0.675828 1.79517 35 36 33
-0.374145 0.655901 1.74224 36 37 34
-0.365019 0.655901 1.74224 35 36 32
-0.355894 0.655901 1.74224 35 35 31
-0.354608 0.670729 1.78162 35 35 30
-0.334248 0.649307 1.72472 34 34 29
-0.333045 0.664941 1.76625 34 34 29
-0.326612 0.670729 1.78162 34 35 31
-0.314543 0.664941 1.76625 34 35 31
-0.301141 0.655901 1.74224 35 36 32
-0.29604 0.664941 1.76625 35 36 32
-0.295976 0.686241 1.82283 35 35 31
-0.277538 0.664941 1.76625 35 35 31
-0.270622 0.670729 1.78162 35 35 31
-0.252945 0.649307 1.72472 35 35 31
-0.241098 0.641819 1.70483 35 35 31
-0.232169 0.641819 1.70483 34 34 29
-0.23869 0.686241 1.82283 34 34 30
-0.217272 0.650692 1.7284 35 35 32
-0.211756 0.661746 1.75776 36 36 33
-0.194228 0.634559 1.68555 35 35 31
-0.187521 0.641819 1.70483 34 35 31
-0.18251 0.655901 1.74224 35 36 32
-0.177304 0.670729 1.78162 36 36 33
-0.158914 0.634559 1.68555 35 36 33
-0.155133 0.655901 1.74224 34 35 32
-0.141257 0.634559 1.68555 33 34 31
-0.132428 0.634559 1.68555 34 35 32
-0.126472 0.649307 1.72472 34 35 32
-0.114771 0.634559 1.68555 34 35 32
-0.111015 0.664941 1.76625 34 35 32
-0.0993711 0.649307 1.72472 34 35 32
-0.0912549 0.655901 1.74224 34 35 32
-0.0819037 0.654099 1.73745 34 35 33
-0.0763808 0.686241 1.82283 35 36 33
-0.067611 0.694227 1.84404 35 35 33
-0.0535774 0.641819 1.70483 35 35 32
-0.0456274 0.655901 1.74224 34 35 32
-0.0353673 0.635514 1.68808 34 35 31
-0.0279954 0.670729 1.78162 34 35 32
-0.0180393 0.648295 1.72203 34 35 32
-0.00892957 0.641819 1.70483 34 35 31
0 0.620727 1.64881 34 35 32
0.00882855 0.634559 1.68555 35 36 32
0.018251 0.655901 1.74224 34 35 32
0.0271012 0.649307 1.72472 34 35 31
0.0357183 0.641819 1.70483 34 35 31
0.0457958 0.658322 1.74867 33 35 30
0.0522884 0.626378 1.66382 34 35 31
0.0647588 0.664941 1.76625 34 35 30
0.0736544 0.661746 1.75776 34 35 30
0.0784326 0.626378 1.66382 34 35 31
0.0948025 0.6814 1.80997 34 35 31
0.10038 0.655901 1.74224 34 35 31
0.107155 0.641819 1.70483 35 36 32
0.114771 0.634559 1.68555 35 36 34
0.127757 0.655901 1.74224 35 36 33
0.135506 0.649307 1.72472 34 36 33
0.14454 0.649307 1.72472 34 35 32
0.155133 0.655901 1.74224 33 35 32
0.167027 0.666955 1.7716 34 35 32
0.173384 0.655901 1.74224 33 35 32
0.186636 0.670729 1.78162 33 35 32
0.197457 0.675828 1.79517 33 35 32
0.201502 0.658322 1.74867 33 35 32
0.207776 0.649307 1.72472 33 35 32
0.21681 0.649307 1.72472 33 34 33
0.22751 0.654099 1.73745 33 34 33
0.240533 0.664941 1.76625 32 34 32
0.257785 0.686241 1.82283 32 33 32
0.255514 0.655901 1.74224 33 34 33
0.270622 0.670729 1.78162 34 35 34
0.273765 0.655901 1.74224 33 35 34
0.276817 0.641819 1.70483 31 33 32
0.292016 0.655901 1.74224 32 34 32
0.301141 0.655901 1.74224 33 34 33
0.303605 0.641819 1.70483 33 34 32
0.319392 0.655901 1.74224 33 34 32
0.3109 0.620727 1.64881 31 32 32
0.337643 0.655901 1.74224 28 29 30
0.346768 0.655901 1.74224 26 28 28
0.355894 0.655901 1.74224 25 27 28
0.376109 0.675828 1.79517 27 30 31
0.38045 0.666955 1.7716 33 35 35
0.391935 0.670729 1.78162 35 37 37
0.395892 0.661746 1.75776 35 37 35
0.407055 0.664941 1.76625 34 36 35
0.41993 0.670729 1.78162 34 36 34
0.41076 0.641819 1.70483 34 36 35
0.445572 0.6814 1.80997 32 34 34
0.451331 0.675828 1.79517 32 34 34
0.442653 0.649307 1.72472 32 34 34
0.450983 0.648295 1.72203 33 35 35
0.450256 0.634559 1.68555 35 37 37
0.492973 0.6814 1.80997 35 38 38
0.483651 0.655901 1.74224 36 39 38
0.511934 0.6814 1.80997 35 38 38
0.534563 0.698585 1.85562 34 37 37
0.549773 0.705632 1.87433 35 38 38
0.540374 0.6814 1.80997 36 38 39
0.529278 0.655901 1.74224 36 37 38
0.55476 0.675828 1.79517 34 36 36
0.568815 0.6814 1.80997 34 35 36
0.582404 0.686241 1.82283 33 36 36
0.591951 0.686241 1.82283 34 38 37
0.569125 0.649307 1.72472 36 39 39
0.611047 0.686241 1.82283 36 40 39
0.580422 0.641819 1.70483 35 39 39
0.641476 0.698585 1.85562 34 38 38
0.598281 0.641819 1.70483 32 36 37
0.664476 0.702349 1.86561 33 37 38
0.648788 0.675828 1.79517 35 38 39
0.694743 0.71336 1.89486 35 39 40
0.64791 0.655901 1.74224 35 39 40
0.699792 0.698585 1.85562 34 38 39
0.686399 0.675828 1.79517 35 38 39
0.701539 0.6814 1.80997 37 39 40
0.71278 0.683088 1.81445 38 39 40
0.728671 0.689129 1.8305 36 38 38
0.738259 0.689129 1.8305 36 37 38
0.770318 0.709836 1.8855 36 37 38
0.784068 0.71336 1.89486 37 39 39
0.78539 0.705632 1.87433 37 40 40
0.77661 0.689129 1.8305 37 40 40
0.786198 0.689129 1.8305 37 40 40
0.814843 0.705632 1.87433 37 40 41
0.852033 0.729054 1.93655 36 39 40
0.771887 0.652706 1.73375 35 39 39
0.791785 0.661746 1.75776 35 38 39
0.879275 0.72642 1.92955 34 38 38
0.827439 0.675828 1.79517 34 38 38
0.836842 0.675828 1.79517 34 37 38
0.883564 0.705632 1.87433 34 38 38
0.86484 0.683088 1.81445 35 39 39
0.929808 0.72642 1.92955 36 39 40
0.89826 0.694227 1.84404 35 39 39
0.984706 0.752941 2 35 39 39
0.907022 0.686241 1.82283 35 39 39
0.935659 0.700533 1.86079 35 38 39
0.97591 0.723137 1.92083 34 38 39
1.02661 0.752941 2 34 38 39
0.990241 0.718933 1.90967 32 37 38
0.940272 0.675828 1.79517 31 38 38
1.00242 0.71336 1.89486 33 39 39
0.973856 0.686241 1.82283 34 40 40
1.03025 0.718933 1.90967 35 40 40
1.03219 0.71336 1.89486 35 38 39
1.04212 0.71336 1.89486 35 38 39
1.11041 0.752941 2 35 38 39
1.12089 0.752941 2 34 38 38
1.13136 0.752941 2 34 38 38
1.00354 0.661746 1.75776 34 38 38
1.15232 0.752941 2 34 38 39
1.22392 0.792522 2.10514 35 39 39
1.24699 0.800251 2.12567 35 39 39
1.27605 0.811655 2.15596 34 38 38
1.19422 0.752941 2 34 38 38
1.05878 0.661746 1.75776 35 39 39
1.21517 0.752941 2 35 40 40
1.13007 0.694227 1.84404 37 42 42
1.05369 0.641819 1.70483 37 42 41
1.11892 0.675828 1.79517 35 39 39
-0.694618 0.42183 1.10514 35 36 33
-0.807275 0.494364 1.29517 36 36 34
-0.849421 0.524582 1.37433 37 36 34
-0.863874 0.538068 1.40967 36 36 33
-0.911376 0.572549 1.5 36 35 32
-0.90352 0.572549 1.5 36 36 32
-0.970699 0.620516 1.62567 35 36 32
-0.735245 0.474161 1.24224 35 35 31
-0.759788 0.494364 1.29517 35 35 32
-0.799031 0.524582 1.37433 35 35 33
-0.81219 0.538068 1.40967 35 35 32
-0.784634 0.524582 1.37433 35 35 33
-0.732653 0.494364 1.29517 35 35 32
-0.840666 0.572549 1.5 35 35 32
-0.782655 0.538068 1.40967 34 34 30
-0.786209 0.54566 1.42955 35 35 32
-0.928675 0.650734 1.70483 35 36 32
-0.80924 0.572549 1.5 35 36 33
-0.801383 0.572549 1.5 35 35 32
-0.756259 0.54566 1.42955 35 35 31
-0.832985 0.60703 1.59033 35 35 31
-0.842976 0.620516 1.62567 35 36 31
-0.769956 0.572549 1.5 35 36 32
-0.658031 0.494364 1.29517 35 35 30
-0.857238 0.650734 1.70483 34 34 29
-0.848309 0.650734 1.70483 35 35 30
-0.783006 0.60703 1.59033 36 35 31
-0.806642 0.632078 1.65596 36 35 31
-0.797969 0.632078 1.65596 35 34 30
-0.774856 0.620516 1.62567 35 35 31
-0.828612 0.670937 1.75776 35 36 32
-0.794731 0.650734 1.70483 35 35 32
-0.827439 0.685214 1.79517 35 36 33
-0.776872 0.650734 1.70483 35 35 32
-0.821094 0.695773 1.82283 34 34 31
-0.850207 0.728918 1.90967 35 35 32
-0.789828 0.685214 1.79517 36 36 34
-0.869474 0.763399 2 35 36 34
-0.792015 0.70387 1.84404 35 35 32
-0.7679 0.690864 1.80997 35 35 33
-0.74501 0.678648 1.77797 35 36 33
-0.730849 0.674176 1.76625 35 36 33
-0.749316 0.700073 1.8341 35 35 33
-0.748389 0.708287 1.85562 34 35 33
-0.742649 0.712104 1.86561 35 36 34
-0.69051 0.670937 1.75776 35 36 34
-0.71089 0.700073 1.8341 36 36 34
-0.701283 0.700073 1.8341 36 37 35
-0.676996 0.685214 1.79517 37 37 35
-0.67788 0.695773 1.82283 36 36 34
-0.647588 0.674176 1.76625 36 36 33
-0.643893 0.680045 1.78162 35 35 32
-0.629085 0.674176 1.76625 35 35 31
-0.619834 0.674176 1.76625 36 36 33
-0.634037 0.700073 1.8341 37 38 34
-0.593157 0.665011 1.74224 37 38 34
-0.59208 0.674176 1.76625 36 37 34
-0.568239 0.657299 1.72203 35 36 33
-0.582969 0.685214 1.79517 36 35 32
-0.586004 0.700073 1.8341 36 36 33
-0.572856 0.695773 1.82283 37 37 34
-0.559335 0.690864 1.80997 36 36 33
-0.563721 0.708287 1.85562 35 35 31
-0.527322 0.674176 1.76625 35 35 32
-0.515581 0.670937 1.75776 35 36 33
-0.513248 0.680045 1.78162 35 36 33
-0.524071 0.707244 1.85288 35 35 32
-0.502453 0.690864 1.80997 35 36 33
-0.499544 0.700073 1.8341 36 37 34
-0.489937 0.700073 1.8341 35 36 34
-0.466589 0.680045 1.78162 35 35 33
-0.453312 0.674176 1.76625 34 35 33
-0.43964 0.667466 1.74867 34 35 32
-0.445572 0.690864 1.80997 35 36 33
-0.451599 0.715432 1.87433 36 36 35
-0.414306 0.670937 1.75776 35 36 34
-0.41372 0.685214 1.79517 34 35 33
-0.379628 0.643372 1.68555 35 36 34
-0.379417 0.658325 1.72472 35 36 34
-0.382603 0.680045 1.78162 35 36 32
-0.365019 0.665011 1.74224 34 35 31
-0.374658 0.700073 1.8341 35 35 30
-0.346768 0.665011 1.74224 35 35 30
-0.317676 0.625685 1.63921 34 34 29
-0.343714 0.695773 1.82283 34 34 29
-0.323794 0.674176 1.76625 34 35 31
-0.300171 0.643372 1.68555 34 35 31
-0.280992 0.620516 1.62567 34 35 31
-0.303368 0.690864 1.80997 34 35 31
-0.283934 0.667466 1.74867 34 35 31
-0.276204 0.670937 1.75776 35 35 32
-0.270622 0.680045 1.78162 35 35 32
-0.255514 0.665011 1.74224 35 35 32
-0.247298 0.667466 1.74867 35 35 32
-0.227357 0.637248 1.6695 35 35 31
-0.223239 0.650734 1.70483 35 35 32
-0.223963 0.680045 1.78162 36 36 33
-0.19863 0.629348 1.64881 36 36 33
-0.19645 0.650734 1.70483 35 36 32
-0.192343 0.667466 1.74867 35 35 32
-0.186636 0.680045 1.78162 34 35 31
-0.177304 0.680045 1.78162 35 36 33
-0.164259 0.665011 1.74224 35 36 33
-0.153573 0.658325 1.72472 34 34 31
-0.146008 0.665011 1.74224 32 33 30
-0.133943 0.650734 1.70483 34 34 31
-0.125014 0.650734 1.70483 35 35 33
-0.121313 0.680045 1.78162 35 36 34
-0.105943 0.643372 1.68555 35 36 33
-0.0992163 0.657299 1.72203 35 35 33
-0.0925126 0.674176 1.76625 35 35 33
-0.0828612 0.670937 1.75776 35 36 33
-0.0747538 0.680951 1.784 35 36 33
-0.065819 0.685214 1.79517 35 36 33
-0.0576397 0.700073 1.8341 35 36 33
-0.0470136 0.685214 1.79517 34 35 32
-0.0376109 0.685214 1.79517 34 35 31
-0.0271012 0.658325 1.72472 34 35 32
-0.0180675 0.658325 1.72472 34 35 32
-0.00871474 0.635078 1.66382 34 35 31
0 0.650734 1.70483 34 35 31
0.00905301 0.659729 1.7284 34 35 32
0.0186636 0.680045 1.78162 33 35 31
0.0257575 0.625685 1.63921 33 35 31
0.0373271 0.680045 1.78162 33 35 31
0.0451687 0.658325 1.72472 34 35 31
0.0572856 0.695773 1.82283 35 36 32
0.0662594 0.689798 1.80718 34 35 30
0.0732733 0.667466 1.74867 33 34 30
0.0839861 0.680045 1.78162 34 35 30
0.0892957 0.650734 1.70483 34 35 30
0.0954093 0.632078 1.65596 33 34 30
0.111015 0.674176 1.76625 33 34 30
0.120631 0.676218 1.7716 34 35 31
0.125014 0.650734 1.70483 34 35 32
0.135295 0.657299 1.72203 34 35 32
0.146008 0.665011 1.74224 33 34 31
0.15864 0.680045 1.78162 31 34 30
0.156865 0.635078 1.66382 32 34 31
0.171641 0.658325 1.72472 32 34 31
0.180675 0.658325 1.72472 33 34 32
0.189708 0.658325 1.72472 33 35 32
0.205299 0.680045 1.78162 34 35 33
0.209886 0.665011 1.74224 34 35 33
0.227526 0.690864 1.80997 33 34 32
0.228137 0.665011 1.74224 33 34 32
0.248238 0.695773 1.82283 33 34 32
0.251958 0.680045 1.78162 33 34 33
0.250028 0.650734 1.70483 32 34 32
0.278592 0.700073 1.8341 32 34 33
0.279954 0.680045 1.78162 32 34 33
0.276817 0.650734 1.70483 32 34 32
0.28908 0.658325 1.72472 32 34 33
0.294676 0.650734 1.70483 31 34 32
0.303605 0.650734 1.70483 30 32 31
0.319392 0.665011 1.74224 31 33 31
0.331445 0.670937 1.75776 30 32 32
0.347901 0.685214 1.79517 29 31 33
0.339324 0.650734 1.70483 28 31 32
0.372357 0.695773 1.82283 28 31 33
0.381904 0.695773 1.82283 30 34 34
0.370383 0.658325 1.72472 34 37 36
0.397556 0.689798 1.80718 36 38 37
0.388451 0.658325 1.72472 35 37 35
0.417131 0.690864 1.80997 34 35 34
0.426611 0.690864 1.80997 34 36 34
0.406113 0.643372 1.68555 34 36 35
0.441928 0.685214 1.79517 33 35 34
0.451331 0.685214 1.79517 32 34 34
0.442653 0.658325 1.72472 32 34 34
0.462563 0.674176 1.76625 32 35 35
0.46072 0.658325 1.72472 34 36 36
0.488941 0.685214 1.79517 34 37 37
0.498344 0.685214 1.79517 35 38 38
0.499568 0.674176 1.76625 35 38 38
0.508819 0.674176 1.76625 35 38 37
0.506968 0.659729 1.7284 35 38 37
0.544213 0.695773 1.82283 35 37 38
0.531232 0.667466 1.74867 35 37 37
0.550575 0.680045 1.78162 34 35 36
0.542024 0.658325 1.72472 33 35 35
0.573566 0.685214 1.79517 32 35 36
0.578571 0.680045 1.78162 34 37 37
0.586695 0.678648 1.77797 36 40 39
0.59208 0.674176 1.76625 36 40 39
0.580422 0.650734 1.70483 35 39 38
0.604505 0.667466 1.74867 34 37 37
0.647134 0.70387 1.84404 34 37 38
0.644657 0.690864 1.80997 34 37 38
0.670634 0.708287 1.85562 34 37 38
0.697661 0.726305 1.90282 34 37 38
0.673098 0.690864 1.80997 34 37 38
0.695427 0.70387 1.84404 34 37 38
0.668619 0.667466 1.74867 35 37 38
0.709496 0.6987 1.8305 35 38 38
0.719083 0.6987 1.8305 37 39 39
0.688029 0.659729 1.7284 36 38 39
0.724009 0.685214 1.79517 36 38 38
0.747847 0.6987 1.8305 36 38 38
0.750795 0.692575 1.81445 37 39 39
0.760299 0.692575 1.81445 37 40 40
0.745751 0.670937 1.75776 36 39 39
0.805025 0.715432 1.87433 34 38 38
0.808955 0.710263 1.86079 35 38 39
0.811332 0.70387 1.84404 34 38 39
0.807817 0.692575 1.81445 36 40 40
0.838194 0.710263 1.86079 37 41 41
0.879275 0.736509 1.92955 36 39 40
0.869077 0.719695 1.8855 34 38 39
0.873747 0.715432 1.87433 34 37 38
0.8629 0.6987 1.8305 34 38 38
0.893382 0.715432 1.87433 35 39 39
0.929808 0.736509 1.92955 35 39 39
0.906419 0.710263 1.86079 35 39 39
0.907919 0.70387 1.84404 35 38 38
0.881531 0.676218 1.7716 34 38 38
0.960234 0.728918 1.90967 34 38 38
1.01613 0.763399 2 34 38 39
0.902266 0.670937 1.75776 34 39 39
1.03708 0.763399 2 34 38 39
0.992491 0.723268 1.89486 33 38 39
0.964308 0.695773 1.82283 34 39 39
0.959077 0.685214 1.79517 34 39 39
1.07899 0.763399 2 34 38 38
1.03219 0.723268 1.89486 33 37 37
1.04212 0.723268 1.89486 34 37 38
1.06026 0.728918 1.90967 35 38 39
1.06196 0.723268 1.89486 35 38 39
1.03114 0.695773 1.82283 35 38 39
1.14184 0.763399 2 35 38 39
1.07991 0.715432 1.87433 35 38 39
0.991182 0.650734 1.70483 35 39 39
1.26476 0.822928 2.15596 35 39 39
1.09143 0.70387 1.84404 35 38 39
1.10109 0.70387 1.84404 35 39 39
1.11075 0.70387 1.84404 36 40 40
1.03583 0.650734 1.70483 35 40 40
1.10012 0.685214 1.79517 37 41 41
1.23612 0.763399 2 37 42 42
1.2466 0.763399 2 36 40 40
-0.780791 0.480657 1.24224 35 35 32
-0.878641 0.545439 1.40967 35 35 33
-0.714451 0.447273 1.15596 37 36 34
-0.823659 0.520047 1.34404 37 37 34
-0.856491 0.545439 1.40967 36 36 33
-0.861086 0.553134 1.42955 36 36 33
-0.820627 0.531768 1.37433 35 36 33
-0.887806 0.580392 1.5 35 36 33
-0.87995 0.580392 1.5 35 36 33
-0.872093 0.580392 1.5 35 36 33
-0.864236 0.580392 1.5 36 35 33
-0.85638 0.580392 1.5 36 36 33
-0.777436 0.531768 1.37433 36 36 33
-0.928072 0.640737 1.65596 35 35 32
-0.946534 0.659648 1.70483 34 35 31
-0.824953 0.580392 1.5 34 34 30
-0.977883 0.694601 1.79517 34 35 31
-0.919745 0.659648 1.70483 35 35 32
-0.939093 0.680128 1.75776 35 35 32
-0.727047 0.531768 1.37433 35 35 31
-0.785669 0.580392 1.5 35 35 31
-0.884027 0.659648 1.70483 35 36 32
-0.902266 0.680128 1.75776 35 36 31
-0.841336 0.640737 1.65596 34 34 29
-0.942468 0.725233 1.87433 35 34 30
-0.874646 0.680128 1.75776 36 35 31
-0.773214 0.60765 1.57045 36 35 31
-0.730673 0.580392 1.5 36 35 32
-0.86505 0.694601 1.79517 35 35 31
-0.812591 0.659648 1.70483 35 35 32
-0.893242 0.733176 1.89486 34 35 32
-0.819405 0.680128 1.75776 34 35 31
-0.921852 0.773856 2 34 35 32
-0.863467 0.733176 1.89486 34 35 31
-0.86021 0.738903 1.90967 34 34 30
-0.820991 0.713512 1.84404 34 34 31
-0.779459 0.685482 1.7716 35 35 32
-0.78881 0.702063 1.81445 36 36 34
-0.809822 0.729554 1.8855 35 36 33
-0.739164 0.674121 1.74224 34 34 31
-0.777547 0.71799 1.85562 34 34 31
-0.730849 0.683412 1.76625 35 35 33
-0.758108 0.71799 1.85562 35 36 33
-0.724009 0.694601 1.79517 35 35 33
-0.760185 0.738903 1.90967 35 35 33
-0.705204 0.694601 1.79517 35 35 33
-0.726486 0.725233 1.87433 36 36 34
-0.732453 0.741205 1.91561 36 37 35
-0.671888 0.68936 1.78162 36 37 34
-0.693791 0.721858 1.86561 36 35 33
-0.653225 0.68936 1.78162 35 35 32
-0.601317 0.643778 1.66382 35 35 32
-0.649237 0.705304 1.82283 35 35 31
-0.611408 0.674121 1.74224 35 35 31
-0.625697 0.700328 1.80997 35 36 32
-0.631757 0.71799 1.85562 36 37 34
-0.622037 0.71799 1.85562 36 37 34
-0.592371 0.694601 1.79517 35 36 33
-0.620151 0.738903 1.90967 36 35 32
-0.582404 0.705304 1.82283 36 36 32
-0.529713 0.652185 1.68555 36 36 33
-0.559335 0.700328 1.80997 36 36 33
-0.549855 0.700328 1.80997 35 35 31
-0.544213 0.705304 1.82283 35 35 31
-0.530894 0.700328 1.80997 35 35 32
-0.503754 0.676609 1.74867 36 36 33
-0.503916 0.68936 1.78162 35 35 32
-0.483651 0.674121 1.74224 35 35 32
-0.488941 0.694601 1.79517 35 36 33
-0.455408 0.659648 1.70483 35 36 34
-0.46034 0.680128 1.75776 35 36 33
-0.470724 0.709663 1.8341 35 35 33
-0.455052 0.700328 1.80997 34 35 32
-0.445572 0.700328 1.80997 34 35 33
-0.449498 0.721858 1.86561 34 36 33
-0.410647 0.674121 1.74224 34 35 32
-0.397484 0.667343 1.72472 34 35 33
-0.397804 0.683412 1.76625 35 36 33
-0.370799 0.652185 1.68555 35 36 33
-0.391452 0.705304 1.82283 35 36 32
-0.372505 0.687945 1.77797 34 35 31
-0.357208 0.676609 1.74867 35 35 31
-0.335485 0.652185 1.68555 35 35 31
-0.345276 0.68936 1.78162 36 36 32
-0.333045 0.683412 1.76625 35 35 31
-0.315688 0.666304 1.72203 35 35 32
-0.311412 0.676609 1.74867 34 35 31
-0.305291 0.683412 1.76625 34 35 31
-0.285746 0.659648 1.70483 34 35 30
-0.289285 0.68936 1.78162 34 34 31
-0.286428 0.705304 1.82283 35 35 31
-0.265616 0.676609 1.74867 35 35 32
-0.26129 0.68936 1.78162 36 35 32
-0.238371 0.652185 1.68555 36 36 33
-0.240533 0.683412 1.76625 36 36 32
-0.226325 0.668767 1.7284 36 36 32
-0.21431 0.659648 1.70483 36 36 33
-0.207776 0.667343 1.72472 36 36 33
-0.201502 0.676609 1.74867 35 36 32
-0.194276 0.683412 1.76625 35 36 32
-0.176571 0.652185 1.68555 35 35 32
-0.174024 0.676609 1.74867 35 36 33
-0.162607 0.667343 1.72472 35 35 33
-0.151803 0.659648 1.70483 34 35 32
-0.138777 0.640737 1.65596 33 34 31
-0.139977 0.68936 1.78162 34 34 31
-0.129518 0.683412 1.76625 35 36 33
-0.119688 0.680128 1.75776 36 36 34
-0.111981 0.68936 1.78162 35 36 34
-0.10265 0.68936 1.78162 35 36 34
-0.0874451 0.645977 1.6695 35 36 34
-0.0832613 0.683412 1.76625 35 36 34
-0.0714365 0.659648 1.70483 35 36 34
-0.065819 0.694601 1.79517 35 36 34
-0.0564163 0.694601 1.79517 35 36 33
-0.0456274 0.674121 1.74224 35 36 33
-0.0360787 0.666304 1.72203 35 35 32
-0.0261442 0.643778 1.66382 34 35 32
-0.0182008 0.672269 1.73745 34 35 31
-0.00892957 0.659648 1.70483 33 34 31
0 0.700328 1.80997 34 35 31
0.00981738 0.725233 1.87433 34 35 32
0.0178591 0.659648 1.70483 34 35 32
0.027159 0.668767 1.7284 34 35 31
0.0357183 0.659648 1.70483 33 35 31
0.0446478 0.659648 1.70483 33 34 30
0.054955 0.676609 1.74867 34 35 31
0.062507 0.659648 1.70483 33 35 30
0.0714365 0.659648 1.70483 33 34 30
0.0813036 0.667343 1.72472 33 34 30
0.0925126 0.683412 1.76625 33 34 30
0.10265 0.68936 1.78162 32 33 29
0.105943 0.652185 1.68555 32 34 29
0.113679 0.645977 1.6695 32 34 30
0.127757 0.674121 1.74224 33 35 31
0.131168 0.645977 1.6695 33 35 32
0.146008 0.674121 1.74224 32 34 30
0.157748 0.685482 1.7716 30 32 29
0.160732 0.659648 1.70483 31 33 30
0.171641 0.667343 1.72472 31 34 30
0.185025 0.683412 1.76625 33 34 31
0.1854 0.652185 1.68555 34 35 32
0.198742 0.667343 1.72472 34 35 33
0.200439 0.643778 1.66382 35 36 34
0.22203 0.683412 1.76625 34 35 33
0.223239 0.659648 1.70483 33 34 33
0.232169 0.659648 1.70483 33 34 33
0.238371 0.652185 1.68555 33 34 33
0.25779 0.680128 1.75776 33 34 33
0.261978 0.667343 1.72472 32 34 32
0.267887 0.659648 1.70483 31 34 32
0.276817 0.659648 1.70483 30 33 32
0.292016 0.674121 1.74224 31 34 32
0.305291 0.683412 1.76625 31 34 32
0.303605 0.659648 1.70483 30 33 31
0.316181 0.667343 1.72472 31 34 32
0.335944 0.68936 1.78162 31 33 33
0.330394 0.659648 1.70483 30 33 34
0.354608 0.68936 1.78162 30 33 34
0.36394 0.68936 1.78162 30 33 34
0.361349 0.667343 1.72472 32 35 35
0.374145 0.674121 1.74224 35 37 36
0.391935 0.68936 1.78162 36 39 38
0.401267 0.68936 1.78162 35 37 36
0.405099 0.680128 1.75776 34 36 35
0.412163 0.676609 1.74867 35 36 35
0.432525 0.694601 1.79517 34 36 35
0.448737 0.705304 1.82283 33 35 35
0.43964 0.676609 1.74867 32 34 34
0.442653 0.667343 1.72472 31 34 34
0.474013 0.700328 1.80997 32 35 35
0.471814 0.683412 1.76625 33 36 36
0.470756 0.668767 1.7284 34 36 36
0.490317 0.683412 1.76625 35 38 38
0.521571 0.713512 1.84404 35 38 37
0.503754 0.676609 1.74867 35 38 37
0.526552 0.694601 1.79517 35 38 38
0.544213 0.705304 1.82283 35 37 37
0.553761 0.705304 1.82283 34 36 36
0.545824 0.683412 1.76625 33 34 36
0.568815 0.700328 1.80997 32 34 35
0.578295 0.700328 1.80997 32 35 36
0.582969 0.694601 1.79517 34 38 39
0.57034 0.668767 1.7284 37 40 40
0.606736 0.700328 1.80997 35 39 39
0.606566 0.68936 1.78162 34 37 37
0.602282 0.674121 1.74224 34 38 38
0.635177 0.700328 1.80997 34 38 38
0.660915 0.71799 1.85562 34 37 38
0.670634 0.71799 1.85562 33 36 37
0.67611 0.713512 1.84404 32 36 37
0.667593 0.694601 1.79517 32 36 37
0.695427 0.713512 1.84404 34 37 38
0.672096 0.680128 1.75776 35 38 38
0.709496 0.708271 1.8305 36 38 39
0.724404 0.713512 1.84404 37 39 39
0.707759 0.687945 1.77797 36 38 39
0.760442 0.729554 1.8855 35 38 38
0.774143 0.733176 1.89486 35 38 39
0.798422 0.746598 1.92955 36 39 39
0.760299 0.702063 1.81445 36 39 39
0.821603 0.749305 1.93655 35 38 38
0.83421 0.751524 1.94228 34 37 38
0.780426 0.694601 1.79517 34 37 38
0.811332 0.713512 1.84404 34 37 38
0.834477 0.725233 1.87433 36 40 41
0.838194 0.719992 1.86079 37 40 41
0.875301 0.743224 1.92083 37 40 41
0.836329 0.702063 1.81445 35 39 39
0.902749 0.749305 1.93655 33 37 37
0.835135 0.685482 1.7716 34 38 38
0.855647 0.694601 1.79517 35 39 39
0.888602 0.713512 1.84404 35 39 39
0.930227 0.738903 1.90967 35 39 39
0.872252 0.685482 1.7716 35 39 39
0.995181 0.773856 2 35 39 39
0.883853 0.680128 1.75776 34 38 38
1.01613 0.773856 2 33 37 38
1.02661 0.773856 2 33 38 38
1.03708 0.773856 2 34 38 39
1.04756 0.773856 2 34 38 39
1.01025 0.738903 1.90967 34 39 39
1.02025 0.738903 1.90967 34 38 39
0.96848 0.694601 1.79517 34 38 38
0.957507 0.680128 1.75776 34 37 38
0.966714 0.680128 1.75776 34 37 38
1.11041 0.773856 2 35 38 39
1.12089 0.773856 2 35 39 39
1.13136 0.773856 2 35 39 40
1.14184 0.773856 2 35 39 40
1.22472 0.82248 2.12567 35 39 40
1.16279 0.773856 2 34 38 39
1.17327 0.773856 2 34 38 38
1.25812 0.82248 2.12567 35 38 39
1.19422 0.773856 2 36 40 40
1.20469 0.773856 2 37 42 42
1.33962 0.853112 2.20483 36 40 40
1.35117 0.853112 2.20483 35 40 40
1.23612 0.773856 2 36 41 41
1.2466 0.773856 2 36 40 40
-0.726561 0.453317 1.15596 34 34 32
-0.750969 0.472483 1.20483 35 35 32
-0.849421 0.538954 1.37433 36 35 32
-0.863874 0.55281 1.40967 36 36 33
-0.856491 0.55281 1.40967 36 35 32
-0.678041 0.441438 1.12567 36 36 33
-0.841724 0.55281 1.40967 36 36 33
-0.887806 0.588235 1.5 36 36 34
-1.00011 0.668562 1.70483 35 36 33
-0.799031 0.538954 1.37433 35 35 33
-0.916283 0.623661 1.59033 35 35 33
-0.804806 0.55281 1.40967 36 36 33
-0.848523 0.588235 1.5 36 36 33
-0.840666 0.588235 1.5 35 35 32
-0.782655 0.55281 1.40967 34 35 32
-0.824953 0.588235 1.5 33 34 30
-0.88555 0.637516 1.62567 33 34 30
-0.857974 0.623661 1.59033 35 35 32
-0.849644 0.623661 1.59033 35 36 33
-0.991555 0.735033 1.87433 35 35 31
-0.851491 0.637516 1.62567 34 35 30
-0.824655 0.623661 1.59033 35 35 31
-0.834461 0.637516 1.62567 36 36 32
-0.762099 0.588235 1.5 36 36 31
-0.832663 0.649395 1.65596 36 35 31
-0.848309 0.668562 1.70483 36 36 31
-0.738529 0.588235 1.5 35 35 31
-0.913016 0.735033 1.87433 35 35 32
-0.797969 0.649395 1.65596 35 35 32
-0.868832 0.714835 1.82283 35 35 32
-0.883564 0.735033 1.87433 35 36 33
-0.873747 0.735033 1.87433 36 37 34
-0.827439 0.703987 1.79517 37 38 35
-0.863467 0.743084 1.89486 36 37 34
-0.791785 0.689318 1.75776 35 35 32
-0.843617 0.743084 1.89486 34 35 31
-0.798314 0.71155 1.81445 35 35 31
-0.760211 0.685752 1.74867 37 37 35
-0.771023 0.703987 1.79517 38 39 37
-0.76162 0.703987 1.79517 36 36 34
-0.752218 0.703987 1.79517 34 34 31
-0.74894 0.709792 1.80997 35 35 33
-0.75338 0.723154 1.84404 36 36 34
-0.748389 0.727692 1.85562 36 36 34
-0.738669 0.727692 1.85562 36 36 34
-0.720496 0.719253 1.8341 36 36 34
-0.719231 0.727692 1.85562 37 37 35
-0.709511 0.727692 1.85562 36 36 34
-0.650429 0.676361 1.72472 36 36 34
-0.67788 0.714835 1.82283 36 35 33
-0.700171 0.748888 1.90967 35 35 31
-0.642571 0.697241 1.77797 36 36 32
-0.626062 0.689318 1.75776 37 37 33
-0.598281 0.668562 1.70483 35 35 32
-0.625697 0.709792 1.80997 34 35 31
-0.595346 0.685752 1.74867 35 37 33
-0.59208 0.692647 1.76625 36 37 34
-0.562563 0.668562 1.70483 35 36 32
-0.578571 0.698676 1.78162 35 34 31
-0.569239 0.698676 1.78162 35 34 30
-0.579523 0.723154 1.84404 35 35 31
-0.563309 0.714835 1.82283 36 36 33
-0.541243 0.698676 1.78162 36 36 33
-0.531912 0.698676 1.78162 36 36 33
-0.526552 0.703987 1.79517 35 35 32
-0.513248 0.698676 1.78162 35 35 32
-0.515571 0.714835 1.82283 35 35 31
-0.506023 0.714835 1.82283 35 35 32
-0.458147 0.659649 1.68211 35 35 32
-0.475921 0.698676 1.78162 36 37 34
-0.470136 0.703987 1.79517 36 37 34
-0.467833 0.714835 1.82283 35 35 33
-0.447926 0.698676 1.78162 34 35 32
-0.434809 0.692647 1.76625 35 35 33
-0.421322 0.685752 1.74867 35 35 33
-0.41993 0.698676 1.78162 35 36 33
-0.41372 0.703987 1.79517 35 36 33
-0.407651 0.709792 1.80997 35 36 33
-0.394914 0.703987 1.79517 35 35 32
-0.379302 0.692647 1.76625 35 35 31
-0.366367 0.685752 1.74867 34 35 30
-0.36973 0.709792 1.80997 35 35 30
-0.339324 0.668562 1.70483 34 35 30
-0.342296 0.692647 1.76625 35 35 30
-0.321464 0.668562 1.70483 34 35 30
-0.308368 0.659649 1.68211 35 35 32
-0.314543 0.692647 1.76625 34 35 32
-0.307949 0.698676 1.78162 34 35 31
-0.303368 0.709792 1.80997 34 35 31
-0.276817 0.668562 1.70483 34 35 31
-0.264316 0.659649 1.68211 35 35 32
-0.264639 0.683231 1.74224 35 35 32
-0.25779 0.689318 1.75776 36 35 32
-0.241098 0.668562 1.70483 36 36 33
-0.237263 0.683231 1.74224 36 36 33
-0.23017 0.689318 1.75776 36 36 33
-0.233264 0.727692 1.85562 36 36 32
-0.207776 0.676361 1.72472 35 35 31
-0.203528 0.692647 1.76625 34 34 30
-0.189708 0.676361 1.72472 35 35 31
-0.185025 0.692647 1.76625 35 35 31
-0.167742 0.660999 1.68555 35 36 32
-0.162607 0.676361 1.72472 35 35 32
-0.15864 0.698676 1.78162 35 35 33
-0.142873 0.668562 1.70483 34 35 32
-0.139689 0.697241 1.77797 35 36 33
-0.1236 0.660999 1.68555 36 36 34
-0.121313 0.698676 1.78162 35 36 34
-0.111981 0.698676 1.78162 35 35 33
-0.101275 0.689318 1.75776 35 35 33
-0.0915917 0.685752 1.74867 35 36 33
-0.0792947 0.659649 1.68211 34 35 32
-0.0730039 0.683231 1.74224 34 35 32
-0.062507 0.668562 1.70483 35 35 33
-0.0559907 0.698676 1.78162 35 36 33
-0.0441428 0.660999 1.68555 35 35 32
-0.0348589 0.652477 1.66382 35 35 32
-0.0271012 0.676361 1.72472 34 35 32
-0.0178591 0.668562 1.70483 34 35 32
-0.00882855 0.660999 1.68555 34 35 31
0 0.685752 1.74867 34 35 32
0.00871474 0.652477 1.66382 35 36 33
0.0174295 0.652477 1.66382 35 36 33
0.0279954 0.698676 1.78162 34 35 32
0.0365019 0.683231 1.74224 34 35 32
0.0474013 0.709792 1.80997 34 35 31
0.0542024 0.676361 1.72472 34 35 31
0.0610031 0.652477 1.66382 33 35 30
0.0730039 0.683231 1.74224 33 34 30
0.0803661 0.668562 1.70483 34 35 30
0.0925126 0.692647 1.76625 34 35 31
0.100751 0.685752 1.74867 34 35 31
0.104577 0.652477 1.66382 34 35 30
0.124119 0.714835 1.82283 33 34 30
0.127757 0.683231 1.74224 33 35 31
0.133943 0.668562 1.70483 32 34 31
0.151684 0.709792 1.80997 32 34 31
0.151803 0.668562 1.70483 32 34 30
0.166523 0.692647 1.76625 33 34 31
0.167742 0.660999 1.68555 33 34 31
0.171717 0.642827 1.63921 33 34 31
0.189708 0.676361 1.72472 33 35 31
0.201502 0.685752 1.74867 33 34 32
0.218046 0.709792 1.80997 33 34 32
0.225665 0.703987 1.79517 32 34 31
0.220714 0.660999 1.68555 32 33 31
0.242626 0.698676 1.78162 32 34 32
0.246388 0.683231 1.74224 33 34 33
0.263276 0.703987 1.79517 33 34 33
0.268286 0.692647 1.76625 32 34 32
0.27159 0.677804 1.7284 32 34 33
0.273685 0.660999 1.68555 31 34 32
0.28908 0.676361 1.72472 32 34 33
0.307949 0.698676 1.78162 31 34 33
0.303605 0.668562 1.70483 30 34 32
0.305016 0.652477 1.66382 31 34 33
0.32973 0.685752 1.74867 32 35 35
0.330394 0.668562 1.70483 31 34 35
0.37306 0.735033 1.87433 31 34 34
0.352316 0.676361 1.72472 31 34 35
0.373271 0.698676 1.78162 33 36 36
0.349111 0.637516 1.62567 35 38 37
0.386686 0.689318 1.75776 36 39 38
0.404317 0.703987 1.79517 35 37 36
0.410598 0.698676 1.78162 33 35 34
0.40183 0.668562 1.70483 33 35 34
0.419772 0.683231 1.74224 34 35 35
0.430481 0.685752 1.74867 34 35 35
0.43964 0.685752 1.74867 33 35 35
0.448799 0.685752 1.74867 32 34 35
0.466589 0.698676 1.78162 31 34 34
0.455408 0.668562 1.70483 33 35 35
0.481065 0.692647 1.76625 34 36 36
0.502453 0.709792 1.80997 34 37 37
0.511934 0.709792 1.80997 34 37 36
0.503754 0.685752 1.74867 36 38 38
0.526552 0.703987 1.79517 37 39 38
0.508985 0.668562 1.70483 35 37 38
0.536573 0.692647 1.76625 34 36 37
0.576531 0.731613 1.86561 32 34 36
0.54955 0.685752 1.74867 31 34 35
0.573566 0.703987 1.79517 33 36 37
0.582969 0.703987 1.79517 35 39 40
0.592371 0.703987 1.79517 36 40 40
0.563874 0.659649 1.68211 34 38 38
0.595346 0.685752 1.74867 34 38 38
0.637475 0.723154 1.84404 35 38 39
