ply
format ascii 1.0
element vertex 1334
property float x
property float y
property float z
property uchar red
property uchar green
property uchar blue
end_header
0.579225 -0.823237 1.87433 37 41 35
0.589043 -0.823237 1.87433 35 40 34
0.589182 -0.809932 1.84404 34 39 34
0.561287 -0.75914 1.7284 35 40 35
0.592371 -0.788466 1.79517 35 40 35
0.596008 -0.78091 1.77797 36 40 37
0.656929 -0.84749 1.92955 36 40 38
0.647947 -0.823237 1.87433 36 40 37
0.679598 -0.850563 1.93655 36 38 36
0.646254 -0.796936 1.81445 37 38 35
0.699884 -0.850563 1.93655 36 38 36
0.665261 -0.796936 1.81445 37 39 35
0.644753 -0.76149 1.73375 35 37 34
0.711063 -0.828142 1.8855 37 38 35
0.716669 -0.823237 1.87433 37 40 36
0.726486 -0.823237 1.87433 36 40 36
0.705204 -0.788466 1.79517 36 40 36
0.707759 -0.78091 1.77797 35 40 36
0.724009 -0.788466 1.79517 36 40 37
0.741291 -0.796936 1.81445 36 40 37
0.757434 -0.803984 1.8305 36 41 37
0.78539 -0.823237 1.87433 36 41 37
0.814935 -0.84366 1.92083 34 39 35
0.828742 -0.84749 1.92955 34 40 36
0.84189 -0.850563 1.93655 34 40 36
0.87995 -0.878431 2 35 40 36
0.820991 -0.809932 1.84404 35 40 36
0.830649 -0.809932 1.84404 35 41 37
0.870212 -0.838755 1.90967 36 41 37
0.880215 -0.838755 1.90967 35 41 37
0.932328 -0.878431 2 35 41 36
0.883564 -0.823237 1.87433 35 40 38
0.953279 -0.878431 2 36 40 39
0.87838 -0.800615 1.82283 36 40 39
0.935667 -0.84366 1.92083 37 40 40
0.984706 -0.878431 2 37 40 39
0.893258 -0.788466 1.79517 37 38 38
0.960234 -0.838755 1.90967 38 38 37
0.97591 -0.84366 1.92083 38 37 36
1.02661 -0.878431 2 38 36 35
1.08393 -0.918108 2.09033 37 36 34
1.04756 -0.878431 2 38 36 35
1.00242 -0.832254 1.89486 39 37 36
1.06851 -0.878431 2 39 38 36
1.01119 -0.823237 1.87433 39 39 36
1.00451 -0.809932 1.84404 39 38 36
1.09994 -0.878431 2 38 38 36
1.11041 -0.878431 2 37 38 35
1.03348 -0.809932 1.84404 37 38 36
1.24723 -0.968397 2.20483 37 39 37
1.14184 -0.878431 2 37 39 37
1.24217 -0.946931 2.15596 36 39 36
1.07212 -0.809932 1.84404 36 38 36
1.34642 -1.00807 2.29517 36 38 36
1.18374 -0.878431 2 36 38 37
1.19422 -0.878431 2 36 38 37
1.20469 -0.878431 2 36 38 37
1.21517 -0.878431 2 37 39 37
1.40653 -1.00807 2.29517 37 39 37
1.23612 -0.878431 2 37 39 36
1.3438 -0.946931 2.15596 37 39 35
-0.53051 -0.366303 0.844042 44 36 29
-0.504852 -0.351516 0.80997 42 36 28
-0.565905 -0.397365 0.915615 40 34 30
-0.517247 -0.366303 0.844042 37 36 33
-0.531232 -0.37945 0.874334 35 38 35
-0.486201 -0.350304 0.807177 37 38 36
-0.522073 -0.37945 0.874334 36 40 37
-0.499564 -0.366303 0.844042 38 39 37
-0.517413 -0.382778 0.882004 40 39 36
-0.469289 -0.350304 0.807177 38 37 34
-0.492969 -0.371326 0.855615 37 36 33
-0.486928 -0.37014 0.852883 36 36 31
-0.498934 -0.382778 0.882004 36 36 30
-0.477993 -0.37014 0.852883 37 38 33
-0.485436 -0.37945 0.874334 38 38 33
-0.488812 -0.385728 0.8888 38 38 32
-0.487459 -0.388359 0.894863 38 38 32
-0.464391 -0.373572 0.860791 38 39 33
-0.496619 -0.403414 0.929553 38 38 33
-0.487137 -0.39963 0.920833 37 38 32
-0.468711 -0.388359 0.894863 37 37 31
-0.479883 -0.401632 0.925446 37 37 32
-0.475035 -0.401632 0.925446 37 37 31
-0.508066 -0.433987 1 38 38 32
-0.467406 -0.403414 0.929553 38 38 33
-0.466018 -0.40645 0.936549 38 38 34
-0.492353 -0.433987 1 38 37 35
-0.438552 -0.39072 0.900304 39 37 36
-0.463853 -0.417754 0.962595 39 38 37
-0.441104 -0.401632 0.925446 39 38 37
-0.439928 -0.405011 0.933233 39 38 35
-0.43141 -0.401632 0.925446 39 38 34
-0.444641 -0.418654 0.964669 39 38 34
-0.491764 -0.468344 1.07917 39 38 34
-0.45045 -0.433987 1 39 37 33
-0.478405 -0.466342 1.07455 39 37 34
-0.457458 -0.451232 1.03974 39 38 34
-0.417462 -0.416742 0.960263 39 38 35
-0.429499 -0.433987 1 39 38 35
-0.440131 -0.45022 1.03741 38 37 33
-0.452196 -0.468344 1.07917 38 37 33
-0.430228 -0.451232 1.03974 39 38 35
-0.425862 -0.452379 1.04238 39 39 35
-0.418396 -0.45022 1.03741 37 38 33
-0.414942 -0.452379 1.04238 36 38 32
-0.409482 -0.452379 1.04238 36 38 33
-0.406541 -0.455198 1.04887 36 38 32
-0.433743 -0.492309 1.13439 37 38 33
-0.435937 -0.501671 1.15596 37 37 34
-0.418617 -0.488524 1.12567 38 37 35
-0.386052 -0.456958 1.05293 38 38 36
-0.379072 -0.455198 1.04887 39 38 36
-0.429125 -0.522882 1.20483 39 39 34
-0.385036 -0.476162 1.09718 38 38 29
-0.38204 -0.479615 1.10514 38 38 29
-0.358477 -0.456958 1.05293 39 38 29
-0.403883 -0.522882 1.20483 39 37 28
-0.367763 -0.483678 1.1145 40 38 29
-0.384999 -0.514512 1.18555 41 38 30
-0.378789 -0.514512 1.18555 41 38 30
-0.415722 -0.57409 1.32283 41 38 30
-0.35205 -0.494402 1.13921 41 38 30
-0.393462 -0.562086 1.29517 41 39 31
-0.370876 -0.539115 1.24224 39 37 28
-0.36031 -0.53311 1.2284 38 37 27
-0.383288 -0.577419 1.3305 37 39 30
-0.394524 -0.605352 1.39486 35 40 31
-0.381519 -0.596443 1.37433 34 40 31
-0.352759 -0.562086 1.29517 34 40 32
-0.355413 -0.577419 1.3305 34 39 32
-0.339191 -0.562086 1.29517 33 39 31
-0.370165 -0.625932 1.44228 34 39 31
-0.350688 -0.605352 1.39486 35 39 31
-0.338329 -0.596443 1.37433 36 38 31
-0.361408 -0.65098 1.5 38 37 30
-0.353551 -0.65098 1.5 37 37 30
-0.374656 -0.705518 1.62567 38 37 30
-0.324839 -0.625932 1.44228 37 38 30
-0.329981 -0.65098 1.5 36 38 30
-0.366112 -0.739875 1.70483 37 39 31
-0.329027 -0.681553 1.57045 38 40 34
-0.348253 -0.739875 1.70483 36 39 32
-0.339324 -0.739875 1.70483 36 39 30
-0.260473 -0.583297 1.34404 36 40 29
-0.331445 -0.762846 1.75776 37 40 30
-0.312535 -0.739875 1.70483 37 40 29
-0.319692 -0.779079 1.79517 36 39 28
-0.288569 -0.724542 1.6695 37 38 26
-0.263222 -0.681553 1.57045 37 37 28
-0.291484 -0.779079 1.79517 38 37 31
-0.260207 -0.718664 1.65596 39 38 33
-0.266997 -0.762846 1.75776 39 38 34
-0.250028 -0.739875 1.70483 39 38 34
-0.246388 -0.756108 1.74224 36 38 34
-0.261584 -0.833616 1.92083 35 39 35
-0.23869 -0.791084 1.82283 35 39 34
-0.233915 -0.807559 1.86079 34 39 35
-0.220519 -0.794413 1.8305 35 39 35
-0.208566 -0.785503 1.80997 36 38 34
-0.208423 -0.822346 1.89486 37 39 35
-0.180675 -0.748506 1.72472 37 39 35
-0.181405 -0.791084 1.82283 36 39 34
-0.160732 -0.739875 1.70483 35 38 32
-0.150085 -0.731505 1.68555 35 37 31
-0.149309 -0.773202 1.78162 35 38 32
-0.144881 -0.80029 1.84404 35 38 32
-0.130377 -0.771614 1.77797 35 38 33
-0.126351 -0.805313 1.85562 35 38 34
-0.111751 -0.771614 1.77797 37 38 35
-0.102439 -0.771614 1.77797 37 38 35
-0.0948025 -0.785503 1.80997 37 38 35
-0.0846245 -0.779079 1.79517 37 38 35
-0.0752218 -0.779079 1.79517 37 38 35
-0.0651883 -0.771614 1.77797 36 38 34
-0.0572856 -0.791084 1.82283 36 38 34
-0.0470136 -0.779079 1.79517 37 39 35
-0.0376109 -0.779079 1.79517 37 40 35
-0.029158 -0.805313 1.85562 36 39 34
-0.0188054 -0.779079 1.79517 36 39 33
-0.00958778 -0.794413 1.8305 36 39 33
0 -0.771614 1.77797 36 38 33
0.00940272 -0.779079 1.79517 36 38 33
0.0198498 -0.822346 1.89486 36 38 35
0.0289761 -0.80029 1.84404 36 38 36
0.0372505 -0.771614 1.77797 36 38 36
0.0482936 -0.80029 1.84404 37 39 36
0.0568815 -0.785503 1.80997 37 39 36
0.0641142 -0.758899 1.74867 36 38 35
0.0752218 -0.779079 1.79517 35 37 35
0.0824325 -0.758899 1.74867 36 38 36
0.0958778 -0.794413 1.8305 37 39 37
0.0982252 -0.739875 1.70483 37 38 36
0.116632 -0.805313 1.85562 37 38 36
0.121064 -0.771614 1.77797 37 37 37
0.125014 -0.739875 1.70483 37 37 37
0.148874 -0.822346 1.89486 37 37 37
0.150444 -0.779079 1.79517 37 37 36
0.159846 -0.779079 1.79517 37 39 36
0.170645 -0.785503 1.80997 38 40 36
0.181405 -0.791084 1.82283 37 40 35
0.188054 -0.779079 1.79517 36 39 33
0.195967 -0.773202 1.78162 36 40 33
0.210931 -0.794413 1.8305 37 40 34
0.21419 -0.771614 1.77797 36 40 33
0.225665 -0.779079 1.79517 36 39 35
0.237593 -0.787449 1.81445 35 38 36
0.251127 -0.80029 1.84404 35 37 35
0.251441 -0.771614 1.77797 36 38 36
0.260753 -0.771614 1.77797 36 40 35
0.272679 -0.779079 1.79517 36 39 32
0.282082 -0.779079 1.79517 35 38 32
0.288691 -0.771614 1.77797 35 39 32
0.3029 -0.784291 1.80718 36 39 33
0.312848 -0.785503 1.80997 36 38 34
0.319692 -0.779079 1.79517 37 38 35
0.331809 -0.785503 1.80997 38 40 36
0.34516 -0.794413 1.8305 39 40 37
0.354748 -0.794413 1.8305 37 39 35
0.36025 -0.785503 1.80997 37 38 35
0.363192 -0.771614 1.77797 38 38 35
0.388773 -0.805313 1.85562 38 38 35
0.385511 -0.779079 1.79517 38 38 35
0.398171 -0.785503 1.80997 37 37 34
0.417931 -0.805313 1.85562 38 38 35
0.421862 -0.794413 1.8305 39 39 35
0.419068 -0.771614 1.77797 37 38 34
0.421322 -0.758899 1.74867 36 39 34
0.430481 -0.758899 1.74867 37 40 36
0.451331 -0.779079 1.79517 38 41 37
0.465683 -0.787449 1.81445 37 40 36
0.498329 -0.825799 1.90282 36 40 35
0.534255 -0.867974 2 36 39 35
0.484256 -0.771614 1.77797 36 39 35
0.523421 -0.818283 1.8855 36 39 34
0.521571 -0.80029 1.84404 37 40 34
0.56091 -0.845003 1.94707 37 40 34
0.532209 -0.787449 1.81445 37 40 34
0.562925 -0.818283 1.8855 37 40 34
0.590051 -0.842926 1.94228 37 40 34
0.565679 -0.794413 1.8305 36 40 34
0.570224 -0.787449 1.81445 35 40 34
0.584855 -0.794413 1.8305 35 40 35
0.608678 -0.813437 1.87433 35 40 35
0.62218 -0.818283 1.8855 36 40 35
0.571492 -0.739875 1.70483 36 40 36
0.623206 -0.794413 1.8305 36 40 37
0.651808 -0.818283 1.8855 36 39 36
0.608429 -0.752425 1.73375 36 38 36
0.651969 -0.794413 1.8305 37 38 36
0.655758 -0.787449 1.81445 37 38 37
0.651883 -0.771614 1.77797 37 39 35
0.697034 -0.813437 1.87433 36 38 35
0.684269 -0.787449 1.81445 37 38 35
0.71149 -0.807559 1.86079 36 39 36
0.721237 -0.807559 1.86079 35 40 36
0.785669 -0.867974 2 35 39 35
0.768102 -0.837401 1.92955 35 39 35
0.760442 -0.818283 1.8855 36 40 36
0.760223 -0.807559 1.86079 36 40 36
0.798422 -0.837401 1.92955 35 40 36
0.779715 -0.807559 1.86079 35 40 36
0.751621 -0.768851 1.7716 34 40 36
0.760901 -0.768851 1.7716 35 40 36
0.792451 -0.791084 1.82283 35 40 36
0.848955 -0.837401 1.92955 35 40 36
0.855179 -0.833616 1.92083 35 40 36
0.808634 -0.779079 1.79517 34 39 35
0.840308 -0.80029 1.84404 34 40 35
0.921852 -0.867974 2 34 40 35
0.849737 -0.791084 1.82283 34 39 35
0.859285 -0.791084 1.82283 34 39 37
0.953279 -0.867974 2 35 39 39
0.874344 -0.787449 1.81445 36 39 38
0.930227 -0.82877 1.90967 36 40 39
1.02918 -0.907178 2.09033 37 40 39
0.995181 -0.867974 2 37 39 38
1.05108 -0.907178 2.09033 38 38 37
1.01613 -0.867974 2 38 37 36
0.980239 -0.82877 1.90967 38 37 35
0.971921 -0.813437 1.87433 38 37 35
1.09487 -0.907178 2.09033 39 37 36
0.97553 -0.80029 1.84404 38 37 36
0.910816 -0.739875 1.70483 38 37 35
0.96848 -0.779079 1.79517 38 37 35
1.14673 -0.913602 2.10514 38 38 36
1.03082 -0.813437 1.87433 38 38 36
1.18018 -0.922511 2.12567 37 38 36
1.06196 -0.822346 1.89486 37 39 37
1.21959 -0.935658 2.15596 37 40 37
1.14184 -0.867974 2 36 39 36
1.06246 -0.80029 1.84404 36 38 36
0.945155 -0.705518 1.62567 36 38 36
1.08178 -0.80029 1.84404 36 38 37
1.27605 -0.935658 2.15596 37 39 37
1.19422 -0.867974 2 37 39 37
1.32807 -0.956869 2.20483 37 39 38
1.21517 -0.867974 2 37 39 37
1.22564 -0.867974 2 37 39 37
1.23612 -0.867974 2 37 39 36
1.43057 -0.996073 2.29517 36 39 35
-0.466523 -0.318241 0.742238 42 36 29
-0.472311 -0.324897 0.757762 41 35 28
-0.515521 -0.357625 0.834095 40 34 30
-0.494656 -0.346084 0.807177 36 35 32
-0.506783 -0.357625 0.834095 34 37 35
-0.487882 -0.347281 0.80997 37 39 37
-0.503985 -0.36189 0.844042 36 39 36
-0.499564 -0.36189 0.844042 37 38 35
-0.479804 -0.350679 0.817894 38 37 35
-0.495862 -0.365681 0.852883 37 36 34
-0.503754 -0.374878 0.874334 37 36 33
-0.525722 -0.394815 0.920833 36 36 30
-0.490957 -0.372121 0.867904 36 36 30
-0.482425 -0.369071 0.860791 38 38 33
-0.496834 -0.38368 0.894863 38 38 33
-0.488812 -0.38108 0.8888 38 39 33
-0.506356 -0.398554 0.929553 38 39 34
-0.446436 -0.354802 0.82751 38 39 34
-0.463682 -0.372121 0.867904 38 38 33
-0.49175 -0.398554 0.929553 36 37 31
-0.48473 -0.396793 0.925446 37 37 32
-0.466845 -0.386013 0.900304 38 38 33
-0.46213 -0.386013 0.900304 38 38 33
-0.457414 -0.386013 0.900304 37 38 32
-0.43283 -0.369071 0.860791 38 38 33
-0.464368 -0.400131 0.933233 38 38 34
-0.457668 -0.398554 0.929553 38 38 35
-0.454592 -0.400131 0.933233 39 38 36
-0.463853 -0.41272 0.962595 39 38 36
-0.443062 -0.398554 0.929553 38 37 36
-0.471402 -0.428758 1 38 37 35
-0.448727 -0.41272 0.962595 39 38 34
-0.424436 -0.394815 0.920833 39 38 35
-0.455688 -0.428758 1 39 38 34
-0.46954 -0.446928 1.04238 39 38 34
-0.409967 -0.394815 0.920833 39 37 34
-0.439975 -0.428758 1 39 38 34
-0.434737 -0.428758 1 38 37 35
-0.446566 -0.445796 1.03974 38 37 34
-0.424261 -0.428758 1 37 36 32
-0.456876 -0.46749 1.09033 37 37 32
-0.434009 -0.449713 1.04887 38 37 33
-0.443023 -0.464939 1.08438 38 38 33
-0.420402 -0.446928 1.04238 37 38 33
-0.414942 -0.446928 1.04238 36 38 32
-0.43101 -0.470425 1.09718 36 37 32
-0.439685 -0.486377 1.13439 37 38 33
-0.416899 -0.46749 1.09033 38 38 34
-0.41377 -0.470425 1.09718 38 38 35
-0.405477 -0.46749 1.09033 38 38 35
-0.405194 -0.473836 1.10514 39 39 36
-0.377814 -0.448222 1.0454 40 40 37
-0.372339 -0.448222 1.0454 40 40 35
-0.385036 -0.470425 1.09718 39 40 32
-0.416504 -0.516582 1.20483 39 39 32
-0.376251 -0.473836 1.10514 40 39 31
-0.370463 -0.473836 1.10514 39 38 30
-0.409915 -0.53262 1.24224 39 37 29
-0.369951 -0.488445 1.13921 40 37 29
-0.390447 -0.523957 1.22203 41 39 31
-0.407029 -0.555313 1.29517 41 38 31
-0.383889 -0.53262 1.24224 40 39 31
-0.384677 -0.542915 1.26625 40 38 30
-0.359708 -0.516582 1.20483 39 37 29
-0.397624 -0.581231 1.35562 39 37 29
-0.36478 -0.542915 1.26625 37 39 31
-0.345641 -0.523957 1.22203 35 40 32
-0.316248 -0.488445 1.13921 33 39 30
-0.362382 -0.570462 1.3305 34 39 31
-0.416109 -0.667883 1.55772 33 38 31
-0.348444 -0.570462 1.3305 33 38 31
-0.341475 -0.570462 1.3305 34 38 31
-0.403554 -0.688215 1.60514 35 39 32
-0.343382 -0.598059 1.39486 36 38 31
-0.336076 -0.598059 1.39486 37 37 31
-0.353551 -0.643137 1.5 37 38 31
-0.381637 -0.710006 1.65596 37 37 30
-0.358183 -0.681869 1.59033 36 37 29
-0.329981 -0.643137 1.5 36 38 30
-0.334519 -0.667883 1.55772 37 39 31
-0.365019 -0.746999 1.74224 37 40 32
-0.341036 -0.715812 1.6695 36 39 31
-0.298554 -0.643137 1.5 36 39 30
-0.320922 -0.710006 1.65596 36 40 29
-0.299874 -0.681869 1.59033 37 40 29
-0.294258 -0.688215 1.60514 37 40 29
-0.328396 -0.790648 1.84404 36 39 28
-0.294676 -0.730961 1.70483 37 38 28
-0.300887 -0.769693 1.79517 38 37 30
-0.254996 -0.673342 1.57045 38 37 32
-0.267887 -0.730961 1.70483 39 37 33
-0.264639 -0.746999 1.74224 39 38 34
-0.250028 -0.730961 1.70483 38 38 34
-0.241098 -0.730961 1.70483 36 38 33
-0.253408 -0.797829 1.86079 34 39 34
-0.241468 -0.790648 1.84404 36 39 34
-0.227526 -0.776039 1.80997 35 40 35
-0.208219 -0.741066 1.7284 36 40 35
-0.198742 -0.739488 1.72472 37 39 35
-0.199085 -0.776039 1.80997 37 38 35
-0.185025 -0.757294 1.76625 37 38 34
-0.180125 -0.776039 1.80997 36 38 34
-0.173857 -0.790648 1.84404 35 38 32
-0.161164 -0.776039 1.80997 35 37 31
-0.149002 -0.762317 1.77797 35 38 32
-0.144881 -0.790648 1.84404 35 39 33
-0.135222 -0.790648 1.84404 36 38 34
-0.124119 -0.781553 1.82283 35 38 34
-0.115905 -0.790648 1.84404 37 38 35
-0.0982252 -0.730961 1.70483 38 38 36
-0.0912549 -0.746999 1.74224 37 38 36
-0.0814771 -0.741066 1.7284 37 38 35
-0.0781736 -0.799897 1.86561 37 38 35
-0.0694743 -0.812438 1.89486 37 39 34
-0.0568815 -0.776039 1.80997 37 39 35
-0.0466589 -0.763886 1.78162 37 39 35
-0.0376109 -0.769693 1.79517 37 39 35
-0.0287633 -0.784841 1.8305 37 39 34
-0.0194387 -0.79561 1.85562 36 39 34
-0.00992491 -0.812438 1.89486 36 39 34
0 -0.730961 1.70483 36 38 33
0.00892957 -0.730961 1.70483 36 38 33
0.0188054 -0.769693 1.79517 36 38 34
0.0287633 -0.784841 1.8305 37 39 36
0.0396996 -0.812438 1.89486 37 39 36
0.045265 -0.741066 1.7284 37 39 36
0.0535774 -0.730961 1.70483 37 38 36
0.0647588 -0.757294 1.76625 36 38 36
0.075842 -0.776039 1.80997 36 38 36
0.0879453 -0.799897 1.86561 36 38 36
0.0958778 -0.784841 1.8305 36 38 36
0.109632 -0.81585 1.90282 37 37 35
0.116632 -0.79561 1.85562 36 37 36
0.121313 -0.763886 1.78162 36 37 36
0.130377 -0.762317 1.77797 37 37 37
0.141041 -0.769693 1.79517 37 37 37
0.14802 -0.757294 1.76625 37 38 36
0.164198 -0.790648 1.84404 37 39 36
0.178648 -0.812438 1.89486 38 40 36
0.178652 -0.769693 1.79517 38 40 36
0.185025 -0.757294 1.76625 37 40 34
0.194276 -0.757294 1.76625 37 40 34
0.213825 -0.79561 1.85562 37 40 35
0.220519 -0.784841 1.8305 37 40 34
0.231809 -0.790648 1.84404 37 39 35
0.235068 -0.769693 1.79517 36 39 36
0.248238 -0.781553 1.82283 36 38 36
0.260785 -0.790648 1.84404 35 38 36
0.272141 -0.79561 1.85562 36 39 35
0.270066 -0.762317 1.77797 37 40 33
0.27159 -0.741066 1.7284 36 39 34
0.291484 -0.769693 1.79517 37 40 33
0.293093 -0.749756 1.74867 36 39 33
0.315071 -0.781553 1.82283 35 37 34
0.332238 -0.799897 1.86561 37 38 35
0.316181 -0.739488 1.72472 37 39 36
0.347714 -0.790648 1.84404 38 39 36
0.338889 -0.749756 1.74867 37 38 35
0.351548 -0.757294 1.76625 37 38 35
0.360799 -0.757294 1.76625 38 38 35
0.376109 -0.769693 1.79517 39 39 36
0.385511 -0.769693 1.79517 39 39 36
0.408212 -0.79561 1.85562 38 38 35
0.397804 -0.757294 1.76625 38 38 35
0.440107 -0.818785 1.90967 38 38 34
0.43737 -0.79561 1.85562 37 38 34
0.425558 -0.757294 1.76625 36 39 35
0.470115 -0.818785 1.90967 37 40 36
0.463618 -0.790648 1.84404 38 40 36
0.464532 -0.776039 1.80997 37 40 36
0.470136 -0.769693 1.79517 36 40 36
0.467118 -0.749756 1.74867 36 39 35
0.485253 -0.763886 1.78162 36 39 35
0.515125 -0.79561 1.85562 36 39 34
0.482197 -0.730961 1.70483 37 39 34
0.51715 -0.769693 1.79517 37 40 35
0.512913 -0.749756 1.74867 37 40 35
0.540374 -0.776039 1.80997 37 40 34
0.556091 -0.784841 1.8305 36 40 34
0.569864 -0.790648 1.84404 35 40 34
0.568815 -0.776039 1.80997 35 40 35
0.589182 -0.790648 1.84404 36 41 36
0.594442 -0.784841 1.8305 36 41 36
0.577028 -0.749756 1.74867 36 40 35
0.632056 -0.808424 1.8855 37 40 36
0.623206 -0.784841 1.8305 37 40 37
0.651808 -0.808424 1.8855 36 40 36
0.63675 -0.777961 1.81445 36 38 36
0.656793 -0.790648 1.84404 37 39 36
0.722816 -0.857516 2 37 39 37
0.665261 -0.777961 1.81445 38 39 36
0.685769 -0.790648 1.84404 37 39 36
0.732477 -0.83277 1.94228 38 40 36
0.693772 -0.777961 1.81445 37 40 36
0.703276 -0.777961 1.81445 36 40 36
0.698447 -0.762317 1.77797 35 39 35
0.768102 -0.827312 1.92955 35 39 35
0.750476 -0.797829 1.86079 35 39 35
0.770318 -0.808424 1.8855 35 40 36
0.775573 -0.803636 1.87433 34 40 35
0.808529 -0.827312 1.92955 35 40 36
0.789462 -0.797829 1.86079 35 40 36
0.792015 -0.790648 1.84404 35 40 36
0.869474 -0.857516 2 35 39 36
0.811332 -0.790648 1.84404 35 39 36
0.850207 -0.818785 1.90967 34 39 35
0.86524 -0.823573 1.92083 34 39 35
0.840308 -0.790648 1.84404 33 38 35
0.921852 -0.857516 2 33 39 35
0.825856 -0.759588 1.7716 34 39 35
0.846245 -0.769693 1.79517 34 39 37
0.953279 -0.857516 2 35 39 39
1.00728 -0.896248 2.09033 35 39 38
0.923016 -0.812438 1.89486 36 39 38
0.883856 -0.769693 1.79517 37 39 39
0.995181 -0.857516 2 36 38 37
1.00566 -0.857516 2 37 38 37
0.912064 -0.769693 1.79517 38 37 36
1.02661 -0.857516 2 38 37 36
0.990241 -0.818785 1.90967 39 38 36
0.992491 -0.812438 1.89486 39 37 36
0.991555 -0.803636 1.87433 38 37 35
1.01234 -0.812438 1.89486 37 37 35
1.07899 -0.857516 2 37 37 35
1.08946 -0.857516 2 37 38 36
1.09994 -0.857516 2 38 39 37
1.02382 -0.790648 1.84404 38 39 36
1.16526 -0.89146 2.07917 37 39 37
1.06028 -0.803636 1.87433 37 39 37
1.0528 -0.790648 1.84404 35 38 35
0.982252 -0.730961 1.70483 35 38 36
1.16279 -0.857516 2 36 38 36
1.0531 -0.769693 1.79517 37 39 37
1.06251 -0.769693 1.79517 38 40 38
0.970699 -0.697018 1.62567 37 39 38
1.08131 -0.769693 1.79517 37 39 38
1.39451 -0.984072 2.29517 37 39 38
1.40653 -0.984072 2.29517 36 39 36
1.05369 -0.730961 1.70483 36 38 35
0.934947 -0.643137 1.5 35 38 34
-0.524259 -0.353264 0.834095 43 37 32
-0.51989 -0.353264 0.834095 42 37 32
-0.484559 -0.332047 0.784 41 36 33
-0.487296 -0.336777 0.795167 38 37 35
-0.512827 -0.357476 0.844042 35 38 36
-0.486201 -0.341863 0.807177 37 38 36
-0.474801 -0.336777 0.795167 36 39 36
-0.493677 -0.353264 0.834095 37 38 36
-0.540191 -0.39 0.920833 38 38 35
-0.540438 -0.393693 0.929553 38 37 35
-0.512089 -0.376433 0.8888 38 37 34
-0.503553 -0.373555 0.882004 36 36 32
-0.477459 -0.357476 0.844042 35 36 30
-0.520963 -0.393693 0.929553 36 37 31
-0.493468 -0.376433 0.8888 36 37 31
-0.459874 -0.354148 0.836183 37 38 32
-0.506356 -0.393693 0.929553 38 39 34
-0.479501 -0.376433 0.8888 38 39 34
-0.478085 -0.379001 0.894863 38 39 33
-0.442355 -0.354148 0.836183 38 39 34
-0.488809 -0.395252 0.933233 38 38 33
-0.450044 -0.367583 0.867904 39 39 34
-0.459337 -0.379001 0.894863 39 39 35
-0.474144 -0.395252 0.933233 38 39 34
-0.43283 -0.36457 0.860791 38 38 34
-0.480934 -0.409352 0.966525 38 38 34
-0.457668 -0.393693 0.929553 38 38 35
-0.454592 -0.395252 0.933233 38 37 36
-0.447931 -0.393693 0.929553 38 37 35
-0.443062 -0.393693 0.929553 37 36 35
-0.397883 -0.357476 0.844042 36 36 32
-0.44764 -0.4067 0.960263 38 37 33
-0.444641 -0.408565 0.964669 39 38 35
-0.472733 -0.439372 1.03741 39 38 34
-0.466365 -0.438493 1.03533 39 38 34
-0.445213 -0.423529 1 39 38 34
-0.439975 -0.423529 1 39 38 35
-0.453161 -0.441478 1.04238 38 38 35
-0.411298 -0.405581 0.957621 38 37 34
-0.406282 -0.405581 0.957621 37 36 32
-0.419024 -0.423529 1 37 37 32
-0.413786 -0.423529 1 38 38 34
-0.443023 -0.459269 1.08438 38 38 34
-0.439743 -0.461789 1.09033 38 39 34
-0.42775 -0.455105 1.07455 38 40 34
-0.408445 -0.440359 1.03974 38 39 35
-0.408112 -0.445947 1.05293 39 40 35
-0.450102 -0.498567 1.17717 39 40 35
-0.393103 -0.441478 1.04238 40 39 36
-0.408023 -0.464688 1.09718 39 39 35
-0.399766 -0.461789 1.09033 39 38 35
-0.396529 -0.464688 1.09718 39 38 35
-0.445687 -0.529976 1.25133 38 38 33
-0.368084 -0.444229 1.04887 39 39 31
-0.395608 -0.484681 1.14438 39 39 31
-0.393554 -0.489582 1.15596 39 38 29
-0.397418 -0.502114 1.18555 39 37 29
-0.385913 -0.495318 1.1695 38 37 29
-0.37539 -0.489582 1.15596 38 36 28
-0.384951 -0.510282 1.20483 39 38 31
-0.372579 -0.502114 1.18555 40 38 31
-0.361411 -0.495318 1.1695 39 37 30
-0.373178 -0.520264 1.2284 38 37 29
-0.404725 -0.574143 1.35562 38 37 29
-0.347741 -0.502114 1.18555 38 37 29
-0.362335 -0.532699 1.25776 37 39 31
-0.366326 -0.548541 1.29517 35 40 32
-0.349159 -0.532699 1.25776 34 40 31
-0.392828 -0.61085 1.44228 35 40 32
-0.367123 -0.582071 1.37433 34 39 31
-0.359924 -0.582071 1.37433 33 38 30
-0.341475 -0.563505 1.3305 35 39 32
-0.362611 -0.61085 1.44228 36 40 33
-0.338329 -0.582071 1.37433 36 38 31
-0.349632 -0.614594 1.45113 37 37 30
-0.323932 -0.582071 1.37433 36 36 29
-0.358996 -0.659738 1.55772 36 36 29
-0.337838 -0.635294 1.5 37 38 32
-0.357626 -0.688517 1.62567 38 40 34
-0.334519 -0.659738 1.55772 39 41 35
-0.34978 -0.707083 1.6695 39 42 35
-0.372357 -0.772022 1.82283 38 40 34
-0.349858 -0.744464 1.75776 37 39 31
-0.290698 -0.635294 1.5 36 39 29
-0.312249 -0.701347 1.65596 36 39 29
-0.291545 -0.673553 1.59033 37 39 29
-0.303605 -0.722047 1.70483 36 39 29
-0.271447 -0.66513 1.57045 37 39 29
-0.32195 -0.813529 1.92083 38 38 31
-0.263962 -0.688517 1.62567 38 38 33
-0.273765 -0.737889 1.74224 38 37 33
-0.276881 -0.772022 1.82283 39 38 34
-0.25982 -0.750324 1.7716 40 40 35
-0.271645 -0.813529 1.92083 37 39 35
-0.241261 -0.750324 1.7716 35 39 34
-0.237593 -0.768474 1.81445 36 39 35
-0.238198 -0.80253 1.89486 35 40 35
-0.219595 -0.772022 1.82283 37 39 35
-0.205299 -0.75457 1.78162 37 39 35
-0.195967 -0.75457 1.78162 37 38 35
-0.186636 -0.75457 1.78162 36 38 34
-0.174024 -0.740612 1.74867 36 38 34
-0.171857 -0.772022 1.82283 36 38 33
-0.153573 -0.73047 1.72472 36 38 33
-0.151684 -0.766575 1.80997 36 39 34
-0.141041 -0.760306 1.79517 35 39 33
-0.131638 -0.760306 1.79517 36 38 34
-0.121064 -0.753021 1.77797 35 38 34
-0.113763 -0.766575 1.80997 37 38 35
-0.100751 -0.740612 1.74867 38 38 36
-0.0915917 -0.740612 1.74867 38 38 36
-0.0824325 -0.740612 1.74867 37 38 35
-0.0732733 -0.740612 1.74867 37 38 34
-0.0663618 -0.766575 1.80997 37 38 34
-0.0564163 -0.760306 1.79517 37 39 35
-0.0485967 -0.785908 1.85562 37 39 35
-0.037005 -0.748059 1.76625 37 39 35
-0.0277538 -0.748059 1.76625 37 39 34
-0.0183183 -0.740612 1.74867 36 39 34
-0.00903373 -0.73047 1.72472 36 38 34
0 -0.722047 1.70483 36 38 34
0.00933178 -0.75457 1.78162 36 38 34
0.018106 -0.732028 1.7284 36 38 35
0.0267887 -0.722047 1.70483 37 39 37
0.0396996 -0.80253 1.89486 38 40 37
0.0479389 -0.77527 1.8305 37 39 37
0.0597995 -0.8059 1.90282 37 38 36
0.0647588 -0.748059 1.76625 36 37 35
0.0736544 -0.744464 1.75776 36 38 36
0.087474 -0.785908 1.85562 36 38 36
0.0915917 -0.740612 1.74867 36 38 36
0.106246 -0.781006 1.84404 37 37 36
0.104577 -0.704676 1.66382 37 37 36
0.126351 -0.785908 1.85562 37 37 37
0.133666 -0.772022 1.82283 37 37 37
0.137387 -0.740612 1.74867 38 38 37
0.150444 -0.760306 1.79517 38 38 37
0.157271 -0.748059 1.76625 37 39 36
0.170645 -0.766575 1.80997 37 39 36
0.180125 -0.766575 1.80997 37 39 36
0.178591 -0.722047 1.70483 37 39 35
0.194276 -0.748059 1.76625 37 40 34
0.20686 -0.760306 1.79517 37 39 35
0.216263 -0.760306 1.79517 37 40 34
0.21982 -0.740612 1.74867 37 40 36
0.242983 -0.785908 1.85562 36 39 36
0.248238 -0.772022 1.82283 36 38 36
0.255967 -0.766575 1.80997 36 38 36
0.263276 -0.760306 1.79517 36 39 34
0.256028 -0.713879 1.68555 36 39 32
0.289761 -0.781006 1.84404 36 38 33
0.295976 -0.772022 1.82283 36 39 32
0.303368 -0.766575 1.80997 36 38 33
0.325904 -0.798565 1.8855 36 38 35
0.322329 -0.766575 1.80997 37 38 35
0.329095 -0.760306 1.79517 38 39 36
0.328517 -0.737889 1.74224 38 39 36
0.342296 -0.748059 1.76625 37 38 35
0.348048 -0.740612 1.74867 36 38 34
0.352316 -0.73047 1.72472 38 38 35
0.37005 -0.748059 1.76625 39 39 36
0.382603 -0.75457 1.78162 38 39 35
0.388553 -0.748059 1.76625 38 38 35
0.412274 -0.77527 1.8305 38 38 35
0.422691 -0.776793 1.8341 37 38 34
0.439727 -0.790142 1.86561 37 38 34
0.416438 -0.732028 1.7284 35 38 34
0.45927 -0.790142 1.86561 36 39 35
0.451331 -0.760306 1.79517 38 40 36
0.478813 -0.790142 1.86561 37 39 36
0.474013 -0.766575 1.80997 36 39 35
0.483493 -0.766575 1.80997 36 39 36
0.492973 -0.766575 1.80997 37 40 36
0.52602 -0.80253 1.89486 37 40 35
0.507747 -0.760306 1.79517 36 39 34
0.508819 -0.748059 1.76625 37 39 34
0.51807 -0.748059 1.76625 38 40 35
0.554002 -0.785908 1.85562 37 40 35
0.556091 -0.77527 1.8305 37 40 35
0.559335 -0.766575 1.80997 36 40 34
0.579523 -0.781006 1.84404 35 40 35
0.605419 -0.80253 1.89486 36 41 35
0.632298 -0.824642 1.94707 36 41 36
0.640917 -0.822614 1.94228 37 41 36
0.622037 -0.785908 1.85562 37 40 36
0.617743 -0.768474 1.81445 37 40 37
0.620579 -0.760306 1.79517 37 40 37
0.647134 -0.781006 1.84404 37 39 36
0.651969 -0.77527 1.8305 38 39 36
0.677399 -0.793836 1.87433 38 40 38
0.694743 -0.80253 1.89486 39 40 37
0.661196 -0.753021 1.77797 38 40 37
0.69032 -0.77527 1.8305 39 40 37
0.71149 -0.7881 1.86079 37 40 36
0.703276 -0.768474 1.81445 36 40 36
0.736303 -0.793836 1.87433 36 40 36
0.690158 -0.734294 1.73375 36 40 36
0.731787 -0.768474 1.81445 36 40 36
0.747847 -0.77527 1.8305 36 40 36
0.769969 -0.7881 1.86079 35 41 36
0.808529 -0.817223 1.92955 36 40 36
0.795208 -0.793836 1.87433 35 40 36
0.792015 -0.781006 1.84404 36 40 36
0.838848 -0.817223 1.92955 36 40 36
0.811332 -0.781006 1.84404 35 40 36
0.855179 -0.813529 1.92083 35 39 36
0.808634 -0.760306 1.79517 35 39 36
0.818037 -0.760306 1.79517 34 39 36
0.857687 -0.7881 1.86079 34 39 36
0.899488 -0.817223 1.92955 34 39 36
0.942803 -0.847059 2 35 40 38
0.953279 -0.847059 2 35 40 39
0.87838 -0.772022 1.82283 36 39 38
0.887927 -0.772022 1.82283 36 39 38
0.907919 -0.781006 1.84404 37 40 39
0.995181 -0.847059 2 37 39 37
1.00566 -0.847059 2 37 38 36
0.912064 -0.760306 1.79517 37 37 35
1.02661 -0.847059 2 38 37 36
0.930869 -0.760306 1.79517 38 37 36
1.04756 -0.847059 2 38 37 36
1.05803 -0.847059 2 38 37 35
0.973856 -0.772022 1.82283 37 37 35
1.01119 -0.793836 1.87433 37 37 36
0.992951 -0.772022 1.82283 38 39 36
1.04212 -0.80253 1.89486 37 39 36
1.05204 -0.80253 1.89486 37 39 36
1.05046 -0.793836 1.87433 37 39 37
1.20245 -0.900282 2.12567 37 40 37
1.14184 -0.847059 2 37 39 37
1.0343 -0.760306 1.79517 36 39 37
0.945155 -0.688517 1.62567 36 38 36
1.29343 -0.933812 2.20483 36 38 36
1.00904 -0.722047 1.70483 36 38 37
1.19422 -0.847059 2 37 39 37
1.20469 -0.847059 2 37 39 38
1.21517 -0.847059 2 37 39 38
1.13007 -0.781006 1.84404 36 38 36
1.23612 -0.847059 2 36 38 35
1.2466 -0.847059 2 36 38 35
-0.537785 -0.357904 0.855615 42 37 32
-0.487185 -0.326954 0.781624 42 37 32
-0.515521 -0.348903 0.834095 42 37 33
-0.501224 -0.342126 0.817894 39 39 36
-0.518198 -0.356762 0.852883 37 40 37
-0.502414 -0.348903 0.834095 38 39 36
-0.526652 -0.368943 0.882004 36 39 36
-0.462621 -0.326954 0.781624 37 38 36
-0.500329 -0.356762 0.852883 38 37 35
-0.490722 -0.353063 0.844042 38 37 35
-0.476776 -0.346148 0.82751 38 38 35
-0.486928 -0.356762 0.852883 38 38 35
-0.527913 -0.390372 0.933233 37 38 33
-0.482425 -0.360069 0.860791 37 38 33
-0.511252 -0.385185 0.920833 37 38 33
-0.473408 -0.360069 0.860791 37 38 32
-0.438656 -0.336846 0.805271 38 38 34
-0.488356 -0.378651 0.905214 38 39 34
-0.485994 -0.380514 0.909666 38 39 34
-0.512192 -0.404997 0.968195 39 40 35
-0.488809 -0.390372 0.933233 39 39 35
-0.482012 -0.388833 0.929553 39 40 35
-0.495168 -0.403521 0.964669 39 39 35
-0.472275 -0.388833 0.929553 38 39 34
-0.486836 -0.404997 0.968195 38 38 34
-0.466018 -0.391759 0.936549 38 38 34
-0.475871 -0.404298 0.966525 38 37 35
-0.456207 -0.391759 0.936549 38 37 35
-0.447931 -0.388833 0.929553 37 36 35
-0.476639 -0.418301 1 37 36 34
-0.454746 -0.403521 0.964669 37 36 33
-0.448727 -0.402654 0.962595 38 37 33
-0.426562 -0.387115 0.925446 39 38 34
-0.437581 -0.401679 0.960263 39 38 34
-0.45045 -0.418301 1 38 38 34
-0.428559 -0.402654 0.962595 39 38 34
-0.45552 -0.43308 1.03533 39 38 34
-0.419377 -0.403521 0.964669 38 38 34
-0.429499 -0.418301 1 38 37 33
-0.44112 -0.434923 1.03974 37 36 32
-0.419024 -0.418301 1 37 37 32
-0.459799 -0.464816 1.1112 38 38 34
-0.443023 -0.453599 1.08438 39 39 35
-0.420402 -0.436028 1.04238 39 40 35
-0.468599 -0.492411 1.17717 38 40 35
-0.408445 -0.434923 1.03974 38 39 35
-0.420304 -0.453599 1.08438 39 40 35
-0.414624 -0.453599 1.08438 40 40 36
-0.392107 -0.434923 1.03974 40 39 36
-0.415764 -0.467659 1.118 39 39 35
-0.381215 -0.434923 1.03974 38 38 34
-0.41359 -0.478697 1.14438 37 37 33
-0.393617 -0.462279 1.10514 38 37 32
-0.385036 -0.458951 1.09718 38 38 30
-0.395608 -0.478697 1.14438 38 38 31
-0.41605 -0.511178 1.22203 38 37 30
-0.352962 -0.440441 1.05293 39 38 31
-0.381444 -0.483538 1.15596 39 38 31
-0.361926 -0.466195 1.1145 39 37 31
-0.378789 -0.495915 1.18555 39 38 31
-0.37864 -0.503982 1.20483 39 37 30
-0.372329 -0.503982 1.20483 37 36 28
-0.371244 -0.511178 1.22203 37 37 29
-0.378044 -0.529673 1.26625 37 37 29
-0.371412 -0.529673 1.26625 37 38 30
-0.381079 -0.55334 1.32283 36 39 31
-0.407937 -0.603308 1.44228 35 40 32
-0.359542 -0.541769 1.29517 34 39 31
-0.379912 -0.583472 1.39486 35 39 32
-0.372606 -0.583472 1.39486 34 39 32
-0.392835 -0.627451 1.5 34 39 32
-0.370165 -0.603308 1.44228 35 39 32
-0.389409 -0.647895 1.54887 35 39 32
-0.338329 -0.574885 1.37433 36 37 31
-0.349632 -0.607007 1.45113 37 37 30
-0.353551 -0.627451 1.5 35 36 29
-0.345695 -0.627451 1.5 37 37 30
-0.337838 -0.627451 1.5 37 39 33
-0.319229 -0.607007 1.45113 38 40 34
-0.374145 -0.728779 1.74224 39 41 34
-0.336295 -0.67143 1.60514 39 41 35
-0.366706 -0.75092 1.79517 38 40 33
-0.357303 -0.75092 1.79517 37 40 32
-0.337643 -0.728779 1.74224 37 39 30
-0.296124 -0.656919 1.57045 37 39 30
-0.334166 -0.76249 1.82283 37 40 30
-0.294901 -0.692688 1.65596 37 39 30
-0.280992 -0.680017 1.62567 37 39 30
-0.32195 -0.803486 1.92083 38 38 32
-0.291484 -0.75092 1.79517 38 38 33
-0.282082 -0.75092 1.79517 38 38 33
-0.258957 -0.713133 1.70483 38 38 34
-0.267333 -0.76249 1.82283 38 38 34
-0.236102 -0.698353 1.6695 37 39 35
-0.244471 -0.75092 1.79517 36 40 35
-0.231982 -0.741061 1.7716 37 39 35
-0.225665 -0.75092 1.79517 35 39 34
-0.220952 -0.767203 1.8341 36 38 34
-0.203528 -0.738823 1.76625 36 38 34
-0.205206 -0.780387 1.86561 36 37 34
-0.188054 -0.75092 1.79517 36 37 33
-0.169662 -0.713133 1.70483 35 37 33
-0.162954 -0.722991 1.7284 35 37 32
-0.164198 -0.771364 1.84404 36 38 33
-0.150444 -0.75092 1.79517 36 38 33
-0.138769 -0.738823 1.76625 35 38 32
-0.131638 -0.75092 1.79517 36 38 34
-0.120266 -0.738823 1.76625 35 38 34
-0.116632 -0.776205 1.85562 37 38 35
-0.105466 -0.765699 1.8305 38 38 36
-0.0948025 -0.757111 1.80997 37 38 35
-0.0853223 -0.757111 1.80997 37 38 35
-0.075842 -0.757111 1.80997 37 38 35
-0.0633711 -0.722991 1.7284 37 38 34
-0.054955 -0.731469 1.74867 37 38 34
-0.0474013 -0.757111 1.80997 37 39 35
-0.0378625 -0.755943 1.80718 37 39 35
-0.0277538 -0.738823 1.76625 37 39 35
-0.0184136 -0.735273 1.75776 37 38 34
-0.00925126 -0.738823 1.76625 35 37 32
0 -0.738823 1.76625 36 38 33
0.00925126 -0.738823 1.76625 37 39 35
0.0190952 -0.76249 1.82283 37 38 35
0.0277538 -0.738823 1.76625 38 39 37
0.037921 -0.757111 1.80997 38 39 37
0.0474013 -0.757111 1.80997 37 38 36
0.0555075 -0.738823 1.76625 36 38 35
0.0632361 -0.721452 1.72472 35 37 34
0.07401 -0.738823 1.76625 36 37 35
0.0813036 -0.721452 1.72472 36 38 35
0.0925126 -0.738823 1.76625 37 38 36
0.106246 -0.771364 1.84404 38 38 36
0.111981 -0.745255 1.78162 37 37 36
0.124119 -0.76249 1.82283 37 37 36
0.127757 -0.728779 1.74224 37 37 37
0.141041 -0.75092 1.79517 38 37 37
0.14802 -0.738823 1.76625 37 38 36
0.165229 -0.776205 1.85562 37 39 36
0.167972 -0.745255 1.78162 37 39 36
0.180125 -0.757111 1.80997 37 39 35
0.176571 -0.705065 1.68555 37 39 35
0.194276 -0.738823 1.76625 36 39 34
0.201502 -0.731469 1.74867 36 38 34
0.212779 -0.738823 1.76625 36 39 33
0.219012 -0.728779 1.74224 36 38 35
0.23869 -0.76249 1.82283 36 39 36
0.246487 -0.757111 1.80997 36 39 36
0.257785 -0.76249 1.82283 36 39 36
0.267333 -0.76249 1.82283 36 39 35
0.270066 -0.743724 1.77797 35 38 33
0.277538 -0.738823 1.76625 35 38 33
0.289285 -0.745255 1.78162 36 39 34
0.312695 -0.780387 1.86561 37 39 35
0.315071 -0.76249 1.82283 37 39 36
0.324619 -0.76249 1.82283 38 39 35
0.323794 -0.738823 1.76625 37 38 35
0.325214 -0.721452 1.72472 37 38 35
0.368764 -0.795951 1.90282 37 38 35
0.36025 -0.757111 1.80997 37 38 35
0.379054 -0.776205 1.85562 37 38 35
0.376109 -0.75092 1.79517 38 38 35
0.374145 -0.728779 1.74224 38 38 35
0.410412 -0.780387 1.86561 38 38 35
0.410547 -0.76249 1.82283 38 39 35
0.410598 -0.745255 1.78162 38 39 35
0.429642 -0.76249 1.82283 38 39 36
0.432525 -0.75092 1.79517 36 39 35
0.445572 -0.757111 1.80997 36 38 35
0.451331 -0.75092 1.79517 37 39 35
0.448799 -0.731469 1.74867 36 38 35
0.490869 -0.784035 1.87433 36 39 35
0.483493 -0.757111 1.80997 37 39 35
0.485253 -0.745255 1.78162 37 40 35
0.502453 -0.757111 1.80997 38 40 35
0.535945 -0.792622 1.89486 37 39 34
0.497915 -0.722991 1.7284 36 38 33
0.526552 -0.75092 1.79517 37 39 34
0.531912 -0.745255 1.78162 37 39 34
0.545358 -0.75092 1.79517 36 40 35
0.576531 -0.780387 1.86561 36 40 35
0.575267 -0.765699 1.8305 36 41 35
0.573566 -0.75092 1.79517 37 41 36
0.615344 -0.792622 1.89486 36 41 36
0.60403 -0.765699 1.8305 37 41 36
0.632056 -0.788707 1.8855 37 40 37
0.60532 -0.743724 1.77797 38 40 37
0.632793 -0.765699 1.8305 37 40 36
0.629982 -0.75092 1.79517 37 39 36
0.677728 -0.795951 1.90282 38 39 36
0.681435 -0.788707 1.8855 39 40 38
0.644476 -0.735273 1.75776 39 40 37
0.674765 -0.758987 1.81445 38 40 37
0.732477 -0.812459 1.94228 38 40 36
0.699908 -0.765699 1.8305 37 40 36
0.730815 -0.788707 1.8855 37 40 36
0.762997 -0.812459 1.94228 36 40 36
0.734062 -0.771364 1.84404 36 40 36
0.708924 -0.735273 1.75776 36 40 36
0.747847 -0.765699 1.8305 36 40 36
0.750795 -0.758987 1.81445 36 41 37
0.772697 -0.771364 1.84404 36 41 36
0.824036 -0.812459 1.94228 35 41 36
0.828742 -0.807133 1.92955 36 40 36
0.808955 -0.77837 1.86079 36 40 36
0.845118 -0.803486 1.92083 36 40 36
0.799231 -0.75092 1.79517 36 39 36
0.838194 -0.77837 1.86079 36 40 37
0.840308 -0.771364 1.84404 35 40 37
0.799131 -0.725229 1.73375 34 40 37
0.895423 -0.803486 1.92083 35 40 37
0.859285 -0.76249 1.82283 35 40 38
0.86484 -0.758987 1.81445 35 40 38
0.925606 -0.803486 1.92083 36 39 38
0.874453 -0.75092 1.79517 36 39 38
0.922834 -0.784035 1.87433 37 40 39
0.955788 -0.803486 1.92083 37 39 38
0.91657 -0.76249 1.82283 37 38 36
0.912064 -0.75092 1.79517 36 37 35
0.980239 -0.798814 1.90967 37 37 35
0.996032 -0.803486 1.92083 37 37 35
1.04756 -0.836601 2 38 38 36
1.05803 -0.836601 2 37 37 35
1.01234 -0.792622 1.89486 37 37 35
1.07899 -0.836601 2 37 37 35
1.08946 -0.836601 2 37 38 36
0.987286 -0.75092 1.79517 36 38 35
1.04064 -0.784035 1.87433 37 39 36
1.17981 -0.88058 2.10514 37 39 37
0.994334 -0.735273 1.75776 37 40 37
1.00354 -0.735273 1.75776 37 39 37
1.22472 -0.889167 2.12567 36 38 36
1.28188 -0.922283 2.20483 36 37 36
1.11159 -0.792622 1.89486 35 37 36
1.18374 -0.836601 2 35 37 36
1.10109 -0.771364 1.84404 36 38 37
1.11075 -0.771364 1.84404 37 39 37
1.21517 -0.836601 2 37 39 37
1.10012 -0.75092 1.79517 36 38 36
1.23612 -0.836601 2 36 38 36
1.2466 -0.836601 2 36 38 36
-0.536067 -0.352302 0.852883 39 34 28
-0.533303 -0.353431 0.855615 40 35 30
-0.515521 -0.344541 0.834095 40 36 32
-0.464373 -0.31301 0.757762 39 39 36
-0.476346 -0.323848 0.784 37 40 37
-0.557439 -0.382276 0.925446 38 39 36
-0.481973 -0.333422 0.807177 36 40 36
-0.477745 -0.333422 0.807177 37 38 35
-0.473517 -0.333422 0.807177 37 36 34
-0.495862 -0.352302 0.852883 37 37 35
-0.495951 -0.355569 0.860791 38 37 35
-0.486928 -0.352302 0.852883 38 38 35
-0.455528 -0.332635 0.805271 38 39 35
-0.468634 -0.345404 0.836183 37 39 35
-0.464254 -0.345404 0.836183 38 39 35
-0.488812 -0.367138 0.8888 38 39 34
-0.463672 -0.351605 0.851194 39 39 34
-0.474848 -0.363575 0.880174 38 39 34
-0.480992 -0.37189 0.900304 38 38 34
-0.462538 -0.361163 0.874334 38 38 34
-0.474132 -0.373918 0.905214 37 38 33
-0.48392 -0.385492 0.933233 38 39 34
-0.482276 -0.388102 0.939552 38 39 34
-0.459909 -0.373918 0.905214 37 38 33
-0.467406 -0.383972 0.929553 36 37 32
-0.466018 -0.386862 0.936549 37 37 33
-0.457668 -0.383972 0.929553 37 37 34
-0.454592 -0.385492 0.933233 36 36 34
-0.466551 -0.399934 0.968195 36 36 34
-0.476639 -0.413072 1 37 36 35
-0.439928 -0.385492 0.933233 37 37 34
-0.449694 -0.398477 0.964669 38 38 34
-0.433064 -0.388102 0.939552 39 39 35
-0.455688 -0.413072 1 38 38 34
-0.418718 -0.383972 0.929553 37 37 32
-0.478405 -0.443868 1.07455 38 37 33
-0.439975 -0.413072 1 38 38 34
-0.418476 -0.397621 0.962595 38 37 34
-0.459756 -0.442171 1.07045 38 37 33
-0.424261 -0.413072 1 37 37 33
-0.448542 -0.442171 1.07045 37 37 33
-0.448703 -0.447929 1.08438 38 38 34
-0.425862 -0.430577 1.04238 38 38 35
-0.40331 -0.413072 1 38 39 34
-0.413891 -0.429486 1.03974 37 38 33
-0.439188 -0.461813 1.118 39 40 35
-0.404023 -0.430577 1.04238 39 40 35
-0.441991 -0.477494 1.15596 39 39 35
-0.411188 -0.450387 1.09033 39 38 34
-0.387643 -0.430577 1.04238 38 38 34
-0.415918 -0.468583 1.13439 38 38 34
-0.377814 -0.431824 1.0454 38 38 34
-0.407596 -0.472713 1.14438 39 39 34
-0.387828 -0.456501 1.10514 39 39 33
-0.411387 -0.491568 1.19003 39 39 32
-0.398165 -0.483088 1.1695 38 38 31
-0.403883 -0.497683 1.20483 39 38 32
-0.385913 -0.483088 1.1695 39 38 32
-0.403408 -0.513134 1.24224 39 38 31
-0.396902 -0.513134 1.24224 39 38 31
-0.372579 -0.489716 1.18555 39 37 31
-0.383889 -0.513134 1.24224 37 36 29
-0.373178 -0.507418 1.2284 37 37 30
-0.366744 -0.507418 1.2284 37 38 30
-0.353397 -0.497683 1.20483 37 38 30
-0.37311 -0.534997 1.29517 37 39 32
-0.383424 -0.559967 1.35562 36 40 34
-0.351515 -0.523052 1.26625 35 40 33
-0.408548 -0.619608 1.5 35 39 33
-0.362122 -0.559967 1.35562 35 40 33
-0.348444 -0.549592 1.3305 35 40 33
-0.384978 -0.619608 1.5 36 39 33
-0.377121 -0.619608 1.5 36 39 32
-0.369265 -0.619608 1.5 37 38 32
-0.361408 -0.619608 1.5 37 37 31
-0.305272 -0.534997 1.29517 36 37 30
-0.358996 -0.643449 1.55772 37 38 31
-0.366141 -0.671517 1.62567 38 39 33
-0.345479 -0.648707 1.57045 38 40 34
-0.334519 -0.643449 1.55772 38 40 33
-0.340596 -0.671517 1.62567 38 39 33
-0.348253 -0.704219 1.70483 37 39 32
-0.316534 -0.656922 1.59033 37 39 32
-0.315052 -0.671517 1.62567 37 39 31
-0.306537 -0.671517 1.62567 36 39 30
-0.319392 -0.719669 1.74224 37 39 31
-0.294901 -0.68403 1.65596 37 40 32
-0.280992 -0.671517 1.62567 38 39 31
-0.285746 -0.704219 1.70483 38 38 32
-0.295976 -0.752959 1.82283 37 37 33
-0.267887 -0.704219 1.70483 38 37 33
-0.264639 -0.719669 1.74224 38 37 33
-0.267333 -0.752959 1.82283 37 37 33
-0.241098 -0.704219 1.70483 37 39 35
-0.221388 -0.671517 1.62567 37 41 36
-0.241468 -0.761722 1.84404 36 39 35
-0.21681 -0.712434 1.72472 35 39 34
-0.22215 -0.761722 1.84404 36 38 34
-0.205299 -0.735939 1.78162 36 38 34
-0.192343 -0.722326 1.74867 36 38 34
-0.186636 -0.735939 1.78162 36 37 33
-0.177304 -0.735939 1.78162 35 37 33
-0.162607 -0.712434 1.72472 34 37 31
-0.15864 -0.735939 1.78162 36 38 33
-0.146008 -0.719669 1.74224 36 39 34
-0.144881 -0.761722 1.84404 37 40 35
-0.134493 -0.757613 1.8341 37 40 35
-0.116084 -0.704219 1.70483 37 39 36
-0.111015 -0.729588 1.76625 37 39 36
-0.10343 -0.741533 1.79517 37 38 35
-0.0925126 -0.729588 1.76625 37 37 35
-0.0792947 -0.694831 1.68211 36 37 35
-0.0724241 -0.713954 1.7284 37 38 34
-0.0647588 -0.729588 1.76625 37 38 34
-0.0572856 -0.752959 1.82283 36 38 34
-0.0462563 -0.729588 1.76625 37 39 35
-0.0386349 -0.761722 1.84404 38 39 35
-0.0282082 -0.741533 1.79517 38 40 36
-0.0188054 -0.741533 1.79517 37 39 35
-0.00925126 -0.729588 1.76625 35 37 32
0 -0.729588 1.76625 35 37 33
0.00925126 -0.729588 1.76625 36 38 34
0.0188054 -0.741533 1.79517 36 38 34
0.0277538 -0.729588 1.76625 37 39 36
0.0376109 -0.741533 1.79517 38 39 37
0.0462563 -0.729588 1.76625 37 39 36
0.0535774 -0.704219 1.70483 37 38 36
0.0647588 -0.729588 1.76625 37 38 36
0.07401 -0.729588 1.76625 37 38 36
0.0864595 -0.757613 1.8341 36 37 35
0.0971933 -0.766503 1.85562 36 37 35
0.105024 -0.752959 1.82283 37 38 36
0.112833 -0.741533 1.79517 37 37 36
0.122235 -0.741533 1.79517 37 37 36
0.132724 -0.747648 1.80997 37 37 36
0.142204 -0.747648 1.80997 37 37 36
0.151684 -0.747648 1.80997 37 38 36
0.153573 -0.712434 1.72472 37 38 36
0.170645 -0.747648 1.80997 37 38 35
0.174024 -0.722326 1.74867 37 39 35
0.189605 -0.747648 1.80997 37 39 35
0.189708 -0.712434 1.72472 36 39 34
0.210047 -0.752959 1.82283 36 38 33
0.216263 -0.741533 1.79517 36 38 33
0.225665 -0.741533 1.79517 36 38 34
0.225843 -0.712434 1.72472 36 39 36
0.246487 -0.747648 1.80997 36 39 36
0.255967 -0.747648 1.80997 37 39 37
0.267333 -0.752959 1.82283 37 40 37
0.281861 -0.766503 1.85562 35 38 34
0.286428 -0.752959 1.82283 34 36 32
0.293888 -0.747648 1.80997 35 37 33
0.303368 -0.747648 1.80997 36 39 35
0.302253 -0.722326 1.74867 38 40 36
0.324619 -0.752959 1.82283 38 40 36
0.326612 -0.735939 1.78162 37 38 35
0.351781 -0.770633 1.86561 36 37 34
0.342296 -0.729588 1.76625 36 38 35
0.354608 -0.735939 1.78162 36 38 34
0.36394 -0.735939 1.78162 37 38 35
0.381904 -0.752959 1.82283 38 38 35
0.391452 -0.752959 1.82283 38 38 35
0.398171 -0.747648 1.80997 38 38 35
0.430105 -0.788829 1.90967 38 38 34
0.427651 -0.766503 1.85562 38 38 35
0.426611 -0.747648 1.80997 37 38 35
0.425558 -0.729588 1.76625 36 38 34
0.445572 -0.747648 1.80997 36 39 35
0.416331 -0.68403 1.65596 37 40 36
0.467833 -0.752959 1.82283 37 39 36
0.47738 -0.752959 1.82283 37 39 36
0.486928 -0.752959 1.82283 37 39 36
0.492973 -0.747648 1.80997 37 39 35
0.52602 -0.782715 1.89486 37 39 35
0.527672 -0.770633 1.86561 37 39 34
0.54587 -0.782715 1.89486 37 39 34
0.530894 -0.747648 1.80997 37 38 34
0.550547 -0.761722 1.84404 36 39 34
0.531232 -0.722326 1.74867 37 40 35
0.573441 -0.766503 1.85562 37 41 36
0.568815 -0.747648 1.80997 37 41 36
0.56807 -0.734428 1.77797 37 41 36
0.587776 -0.747648 1.80997 36 41 36
0.582829 -0.729588 1.76625 36 40 36
0.59208 -0.729588 1.76625 37 40 36
0.601332 -0.729588 1.76625 37 39 36
0.641476 -0.766503 1.85562 37 39 36
0.629982 -0.741533 1.79517 37 39 35
0.633258 -0.734428 1.77797 37 38 36
0.670634 -0.766503 1.85562 38 39 37
0.644476 -0.726082 1.75776 38 40 37
0.690073 -0.766503 1.85562 38 40 36
0.684269 -0.749499 1.81445 38 39 36
0.71149 -0.76864 1.86079 37 40 36
0.709496 -0.756128 1.8305 37 40 37
0.72895 -0.766503 1.85562 36 40 36
0.750566 -0.778848 1.8855 36 39 35
0.738259 -0.756128 1.8305 36 40 36
0.793516 -0.802303 1.94228 36 40 35
0.717401 -0.716163 1.73375 35 40 35
0.79007 -0.778848 1.8855 36 40 36
0.818635 -0.797044 1.92955 35 40 35
0.771023 -0.741533 1.79517 36 40 36
0.838848 -0.797044 1.92955 36 40 36
0.789828 -0.741533 1.79517 36 40 37
0.855179 -0.793442 1.92083 36 40 37
0.853542 -0.782715 1.89486 36 40 37
0.875301 -0.793442 1.92083 35 40 37
0.885362 -0.793442 1.92083 35 40 37
0.867433 -0.76864 1.86079 35 40 37
0.942803 -0.826144 2 35 40 37
0.830419 -0.719669 1.74224 35 39 38
0.963754 -0.826144 2 35 39 37
0.97423 -0.826144 2 36 40 38
0.984706 -0.826144 2 37 40 39
1.07278 -0.890566 2.15596 37 39 37
1.00566 -0.826144 2 37 38 36
0.970236 -0.788829 1.90967 37 38 35
0.972641 -0.782715 1.89486 37 38 36
0.945213 -0.752959 1.82283 38 38 36
0.892957 -0.704219 1.70483 38 38 36
1.01615 -0.793442 1.92083 37 37 35
1.06851 -0.826144 2 36 36 34
1.02227 -0.782715 1.89486 36 36 34
1.08946 -0.826144 2 36 37 35
0.966714 -0.726082 1.75776 37 39 36
1.05204 -0.782715 1.89486 37 39 37
1.06196 -0.782715 1.89486 37 39 36
1.13136 -0.826144 2 36 39 36
1.0249 -0.741533 1.79517 36 38 36
1.15232 -0.826144 2 36 38 36
1.07212 -0.761722 1.84404 36 38 36
1.03116 -0.726082 1.75776 36 38 37
1.18374 -0.826144 2 37 39 37
1.19422 -0.826144 2 37 39 37
1.08131 -0.741533 1.79517 37 39 38
1.33962 -0.910755 2.20483 37 39 37
1.22564 -0.826144 2 36 38 36
1.23612 -0.826144 2 36 38 35
1.14939 -0.761722 1.84404 36 38 35
-0.562453 -0.364964 0.894863 40 35 30
-0.553987 -0.362491 0.8888 40 36 31
-0.521668 -0.344237 0.844042 40 37 34
-0.487296 -0.324303 0.795167 38 38 36
-0.483131 -0.324303 0.795167 36 39 36
-0.498448 -0.337494 0.82751 37 39 36
-0.513986 -0.351068 0.860791 36 39 36
-0.526055 -0.362491 0.8888 37 38 35
-0.479804 -0.333572 0.817894 37 36 34
-0.53805 -0.377437 0.925446 36 36 34
-0.481773 -0.341031 0.836183 38 37 35
-0.486928 -0.347843 0.852883 37 38 35
-0.482461 -0.347843 0.852883 37 38 35
-0.490015 -0.356591 0.874334 37 38 35
-0.481866 -0.353969 0.867904 38 39 35
-0.488812 -0.362491 0.8888 39 40 35
-0.487459 -0.364964 0.894863 39 39 35
-0.471697 -0.356591 0.874334 38 39 34
-0.473084 -0.361146 0.885502 38 39 34
-0.476277 -0.367183 0.900304 37 38 33
-0.474132 -0.369185 0.905214 36 37 33
-0.456407 -0.358973 0.880174 36 37 33
-0.459337 -0.364964 0.894863 36 37 33
-0.424836 -0.341031 0.836183 36 37 32
-0.455167 -0.369185 0.905214 36 37 33
-0.481765 -0.394872 0.968195 37 38 34
-0.447876 -0.371001 0.909666 37 37 34
-0.470809 -0.39419 0.966525 36 36 34
-0.466551 -0.394872 0.968195 36 36 34
-0.458811 -0.392588 0.962595 36 37 35
-0.454746 -0.393433 0.964669 37 37 34
-0.433324 -0.379112 0.929553 38 39 35
-0.430151 -0.380613 0.933233 38 39 35
-0.423587 -0.379112 0.929553 38 39 35
-0.465529 -0.421496 1.03348 37 38 34
-0.430309 -0.39419 0.966525 37 36 32
-0.439975 -0.407843 1 37 37 32
-0.434737 -0.407843 1 37 37 33
-0.444674 -0.422253 1.03533 38 37 33
-0.439251 -0.422253 1.03533 38 37 33
-0.419024 -0.407843 1 38 37 33
-0.442936 -0.436574 1.07045 37 37 33
-0.456755 -0.455967 1.118 38 38 34
-0.435239 -0.440131 1.07917 37 37 33
-0.413891 -0.42405 1.03974 37 38 34
-0.407529 -0.423099 1.03741 39 40 36
-0.404023 -0.425127 1.04238 39 40 35
-0.414624 -0.442259 1.08438 39 39 35
-0.424513 -0.459095 1.12567 39 38 35
-0.415764 -0.455967 1.118 39 38 35
-0.399766 -0.444685 1.09033 39 38 35
-0.394056 -0.444685 1.09033 40 39 36
-0.372339 -0.426358 1.0454 39 39 35
-0.387828 -0.450722 1.10514 39 39 34
-0.399608 -0.47145 1.15596 38 38 32
-0.440948 -0.528225 1.29517 38 37 30
-0.387499 -0.47145 1.15596 38 37 31
-0.385913 -0.476973 1.1695 38 37 30
-0.391261 -0.491383 1.20483 39 38 31
-0.406283 -0.518613 1.2716 39 38 32
-0.415722 -0.539507 1.32283 38 37 31
-0.383889 -0.506638 1.24224 37 37 29
-0.377382 -0.506638 1.24224 38 38 31
-0.404725 -0.552878 1.35562 38 39 32
-0.353397 -0.491383 1.20483 38 38 32
-0.381079 -0.539507 1.32283 37 39 33
-0.37415 -0.539507 1.32283 36 40 34
-0.381519 -0.560513 1.37433 36 40 34
-0.379912 -0.568885 1.39486 36 40 34
-0.376561 -0.574922 1.40967 36 40 34
-0.348444 -0.542635 1.3305 36 40 34
-0.370165 -0.588226 1.44228 37 40 34
-0.364834 -0.591832 1.45113 37 39 34
