ply
format ascii 1.0
element vertex 1361
property float x
property float y
property float z
property uchar red
property uchar green
property uchar blue
end_header
-0.642314 0.183202 1.25133 37 36 32
-0.626827 0.180627 1.23375 37 36 32
-0.620365 0.180627 1.23375 37 36 32
-0.622651 0.183202 1.25133 38 37 33
-0.648869 0.192947 1.31789 38 37 33
-0.64437 0.193669 1.32283 37 36 32
-0.704791 0.214132 1.46259 37 36 32
-0.617328 0.189619 1.29517 38 37 34
-0.621257 0.192947 1.31789 38 37 34
-0.616655 0.193669 1.32283 38 37 34
-0.668862 0.212452 1.45113 37 37 34
-0.617738 0.198469 1.35562 37 37 33
-0.65366 0.212452 1.45113 37 37 34
-0.621011 0.204215 1.39486 38 38 35
-0.641317 0.213403 1.45762 37 37 34
-0.670529 0.225812 1.54238 37 37 33
-0.644249 0.219608 1.5 38 37 34
-0.657128 0.226763 1.54887 37 37 33
-0.599017 0.209294 1.42955 37 36 33
-0.600455 0.212452 1.45113 37 36 33
-0.70832 0.25383 1.73375 37 36 33
-0.699239 0.25383 1.73375 37 37 34
-0.597109 0.219608 1.5 37 37 34
-0.681077 0.25383 1.73375 38 38 34
-0.616409 0.232833 1.59033 37 37 34
-0.628745 0.240746 1.64438 38 38 34
-0.657035 0.255073 1.74224 37 36 33
-0.62086 0.244424 1.6695 37 37 33
-0.635672 0.25383 1.73375 37 37 33
-0.635269 0.257346 1.75776 37 37 34
-0.626062 0.257346 1.75776 36 37 34
-0.647134 0.269977 1.84404 36 36 33
-0.610583 0.258588 1.76625 36 36 33
-0.569857 0.245053 1.6738 35 36 33
-0.576032 0.251579 1.71838 36 36 33
-0.562563 0.249596 1.70483 36 36 33
-0.570822 0.257346 1.75776 36 37 34
-0.553001 0.253399 1.7308 37 37 34
-0.543936 0.253399 1.7308 36 36 33
-0.53487 0.253399 1.7308 36 36 33
-0.517915 0.249596 1.70483 37 36 34
-0.51264 0.251389 1.71707 37 36 34
-0.503646 0.251389 1.71707 37 36 34
-0.51715 0.262822 1.79517 36 37 34
-0.488862 0.253047 1.7284 36 37 34
-0.48796 0.257346 1.75776 37 37 34
-0.456803 0.245547 1.67717 36 37 33
-0.455408 0.249596 1.70483 36 36 32
-0.450447 0.251815 1.71999 36 37 33
-0.452704 0.258242 1.76388 37 37 34
-0.428619 0.249596 1.70483 37 37 34
-0.423024 0.251579 1.71838 37 36 34
-0.420749 0.255666 1.74629 37 37 34
-0.398705 0.247655 1.69157 37 37 34
-0.378278 0.240307 1.64138 37 37 34
-0.395892 0.257346 1.75776 36 36 33
-0.375042 0.249596 1.70483 36 36 34
-0.362933 0.247429 1.69003 37 37 34
-0.365869 0.255666 1.74629 37 37 34
-0.357752 0.256404 1.75133 37 37 34
-0.34234 0.251815 1.71999 36 36 33
-0.333331 0.251815 1.71999 36 35 32
-0.314124 0.243897 1.6659 36 36 33
-0.296355 0.236675 1.61657 36 36 33
-0.298679 0.245547 1.67717 36 36 33
-0.294676 0.249596 1.70483 36 36 34
-0.283265 0.247429 1.69003 36 36 34
-0.265378 0.239283 1.63439 37 38 35
-0.261077 0.243251 1.66149 38 39 36
-0.258957 0.249596 1.70483 39 38 36
-0.242101 0.241683 1.65078 38 38 35
-0.243014 0.251579 1.71838 38 37 34
-0.234013 0.251579 1.71838 37 36 34
-0.221301 0.247429 1.69003 38 37 35
-0.21431 0.249596 1.70483 38 37 35
-0.203782 0.247655 1.69157 37 36 34
-0.19645 0.249596 1.70483 36 36 33
-0.178813 0.238006 1.62567 36 36 34
-0.178591 0.249596 1.70483 37 37 34
-0.168189 0.247429 1.69003 38 38 35
-0.157807 0.245053 1.6738 38 38 35
-0.143944 0.236675 1.61657 37 37 35
-0.141762 0.247655 1.69157 37 36 34
-0.129697 0.241683 1.65078 36 35 34
-0.12143 0.242441 1.65596 36 35 33
-0.115076 0.247429 1.69003 36 35 33
-0.105416 0.245547 1.67717 35 35 32
-0.0890391 0.226254 1.5454 36 35 32
-0.0885203 0.247429 1.69003 36 37 34
-0.0810805 0.251815 1.71999 36 36 33
-0.0696205 0.243251 1.66149 35 36 32
-0.062507 0.249596 1.70483 35 35 32
-0.0522154 0.243251 1.66149 35 35 32
-0.0436283 0.243897 1.6659 36 37 34
-0.0342423 0.239283 1.63439 37 38 35
-0.026354 0.245547 1.67717 37 39 36
-0.0175694 0.245547 1.67717 36 38 35
-0.00864646 0.241683 1.65078 37 38 35
0 0.243251 1.66149 36 38 35
0.00892957 0.249596 1.70483 37 38 35
0.0177202 0.247655 1.69157 37 37 34
0.0265561 0.247429 1.69003 36 36 34
0.0342423 0.239283 1.63439 37 37 34
0.0439234 0.245547 1.67717 36 36 34
0.0516777 0.240746 1.64438 35 35 33
0.0599241 0.239283 1.63439 35 36 33
0.0702774 0.245547 1.67717 35 36 34
0.0770452 0.239283 1.63439 36 37 35
0.090005 0.251579 1.71838 37 37 35
0.09314 0.236675 1.61657 36 37 35
0.104708 0.243897 1.6659 36 37 35
0.116084 0.249596 1.70483 35 36 34
0.119848 0.239283 1.63439 35 36 34
0.133 0.247838 1.69282 36 36 35
0.139611 0.243897 1.6659 36 37 35
0.150622 0.247655 1.69157 36 37 35
0.156124 0.242441 1.65596 36 36 34
0.165788 0.243897 1.6659 36 37 34
0.172929 0.241683 1.65078 36 37 34
0.184776 0.245943 1.67988 36 36 34
0.198011 0.251579 1.71838 35 36 33
0.20538 0.249596 1.70483 35 35 33
0.21431 0.249596 1.70483 35 36 34
0.214931 0.240307 1.64138 35 36 34
0.228402 0.245547 1.67717 35 36 34
0.239223 0.247655 1.69157 36 37 34
0.244319 0.243897 1.6659 37 38 35
0.241566 0.232833 1.59033 37 39 35
0.261077 0.243251 1.66149 37 38 35
0.281033 0.253399 1.7308 36 37 35
0.279221 0.243897 1.6659 36 37 35
0.292117 0.247429 1.69003 36 37 35
0.301244 0.247655 1.69157 36 37 35
0.307464 0.245547 1.67717 36 37 34
0.318673 0.247429 1.69003 35 36 34
0.318679 0.240746 1.64438 36 37 35
0.327292 0.240746 1.64438 36 37 35
0.3394 0.243251 1.66149 35 36 34
0.36002 0.251579 1.71838 34 35 34
0.354505 0.241683 1.65078 34 35 34
0.361744 0.240746 1.64438 35 36 34
0.377741 0.245547 1.67717 35 36 34
0.389489 0.247429 1.69003 35 36 33
0.418435 0.25991 1.77528 35 36 33
0.404095 0.245547 1.67717 35 36 34
0.409021 0.243251 1.66149 36 36 34
0.421665 0.245547 1.67717 35 36 34
0.426426 0.243251 1.66149 35 35 33
0.458656 0.256404 1.75133 34 35 32
0.451454 0.247429 1.69003 34 34 32
0.477002 0.256404 1.75133 34 34 33
0.473267 0.249596 1.70483 33 34 33
0.47801 0.247429 1.69003 34 35 33
0.475555 0.241683 1.65078 34 35 34
0.491942 0.245547 1.67717 35 36 34
0.513029 0.251579 1.71838 35 36 35
0.509511 0.245547 1.67717 34 36 34
0.52227 0.247429 1.69003 34 35 33
0.544862 0.25383 1.73375 34 35 34
0.540866 0.247838 1.69282 33 35 34
0.562067 0.253399 1.7308 34 35 34
0.562563 0.249596 1.70483 34 36 35
0.598589 0.261431 1.78567 35 36 35
0.607942 0.261431 1.78567 35 36 35
0.589351 0.249596 1.70483 34 35 34
0.616856 0.257346 1.75776 34 34 33
0.601938 0.247429 1.69003 33 34 33
0.645354 0.261431 1.78567 33 34 33
0.650899 0.25991 1.77528 33 34 33
0.676045 0.266149 1.81789 34 34 34
0.632497 0.245547 1.67717 34 35 34
0.674437 0.258242 1.76388 35 35 35
0.683676 0.258242 1.76388 34 35 35
0.700817 0.261187 1.784 34 35 35
0.70669 0.25991 1.77528 34 35 35
0.693689 0.251815 1.71999 34 35 35
0.72953 0.261431 1.78567 33 34 35
0.717401 0.25383 1.73375 32 33 34
0.761741 0.266149 1.81789 33 34 35
0.729724 0.251815 1.71999 32 34 35
0.766226 0.261187 1.784 33 34 35
0.761369 0.256404 1.75133 37 38 38
0.770542 0.256404 1.75133 38 38 39
0.782578 0.257346 1.75776 37 38 39
0.798018 0.259371 1.7716 36 38 38
0.807297 0.259371 1.7716 35 36 37
0.827439 0.262822 1.79517 35 37 37
0.842441 0.26458 1.80718 35 37 37
0.859285 0.266872 1.82283 35 37 37
0.82207 0.252508 1.72472 35 36 37
0.847025 0.257346 1.75776 34 35 36
0.916752 0.275535 1.882 31 34 36
0.891144 0.264989 1.80997 31 35 37
0.932651 0.274412 1.87433 32 35 37
0.91657 0.266872 1.82283 34 37 39
0.912064 0.262822 1.79517 36 40 41
0.921467 0.262822 1.79517 35 38 40
0.956213 0.269977 1.84404 33 37 38
0.97717 0.273136 1.86561 33 36 37
1.00242 0.277418 1.89486 33 36 37
0.985189 0.269977 1.84404 33 36 37
0.9592 0.260303 1.77797 34 37 38
1.03652 0.278583 1.90282 35 38 39
0.977825 0.260303 1.77797 36 39 40
1.05204 0.277418 1.89486 36 39 40
1.0169 0.265645 1.81445 37 40 41
1.03548 0.267995 1.8305 37 40 41
0.989832 0.25383 1.73375 37 40 41
1.07991 0.274412 1.87433 36 39 40
1.16279 0.29281 2 36 38 39
1.08178 0.269977 1.84404 36 38 40
1.09143 0.269977 1.84404 35 38 40
1.14695 0.28122 1.92083 35 39 40
1.20469 0.29281 2 35 38 40
1.27005 0.306036 2.09033 35 39 40
1.22564 0.29281 2 35 39 40
1.15008 0.27243 1.86079 35 39 40
1.37427 0.322799 2.20483 35 39 40
-0.659255 0.159045 1.04887 41 41 36
-0.653761 0.159045 1.04887 40 40 35
-0.670215 0.16443 1.08438 38 38 34
-0.612822 0.151634 1 37 38 34
-0.635166 0.158518 1.0454 37 38 34
-0.57682 0.145208 0.957621 36 36 33
-0.622413 0.15806 1.04238 35 35 32
-0.638727 0.163638 1.07917 36 36 32
-0.639626 0.165332 1.09033 37 37 34
-0.654457 0.170689 1.12567 37 37 34
-0.602313 0.158518 1.0454 37 37 34
-0.619097 0.16443 1.08438 37 37 34
-0.681552 0.182694 1.20483 37 37 34
-0.64785 0.175283 1.15596 36 36 33
-0.624977 0.170689 1.12567 35 35 31
-0.623877 0.172011 1.13439 35 35 31
-0.641241 0.178499 1.17717 35 36 32
-0.607289 0.170689 1.12567 36 36 32
-0.597295 0.169526 1.118 36 37 33
-0.622744 0.178499 1.17717 37 37 34
-0.57468 0.16637 1.09718 37 38 34
-0.671598 0.196391 1.29517 37 37 33
-0.587417 0.173528 1.14438 37 37 32
-0.669577 0.199838 1.31789 36 36 32
-0.651247 0.196391 1.29517 36 36 32
-0.644463 0.196391 1.29517 37 37 33
-0.599871 0.184747 1.21838 38 38 34
-0.712452 0.221779 1.46259 37 37 33
-0.66226 0.208396 1.37433 37 36 32
-0.640623 0.203802 1.34404 38 37 34
-0.633583 0.203802 1.34404 38 37 34
-0.640665 0.208396 1.37433 38 37 34
-0.654899 0.215447 1.42083 37 37 34
-0.617738 0.205557 1.35562 37 36 33
-0.583409 0.196391 1.29517 37 36 33
-0.611871 0.208396 1.37433 37 37 33
-0.708887 0.244313 1.6112 36 36 33
-0.673353 0.234862 1.54887 37 37 33
-0.644249 0.227451 1.5 37 37 33
-0.657128 0.234862 1.54887 37 37 33
-0.628536 0.227451 1.5 37 36 33
-0.620679 0.227451 1.5 37 36 33
-0.636402 0.236203 1.55772 37 36 33
-0.687577 0.258511 1.70483 37 37 33
-0.664583 0.253153 1.6695 37 37 33
-0.705204 0.272208 1.79517 36 36 33
-0.660788 0.258511 1.70483 36 36 32
-0.662915 0.262895 1.73375 36 36 33
-0.701744 0.282159 1.86079 36 36 32
-0.633999 0.258511 1.70483 37 36 33
-0.614928 0.254316 1.67717 37 37 33
-0.635269 0.266536 1.75776 36 37 34
-0.639385 0.272208 1.79517 37 37 34
-0.623946 0.2696 1.77797 36 37 34
-0.589351 0.258511 1.70483 36 37 34
-0.594537 0.264797 1.74629 36 37 34
-0.571492 0.258511 1.70483 36 36 33
-0.562563 0.258511 1.70483 36 36 33
-0.553633 0.258511 1.70483 36 36 33
-0.544704 0.258511 1.70483 36 36 33
-0.52354 0.252608 1.6659 35 35 32
-0.530627 0.260367 1.71707 36 36 33
-0.509511 0.254316 1.67717 36 36 34
-0.505026 0.2565 1.69157 37 36 34
-0.503646 0.260367 1.71707 37 37 34
-0.495028 0.260564 1.71838 36 37 34
-0.500143 0.268132 1.76828 36 37 34
-0.48966 0.267465 1.76388 37 37 34
-0.468026 0.260564 1.71838 37 37 34
-0.459456 0.260809 1.71999 36 37 33
-0.439234 0.254316 1.67717 36 36 33
-0.43375 0.256266 1.69003 36 37 33
-0.439043 0.264797 1.74629 37 37 34
-0.41288 0.254316 1.67717 37 37 34
-0.414023 0.260564 1.71838 37 37 34
-0.40183 0.258511 1.70483 37 37 34
-0.402456 0.264797 1.74629 37 37 34
-0.387022 0.260564 1.71838 37 36 34
-0.378021 0.260564 1.71838 36 36 33
-0.366112 0.258511 1.70483 37 37 34
-0.357183 0.258511 1.70483 37 36 34
-0.35416 0.262895 1.73375 37 37 34
-0.34234 0.260809 1.71999 37 36 34
-0.327525 0.256266 1.69003 37 36 34
-0.316759 0.254727 1.67988 37 37 34
-0.307464 0.254316 1.67717 37 37 34
-0.300969 0.256266 1.69003 37 36 34
-0.299674 0.262895 1.73375 36 36 34
-0.278482 0.251939 1.66149 36 36 34
-0.274413 0.256266 1.69003 37 38 35
-0.270268 0.260809 1.71999 38 39 36
-0.258957 0.258511 1.70483 38 38 36
-0.243672 0.251939 1.66149 38 37 35
-0.234186 0.2511 1.65596 38 37 35
-0.232169 0.258511 1.70483 38 37 35
-0.223239 0.258511 1.70483 38 37 35
-0.21431 0.258511 1.70483 37 36 34
-0.200159 0.251939 1.66149 36 35 33
-0.192875 0.253805 1.6738 35 35 32
-0.181576 0.250315 1.65078 36 35 33
-0.174051 0.251939 1.66149 36 36 33
-0.166574 0.253805 1.6738 37 37 34
-0.160732 0.258511 1.70483 37 37 35
-0.144753 0.246506 1.62567 37 37 35
-0.139241 0.251939 1.66149 37 37 35
-0.132902 0.2565 1.69157 38 37 35
-0.125014 0.258511 1.70483 38 37 35
-0.114201 0.254316 1.67717 37 36 34
-0.105416 0.254316 1.67717 36 35 32
-0.0951111 0.250315 1.65078 36 36 33
-0.0892957 0.258511 1.70483 37 37 34
-0.0783231 0.251939 1.66149 35 36 33
-0.0677382 0.245127 1.61657 34 35 31
-0.0596043 0.246506 1.62567 34 35 31
-0.0531122 0.256266 1.69003 34 35 31
-0.0450025 0.260564 1.71838 35 36 33
-0.0344518 0.249345 1.64438 36 37 34
-0.0265561 0.256266 1.69003 36 37 34
-0.0170298 0.246506 1.62567 35 36 33
-0.00878468 0.254316 1.67717 36 37 34
0 0.251939 1.66149 36 37 35
0.00864646 0.250315 1.65078 36 37 34
0.0178591 0.258511 1.70483 35 35 33
0.0265255 0.255971 1.68808 36 36 33
0.0350681 0.253805 1.6738 37 37 34
0.0442602 0.256266 1.69003 36 36 34
0.0522154 0.251939 1.66149 35 35 32
0.0620207 0.2565 1.69157 35 35 32
0.0696205 0.251939 1.66149 35 36 33
0.0780621 0.2511 1.65596 37 37 35
0.0879887 0.254727 1.67988 38 38 36
0.0951111 0.250315 1.65078 37 37 35
0.101112 0.243933 1.60869 36 37 35
0.113133 0.251939 1.66149 36 36 34
0.124041 0.2565 1.69157 36 36 34
0.125849 0.242888 1.6018 37 37 35
0.136969 0.247828 1.63439 36 37 35
0.143242 0.243933 1.60869 36 37 34
0.160732 0.258511 1.70483 36 36 34
0.162651 0.247828 1.63439 36 36 34
0.173471 0.2511 1.65596 36 36 34
0.186062 0.2565 1.69157 35 36 33
0.191965 0.252608 1.6659 35 35 33
0.20069 0.252608 1.6659 35 36 34
0.209416 0.252608 1.6659 35 36 34
0.219617 0.254316 1.67717 35 36 34
0.230153 0.256266 1.69003 35 36 34
0.239223 0.2565 1.69157 36 37 34
0.248083 0.2565 1.69157 37 38 35
0.253044 0.252608 1.6659 37 38 35
0.267887 0.258511 1.70483 37 38 35
0.26804 0.250315 1.65078 36 37 35
0.283265 0.256266 1.69003 36 37 35
0.289894 0.254316 1.67717 36 37 35
0.310989 0.264797 1.74629 36 37 35
0.307464 0.254316 1.67717 35 36 33
0.316248 0.254316 1.67717 34 35 32
0.325033 0.254316 1.67717 35 37 34
0.34234 0.260809 1.71999 35 37 35
0.338269 0.2511 1.65596 35 36 35
0.36002 0.260564 1.71838 34 36 34
0.347158 0.245127 1.61657 34 36 34
0.380755 0.262449 1.7308 35 36 34
0.370357 0.249345 1.64438 36 37 35
0.389845 0.2565 1.69157 36 37 35
0.411603 0.264797 1.74629 35 36 34
0.417727 0.262895 1.73375 35 35 33
0.416425 0.2565 1.69157 34 35 33
0.413422 0.249345 1.64438 34 35 33
0.448189 0.264797 1.74629 34 35 33
0.454051 0.262895 1.73375 34 35 33
0.451454 0.256266 1.69003 36 37 35
0.472214 0.262895 1.73375 37 37 36
0.469158 0.256266 1.69003 35 36 34
0.504588 0.270515 1.784 34 35 34
0.478641 0.251939 1.66149 34 35 34
0.490954 0.253805 1.6738 35 36 35
0.508985 0.258511 1.70483 35 36 35
0.537191 0.268132 1.76828 34 35 34
0.522746 0.2565 1.69157 34 35 34
0.550387 0.265561 1.75133 34 35 34
0.55956 0.265561 1.75133 34 35 34
0.570822 0.266536 1.75776 34 35 35
0.576244 0.264797 1.74629 34 36 35
0.576032 0.260564 1.71838 35 37 36
0.598442 0.266536 1.75776 34 36 34
0.598329 0.262449 1.7308 33 34 33
0.616856 0.266536 1.75776 32 33 31
0.628243 0.267465 1.76388 31 33 31
0.61614 0.258511 1.70483 32 34 32
0.64672 0.267465 1.76388 32 33 33
0.639036 0.260564 1.71838 32 33 33
0.642929 0.258511 1.70483 32 33 34
0.672096 0.266536 1.75776 33 34 34
0.678811 0.265561 1.75133 34 35 35
0.675671 0.260809 1.71999 34 36 36
0.702153 0.267465 1.76388 35 36 36
0.687577 0.258511 1.70483 34 35 36
0.720631 0.267465 1.76388 34 35 36
0.72987 0.267465 1.76388 32 34 35
0.733849 0.265561 1.75133 32 34 35
0.765907 0.273741 1.80527 32 34 35
0.784914 0.277113 1.82751 33 34 35
0.775571 0.270515 1.784 35 36 37
0.807874 0.278428 1.83618 36 37 38
0.775666 0.264182 1.74224 36 38 38
0.782636 0.263457 1.73745 36 38 38
0.800991 0.266536 1.75776 35 37 38
0.832975 0.27403 1.80718 35 37 38
0.859626 0.279619 1.84404 36 38 38
0.846245 0.272208 1.79517 36 38 38
0.804607 0.255971 1.68808 35 37 38
0.851116 0.267823 1.76625 34 36 37
0.887927 0.276403 1.82283 34 36 38
0.940229 0.28957 1.90967 34 37 39
0.886519 0.270155 1.78162 34 37 39
0.91657 0.276403 1.82283 34 38 39
0.952286 0.284213 1.87433 35 38 40
0.941448 0.278111 1.8341 34 38 39
0.938545 0.274453 1.80997 34 37 38
0.965871 0.279619 1.84404 33 36 37
1.00242 0.287326 1.89486 33 36 37
0.923407 0.262084 1.7284 33 35 36
0.96848 0.272208 1.79517 34 37 38
0.988388 0.275133 1.81445 35 38 39
1.03697 0.285906 1.8855 36 39 40
1.0074 0.275133 1.81445 36 39 40
0.968672 0.262084 1.7284 38 40 42
1.01549 0.272208 1.79517 39 41 42
1.07009 0.284213 1.87433 38 40 42
1.08635 0.285906 1.8855 36 39 40
1.07212 0.279619 1.84404 36 38 40
1.09955 0.284213 1.87433 36 39 40
1.13028 0.28957 1.90967 35 39 40
1.14028 0.28957 1.90967 35 39 40
1.11075 0.279619 1.84404 35 39 40
1.21517 0.303268 2 35 39 40
1.10012 0.272208 1.79517 35 39 39
1.23612 0.303268 2 34 38 39
1.19029 0.28957 1.90967 35 39 40
-0.628536 0.156863 1 41 41 36
-0.623298 0.156863 1 40 41 36
-0.701119 0.177943 1.13439 38 39 34
-0.668181 0.171033 1.09033 37 38 34
-0.66247 0.171033 1.09033 37 38 34
-0.629691 0.163984 1.0454 37 37 34
-0.620836 0.163096 1.03974 36 36 33
-0.645337 0.171033 1.09033 36 36 33
-0.643642 0.172107 1.09718 36 36 33
-0.66534 0.179511 1.14438 36 36 33
-0.636733 0.173355 1.10514 36 37 34
-0.622493 0.171033 1.09033 36 36 33
-0.593329 0.164529 1.04887 36 36 33
-0.630873 0.176575 1.12567 36 36 33
-0.629818 0.177943 1.13439 36 36 33
-0.629376 0.179511 1.14438 36 37 34
-0.593939 0.171033 1.09033 37 37 34
-0.630938 0.183451 1.1695 37 37 34
-0.62891 0.184654 1.17717 37 38 34
-0.622744 0.184654 1.17717 37 37 34
-0.616578 0.184654 1.17717 36 36 33
-0.648868 0.196287 1.25133 36 36 31
-0.610847 0.186671 1.19003 36 36 31
-0.581423 0.179511 1.14438 36 36 32
-0.639396 0.199467 1.2716 37 37 33
-0.608073 0.191692 1.22203 37 37 33
-0.637679 0.203163 1.29517 37 37 33
-0.654703 0.21083 1.34404 37 37 33
-0.647663 0.21083 1.34404 37 36 32
-0.69476 0.228646 1.45762 38 37 34
-0.664519 0.221124 1.40967 38 37 34
-0.616655 0.207503 1.32283 38 37 34
-0.633466 0.215582 1.37433 37 37 34
-0.626268 0.215582 1.37433 37 36 33
-0.619069 0.215582 1.37433 37 37 34
-0.689579 0.242961 1.54887 37 37 34
-0.659962 0.235294 1.5 37 37 34
-0.673353 0.242961 1.54887 38 37 34
-0.644249 0.235294 1.5 38 37 34
-0.680998 0.251786 1.60514 37 37 33
-0.649015 0.242961 1.54887 37 37 34
-0.664183 0.251786 1.60514 38 37 34
-0.664163 0.255006 1.62567 37 36 33
-0.67642 0.263086 1.67717 37 36 33
-0.638961 0.251786 1.60514 37 37 33
-0.608452 0.242961 1.54887 36 36 33
-0.671996 0.271961 1.73375 36 36 33
-0.641282 0.263086 1.67717 36 36 33
-0.642929 0.267425 1.70483 36 36 33
-0.611519 0.257943 1.64438 37 36 33
-0.62507 0.267425 1.70483 36 36 33
-0.61614 0.267425 1.70483 36 36 33
-0.607211 0.267425 1.70483 36 37 34
-0.598281 0.267425 1.70483 36 36 33
-0.600627 0.272541 1.73745 36 37 33
-0.585581 0.269802 1.71999 37 37 34
-0.567047 0.265345 1.69157 36 37 33
-0.549717 0.261318 1.6659 36 36 33
-0.57651 0.278475 1.77528 36 37 34
-0.548615 0.269345 1.71707 36 36 34
-0.552408 0.275727 1.75776 36 36 34
-0.538404 0.273292 1.74224 36 36 34
-0.529278 0.273292 1.74224 36 37 34
-0.524787 0.275727 1.75776 36 36 34
-0.507673 0.271498 1.7308 36 37 34
-0.483157 0.263086 1.67717 36 37 34
-0.485659 0.269345 1.71707 36 37 34
-0.480476 0.271498 1.7308 36 37 33
-0.468026 0.269549 1.71838 36 37 34
-0.459026 0.269549 1.71838 37 38 34
-0.443005 0.265345 1.69157 36 37 34
-0.430449 0.263086 1.67717 36 36 33
-0.424898 0.265103 1.69003 37 37 34
-0.416046 0.265103 1.69003 36 36 33
-0.414023 0.269549 1.71838 36 36 33
-0.398342 0.265103 1.69003 36 36 33
-0.41153 0.280104 1.78567 36 36 33
-0.38982 0.271498 1.7308 36 36 33
-0.375042 0.267425 1.70483 37 37 34
-0.353131 0.257943 1.64438 37 37 34
-0.360358 0.269802 1.71999 37 37 34
-0.35102 0.269549 1.71838 38 37 35
-0.339324 0.267425 1.70483 37 37 34
-0.325033 0.263086 1.67717 37 37 35
-0.314124 0.261318 1.6659 37 37 34
-0.312535 0.267425 1.70483 37 37 34
-0.29284 0.257943 1.64438 37 37 34
-0.287185 0.260626 1.66149 36 37 34
-0.288016 0.269549 1.71838 36 37 34
-0.271778 0.262557 1.6738 37 37 35
-0.265561 0.265103 1.69003 37 38 35
-0.256709 0.265103 1.69003 38 38 35
-0.247857 0.265103 1.69003 38 37 35
-0.231136 0.256374 1.63439 38 38 35
-0.228402 0.263086 1.67717 39 38 35
-0.211682 0.25358 1.61657 38 37 35
-0.210409 0.262557 1.6738 37 36 33
-0.202048 0.263086 1.67717 36 35 32
-0.19645 0.267425 1.70483 36 35 32
-0.182754 0.260626 1.66149 36 35 33
-0.175341 0.262557 1.6738 37 36 33
-0.168189 0.265103 1.69003 38 37 35
-0.156646 0.260626 1.66149 37 37 35
-0.150622 0.265345 1.69157 38 37 35
-0.141469 0.264797 1.68808 38 37 36
-0.135984 0.271498 1.7308 39 38 36
-0.12105 0.258946 1.65078 38 38 36
-0.111764 0.257472 1.64138 38 38 35
-0.105416 0.263086 1.67717 38 37 35
-0.0941664 0.256374 1.63439 37 37 34
-0.0886011 0.265345 1.69157 37 37 34
-0.0790621 0.263086 1.67717 36 36 33
-0.0691717 0.258946 1.65078 34 35 31
-0.0614928 0.263086 1.67717 34 35 31
-0.0513635 0.256374 1.63439 34 35 32
-0.0443005 0.265345 1.69157 35 36 32
-0.0357183 0.267425 1.70483 35 36 33
-0.0267887 0.267425 1.70483 35 36 33
-0.0171944 0.257472 1.64138 35 36 33
-0.00872567 0.261318 1.6659 35 36 33
0 0.260626 1.66149 36 37 34
0.00842601 0.252344 1.60869 36 37 34
0.0171212 0.256374 1.63439 35 35 33
0.0261077 0.260626 1.66149 34 34 31
0.0342423 0.256374 1.63439 35 35 33
0.0433679 0.259758 1.65596 36 36 34
0.0522154 0.260626 1.66149 35 35 33
0.0610797 0.261318 1.6659 35 35 32
0.0689036 0.257943 1.64438 36 36 33
0.0790621 0.263086 1.67717 36 37 34
0.0906559 0.271498 1.7308 37 37 34
0.0959824 0.261318 1.6659 37 37 34
0.102644 0.256168 1.63307 36 36 34
0.113133 0.260626 1.66149 35 36 34
0.121836 0.260626 1.66149 36 36 35
0.128409 0.256374 1.63439 37 37 35
0.136969 0.256374 1.63439 36 37 35
0.14553 0.256374 1.63439 36 36 34
0.160732 0.267425 1.70483 36 36 34
0.164798 0.259758 1.65596 35 36 33
0.171944 0.257472 1.64138 35 36 34
0.189188 0.269802 1.71999 35 35 32
0.193263 0.263086 1.67717 35 36 33
0.202374 0.263511 1.67988 36 37 35
0.21431 0.267425 1.70483 36 37 35
0.216162 0.258946 1.65078 36 37 35
0.236107 0.271961 1.73375 36 37 34
0.239223 0.265345 1.69157 36 37 34
0.244319 0.261318 1.6659 36 37 34
0.243308 0.251263 1.6018 36 37 34
0.26177 0.261318 1.6659 35 36 34
0.276817 0.267425 1.70483 36 36 34
0.278482 0.260626 1.66149 36 36 34
0.289894 0.263086 1.67717 36 36 34
0.308755 0.271961 1.73375 35 36 34
0.320135 0.273928 1.74629 35 36 34
0.315613 0.262557 1.6738 35 36 34
0.315052 0.255006 1.62567 36 37 35
0.331575 0.261318 1.6659 35 37 35
0.348253 0.267425 1.70483 35 37 35
0.357183 0.267425 1.70483 35 36 35
0.353131 0.257943 1.64438 35 36 35
0.371785 0.265103 1.69003 36 37 35
0.395892 0.275727 1.75776 36 38 35
0.396022 0.269549 1.71838 36 37 35
0.398342 0.265103 1.69003 36 37 35
0.41076 0.267425 1.70483 35 36 34
0.412051 0.262557 1.6738 33 34 32
0.428619 0.267425 1.70483 34 35 33
0.441438 0.269802 1.71999 33 34 32
0.435128 0.260626 1.66149 35 36 34
0.43926 0.257943 1.64438 38 39 37
0.464337 0.267425 1.70483 38 38 37
0.469158 0.265103 1.69003 36 36 35
0.469939 0.260626 1.66149 34 35 34
0.483157 0.263086 1.67717 34 35 33
0.491942 0.263086 1.67717 35 36 34
0.516739 0.271498 1.7308 36 37 35
0.517915 0.267425 1.70483 35 36 34
0.539657 0.273928 1.74629 34 35 34
0.540537 0.269802 1.71999 34 35 34
0.55795 0.273928 1.74629 33 35 34
0.553633 0.267425 1.70483 33 35 34
0.580028 0.275727 1.75776 34 35 34
0.591287 0.276688 1.76388 35 36 35
0.590267 0.271961 1.73375 34 35 34
0.617295 0.280104 1.78567 33 34 33
0.612831 0.273928 1.74629 31 33 31
0.618828 0.272541 1.73745 32 34 32
0.637481 0.276688 1.76388 33 34 33
0.635672 0.271961 1.73375 32 33 33
0.629068 0.265345 1.69157 31 32 33
0.660465 0.274719 1.75133 31 32 33
0.657653 0.269802 1.71999 33 34 35
0.692119 0.280104 1.78567 34 35 36
0.692915 0.276688 1.76388 36 37 37
0.727481 0.286668 1.82751 35 37 37
0.724009 0.281595 1.79517 34 36 36
0.683829 0.262557 1.6738 34 35 36
0.72987 0.276688 1.76388 33 34 35
0.752218 0.281595 1.79517 33 34 35
0.748348 0.276688 1.76388 33 35 35
0.752196 0.274719 1.75133 34 36 37
0.775571 0.279843 1.784 35 37 37
0.784915 0.279843 1.784 35 36 37
0.771887 0.271961 1.73375 35 37 38
0.838194 0.291889 1.86079 35 37 38
0.791736 0.272541 1.73745 36 37 38
0.785802 0.267425 1.70483 36 38 39
0.830529 0.27947 1.78162 36 38 38
0.864596 0.287701 1.8341 36 38 38
0.861372 0.283479 1.80718 37 39 39
0.86505 0.281595 1.79517 36 38 39
0.840137 0.270544 1.72472 35 38 39
0.883856 0.281595 1.79517 34 38 39
0.928312 0.292645 1.86561 34 37 39
0.938084 0.292645 1.86561 34 37 39
0.936895 0.289261 1.84404 34 37 38
0.921467 0.281595 1.79517 34 38 39
0.930869 0.281595 1.79517 34 38 39
0.948025 0.283917 1.80997 34 37 38
0.968366 0.287137 1.8305 34 37 38
0.977953 0.287137 1.8305 34 36 37
0.994848 0.289261 1.84404 35 37 38
0.988388 0.28462 1.81445 35 38 39
0.977825 0.278897 1.77797 36 39 40
0.975921 0.275727 1.75776 37 39 40
0.99645 0.278897 1.77797 38 41 42
1.05262 0.291889 1.86079 38 41 42
1.07009 0.294013 1.87433 38 41 42
1.1067 0.301307 1.92083 37 40 41
1.07212 0.289261 1.84404 35 39 40
1.0916 0.291889 1.86079 36 39 41
1.13028 0.299555 1.90967 36 40 41
1.07191 0.281595 1.79517 36 40 41
1.15028 0.299555 1.90967 36 40 41
1.16707 0.301307 1.92083 36 39 41
1.17713 0.301307 1.92083 35 39 40
1.10952 0.281595 1.79517 35 39 40
1.11892 0.281595 1.79517 36 39 40
-0.661803 0.170671 1.05293 39 40 35
-0.679603 0.176734 1.09033 38 39 33
-0.678123 0.177843 1.09718 36 37 31
-0.642774 0.170014 1.04887 37 38 33
-0.666629 0.177843 1.09718 38 38 34
-0.631786 0.170014 1.04887 37 38 34
-0.672145 0.182461 1.12567 37 37 33
-0.649389 0.177843 1.09718 36 36 33
-0.639626 0.176734 1.09033 37 36 33
-0.609811 0.170014 1.04887 36 36 33
-0.666014 0.187371 1.15596 36 36 33
-0.596837 0.16945 1.0454 35 35 31
-0.641702 0.183874 1.13439 35 35 32
-0.614908 0.177843 1.09718 36 36 32
-0.641795 0.187371 1.15596 36 36 33
-0.678524 0.19998 1.23375 37 37 34
-0.672062 0.19998 1.23375 37 38 34
-0.635076 0.190809 1.17717 37 38 34
-0.606052 0.183874 1.13439 38 38 35
-0.685166 0.209936 1.29517 37 37 34
-0.623314 0.192894 1.19003 36 36 32
-0.624756 0.195293 1.20483 36 36 31
-0.652717 0.206115 1.2716 36 36 31
-0.669577 0.213619 1.31789 36 37 32
-0.675822 0.217858 1.34404 37 37 33
-0.632736 0.206115 1.2716 36 36 32
-0.661743 0.217858 1.34404 36 36 31
-0.676506 0.225113 1.3888 36 36 31
-0.684667 0.230305 1.42083 36 35 31
-0.640623 0.217858 1.34404 37 37 33
-0.627199 0.215663 1.3305 38 37 34
-0.650235 0.226095 1.39486 38 37 34
-0.649752 0.228495 1.40967 37 37 34
-0.626268 0.222768 1.37433 37 37 34
-0.694765 0.250006 1.54238 38 38 35
-0.648951 0.236268 1.45762 38 37 34
-0.638459 0.235215 1.45113 37 36 33
-0.627014 0.233782 1.44228 37 36 33
-0.689405 0.260179 1.60514 38 37 34
-0.689707 0.263507 1.62567 38 37 34
-0.742342 0.287161 1.7716 37 37 34
-0.664183 0.260179 1.60514 37 36 33
-0.636402 0.252492 1.55772 37 36 33
-0.647368 0.260179 1.60514 37 37 34
-0.667636 0.271855 1.67717 38 37 34
-0.638618 0.263507 1.62567 36 37 33
-0.686666 0.287161 1.7716 36 36 33
-0.677387 0.287161 1.7716 36 36 33
-0.613073 0.263507 1.62567 36 36 33
-0.644753 0.281026 1.73375 37 37 33
-0.62507 0.276339 1.70483 36 37 33
-0.635269 0.284918 1.75776 36 37 34
-0.607211 0.276339 1.70483 37 37 34
-0.616856 0.284918 1.75776 36 37 33
-0.584234 0.27394 1.69003 35 36 32
-0.598442 0.284918 1.75776 36 37 33
-0.589235 0.284918 1.75776 36 36 33
-0.576244 0.283059 1.74629 36 37 34
-0.570822 0.284918 1.75776 36 37 34
-0.556655 0.282402 1.74224 37 37 35
-0.535774 0.276339 1.70483 37 37 35
-0.530627 0.278323 1.71707 37 37 34
-0.525074 0.280159 1.7284 36 37 34
-0.520153 0.282402 1.74224 36 37 34
-0.526552 0.290981 1.79517 37 37 34
-0.50307 0.283059 1.74629 37 37 34
-0.485659 0.278323 1.71707 36 37 34
-0.473267 0.276339 1.70483 37 37 33
-0.471411 0.280548 1.7308 35 36 32
-0.4522 0.274392 1.69282 36 37 33
-0.439234 0.271855 1.67717 36 37 34
-0.437549 0.276339 1.70483 37 38 35
-0.425285 0.274189 1.69157 38 38 35
-0.41288 0.271855 1.67717 37 36 34
-0.414411 0.278795 1.71999 35 35 32
-0.407952 0.280548 1.7308 36 35 32
-0.392901 0.276339 1.70483 36 36 33
-0.383971 0.276339 1.70483 37 36 34
-0.378021 0.278534 1.71838 37 36 34
-0.369367 0.278795 1.71999 37 36 34
-0.345858 0.267578 1.65078 36 36 34
-0.3394 0.269314 1.66149 36 36 33
-0.339324 0.276339 1.70483 35 36 33
-0.330394 0.276339 1.70483 37 37 34
-0.313292 0.269314 1.66149 37 37 34
-0.315018 0.278534 1.71838 37 37 35
-0.301244 0.274189 1.69157 37 37 35
-0.274885 0.25778 1.59033 37 37 34
-0.278482 0.269314 1.66149 36 37 34
-0.281512 0.281026 1.73375 36 37 34
-0.267887 0.276339 1.70483 36 37 34
-0.258957 0.276339 1.70483 37 37 35
-0.250028 0.276339 1.70483 38 37 35
-0.23255 0.266541 1.64438 39 38 35
-0.226267 0.269314 1.66149 39 38 35
-0.219617 0.271855 1.67717 37 36 34
-0.210832 0.271855 1.67717 36 35 33
-0.200159 0.269314 1.66149 37 36 33
-0.198011 0.278534 1.71838 37 36 34
-0.181576 0.267578 1.65078 37 36 34
-0.178591 0.276339 1.70483 37 36 34
-0.160094 0.260756 1.60869 37 37 34
-0.166299 0.28591 1.76388 37 37 35
-0.14699 0.267578 1.65078 38 37 35
-0.141762 0.274189 1.69157 38 38 36
-0.13177 0.271855 1.67717 38 38 36
-0.122159 0.270029 1.6659 38 38 36
-0.114201 0.271855 1.67717 38 38 35
-0.107155 0.276339 1.70483 38 38 35
-0.0951111 0.267578 1.65078 38 38 35
-0.0892957 0.276339 1.70483 37 38 35
-0.0783231 0.269314 1.66149 36 36 34
-0.0698053 0.270029 1.6659 35 36 32
-0.0592709 0.262033 1.61657 36 36 33
-0.0527081 0.271855 1.67717 36 37 34
-0.0436283 0.270029 1.6659 36 37 34
-0.0351387 0.271855 1.67717 35 36 33
-0.026354 0.271855 1.67717 35 36 34
-0.018001 0.278534 1.71838 35 36 34
-0.00872567 0.270029 1.6659 36 37 34
0 0.26492 1.63439 36 37 35
0.00870257 0.269314 1.66149 37 37 35
0.0170298 0.263507 1.62567 37 37 35
0.0248961 0.256815 1.58438 36 36 33
0.0351387 0.271855 1.67717 36 36 33
0.0443005 0.274189 1.69157 36 37 34
0.0513635 0.26492 1.63439 36 37 34
0.0610797 0.270029 1.6659 37 37 34
0.0674081 0.260756 1.60869 37 37 34
0.0778182 0.267578 1.65078 37 37 34
0.0856058 0.26492 1.63439 36 37 34
0.0947425 0.266541 1.64438 36 37 33
0.108107 0.278795 1.71999 35 36 33
0.115076 0.27394 1.69003 35 36 34
0.121836 0.269314 1.66149 36 36 34
0.128409 0.26492 1.63439 36 37 35
0.141633 0.27394 1.69003 36 36 34
0.14934 0.271855 1.67717 36 37 34
0.160732 0.276339 1.70483 36 36 34
0.165788 0.270029 1.6659 36 36 34
0.175977 0.272294 1.67988 37 37 35
0.183239 0.270029 1.6659 35 36 33
0.185372 0.260756 1.60869 35 35 33
0.197736 0.266054 1.64138 36 36 35
0.204358 0.263507 1.62567 37 37 35
0.225224 0.278795 1.71999 37 38 36
0.224808 0.267578 1.65078 37 38 35
0.231136 0.26492 1.63439 36 37 34
0.256108 0.283059 1.74629 35 36 33
0.253044 0.270029 1.6659 35 36 33
0.25661 0.264706 1.63307 35 36 33
0.279016 0.278534 1.71838 35 36 34
0.283523 0.274189 1.69157 35 36 34
0.287947 0.270029 1.6659 35 36 34
0.303605 0.276339 1.70483 35 36 33
0.29962 0.26492 1.63439 35 36 34
0.318964 0.274189 1.69157 36 37 34
0.319919 0.267578 1.65078 35 37 34
0.328566 0.267578 1.65078 35 36 34
0.348253 0.276339 1.70483 35 36 35
0.354081 0.27394 1.69003 35 37 35
0.369021 0.278534 1.71838 35 36 34
0.378376 0.278795 1.71999 35 36 34
0.368105 0.26492 1.63439 36 37 35
0.389489 0.27394 1.69003 36 37 35
0.395311 0.271855 1.67717 36 37 35
0.407194 0.27394 1.69003 36 37 35
0.416046 0.27394 1.69003 35 37 35
0.432024 0.278534 1.71838 35 37 35
0.41723 0.263507 1.62567 33 35 32
0.446478 0.276339 1.70483 32 33 31
0.455408 0.276339 1.70483 36 37 35
0.495131 0.294665 1.81789 37 38 37
0.495244 0.289171 1.784 35 36 35
0.482197 0.276339 1.70483 34 35 33
0.483157 0.271855 1.67717 34 35 34
0.512217 0.283059 1.74629 35 36 35
0.521363 0.283059 1.74629 35 36 34
0.517915 0.276339 1.70483 34 36 34
0.513451 0.269314 1.66149 34 35 33
0.540537 0.278795 1.71999 33 35 34
0.544704 0.276339 1.70483 33 35 34
0.567097 0.283059 1.74629 33 35 34
0.571132 0.280548 1.7308 34 36 35
0.567047 0.274189 1.69157 35 37 36
0.585581 0.278795 1.71999 34 36 35
0.594033 0.278534 1.71838 32 34 33
0.629982 0.290981 1.79517 32 34 33
0.607211 0.276339 1.70483 33 34 33
0.631124 0.283059 1.74629 32 34 33
0.630035 0.278534 1.71838 32 34 34
0.653683 0.284918 1.75776 31 33 34
0.676996 0.290981 1.79517 30 32 33
0.657037 0.278534 1.71838 32 33 34
0.671996 0.281026 1.73375 33 35 35
0.675671 0.278795 1.71999 35 36 37
0.70669 0.287758 1.77528 35 37 37
0.711392 0.28591 1.76388 35 37 37
0.715503 0.283876 1.75133 35 37 37
0.692596 0.271309 1.6738 34 36 36
0.720715 0.278795 1.71999 34 35 36
0.765907 0.292619 1.80527 34 36 36
0.775363 0.292619 1.80527 35 36 37
0.753725 0.281026 1.73375 33 35 36
0.776064 0.28591 1.76388 32 35 36
0.788738 0.287161 1.7716 34 36 36
0.803603 0.289171 1.784 34 36 37
0.811865 0.288786 1.78162 36 38 39
0.810198 0.284918 1.75776 38 39 40
0.831636 0.289171 1.784 36 38 39
0.828612 0.284918 1.75776 35 37 37
0.878943 0.298903 1.84404 36 37 38
0.858524 0.288786 1.78162 36 38 38
0.867856 0.288786 1.78162 36 38 39
0.891144 0.293381 1.80997 35 38 39
0.893258 0.290981 1.79517 34 37 39
0.910104 0.293381 1.80997 33 37 38
0.919584 0.293381 1.80997 33 37 38
0.906623 0.286294 1.76625 34 38 39
0.956213 0.298903 1.84404 34 37 39
0.948025 0.293381 1.80997 34 38 39
0.981653 0.300779 1.85562 34 37 38
1.00734 0.305624 1.8855 34 37 38
1.05043 0.315604 1.94707 34 37 38
0.988388 0.294107 1.81445 34 37 38
1.01416 0.298903 1.84404 36 39 40
0.996688 0.290981 1.79517 36 40 41
1.04287 0.301618 1.86079 36 39 40
1.09872 0.314828 1.94228 36 40 41
0.989832 0.281026 1.73375 37 40 41
1.08635 0.305624 1.8855 36 40 41
1.12183 0.312764 1.92955 37 40 41
1.0531 0.290981 1.79517 37 41 42
1.13028 0.309541 1.90967 37 40 42
1.08343 0.294107 1.81445 36 40 42
1.20469 0.324183 2 36 40 42
1.17237 0.312764 1.92955 37 40 42
1.22564 0.324183 2 36 40 41
1.18029 0.309541 1.90967 36 40 41
1.13617 0.295465 1.82283 35 39 40
-0.657068 0.174916 1.0454 35 36 30
-0.679603 0.182435 1.09033 35 36 31
-0.678123 0.18358 1.09718 36 37 32
-0.668181 0.182435 1.09033 37 38 33
-0.69531 0.191479 1.14438 37 38 34
-0.627873 0.174411 1.04238 38 38 34
-0.651048 0.182435 1.09033 37 38 34
-0.677328 0.191479 1.14438 37 37 33
-0.706795 0.201593 1.20483 36 37 33
-0.672069 0.193415 1.15596 37 37 33
-0.632148 0.18358 1.09718 36 37 33
-0.704372 0.206431 1.23375 34 35 31
-0.647358 0.191479 1.14438 35 35 31
-0.611072 0.182435 1.09033 36 36 33
-0.67645 0.203859 1.21838 36 37 34
-0.654479 0.199116 1.19003 37 38 34
-0.629686 0.193415 1.15596 37 37 34
-0.659279 0.204471 1.22203 37 37 34
-0.702253 0.219935 1.31445 37 37 34
-0.637377 0.201593 1.20483 36 37 33
-0.640077 0.204471 1.22203 37 37 33
-0.639751 0.206431 1.23375 37 37 33
-0.608546 0.198366 1.18555 37 37 33
-0.669577 0.22051 1.31789 37 37 33
-0.636706 0.211869 1.26625 36 36 32
-0.618126 0.207852 1.24224 35 36 31
-0.667441 0.226822 1.35562 36 36 31
-0.662862 0.227688 1.36079 36 36 31
-0.612755 0.212764 1.2716 36 36 32
-0.661957 0.232374 1.3888 37 37 34
-0.623584 0.221336 1.32283 38 37 34
-0.748257 0.268572 1.60514 38 37 34
-0.691389 0.25098 1.5 37 37 34
-0.626268 0.229954 1.37433 37 37 34
-0.697691 0.259158 1.54887 38 38 35
-0.667819 0.25098 1.5 38 38 35
-0.638459 0.242803 1.45113 37 37 33
-0.652106 0.25098 1.5 36 36 32
-0.732224 0.285253 1.70483 37 37 33
-0.636392 0.25098 1.5 39 38 35
-0.681192 0.272007 1.62567 38 37 34
-0.644561 0.260637 1.55772 37 37 34
-0.682072 0.279341 1.6695 37 36 33
-0.647368 0.268572 1.60514 37 37 34
-0.693537 0.291512 1.74224 37 37 34
-0.645971 0.275139 1.64438 36 36 33
-0.74018 0.319526 1.90967 35 36 32
-0.608079 0.266095 1.59033 36 37 34
-0.706851 0.313614 1.87433 36 37 34
-0.653683 0.294109 1.75776 37 37 34
-0.567888 0.259158 1.54887 36 37 34
-0.635269 0.294109 1.75776 36 37 34
-0.607211 0.285253 1.70483 37 37 34
-0.587391 0.280061 1.6738 37 37 34
-0.599348 0.290092 1.73375 36 37 34
-0.604406 0.29704 1.77528 36 37 34
-0.576572 0.287789 1.71999 36 37 34
-0.586695 0.29749 1.77797 36 37 34
-0.557608 0.287301 1.71707 36 37 34
-0.55795 0.29219 1.74629 37 37 34
-0.539621 0.287301 1.71707 37 37 35
-0.526844 0.285253 1.70483 37 37 34
-0.548007 0.301827 1.80389 36 37 34
-0.516739 0.289598 1.7308 36 36 33
-0.508538 0.290092 1.73375 36 36 33
-0.498608 0.289598 1.7308 37 37 34
-0.502881 0.29749 1.77797 37 38 34
-0.46634 0.281078 1.67988 37 38 34
-0.481619 0.29587 1.76828 36 37 33
-0.469547 0.294109 1.75776 35 36 31
-0.464928 0.29704 1.77528 36 36 33
-0.448189 0.29219 1.74629 38 38 35
-0.435148 0.289598 1.7308 38 38 35
-0.406384 0.276209 1.65078 37 37 34
-0.430236 0.298778 1.78567 37 37 34
-0.411603 0.29219 1.74629 37 36 34
-0.389489 0.282776 1.69003 37 37 34
-0.387022 0.287519 1.71838 37 37 34
-0.361083 0.274636 1.64138 37 37 34
-0.378793 0.295133 1.76388 36 36 33
-0.354404 0.283034 1.69157 36 36 33
-0.353067 0.289196 1.7284 35 36 33
-0.342019 0.287519 1.71838 35 36 33
-0.321995 0.278002 1.66149 36 36 34
-0.318673 0.282776 1.69003 36 37 34
-0.312535 0.285253 1.70483 37 37 35
-0.303605 0.285253 1.70483 37 38 35
-0.304882 0.295133 1.76388 37 38 35
-0.279221 0.27874 1.6659 36 37 34
-0.279016 0.287519 1.71838 36 36 34
-0.259394 0.276209 1.65078 36 37 34
-0.258957 0.285253 1.70483 36 37 34
-0.245971 0.280625 1.67717 36 37 34
-0.234969 0.278002 1.66149 37 37 34
-0.234233 0.287789 1.71999 38 37 35
-0.223239 0.285253 1.70483 36 35 33
-0.21431 0.285253 1.70483 36 35 33
-0.202048 0.280625 1.67717 37 37 34
-0.190222 0.276209 1.65078 38 37 34
-0.187521 0.285253 1.70483 37 37 34
-0.178591 0.285253 1.70483 37 37 34
-0.168189 0.282776 1.69003 37 37 34
-0.159337 0.282776 1.69003 37 37 34
-0.146153 0.274636 1.64138 37 37 35
-0.140782 0.281078 1.67988 37 37 35
-0.134905 0.287301 1.71707 37 37 35
-0.122159 0.27874 1.6659 37 37 34
-0.113133 0.278002 1.66149 37 37 34
-0.101607 0.270485 1.61657 37 37 34
-0.0959824 0.27874 1.6659 38 38 34
-0.0892957 0.285253 1.70483 37 38 35
-0.0762055 0.270485 1.61657 36 37 34
-0.0708163 0.282776 1.69003 36 36 33
-0.0613693 0.280061 1.6738 36 37 34
-0.0527081 0.280625 1.67717 36 37 34
-0.0436283 0.27874 1.6659 37 38 35
-0.0348103 0.278002 1.66149 36 37 35
-0.0261077 0.278002 1.66149 36 37 34
-0.0174513 0.27874 1.6659 36 37 34
-0.00900894 0.287789 1.71999 36 37 34
0 0.282776 1.69003 36 37 35
0.00876704 0.280061 1.6738 37 37 35
0.0175341 0.280061 1.6738 37 37 35
0.0259394 0.276209 1.65078 37 37 35
0.0351387 0.280625 1.67717 37 37 35
0.0436283 0.27874 1.6659 38 38 35
0.0513635 0.273466 1.63439 38 38 35
0.0614928 0.280625 1.67717 38 38 35
0.072004 0.287519 1.71838 38 38 35
0.078531 0.27874 1.6659 38 38 35
0.0864646 0.276209 1.65078 37 37 34
0.0964374 0.280061 1.6738 37 37 34
0.104431 0.278002 1.66149 35 36 33
0.115181 0.283034 1.69157 35 36 34
0.12105 0.276209 1.65078 36 36 34
0.13177 0.280625 1.67717 36 36 34
0.137556 0.274636 1.64138 36 36 34
0.148336 0.27874 1.6659 37 37 35
0.159482 0.283034 1.69157 36 37 34
0.160094 0.269167 1.60869 36 37 34
0.172929 0.276209 1.65078 37 37 35
0.183239 0.27874 1.6659 37 37 35
0.19645 0.285253 1.70483 36 36 34
0.207012 0.287519 1.71838 36 36 34
0.216012 0.287519 1.71838 36 37 35
0.225013 0.287519 1.71838 37 38 36
0.228402 0.280625 1.67717 37 38 35
0.235593 0.27874 1.6659 36 37 34
0.244319 0.27874 1.6659 36 37 34
0.255167 0.281078 1.67988 36 37 34
0.26177 0.27874 1.6659 35 36 33
0.272325 0.280625 1.67717 35 36 34
0.283265 0.282776 1.69003 35 36 34
0.294676 0.285253 1.70483 35 36 34
0.306017 0.287519 1.71838 35 36 34
0.300903 0.274636 1.64138 36 37 35
0.321464 0.285253 1.70483 35 36 34
0.313289 0.270485 1.61657 35 36 34
0.345079 0.290092 1.73375 35 37 35
0.360316 0.295133 1.76388 35 36 35
0.368272 0.294109 1.75776 35 36 34
0.366112 0.285253 1.70483 34 36 34
0.368216 0.280061 1.6738 35 36 34
0.376014 0.279341 1.6695 36 37 35
0.38575 0.280061 1.6738 36 37 35
0.40183 0.285253 1.70483 36 37 35
0.414023 0.287519 1.71838 35 37 34
0.42342 0.287789 1.71999 35 36 34
0.428619 0.285253 1.70483 36 37 35
0.426426 0.278002 1.66149 35 36 34
0.446478 0.285253 1.70483 34 35 33
0.443831 0.278002 1.66149 34 35 33
0.468465 0.287789 1.71999 35 36 34
0.492823 0.29704 1.77528 35 36 35
0.486027 0.287519 1.71838 35 35 34
0.508137 0.295133 1.76388 34 35 34
0.491942 0.280625 1.67717 35 35 34
0.520153 0.291512 1.74224 34 35 33
0.5267 0.290092 1.73375 33 35 33
0.535781 0.290092 1.73375 33 35 33
0.557913 0.29704 1.77528 34 35 34
0.573566 0.300368 1.79517 34 36 34
0.563024 0.290092 1.73375 34 35 34
0.598735 0.303595 1.81445 34 36 35
0.576032 0.287519 1.71838 35 36 35
0.575907 0.283034 1.69157 34 36 35
0.607649 0.294109 1.75776 33 35 34
0.608429 0.290092 1.73375 32 34 33
0.635407 0.298499 1.784 32 34 33
0.637481 0.295133 1.76388 32 34 33
0.640271 0.29219 1.74629 32 34 34
0.655959 0.295133 1.76388 32 34 34
0.660465 0.293033 1.75133 30 32 33
0.669638 0.293033 1.75133 30 32 33
0.688093 0.29704 1.77528 32 34 34
0.681077 0.290092 1.73375 35 36 36
0.68468 0.287789 1.71999 36 38 38
0.737053 0.305779 1.82751 36 38 38
0.70832 0.290092 1.73375 36 37 38
0.752219 0.304171 1.81789 36 38 38
0.733849 0.293033 1.75133 35 37 37
0.771262 0.304171 1.81789 34 35 36
0.757587 0.295133 1.76388 32 35 36
0.785647 0.302377 1.80718 31 34 35
0.742714 0.282451 1.68808 32 34 35
0.793202 0.298102 1.78162 34 36 37
0.775691 0.288131 1.72203 34 36 37
0.768084 0.282026 1.68555 36 38 39
0.822292 0.298499 1.784 38 40 40
0.836842 0.300368 1.79517 37 39 39
0.869284 0.308546 1.84404 35 37 38
0.855647 0.300368 1.79517 34 36 37
0.86505 0.300368 1.79517 35 37 37
0.81047 0.27839 1.66382 36 38 39
0.883856 0.300368 1.79517 35 37 39
0.917578 0.308546 1.84404 34 37 38
0.933056 0.310482 1.85562 33 37 38
0.897372 0.295529 1.76625 33 37 38
0.957627 0.312155 1.86561 34 37 39
0.915874 0.295529 1.76625 34 37 39
0.996658 0.31838 1.90282 34 37 38
0.97553 0.308546 1.84404 34 37 38
0.977953 0.30628 1.8305 35 37 38
0.994848 0.308546 1.84404 34 37 38
1.03652 0.31838 1.90282 34 38 39
0.922391 0.280625 1.67717 36 39 40
0.983603 0.296424 1.7716 35 39 40
1.0169 0.303595 1.81445 34 38 39
1.00216 0.296424 1.7716 35 38 39
1.0249 0.300368 1.79517 35 39 40
1.0038 0.291512 1.74224 35 39 40
1.12183 0.322853 1.92955 36 40 41
1.09955 0.313614 1.87433 37 41 42
1.07888 0.304996 1.82283 36 40 42
1.11109 0.311348 1.86079 36 40 42
1.08131 0.300368 1.79517 36 40 42
1.03583 0.285253 1.70483 36 40 42
1.16121 0.317049 1.89486 36 40 41
1.18029 0.319526 1.90967 36 40 41
1.19029 0.319526 1.90967 35 39 40
-0.661803 0.181682 1.05293 36 37 32
-0.651593 0.180382 1.0454 36 37 32
-0.678123 0.189317 1.09718 36 37 32
-0.672376 0.189317 1.09718 37 38 33
-0.633333 0.179861 1.04238 37 38 34
-0.660882 0.189317 1.09718 38 38 34
-0.624215 0.180382 1.0454 38 38 34
-0.649389 0.189317 1.09718 37 37 33
-0.643642 0.189317 1.09718 37 37 33
-0.66534 0.197462 1.14438 37 38 34
-0.659346 0.197462 1.14438 39 39 36
-0.653352 0.197462 1.14438 37 37 34
-0.673179 0.205339 1.19003 35 36 32
-0.641364 0.197462 1.14438 36 37 34
-0.653573 0.20312 1.17717 38 38 35
-0.66262 0.207893 1.20483 36 37 34
-0.637063 0.201796 1.1695 36 37 33
-0.649999 0.207893 1.20483 36 36 33
-0.622891 0.201176 1.1659 36 37 33
-0.611522 0.199459 1.15596 37 37 34
-0.655422 0.215916 1.25133 38 37 34
-0.633676 0.210861 1.22203 37 38 34
-0.664814 0.22348 1.29517 38 38 34
-0.626827 0.212882 1.23375 37 37 33
-0.662674 0.227401 1.31789 36 37 32
-0.677117 0.234803 1.36079 36 37 32
-0.637679 0.22348 1.29517 37 37 33
-0.605113 0.214347 1.24224 37 37 33
-0.647663 0.231913 1.34404 36 36 32
-0.617328 0.22348 1.29517 37 37 34
-0.647863 0.23714 1.37433 37 37 34
-0.640665 0.23714 1.37433 38 37 34
-0.633466 0.23714 1.37433 37 37 34
-0.664221 0.251511 1.45762 38 38 34
-0.675676 0.258824 1.5 38 38 35
-0.667819 0.258824 1.5 37 37 34
-0.681466 0.267257 1.54887 36 37 33
-0.630858 0.25039 1.45113 36 36 33
-0.623257 0.25039 1.45113 37 37 33
-0.680998 0.276965 1.60514 38 37 35
-0.628536 0.258824 1.5 37 37 34
-0.664183 0.276965 1.60514 36 36 33
-0.664163 0.280507 1.62567 36 36 33
-0.714504 0.305688 1.7716 37 37 34
-0.667636 0.289394 1.67717 37 37 34
-0.655838 0.288071 1.6695 36 36 33
-0.686666 0.305688 1.7716 35 36 32
-0.651858 0.294167 1.70483 36 37 34
-0.653834 0.299157 1.73375 37 38 34
-0.644753 0.299157 1.73375 36 37 34
-0.671144 0.315851 1.8305 35 36 33
-0.670634 0.320185 1.85562 36 37 33
-0.620533 0.300621 1.74224 36 37 34
-0.608429 0.299157 1.73375 37 38 34
-0.594033 0.296504 1.71838 37 37 34
-0.602024 0.305116 1.76828 36 37 34
-0.592762 0.305116 1.76828 36 37 34
-0.571132 0.298648 1.7308 36 37 34
-0.569206 0.302442 1.75279 36 37 34
-0.536731 0.289862 1.67988 37 37 34
-0.54318 0.298234 1.7284 37 38 35
-0.538404 0.300621 1.74224 37 37 34
-0.53051 0.301321 1.74629 36 37 34
-0.51264 0.296279 1.71707 36 36 33
-0.511027 0.300621 1.74224 35 35 32
-0.494653 0.296279 1.71707 36 37 34
-0.478446 0.291879 1.69157 37 37 34
-0.493569 0.306786 1.77797 37 37 34
-0.468026 0.296504 1.71838 37 37 34
-0.466483 0.301321 1.74629 35 36 32
-0.449684 0.296279 1.71707 35 35 32
-0.423677 0.284841 1.65078 36 37 33
-0.432024 0.296504 1.71838 37 37 34
-0.41969 0.294167 1.70483 37 37 34
-0.404748 0.289862 1.67988 37 37 34
-0.395311 0.289394 1.67717 37 37 34
-0.402456 0.301321 1.74629 37 37 34
-0.387022 0.296504 1.71838 37 37 34
-0.380755 0.298648 1.7308 36 36 33
-0.366112 0.294167 1.70483 36 36 34
-0.357183 0.294167 1.70483 36 37 35
-0.350754 0.296279 1.71707 36 36 34
-0.336684 0.291879 1.69157 35 36 33
-0.330394 0.294167 1.70483 36 36 33
-0.316248 0.289394 1.67717 35 36 33
-0.320135 0.301321 1.74629 36 37 34
-0.298679 0.289394 1.67717 37 38 35
-0.297017 0.296504 1.71838 37 38 35
-0.292695 0.301321 1.74629 36 37 34
-0.274663 0.291879 1.69157 36 37 34
-0.257917 0.283219 1.64138 36 37 34
-0.248257 0.282012 1.63439 35 36 33
-0.242101 0.284841 1.65078 35 36 33
-0.234969 0.286689 1.66149 37 37 34
-0.235705 0.298648 1.7308 38 37 35
-0.214015 0.282012 1.63439 36 36 33
-0.209416 0.28745 1.6659 36 35 33
-0.20069 0.28745 1.6659 37 37 34
-0.191456 0.286689 1.66149 38 37 34
-0.183239 0.28745 1.6659 37 36 34
-0.177041 0.291613 1.69003 37 37 34
-0.168342 0.291879 1.69157 37 37 34
-0.15409 0.282012 1.63439 37 37 34
-0.144753 0.280507 1.62567 37 37 34
-0.142873 0.294167 1.70483 37 36 34
-0.130538 0.286689 1.66149 37 36 34
-0.126007 0.296504 1.71838 36 36 33
-0.113434 0.28745 1.6659 37 36 33
-0.106224 0.291613 1.69003 37 36 33
-0.0966315 0.289394 1.67717 37 37 33
-0.0846727 0.278938 1.61657 37 37 34
-0.0790621 0.289394 1.67717 36 36 33
-0.0691717 0.284841 1.65078 35 36 33
-0.0599241 0.282012 1.63439 36 36 33
-0.0526022 0.288813 1.6738 36 37 34
-0.0430648 0.283737 1.64438 36 37 34
-0.0342423 0.282012 1.63439 36 37 34
-0.0265255 0.291277 1.68808 35 36 33
-0.018001 0.296504 1.71838 34 35 32
-0.00867357 0.285734 1.65596 35 36 33
0 0.291613 1.69003 36 37 34
0.00885203 0.291613 1.69003 37 37 35
0.0178591 0.294167 1.70483 37 37 35
0.0256817 0.282012 1.63439 37 37 35
0.0344518 0.283737 1.64438 37 37 34
0.0439234 0.289394 1.67717 37 37 35
0.0508036 0.278938 1.61657 37 37 35
0.0601806 0.283219 1.64138 37 37 34
0.0708809 0.291879 1.69157 36 36 33
0.077375 0.283219 1.64138 36 36 33
0.0914672 0.301321 1.74629 35 36 32
0.0966315 0.289394 1.67717 35 36 32
0.101607 0.278938 1.61657 35 36 33
0.120405 0.305116 1.76828 36 36 34
0.122986 0.289394 1.67717 36 37 35
0.133943 0.294167 1.70483 36 36 34
0.144008 0.296504 1.71838 35 35 33
0.14904 0.288813 1.6738 35 36 34
0.155636 0.284841 1.65078 36 36 34
0.174929 0.3033 1.75776 37 37 34
0.172929 0.284841 1.65078 37 37 35
0.178813 0.280507 1.62567 37 37 35
0.190222 0.284841 1.65078 37 37 35
0.202374 0.289862 1.67988 36 37 35
0.203215 0.278938 1.61657 36 36 34
0.215324 0.283737 1.64438 36 36 34
0.234013 0.296504 1.71838 36 37 34
0.233454 0.284841 1.65078 36 37 34
0.245971 0.289394 1.67717 36 37 34
0.253044 0.28745 1.6659 35 36 33
0.267887 0.294167 1.70483 34 35 33
0.276817 0.294167 1.70483 35 36 34
0.279221 0.28745 1.6659 35 36 34
0.294676 0.294167 1.70483 35 36 34
0.303605 0.294167 1.70483 36 37 35
0.315313 0.296782 1.71999 35 36 34
0.321464 0.294167 1.70483 35 36 34
0.325033 0.289394 1.67717 35 36 34
0.348578 0.302191 1.75133 35 37 35
0.351349 0.296782 1.71999 35 37 35
0.344518 0.283737 1.64438 35 36 35
0.353131 0.283737 1.64438 35 36 35
0.371785 0.291613 1.69003 35 36 34
0.390484 0.299157 1.73375 36 37 35
0.408288 0.305688 1.7716 35 36 34
0.40183 0.294167 1.70483 35 36 34
0.400318 0.286689 1.66149 34 35 33
0.429896 0.301321 1.74629 35 36 34
0.413422 0.283737 1.64438 36 37 35
0.437549 0.294167 1.70483 35 36 34
0.438352 0.288813 1.6738 34 35 33
0.451454 0.291613 1.69003 34 35 34
0.452533 0.286689 1.66149 36 36 35
0.481295 0.299157 1.73375 35 36 34
0.493923 0.301321 1.74629 34 35 34
0.499457 0.299157 1.73375 35 35 34
0.504501 0.296782 1.71999 35 36 34
0.499721 0.288813 1.6738 34 35 33
0.522519 0.296782 1.71999 33 34 32
0.53103 0.296504 1.71838 33 35 33
0.54003 0.296504 1.71838 34 36 34
0.544704 0.294167 1.70483 34 35 34
0.572809 0.304356 1.76388 33 35 33
